0.93641698 -1.25584996 0.90051401
0.93540698 -1.07894003 0.82844001
0.93591201 -1.20020998 1.00611699
0.93502098 -1.02505004 0.92046398
0.93736303 -1.49434996 0.86151302
0.93719101 -1.54018998 0.73570800
0.93821400 -1.74345005 0.80162299
0.93838602 -1.69230998 0.93905503
0.93823802 -1.63300002 1.07346106
0.93723100 -1.44090998 0.98396301
0.93660098 -1.38069999 1.10241401
0.93741101 -1.56636000 1.20427406
0.93590099 -1.49173999 1.32895505
0.93544698 -1.31333995 1.21499097
0.93112803 -1.31596994 1.55354500
0.93163401 -1.15512002 1.41759503
0.93374902 -1.23841000 1.31982505
0.93370497 -1.40845001 1.44496500
0.93982297 -1.83102000 1.16367996
0.93866402 -1.75703001 1.30662501
0.94124699 -2.03240991 1.25628495
0.93970299 -1.95104003 1.41088498
0.93747598 -1.85940003 1.55960500
0.93678200 -1.67395997 1.44354498
0.93484801 -1.75751996 1.70058501
0.93432701 -1.58159006 1.57188499
0.93200999 -1.64477003 1.83330500
0.93157899 -1.47923994 1.69234502
0.92635399 -1.38607001 2.07072496
0.92624098 -1.24370003 1.90918505
0.92881602 -1.36623001 1.80561495
0.92914999 -1.52051997 1.95727503
0.92607999 -1.10285997 1.74929500
0.92847902 -1.21375000 1.65594494
0.93736798 -2.04744005 1.67799497
0.93450201 -1.93592000 1.83103502
0.93351299 -2.42232990 1.92363501
0.92980897 -2.29070997 2.10048509
0.92598802 -2.14601994 2.26815510
0.93144798 -1.81236994 1.97571504
0.92236698 -1.98894000 2.42366505
0.92838699 -1.67703998 2.11015511
0.91897202 -1.81956995 2.56604505
0.92536002 -1.53067005 2.23335505
0.92241001 -1.37400997 2.34434509
0.91582298 -1.63803995 2.69433498
0.92370802 -1.24267006 2.17190504
0.91083503 -2.47936010 2.56898499
0.90664899 -2.29981995 2.74541497
0.90287399 -2.10690999 2.90774488
0.89949000 -1.90213001 3.05349493
0.88104498 -2.81591010 2.87371492
0.87551397 -2.61467004 3.07083511
0.87029803 -2.39910007 3.25303507
0.86566103 -2.17094994 3.41680503
0.83005601 -3.15353990 3.17910504
0.82124001 -2.93201995 3.39669490
0.81291097 -2.69500995 3.59757495
0.80584198 -2.44289994 3.77961493
0.74756300 -3.49111009 3.48187494
0.73626798 -3.24854994 3.71993494
0.72576398 -2.98973989 3.93960500
0.71683103 -2.71535993 4.14064503
0.70917499 -2.42813993 4.32145500
0.70250100 -2.13080001 4.48045492
0.59274203 -3.28028989 4.27250481
0.58355403 -2.98480010 4.49229479
0.57555902 -2.67460990 4.69054508
0.56885701 -2.35101008 4.86535501
0.56306398 -2.01782990 5.01866484
0.55779898 -1.67885995 5.15238523
0.37998900 -2.90639997 5.03894520
0.37344301 -2.55919003 5.22961521
0.36749399 -2.20109010 5.39702511
0.36133501 -1.83532000 5.54230499
0.35464099 -1.46229005 5.66481495
0.34708801 -1.08244002 5.76384497
0.10356000 -2.36985993 5.73961496
0.09627600 -1.97851002 5.89542484
0.08905700 -1.57890999 6.02664518
0.08166000 -1.17290998 6.13303518
0.07466300 -0.76103002 6.21265507
0.06864200 -0.34378701 6.26355505
-0.23133300 -1.68158996 6.33964491
-0.23880599 -1.25187004 6.45203590
-0.24580900 -0.81639999 6.53502512
-0.25171900 -0.37598500 6.58627510
-0.25786299 0.06656900 6.60662508
-0.26556501 0.50844401 6.59691477
-0.58920002 -0.40154999 6.85635519
-0.58288002 -0.86120999 6.80477524
-0.59647000 0.05954900 6.87632513
-0.60615999 0.51981997 6.86596489
-0.61619002 0.97791702 6.82510519
-0.62448001 1.43248999 6.75357485
-0.92434001 0.05324900 7.11249495
-0.93825001 0.52915698 7.10253477
-0.95034999 1.00306594 7.06000519
-0.95586997 1.47332001 6.98356485
-0.95687997 1.93815994 6.87392521
-0.95542002 2.39582992 6.73178482
-1.21537995 1.50502896 7.15944481
-1.21045995 1.02138698 7.24046516
-1.22046006 1.98374999 7.04820490
-1.22630000 2.45521998 6.90675497
-1.23105001 2.91585994 6.73238516
-1.23286998 3.36209989 6.52243519
-1.39021003 2.01305890 7.16307497
-1.40403998 2.49387908 7.02309513
-1.41429996 2.96371889 6.84896517
-1.41540003 3.41857910 6.63644505
-1.41337001 3.85721898 6.39019489
-1.41422999 4.27834892 6.11489487
-1.62871099 3.49223900 6.78229523
-1.62952006 3.94270897 6.53327513
-1.63640106 4.78255892 5.94056511
-1.63250005 4.37293911 6.25118494
-1.63995099 5.17117882 5.60593510
-1.64339101 5.53720903 5.24749517
-1.80026102 5.27580023 5.71459484
-1.80255103 5.64951897 5.34915495
-1.80410099 5.99863911 4.95970488
-1.80466104 6.32020998 4.54753494
-1.80402100 6.61128998 4.11395502
-1.80236101 6.87134981 3.65864491
-1.86946106 6.38956881 4.59578514
-1.86895096 6.68412924 4.15734482
-1.86727095 6.94766092 3.69718504
-1.86406100 7.17969084 3.21556497
-1.86023104 7.37739992 2.71496511
-1.85668099 7.53793001 2.19786501
-1.90947104 7.26655912 3.25334501
-1.91430104 7.03134918 3.73978496
-1.90391099 7.46711922 2.74757504
-1.89950097 7.63028002 2.22430491
-1.89648104 7.75700998 1.68932498
-1.89506102 7.84828901 1.14842606
-1.90614104 7.51008892 2.76329494
-1.90168095 7.67502880 2.23719501
-1.89868104 7.80320883 1.69899499
-1.89748096 7.89522982 1.15453601
-1.89901102 7.95036888 0.60697901
-1.90419102 7.96792889 0.05947600
-1.87821102 7.93549013 1.15960395
-1.87908101 7.84270000 1.70710504
-1.84320104 7.87129116 1.71288502
-1.84259105 7.96467018 1.16315603
-1.84358096 8.01939106 0.61002100
-1.87953103 7.99058104 0.60887098
-1.88400102 8.00757027 0.05837500
-1.84723103 8.03559017 0.05726900
-1.85244095 8.01363087 -0.49540401
-1.88997102 7.98629904 -0.49216700
-1.89578104 7.92661905 -1.04303503
-1.85812104 7.95391083 -1.04830503
-1.79977095 8.04798985 0.05634600
-1.79672098 8.03240108 0.61028802
-1.69987094 8.02556038 0.05483800
-1.69760096 8.01097012 0.60808498
-1.70318103 8.00290108 -0.49802601
-1.80436099 8.02548981 -0.49740300
-1.80972099 7.96531105 -1.05125499
-1.70717096 7.94288015 -1.05078495
-1.81323099 7.86734009 -1.59980500
-1.70974100 7.84521008 -1.59805501
-1.81228101 7.73146105 -2.13763499
-1.70885098 7.70955992 -2.13445497
-1.61724102 7.93511009 -0.49484599
-1.62050104 7.87613106 -1.04347503
-1.62281096 7.77964020 -1.58633494
-1.62277102 7.64403105 -2.11773491
-1.62276101 7.47189903 -2.63647509
-1.62519097 7.26580000 -3.14133501
-1.55002105 7.69555998 -1.56940496
-1.55070102 7.56063986 -2.09494495
-1.55117095 7.38926983 -2.60785508
-1.55400097 7.18466902 -3.10682511
-1.55644095 6.94884920 -3.59038496
-1.55575097 6.68381977 -4.05706501
-1.51421106 7.34762001 -2.59328508
-1.51692104 7.14403105 -3.08931494
-1.51910102 6.90933990 -3.57000494
-1.51813102 6.64588881 -4.03419495
-1.51418102 6.35298920 -4.47936487
-1.50743103 6.02993917 -4.90300512
-1.43168104 6.83220100 -3.53029490
-1.43055105 6.57175016 -3.98954511
-1.42629099 6.28196907 -4.42948484
-1.41816103 5.96147919 -4.84736490
-1.40914094 5.61367989 -5.24546480
-1.40221095 5.24197912 -5.62608480
-1.31312096 6.20792913 -4.37619495
-1.29897106 5.88742018 -4.78617477
-1.28434098 5.53995895 -5.17629480
-1.27634096 5.17137909 -5.55054522
-1.26909101 4.77993917 -5.90103483
-1.25674999 4.36387920 -6.21986485
-1.13203096 5.46172905 -5.10180521
-1.11813104 5.09533882 -5.46667480
-1.11000097 4.70883894 -5.81014490
-1.10368097 4.30058908 -6.12653494
-1.09521103 3.87244892 -6.41127491
-1.08064997 3.42632008 -6.65978479
-0.91312999 4.22640991 -6.01703501
-0.90750098 4.62351990 -5.70090485
-0.91725999 3.81004000 -6.30252504
-0.90267003 3.37070990 -6.54589510
-0.88538998 2.91628003 -6.75720501
-0.88145000 2.45460892 -6.94656515
-0.65240997 3.71708989 -6.13949490
-0.64468998 3.28998899 -6.38026524
-0.63559997 2.84853005 -6.59017515
-0.62905997 2.39555001 -6.77164507
-0.62457001 1.93248999 -6.92198515
-0.62168998 1.46080005 -7.03847504
-0.35375100 2.76764989 -6.39313507
-0.34483099 2.32660007 -6.56635523
-0.33422199 1.87488997 -6.70655489
-0.32420900 1.41482997 -6.81317520
-0.31514800 0.94849700 -6.88828516
-0.30739400 0.47801000 -6.93394518
-0.03040200 1.80628002 -6.45824480
-0.01808400 1.36256504 -6.55682516
-0.00634100 0.91324103 -6.62516499
0.00461900 0.45982000 -6.66639519
0.01242800 0.00408600 -6.67732477
0.01471800 -0.45218000 -6.65477514
0.29050100 0.87244803 -6.32964516
0.30129400 0.43938401 -6.36672497
0.30971301 0.00423200 -6.37484503
0.31465501 -0.43156499 -6.35132504
0.31834701 -0.86571997 -6.29649496
0.32301700 -1.29595006 -6.21066523
0.57493800 0.00310700 -6.05754519
0.58170003 -0.41113400 -6.03376484
0.58767599 -0.82397997 -5.98035479
0.59409201 -1.23389006 -5.89691496
0.59960902 -1.63856995 -5.78562498
0.60288501 -2.03573990 -5.64867496
0.81466502 -0.78605998 -5.67182493
0.82057500 -1.17633998 -5.59328508
0.82537198 -1.56159997 -5.48873520
0.82837301 -1.93903995 -5.35977507
0.83049101 -2.30633998 -5.20549488
0.83263499 -2.66121006 -5.02498484
1.01125395 -1.49263000 -5.21575499
1.01294303 -1.85391998 -5.09438515
1.01420903 -2.20559001 -4.94848490
1.01601803 -2.54435992 -4.77740479
1.01765800 -2.87028003 -4.58319521
1.01841903 -3.18337989 -4.36784506
1.17944300 -2.11724997 -4.71912479
1.18075895 -2.44281006 -4.55722523
1.18162596 -2.75605989 -4.37327480
1.18171203 -3.05717993 -4.16854477
1.18167400 -3.34391999 -3.94435501
1.18216801 -3.61403990 -3.70201492
1.35900998 -2.66972995 -4.20578480
1.35930896 -2.96168995 -4.01158524
1.35911798 -3.23902011 -3.79855490
1.35941505 -3.49908996 -3.56634498
1.35944200 -3.74150991 -3.31612492
1.35844195 -3.96588993 -3.04904509
1.53412104 -3.17919993 -3.71444511
1.53240097 -3.43348002 -3.48727489
1.53112102 -3.66934991 -3.24159503
1.53314102 -3.88560009 -2.97745490
1.53690100 -4.08112001 -2.69592500
1.54083097 -4.25480986 -2.39805508
1.65799105 -3.63035011 -3.19851494
1.66204095 -3.84197998 -2.93586493
1.66757095 -4.03253984 -2.65575504
1.67234099 -4.20168018 -2.35879493
1.67627096 -4.34893990 -2.04870510
1.67925096 -4.47386980 -1.72920501
1.77693105 -3.99201012 -2.62134504
1.77961099 -4.15681982 -2.32519507
1.78103101 -4.29991007 -2.01600504
1.78212094 -4.42137003 -1.69804502
1.78331101 -4.51997995 -1.37418497
1.78502095 -4.59451008 -1.04732502
1.87394094 -4.24362993 -1.98049498
1.87177098 -4.35937977 -1.66509497
1.86915100 -4.45273018 -1.34464502
1.86812103 -4.52400017 -1.02232504
1.86792099 -4.57356024 -0.69985098
1.86783099 -4.60177994 -0.37897199
1.90356100 -4.41290998 -1.32847500
1.90136099 -4.48251009 -1.00915504
1.92327094 -4.37041998 -1.31157506
1.92028105 -4.43848991 -0.99560499
1.91845095 -4.48586988 -0.67984498
1.90027106 -4.53092003 -0.68992400
1.91770101 -4.51344013 -0.36499700
1.89974105 -4.55861998 -0.37203199
1.91729105 -4.52118015 -0.05237300
1.89939106 -4.56613016 -0.05646400
1.91649103 -4.50904989 0.25671399
1.89885104 -4.55396986 0.25578600
1.91419101 -4.44047022 -0.66955298
1.91337097 -4.46831989 -0.35787901
1.88978100 -4.40150023 -0.65997201
1.88901103 -4.42968988 -0.35113400
1.88877106 -4.43853998 -0.04412900
1.91301095 -4.47661018 -0.04824200
1.88779104 -4.42686987 0.25963199
1.91210103 -4.46463013 0.25792199
1.88651097 -4.39534998 0.55919999
1.91139102 -4.43269014 0.55983198
1.88532102 -4.34462976 0.85362202
1.91165102 -4.38112020 0.85670501
1.84681106 -4.41305017 -0.04009600
1.84573102 -4.40191984 0.26206601
1.79459095 -4.39614010 -0.03594000
1.79351103 -4.38547993 0.26514900
1.79168105 -4.35561991 0.56239599
1.84403098 -4.37126017 0.56021798
1.78946102 -4.30710983 0.85469198
1.84208095 -4.32172012 0.85330701
1.78792095 -4.24102020 1.14177799
1.84067094 -4.25454998 1.14119804
1.78810096 -4.15843010 1.42339504
1.84055102 -4.17097998 1.42375505
1.73720098 -4.34360981 0.56524497
1.73500097 -4.29549980 0.85670602
1.73358095 -4.22986984 1.14297497
1.55600095 -4.25197983 0.86093003
1.55643106 -4.18783998 1.14403200
1.73602104 -4.04843998 1.69877505
1.73433101 -4.14770985 1.42383504
1.55662096 -4.10629988 1.42180502
1.55819094 -4.00793982 1.69386494
1.73740101 -3.93149996 1.96726501
1.56274104 -3.89334011 1.95983505
1.56865096 -3.76159000 2.21816492
1.49413097 -3.98052001 1.68613505
1.49852097 -3.86812997 1.95078504
1.43662405 -3.94061995 1.67286503
1.43978798 -3.83081007 1.93551505
1.44396603 -3.70355010 2.19089508
1.50425100 -3.73841000 2.20793509
1.44794798 -3.55757999 2.43728495
1.50964105 -3.59013009 2.45596504
1.45186102 -3.39449000 2.67344499
1.51476097 -3.42488003 2.69364500
1.45583200 -3.21588993 2.89815497
1.51971102 -3.24426007 2.91971493
1.39691305 -3.65319991 2.16514492
1.39823997 -3.51047993 2.40907502
1.34720099 -3.38702989 2.33154511
1.34986603 -3.52327991 2.09540510
1.34433603 -3.23453999 2.55826497
1.39953196 -3.35086989 2.64292502
1.34201896 -3.06657004 2.77449489
1.40114999 -3.17559004 2.86551499
1.34011102 -2.88481998 2.97862506
1.40267801 -2.98640990 3.07564497
1.40369701 -2.78509998 3.27213502
1.33847594 -2.69102001 3.16902494
1.33637500 -2.93857002 2.66706491
1.33957803 -3.09991002 2.46000504
1.33330405 -2.76392007 2.86235499
1.33018398 -2.57793999 3.04440498
1.32711506 -2.38160992 3.21293497
1.32419002 -2.17592001 3.36768508
1.33606195 -2.45688009 2.91078496
1.33994603 -2.63446999 2.73822498
1.33205605 -2.26987004 3.07051492
1.32814705 -2.07440996 3.21697497
1.32430005 -1.87006998 3.35203505
1.32047403 -1.65641999 3.47756505
1.33489001 -2.21001005 2.99426508
1.33082902 -2.02023005 3.13694501
1.32689404 -1.82181001 3.26912498
1.32307100 -1.61408997 3.39269495
1.31935096 -1.39555001 3.50487494
1.31572294 -1.16468000 3.60291505
1.32885599 -1.51879001 3.21067500
1.33257306 -1.71489000 3.09195495
1.32529795 -1.31252003 3.31939507
1.32191002 -1.09572995 3.41568494
1.31886494 -0.87048000 3.49574494
1.31633604 -0.63884997 3.55578494
1.32876205 -1.01475000 3.20392489
1.33194399 -1.21592999 3.11213493
1.32601500 -0.80587000 3.27873492
1.32390904 -0.59158897 3.33228493
1.32217395 -0.37415600 3.36587501
1.32054102 -0.15581100 3.38082504
1.33254695 -0.54082000 3.06924510
1.33439696 -0.73461998 3.02078509
1.33097601 -0.34214100 3.10001493
1.32935905 -0.14130400 3.11510491
1.32738400 0.06059500 3.11799502
1.32474196 0.26246199 3.11218500
1.34117806 -0.30303901 2.79044509
1.33941901 -0.12377600 2.80776501
1.33729601 0.05851100 2.81407499
1.33468103 0.24217699 2.81127501
1.33191001 0.42669699 2.79860497
1.32931995 0.61154598 2.77528501
1.34589005 0.21681800 2.46958494
1.34846103 0.05485800 2.46728492
1.34330702 0.37919599 2.46225500
1.34100604 0.54019803 2.44325495
1.33887005 0.69901699 2.41214490
1.33678401 0.85484600 2.36850500
1.35454798 0.45863000 2.06218505
1.35649097 0.32182899 2.07669497
1.35274601 0.59463501 2.03706503
1.35095799 0.72818100 2.00159502
1.34921801 0.85792798 1.95606506
1.34755898 0.98253697 1.90078497
1.36045802 0.53855503 1.83704495
1.35904706 0.65958601 1.80538499
1.36829197 0.48116499 1.63766503
1.36729801 0.58956498 1.60921502
1.36641002 0.69431198 1.57222497
1.35769999 0.77675802 1.76452506
1.36554396 0.79543298 1.52626503
1.35638905 0.88934499 1.71431506
1.36477399 0.89217001 1.47280502
1.35521197 0.99770802 1.65568495
1.35426497 1.10220897 1.58952498
1.36417103 0.98376602 1.41328502
1.37424004 0.70455700 1.34431505
1.37465501 0.61441702 1.38669503
1.37394404 0.78992802 1.29506505
1.38241506 0.76959097 1.07800698
1.37379503 0.86920702 1.24033701
1.37584603 0.42394701 1.44691503
1.37516499 0.52083099 1.42084503
1.36196005 0.41439301 1.85962498
1.36364901 0.28955299 1.87225497
1.37090302 0.25610501 1.66890502
1.36947298 0.36908901 1.65797496
1.37799597 0.22268300 1.47428501
1.37677801 0.32391301 1.46504498
1.35869896 0.18589500 2.08033490
1.36562002 0.16648801 1.87406504
1.36106896 0.05190400 2.07353497
1.36781096 0.04565300 1.86572504
1.37461901 0.03588400 1.66014504
1.37264097 0.14498299 1.66916502
1.38128805 0.02310400 1.46520495
1.37953305 0.12221500 1.47369504
1.36349595 -0.07906500 2.05674505
1.37015498 -0.07249500 1.84789503
1.36580300 -0.20575900 2.03027511
1.37246299 -0.18691801 1.82085502
1.37892401 -0.17491600 1.61777496
1.37677002 -0.07103200 1.64321494
1.38499796 -0.16889800 1.42861497
1.38315904 -0.07405200 1.45079505
1.36781502 -0.32692501 1.99445498
1.37454498 -0.29658100 1.78486502
1.36961806 -0.44254899 1.94845498
1.37638795 -0.40085900 1.73920500
1.38264000 -0.36987799 1.53938496
1.38091195 -0.27491799 1.58323503
1.38803196 -0.34954801 1.35630500
1.38665497 -0.26107600 1.39685500
1.37129796 -0.55261803 1.89144504
1.37797701 -0.49913001 1.68317497
1.37273300 -0.65692002 1.82649505
1.37922800 -0.59217399 1.62042499
1.38502204 -0.54274499 1.42663503
1.38401604 -0.45863801 1.48603499
1.38971496 -0.51280397 1.25298500
1.38903105 -0.43327501 1.30778503
1.37380099 -0.75524998 1.75670505
1.38005996 -0.68076998 1.55462503
1.38564396 -0.62374997 1.36465502
1.39014697 -0.58868301 1.19357800
1.35768199 -0.68540001 2.30627489
1.35595798 -0.55032498 2.36276507
1.35943401 -0.81388003 2.23882508
1.36110795 -0.93579000 2.16227508
1.34639394 -0.81277001 2.65588498
1.34432995 -0.64756000 2.71577501
1.34877300 -0.96969002 2.58130503
1.35134304 -1.11468995 2.49278498
1.35396004 -1.25293005 2.39414501
1.34288704 -1.26900005 2.76941490
1.33973503 -1.09905005 2.86786509
1.34616303 -1.43156004 2.66127491
1.34941900 -1.58764994 2.54742503
1.35648000 -1.38953996 2.28920507
1.35255694 -1.73854995 2.42868495
1.33891797 -1.58818996 2.89355493
1.34257305 -1.75918996 2.77291489
1.34625900 -1.92286003 2.64521503
1.34991801 -2.08199000 2.50991511
1.35547900 -1.88554001 2.30588508
1.35813606 -2.02613997 2.17686510
1.35337603 -2.23461008 2.36617494
1.35645401 -2.37877989 2.21317506
1.36048603 -2.15787005 2.03944492
1.35924304 -2.51337004 2.05110502
1.34857905 -2.41139007 2.52761507
1.35217500 -2.56567001 2.36001492
1.35542905 -2.70906997 2.18276501
1.35840499 -2.83880997 1.99712503
1.36183298 -2.63725996 1.88018501
1.36098099 -2.95620990 1.80401504
1.35031700 -2.87881994 2.30200505
1.35349202 -3.01529002 2.10239506
1.35627198 -3.13721991 1.89451504
1.35849905 -3.24458003 1.67940497
1.36303699 -3.06256008 1.60434496
1.36027896 -3.33736992 1.45864499
1.35300398 -3.22035003 1.93636501
1.35534596 -3.32957006 1.71448505
1.34633100 -3.37629008 2.01642489
1.34869301 -3.49043012 1.78274500
1.35723495 -3.42384005 1.48744500
1.35055697 -3.58901000 1.54383504
1.35880101 -3.50349998 1.25731504
1.35230100 -3.67264009 1.30195498
1.35976398 -3.57017994 1.02345300
1.35362101 -3.74237990 1.05631304
1.36171603 -3.41557002 1.23385000
1.35292804 -3.74556994 1.60039496
1.35446894 -3.83322001 1.34619498
1.35575402 -3.90617990 1.08839798
1.35421205 -3.79930997 0.80613798
1.35633004 -3.96512008 0.82706398
1.35625696 -4.00965977 0.56101102
1.35984302 -3.62549996 0.78520900
1.39448094 -4.05269003 1.11948800
1.39469302 -4.11374998 0.84672397
1.39472795 -4.15942001 0.56970102
1.35559499 -4.03937006 0.28905299
1.39472604 -4.18917990 0.28814700
1.39447796 -4.20282984 0.00222800
1.43610597 -4.22019005 0.57214302
1.43662500 -4.24982977 0.28628799
1.43715703 -4.26270008 -0.00385100
1.43739998 -4.25845003 -0.29851601
1.39377904 -4.20016003 -0.28788999
1.43760502 -4.23457003 -0.59537798
1.49430096 -4.30720997 -0.00986100
1.49510098 -4.30136013 -0.30778700
1.55813098 -4.33856010 -0.01571500
1.55903101 -4.33127022 -0.31582299
1.56010103 -4.30419016 -0.61770499
1.49595106 -4.27573013 -0.60769302
1.56185102 -4.25579023 -0.91940498
1.49716103 -4.22824001 -0.90729499
1.56349099 -4.18647003 -1.21952498
1.49809098 -4.15966988 -1.20538497
1.43802500 -4.18858004 -0.89211500
1.73977101 -4.34610987 -0.63888001
1.74230099 -4.29857016 -0.94369501
1.74557102 -4.23057985 -1.24780500
1.74819100 -4.14068985 -1.55014503
1.56422102 -4.09662008 -1.51671505
1.75005102 -4.02783012 -1.84688497
1.49809098 -4.07075977 -1.50075495
1.80063105 -4.24440002 -1.25646496
1.80339098 -4.15506983 -1.56063497
1.80517101 -4.04264021 -1.85937500
1.80548096 -3.90598989 -2.14848495
1.75103104 -3.89093995 -2.13418508
1.80545104 -3.74756002 -2.42511511
1.75185096 -3.73256993 -2.40948510
1.80624104 -3.56979990 -2.68640494
1.75322104 -3.55528998 -2.67019510
1.80754101 -3.37343001 -2.93274498
1.75499105 -3.35970998 -2.91634488
1.80904102 -3.15921998 -3.16456509
1.75701106 -3.14646006 -3.14791489
1.80976105 -2.92813993 -3.38020492
1.85413098 -3.39309001 -2.95451498
1.85526097 -3.17751002 -3.18705511
1.89007103 -3.41946006 -2.98212504
1.89059103 -3.20213008 -3.21594501
1.89086103 -2.96733999 -3.43309498
1.85585105 -2.94483995 -3.40324497
1.88974094 -2.71647000 -3.63220501
1.85487103 -2.69624996 -3.60151505
1.88788104 -2.45124006 -3.81204510
1.85280097 -2.43346000 -3.78084493
1.80630100 -2.42022991 -3.75712490
1.80870104 -2.68120003 -3.57799506
1.88589096 -2.17335010 -3.97141504
1.85016096 -2.15820003 -3.94018507
1.88292003 -1.88459003 -4.11061478
1.84624100 -1.87212002 -4.07957506
1.79830098 -1.86319995 -4.05660486
1.80301094 -2.14709997 -3.91676497
1.84031999 -1.57683003 -4.19902515
1.87808001 -1.58671999 -4.22992516
1.87344098 -1.28181005 -4.32984495
1.83473098 -1.27427006 -4.29898500
1.78543997 -1.26902997 -4.27641487
1.79163098 -1.56990004 -4.17632484
1.87100995 -0.97192001 -4.41089487
1.83181000 -0.96635997 -4.37990522
1.87036002 -0.65793002 -4.47124481
1.83091998 -0.65424001 -4.44024515
1.78109002 -0.65153998 -4.41785479
1.78220999 -0.96243000 -4.35733509
1.87101996 -0.34072199 -4.50908518
1.83141994 -0.33904600 -4.47845507
1.87150002 -0.02214500 -4.52512503
1.83165002 -0.02248300 -4.49511480
1.78125000 -0.33779401 -4.45670509
1.89233994 -0.66292000 -4.51347494
1.89277995 -0.34311500 -4.55163479
1.89433002 -0.66838998 -4.56016493
1.89415002 -0.34568301 -4.59878492
1.89362001 -0.02164100 -4.61464500
1.89295995 -0.02195200 -4.56751490
1.89251006 0.30233601 -4.60739517
1.89190996 0.29892600 -4.56131506
1.89142001 0.62489402 -4.57885504
1.89076996 0.61839700 -4.53419495
1.87028003 0.29595599 -4.52005482
1.82994998 0.29375499 -4.49077511
1.87106001 -0.02095200 -4.65882492
1.86977005 0.30585700 -4.65111494
1.83311999 -0.01995400 -4.69777489
1.83159995 0.30929399 -4.68991518
1.83044004 0.63685900 -4.66030502
1.86865997 0.63112801 -4.62185478
1.82914996 0.96134698 -4.61043501
1.86772001 0.95344597 -4.57284498
1.82597005 1.28134799 -4.53977489
1.86527002 1.27136099 -4.50331497
1.89092004 0.94467598 -4.53084517
1.89067996 0.93533897 -4.48728514
1.73421001 0.64644498 -4.71785498
1.73265004 0.97414899 -4.66667509
1.72890997 1.29715502 -4.59457493
1.72107995 1.61403000 -4.50158501
1.81918001 1.59546006 -4.44783497
1.71212995 1.92401004 -4.38867521
1.85965002 1.58342004 -4.41251516
1.61796999 1.31158996 -4.64241505
1.61044002 1.63031995 -4.54861498
1.60218000 1.94207001 -4.43475485
1.59535003 2.24645996 -4.30100489
1.70502996 2.22633004 -4.25685501
1.58987999 2.54083991 -4.14502478
1.46922004 1.96559000 -4.49512482
1.46170998 2.27358007 -4.35973501
1.45496798 2.57209992 -4.20237494
1.58571994 2.82256007 -3.96446490
1.45149100 2.85812998 -4.02050495
1.44983697 3.13039994 -3.81667495
1.26715398 2.93246007 -4.13587523
1.27034795 2.63778996 -4.32079506
1.26550996 3.21346998 -3.92861509
1.26470804 3.47907996 -3.69990492
1.44857097 3.38761997 -3.59345508
1.26525402 3.72754002 -3.45152497
1.09139800 3.61456990 -3.85521507
1.09151101 3.33784008 -4.09313488
1.09244895 3.87403011 -3.59706497
1.09423196 4.11477995 -3.32005501
1.26765895 3.95708990 -3.18522501
1.09650004 4.33515978 -3.02605510
0.91859102 4.30865002 -3.48235512
0.91744399 4.05640984 -3.77212501
0.92056203 4.53986979 -3.17507505
0.92271101 4.74898005 -2.85234499
1.09900606 4.53348017 -2.71696496
0.92476201 4.93562984 -2.51557493
0.72327399 4.98536015 -3.00202489
0.72153401 4.76413012 -3.34085488
0.72460800 5.18354988 -2.64881492
0.72573799 5.35700989 -2.28249502
0.92643702 5.09947014 -2.16617489
0.72693700 5.50463009 -1.90510499
0.48949400 5.62937021 -2.40569496
0.48848900 5.44651985 -2.78907490
0.49075100 5.78525019 -2.01062489
0.49215400 5.91297007 -1.60545504
0.72847801 5.62528992 -1.51867497
0.49380901 6.01354980 -1.19250500
0.21748200 6.20579004 -1.69242501
0.21732000 6.06970978 -2.11668491
0.21829200 6.31358004 -1.25987506
0.22102900 6.39410019 -0.82217503
0.49582699 6.08803988 -0.77407497
0.22491100 6.44388008 -0.38081101
-0.08694200 6.68515921 -0.86704499
-0.09173500 6.60007906 -1.32454503
-0.07996900 6.73731995 -0.40517899
-0.07296100 6.75390005 0.05917400
0.22915401 6.45948887 0.06270800
-0.06597500 6.73466921 0.52275997
-0.38813099 7.01755095 0.05610200
-0.39805701 6.99992990 -0.42683199
-0.37841499 6.99771976 0.53833801
-0.37043500 6.93998003 1.01748502
-0.05906300 6.67937899 0.98232502
-0.36324501 6.84765005 1.49132502
-0.67524099 7.16520977 1.04978395
-0.68426102 7.22299004 0.55374300
-0.66761100 7.07121992 1.54041505
-0.66009098 6.94394112 2.02309489
-0.35590100 6.72406006 1.95762503
-0.65409100 6.78563976 2.49452496
-0.94861102 7.13914919 2.08170509
-0.95339102 7.26768017 1.58449495
-0.94566101 6.97756004 2.56680489
-0.65102100 6.59862089 2.95142508
-0.94373101 6.78468895 3.03615499
-0.94282103 6.56192923 3.48836493
-1.18048096 7.13270998 2.62584496
-1.17853105 6.93464994 3.10452509
-1.17635095 6.70520878 3.56490493
-0.94293100 6.31064892 3.92202497
-1.17723095 6.44843006 4.00709486
-1.17987096 6.16524887 4.43046522
-1.31735098 6.53732920 4.06045485
-1.31763101 6.79892921 3.61383510
-1.31974101 6.24979877 4.48876476
-1.18297100 5.85659885 4.83433485
-1.32474101 5.93861914 4.89896488
-1.32749104 5.60044909 5.28670502
-1.41875100 6.31672907 4.53439522
-1.42238104 6.00151920 4.94824505
-1.42487097 5.65951920 5.34062481
-1.42345095 5.28825998 5.70748520
-1.32317102 5.23193884 5.64759493
-1.42019105 4.89174891 6.04934502
-1.50757098 5.71443892 5.39340496
-1.50805104 5.33987904 5.76493502
-1.50743103 4.94038916 6.11152506
-1.41718996 4.47397900 6.36674500
-1.50619102 4.51876879 6.43275499
-1.50500000 4.07573891 6.72602510
-1.54698098 4.54010916 6.46429396
-1.54769099 4.96402884 6.14155483
-1.62678099 5.00927877 6.19943523
-1.62682104 4.58068895 6.52473402
-1.54614997 4.09451008 6.75875521
-1.62680101 4.12992907 6.82125521
-1.54578996 3.62801909 7.02219486
-1.62714005 3.65823889 7.08631516
-1.54488003 3.14420891 7.25276518
-1.62663996 3.16937900 7.31829500
-1.50457001 3.61204910 6.98873520
-1.71136105 4.16072893 6.87693501
-1.71234095 3.68453908 7.14330482
-1.71246004 3.19114900 7.37616491
-1.62412000 2.66708899 7.51557493
-1.70997000 2.68478894 7.57468510
-1.70545006 2.16830897 7.73905516
-1.54241002 2.64661908 7.44862509
-1.80692005 3.20087910 7.40457487
-1.80456996 2.69179893 7.60178518
-1.79960001 2.17294908 7.76483488
-1.69950998 1.64454901 7.86943483
-1.79277003 1.64687896 7.89345503
-1.78460002 1.11514902 7.98519516
-1.84347999 2.16921902 7.75441504
-1.83576000 1.64322901 7.88055515
-1.82679999 1.11191905 7.96998501
-1.77558994 0.57934201 8.03762531
-1.81718004 0.57712603 8.02089500
-1.80695999 0.03902600 8.03565502
-1.84636998 0.57378501 7.98850489
-1.85692000 1.10628700 7.93797493
-1.86998999 1.09950805 7.89574480
-1.85865998 0.57005101 7.94646502
-1.84686995 0.03783100 7.96153498
-1.83532000 0.03828800 8.00328541
-1.82388997 -0.50040799 7.98392487
-1.83466005 -0.49766499 7.94152498
-1.82334995 -1.03471100 7.88547516
-1.81283998 -1.04046094 7.92843485
-1.79620004 -0.50220603 8.01666546
-1.82538903 -0.49441800 7.89582491
-1.83773994 0.03777100 7.91614485
-1.77575004 -0.48759800 7.80592489
-1.78857994 0.03809800 7.82639503
-1.76406002 -1.01504099 7.74940491
-1.81403995 -1.02822101 7.83954477
-1.75552905 -1.54254103 7.65737486
-1.80519903 -1.56195104 7.74699497
-1.74858904 -2.06465101 7.53069496
-1.79753995 -2.09014106 7.61933517
-1.81421900 -1.57160103 7.79245520
-1.80291903 -1.58003104 7.83480501
-1.69016004 -1.52444100 7.57444477
-1.69869995 -1.00255096 7.66581488
-1.68405998 -2.04099107 7.44883490
-1.67885900 -2.54660106 7.28908491
-1.74167895 -2.57595110 7.37021494
-1.67177904 -3.03973007 7.09735489
-1.78974903 -2.60734105 7.45770502
-1.52132905 -2.97184110 6.95119476
-1.52561903 -2.48938107 7.13993502
-1.66004896 -3.51884103 6.87582493
-1.51172900 -3.44130111 6.73398495
-1.49796903 -3.89562106 6.48892498
-1.48125899 -4.33269119 6.21659517
-1.46301901 -4.75033092 5.91703510
-1.24882901 -4.62090111 5.77025509
-1.26430905 -4.21460104 6.06467485
-1.23200905 -5.00598097 5.44897509
-1.21536899 -5.36783123 5.10199499
-1.20043898 -5.70447016 4.73042488
-1.18668902 -6.01446009 4.33621502
-1.06432903 -5.26973104 5.01723480
-1.04806900 -5.59848118 4.64970493
-1.03126895 -5.90009117 4.25937510
-1.01328897 -6.17275000 3.84797502
-0.99801898 -6.41985893 3.41954494
-0.78309900 -5.72215080 4.14135504
-0.76633900 -5.98842001 3.73972511
-0.75046903 -6.22905016 3.32128501
-0.73656899 -6.44477987 2.88939500
-0.98935902 -6.64483881 2.97813511
-0.72643900 -6.62890005 2.44402504
-0.43379101 -5.98164988 3.19720507
-0.41855100 -6.18713999 2.77883506
-0.40632001 -6.36122990 2.34708500
-0.72184902 -6.77468014 1.98509502
-0.40104499 -6.50014019 1.90323496
-0.40140900 -6.60470009 1.45086503
-0.08324700 -6.06925011 2.24442506
-0.07819800 -6.20254087 1.81798506
-0.07729200 -6.30359983 1.38356495
-0.40609401 -6.67572880 0.99358600
-0.07968200 -6.37245989 0.94470501
-0.08522100 -6.40919018 0.50340402
0.22892000 -5.96851015 1.31273496
0.22708599 -6.03426981 0.89455003
0.22267200 -6.06898022 0.47373199
-0.09376200 -6.41385984 0.06166100
0.21634300 -6.07264996 0.05260700
0.20956101 -6.04518986 -0.36681601
0.48354799 -5.68763018 0.44247499
0.47854799 -5.68933010 0.04377400
0.47382900 -5.66053009 -0.35211399
0.20378800 -5.98648977 -0.78252500
0.46985701 -5.60105991 -0.74261802
0.46602401 -5.51406002 -1.12633502
0.66877902 -5.23742008 -0.32994601
0.66562802 -5.17662001 -0.69167697
0.66210598 -5.09086990 -1.04545498
0.46172500 -5.40265989 -1.50186503
0.65735298 -4.98456001 -1.39055502
0.65173000 -4.85905981 -1.72798502
0.78728002 -4.64076996 -0.95231497
0.78254002 -4.54098988 -1.26750505
0.77721399 -4.42529011 -1.57603502
0.64559603 -4.71575022 -2.05870509
0.77221900 -4.29399014 -1.87871504
0.76786101 -4.14554024 -2.17381501
0.85666198 -3.98448992 -1.41832495
0.85341901 -3.86485004 -1.69143498
0.85043001 -3.72967005 -1.95753503
0.76444799 -3.97837996 -2.45961499
0.84791702 -3.57783008 -2.21600509
0.84535199 -3.41002011 -2.46508503
0.90076900 -3.31027007 -1.74132502
0.89872497 -3.17446995 -1.97199500
0.89659202 -3.02429008 -2.19439507
0.84220803 -3.22691989 -2.70305490
0.89402300 -2.85885000 -2.40846491
0.89079100 -2.68022990 -2.61298490
0.92103398 -2.63589001 -1.92352498
0.91912103 -2.48955989 -2.11050510
0.91685402 -2.33199000 -2.28975511
0.91391999 -2.16479993 -2.46079493
0.88666898 -2.49053001 -2.80674505
0.91060400 -1.98599005 -2.62119508
0.92681098 -1.98904002 -1.95849502
0.92491400 -1.84144998 -2.10734510
0.92257100 -1.68413997 -2.24712491
0.91962397 -1.51915002 -2.37414503
0.90718901 -1.79357004 -2.76852489
0.91648102 -1.34542000 -2.48727489
0.92836201 -1.39218998 -1.86153495
0.92622101 -1.25149000 -1.96930504
0.92373800 -1.10309005 -2.06556511
0.92120498 -0.94778001 -2.15083504
0.91355097 -1.16183996 -2.58543491
0.91865200 -0.78487998 -2.22444510
0.92704999 -0.98778999 -1.84953499
0.92489702 -0.84615999 -1.92888498
0.92264599 -0.69812000 -1.99730504
0.92026597 -0.54154301 -2.05248499
0.91610801 -0.61377001 -2.28573489
0.91771698 -0.37923101 -2.09326506
0.92696798 -0.61892998 -1.76428497
0.92487502 -0.47612500 -1.81541502
0.93090200 -0.55014598 -1.53220499
0.92918003 -0.41876501 -1.57980502
0.92718601 -0.28372100 -1.61562502
0.92254502 -0.32837701 -1.85322499
0.92484498 -0.14304800 -1.63740504
0.91992402 -0.17642701 -1.87639499
0.92233002 0.00082100 -1.64575505
0.91720998 -0.02127800 -1.88521504
0.91496003 -0.21400800 -2.11851501
0.93084598 -0.24497400 -1.38448501
0.92893797 -0.11420600 -1.40574503
0.93345898 -0.21526299 -1.16517496
0.93194300 -0.09196600 -1.18539500
0.93023503 0.03321800 -1.19485497
0.92682803 0.01927300 -1.41472495
0.92842299 0.15898900 -1.19278502
0.92464602 0.15314800 -1.41149497
0.92654699 0.28584400 -1.17897499
0.92251599 0.28741699 -1.39542496
0.91981202 0.14545400 -1.64129496
0.91459697 0.13606501 -1.87994504
0.93208498 0.04179600 -0.98887497
0.93046999 0.16282000 -0.98742503
0.93271899 0.04591200 -0.79900497
0.93118697 0.16497000 -0.79777497
0.92958403 0.28551301 -0.78857499
0.92876703 0.28524700 -0.97606498
0.92791998 0.40790400 -0.77167499
0.92698801 0.40964600 -0.95488501
0.92619997 0.53230798 -0.74779803
0.92517501 0.53589100 -0.92622501
0.92465103 0.41428000 -1.15317500
0.92056203 0.42207900 -1.36589503
0.92940402 0.28653100 -0.61834401
0.92778999 0.40878201 -0.60421097
0.92613101 0.53346097 -0.58430099
0.92442602 0.66150898 -0.55910999
0.92255002 0.79417002 -0.53155297
0.92443198 0.65889102 -0.71768802
0.92337000 0.66385400 -0.89246500
0.93248200 0.04647200 -0.62746102
0.93097299 0.16576900 -0.62620401
0.93177301 0.04556900 -0.47054401
0.93025601 0.16621400 -0.46892700
0.93417001 -0.07202400 -0.79202503
0.93391299 -0.07138600 -0.62178302
0.93548501 -0.18978401 -0.77808499
0.93521798 -0.18892901 -0.61010098
0.93453401 -0.19200900 -0.45650300
0.93321598 -0.07353200 -0.46623501
0.93381703 -0.19588301 -0.31468499
0.93246299 -0.07551200 -0.32199100
0.93309402 -0.19965400 -0.18223600
0.93169898 -0.07732300 -0.18699101
0.93099397 0.04530100 -0.32455999
0.92946303 0.16730601 -0.32215101
0.93567902 -0.31078100 -0.44185299
0.93500203 -0.31656101 -0.30288100
0.93652201 -0.43188599 -0.42404699
0.93584001 -0.43950301 -0.28797200
0.93517202 -0.44747600 -0.16144399
0.93432498 -0.32251701 -0.17350499
0.93453401 -0.45291999 -0.04154500
0.93366098 -0.32654601 -0.05080400
0.93394101 -0.45527500 0.07322800
0.93301600 -0.32841599 0.06666700
0.93239200 -0.20242400 -0.05674200
0.93096697 -0.07895900 -0.05917400
0.93541199 -0.57609499 -0.14669600
0.93477398 -0.58313799 -0.02915500
0.93532002 -0.71191001 -0.13055301
0.93463302 -0.72091001 -0.01453100
0.93413299 -0.72549999 0.09647400
0.93425298 -0.58649302 0.08316700
0.93384099 -0.72399998 0.20444401
0.93385798 -0.58485198 0.19216700
0.93366301 -0.71587998 0.31007001
0.93351501 -0.57818502 0.29869801
0.93340600 -0.45397899 0.18438099
0.93239802 -0.32789201 0.18034901
0.93314701 -0.56645799 0.40361601
0.93350703 -0.70064002 0.41403899
0.93376398 -0.87573999 0.11314200
0.93343699 -0.87491000 0.22195400
0.93355203 -1.03953004 0.13356100
0.93324900 -1.03943002 0.24542101
0.93320101 -1.03012002 0.35500699
0.93331498 -0.86616999 0.32845899
0.93339199 -1.01018000 0.46283200
0.93333298 -0.84825999 0.43325001
0.93390203 -1.21915996 0.15812100
0.93387800 -1.21940005 0.27557099
0.93453002 -1.41199994 0.18276200
0.93488902 -1.41262996 0.30846700
0.93532300 -1.40063000 0.43226400
0.93405002 -1.20879996 0.39085400
0.93584102 -1.37713003 0.55383199
0.93444800 -1.18722999 0.50436801
0.93515402 -1.61537004 0.20342299
0.93584800 -1.61688995 0.34017301
0.93594801 -1.82833004 0.22144200
0.93693602 -1.82984996 0.37032700
0.93773699 -1.81542003 0.51832199
0.93647999 -1.60399997 0.47550499
0.93808103 -1.78555000 0.66173297
0.93691200 -1.57757998 0.60719401
0.93708098 -2.04993010 0.23815399
0.93833297 -2.04914999 0.39856401
0.93858999 -2.27705002 0.25330299
0.94004798 -2.27324009 0.42554599
0.94115603 -2.25166988 0.59765899
0.93931103 -2.03140998 0.55846000
0.93976402 -1.99801004 0.71472597
0.94168299 -2.21447992 0.76786101
0.94183499 -2.16424990 0.93494201
0.93994701 -1.95193005 0.86759299
0.94010800 -1.89611995 1.01729095
0.94182301 -2.10351992 1.09769201
0.94323599 -2.47586012 0.63765597
0.94355297 -2.43446994 0.82282501
0.94389999 -2.87997007 0.93998700
0.94421500 -2.92923999 0.72663701
0.94287401 -2.81476998 1.14930606
0.94332099 -2.37905002 1.00499797
0.94144499 -2.73633003 1.35323501
0.94282198 -2.31225991 1.18173206
0.93946201 -2.64477992 1.55068505
0.94176799 -2.23463011 1.35292494
0.93987101 -2.14668012 1.51848495
0.93677402 -2.54024005 1.74059498
0.93302399 -3.25297999 1.29776502
0.93087298 -3.16275001 1.52976501
0.92801601 -3.05663991 1.75476503
0.92435199 -2.93325996 1.97270501
0.92009300 -2.79495001 2.18196511
0.91545200 -2.64402008 2.38094497
0.90233600 -3.46771002 1.96281505
0.89756000 -3.32791996 2.20875502
0.89217001 -3.17136002 2.44395494
0.88663101 -3.00108004 2.66518497
0.86135697 -3.87948990 2.16725492
0.85461599 -3.72359991 2.43993497
0.84678203 -3.54909992 2.70049500
0.83858299 -3.35915995 2.94696498
0.79009902 -4.28669977 2.36934495
0.78068900 -4.11579990 2.66810489
0.76998001 -3.92506003 2.95365500
0.75886899 -3.71672010 3.22568488
0.66523498 -4.68406010 2.56592488
0.65345299 -4.49913979 2.88986492
0.64060497 -4.29301023 3.19965506
0.62733299 -4.06709003 3.49530506
0.61451298 -3.82235003 3.77404499
0.60302299 -3.55977988 4.03310490
0.44135901 -4.64117002 3.42603493
0.42831501 -4.39969015 3.74392509
0.41637799 -4.13803005 4.04456520
0.40607199 -3.85672998 4.32547522
0.39679399 -3.55685997 4.58558512
0.38793600 -3.23952007 4.82383490
0.15591399 -4.42531013 4.29115486
0.14689900 -4.12694979 4.59198523
0.13805300 -3.80890012 4.87077522
0.12861900 -3.47266006 5.12503481
0.11938900 -3.11960006 5.35462523
0.11115000 -2.75111008 5.55941486
-0.17474300 -4.03099012 5.12020493
-0.18572800 -3.67804003 5.38758516
-0.19684000 -3.30717993 5.62908506
-0.20703000 -2.92000008 5.84468508
-0.21613900 -2.51851010 6.03489494
-0.22400799 -2.10474992 6.20024490
-0.53794098 -3.46991992 5.86460495
-0.54841900 -3.06433010 6.08885479
-0.55698901 -2.64364100 6.28702497
-0.56348902 -2.21056008 6.45959520
-0.56936002 -1.76757002 6.60465479
-0.57604998 -1.31717098 6.72029495
-0.88461900 -2.75332999 6.50985479
-0.88824898 -2.30277991 6.68702507
-0.89174002 -1.84186995 6.83521509
-0.89728999 -1.37270999 6.95247507
-0.90460998 -0.89863002 7.03806496
-0.91338003 -0.42299700 7.09120512
-1.14684999 -1.90170002 7.01468515
-1.15170002 -1.41843998 7.13356495
-1.16085005 -0.93025100 7.22155523
-1.17813003 -0.44147199 7.28131485
-1.19553995 0.04722400 7.30662489
-1.20508003 0.53514701 7.29126501
-1.32459998 -0.95164102 7.34113503
-1.34570003 -0.45384499 7.40514517
-1.36503005 0.04335800 7.43236494
-1.36994004 0.53898799 7.41216516
-1.37091005 1.03296494 7.35545492
-1.37842000 1.52520001 7.27314520
-1.59135997 1.05041599 7.52606487
-1.58194005 0.54635698 7.57882500
-1.61094999 2.05246902 7.32436514
-1.60119998 1.55353904 7.44094515
-1.62012005 2.54392910 7.17721510
-1.62670004 3.02487898 6.99726486
-1.77833998 2.59166908 7.32023478
-1.78397000 3.08319902 7.13608503
-1.78755999 4.02131891 6.66169500
-1.78598106 3.56092906 6.91626501
-1.79189003 4.46078920 6.37330484
-1.79684103 4.87903881 6.05598497
-1.85603094 4.51016903 6.44179487
-1.85226095 4.06532907 6.73302507
-1.86074102 4.93331909 6.12112522
-1.86473000 5.33419991 5.77564478
-1.86764097 5.71162891 5.40586519
-1.86912096 6.06440878 5.01226521
-1.90281105 4.99331903 6.19264507
-1.90665996 5.39874983 5.84274483
-1.91052103 5.78028011 5.46817493
-1.91410100 6.13695002 5.06989479
-1.91643095 6.46588898 4.64862490
-1.91656101 6.76423979 4.20506477
-1.91203105 5.81340885 5.49808502
-1.91587102 6.17144918 5.09722519
-1.91867101 6.50175905 4.67340517
-1.91892099 6.80183983 4.22752523
-1.91661096 7.07080984 3.76004505
-1.91174102 7.30778980 3.27144504
-1.89098096 6.82968903 4.24419498
-1.89171100 6.52839994 4.69177485
-1.84769106 6.54433012 4.70246506
-1.84580100 6.84654999 4.25415516
-1.84473097 7.11944008 3.78529501
-1.88924098 7.10073996 3.77554488
-1.88675106 7.34020996 3.28574491
-1.84491098 7.36126995 3.29516506
-1.84518099 7.56889009 2.78483510
-1.88393104 7.54515123 2.77610493
-1.88118100 7.71262121 2.24791503
-1.84433103 7.73913002 2.25543499
-1.79662097 7.36843014 3.29856491
-1.79564095 7.12521982 3.78828502
-1.69885099 7.34563017 3.28869510
-1.69825101 7.10184002 3.77568507
-1.69938099 7.55646086 2.78108501
-1.79777098 7.57786989 2.78835511
-1.69837105 7.73157978 2.25361490
-1.79746103 7.75062990 2.25873494
-1.69706094 7.86710978 1.71201503
-1.79657102 7.88476992 1.71555495
-1.79599094 7.97834015 1.16471601
-1.69673097 7.95919991 1.16199303
-1.61198103 7.67197990 2.23696494
-1.61369097 7.49808979 2.76022506
-1.61036098 7.80587006 1.69932497
-1.61065102 7.89564085 1.15312397
-1.61222100 7.94513988 0.60306698
-1.61445105 7.95821095 0.05387200
-1.53496099 7.81520987 1.14203596
-1.53479099 7.72676086 1.68306506
-1.53639102 7.86339998 0.59724098
-1.53880095 7.87416983 0.05337000
-1.54219103 7.84936094 -0.48981500
-1.54655099 7.79081011 -1.03254497
-1.49759102 7.82097006 0.59446901
-1.49986100 7.83056021 0.05320400
-1.50356102 7.80478096 -0.48716900
-1.50850105 7.74616098 -1.02665496
-1.51256096 7.65153980 -1.56028497
-1.51361096 7.51773977 -2.08304501
-1.41440105 7.71569109 -0.48152399
-1.41920102 7.65581083 -1.01470494
-1.42371094 7.56172895 -1.54189503
-1.42631102 7.43153095 -2.05870509
-1.42816103 7.26569080 -2.56346512
-1.43042099 7.06472015 -3.05445504
-1.31399095 7.47284985 -1.52288496
-1.31730103 7.34413004 -2.03369498
-1.31881106 7.18005991 -2.53262496
-1.32061100 6.98200083 -3.01799512
-1.32136095 6.75289917 -3.48838496
-1.31972098 6.49564981 -3.94235492
-1.19200099 7.09414101 -2.50075507
-1.19042099 6.89704990 -2.97927499
-1.18765104 6.66915894 -3.44323492
-1.18572104 6.41525984 -3.89182496
-1.17745101 6.13039923 -4.31961489
-1.15567100 5.80964899 -4.72119522
-1.00280094 6.55990887 -3.38371491
-0.99468100 6.30722904 -3.82303500
-0.98122102 6.02443886 -4.24237490
-0.96024102 5.70965910 -4.63764477
-0.93721098 5.36813879 -5.01125479
-0.91758102 5.00508881 -5.36566496
-0.70431101 5.87274981 -4.13306522
-0.69127101 5.56991005 -4.52237511
-0.67798102 5.24153996 -4.89063501
-0.66599101 4.89057016 -5.23792505
-0.65754098 4.51853991 -5.56319523
-0.65485001 4.12698984 -5.86543512
-0.39258799 5.09007978 -4.74784517
-0.38787100 4.75209999 -5.08834505
-0.38131300 4.39131021 -5.40406513
-0.37213799 4.00959015 -5.69181490
-0.36353600 3.61003995 -5.95262480
-0.35869601 3.19576001 -6.18747520
-0.07838500 4.23336983 -5.20988512
-0.06989100 3.86474991 -5.48729515
-0.06188300 3.47909999 -5.73876476
-0.05790700 3.08067989 -5.96462488
-0.05322200 2.66880989 -6.16157484
-0.04308400 2.24285007 -6.32630491
0.23466700 3.32892990 -5.49305487
0.23944300 2.94658995 -5.70758486
0.24526100 2.55134010 -5.89371490
0.25461599 2.14365005 -6.04935503
0.26613301 1.72627997 -6.17379522
0.27843800 1.30197704 -6.26627493
0.51400799 2.42635989 -5.60607481
0.52283001 2.03828001 -5.75260496
0.53339702 1.64166999 -5.87027502
0.54470402 1.23817599 -5.95851517
0.55590701 0.82946301 -6.01867485
0.56616300 0.41720599 -6.05209494
0.76042002 1.55841005 -5.57129478
0.77117902 1.17498505 -5.65500498
0.78209901 0.78637803 -5.71187496
0.79214698 0.39409399 -5.74248505
0.80099601 0.00011100 -5.74629498
0.80831999 -0.39359400 -5.72278500
0.97243601 0.74822903 -5.42341518
0.98201698 0.37494400 -5.45278502
0.99044800 -0.00071100 -5.45663500
0.99771702 -0.37722901 -5.43421507
1.00367606 -0.75264001 -5.38617516
1.00817597 -1.12498999 -5.31318521
1.15847504 -0.00304700 -5.19867516
1.16538799 -0.36337200 -5.17888498
1.17075098 -0.72275001 -5.13447523
1.17413402 -1.07950997 -5.06567478
1.17630005 -1.43215001 -4.97318506
1.17801297 -1.77920997 -4.85772514
1.34383500 -0.70129001 -4.93713522
1.34640503 -1.04688001 -4.87228489
1.34829497 -1.38848996 -4.78365517
1.35125601 -1.72373998 -4.67162514
1.35450006 -2.05029011 -4.53721523
1.35724604 -2.36577010 -4.38145494
1.52063000 -1.36374998 -4.66785479
1.52339995 -1.69221997 -4.56055498
1.52648997 -2.01242995 -4.43194485
1.52912104 -2.32259011 -4.28239489
1.53140104 -2.62144995 -4.11253500
1.53343105 -2.90775990 -3.92304492
1.64867103 -1.99176002 -4.37782478
1.65157104 -2.29906988 -4.23106480
1.65455997 -2.59511995 -4.06354523
1.65702105 -2.87838006 -3.87603498
1.65828097 -3.14670992 -3.66902494
1.65767097 -3.39797997 -3.44304490
1.75801003 -2.57165003 -4.02208519
1.76227105 -2.85214996 -3.83583498
1.76565099 -3.11792994 -3.62966490
1.76654100 -3.36703992 -3.40470505
1.76775098 -3.59700990 -3.16139507
1.77210104 -3.80537009 -2.90017509
1.85749102 -3.08189011 -3.58096504
1.86005104 -3.32784009 -3.35814500
1.86253095 -3.55475998 -3.11702490
1.86687100 -3.76037002 -2.85829496
1.87120104 -3.94403005 -2.58187509
1.87366104 -4.10515022 -2.28767490
1.89577103 -3.52459002 -3.08667493
1.89978099 -3.72834992 -2.82999492
1.91343105 -3.48997998 -3.05229497
1.91667104 -3.69179010 -2.79807496
1.92105103 -3.87268996 -2.52706504
1.90430105 -3.91060996 -2.55600500
1.92645097 -4.03192997 -2.23898506
1.90835094 -4.07064009 -2.26450491
1.92967105 -4.16835022 -1.93768501
1.91003096 -4.20784998 -1.95991504
1.92751098 -4.28076982 -1.62708497
1.90744102 -4.32165003 -1.64664495
1.91579103 -3.83306003 -2.49669504
1.92085099 -3.99152994 -2.21210504
1.89216101 -3.79667997 -2.46807504
1.89579105 -3.95469999 -2.18674493
1.89864099 -4.09009981 -1.89227498
1.92440104 -4.12722015 -1.91428494
1.89805102 -4.20098019 -1.58795500
1.92317104 -4.23853016 -1.60676503
1.89546096 -4.28880978 -1.27865505
1.91970098 -4.32691002 -1.29434502
1.89231098 -4.35509014 -0.96923500
1.91650105 -4.39378023 -0.98182499
1.85680103 -4.06265020 -1.87423503
1.85573101 -4.17416000 -1.57290494
1.85318100 -4.26255989 -1.26638496
1.79740095 -4.31172991 -0.95102501
1.85001099 -4.32916021 -0.95925498
1.79495096 -4.35872984 -0.64517599
1.84749103 -4.37572002 -0.65202600
1.79454100 -4.38704014 -0.33976501
1.84691095 -4.40399981 -0.34521699
1.73954105 -4.38378000 -0.03146000
1.73936105 -4.37462997 -0.33441100
1.73877096 -4.37323999 0.26880801
1.55689096 -4.32755995 0.28065801
1.55596101 -4.29860020 0.57297897
1.49323106 -4.29536009 0.28379500
1.49243104 -4.26611996 0.57328099
1.43589997 -4.17412996 0.85395199
1.49246097 -4.21982002 0.85869801
1.43581998 -4.11204004 1.13152802
1.49276102 -4.15665007 1.13960898
1.43568099 -4.03427982 1.40468502
1.49276102 -4.07678986 1.41558504
1.39395201 -3.97674990 1.38826501
1.39391804 -3.88532996 1.65267503
1.39518797 -3.77782011 1.91232502
1.35158503 -3.64251995 1.85090494
1.34309494 -3.24596000 2.24265504
1.35007596 -3.09586000 2.15104508
1.34681797 -2.95625997 2.35714507
1.34348595 -2.80170012 2.55327511
1.34690499 -2.72781992 2.49231505
1.34318805 -2.56468010 2.67185497
1.33909702 -2.39177990 2.83920503
1.34458005 -2.24902010 2.68429494
1.34044397 -2.07886004 2.83024502
1.33643901 -1.90120006 2.96563506
1.85380101 -3.76855993 -2.44443488
1.85553098 -3.92670989 -2.16576505
1.91252100 -3.65336990 -2.76453495
1.91068101 -3.45335007 -3.01608491
1.89043105 -3.61795998 -2.73301506
1.85349095 -3.59038997 -2.70715499
1.89324105 -3.30002999 -3.32624507
1.89070106 -3.05671000 -3.54788494
1.90955102 -3.02768993 -3.51034498
1.91145098 -3.26803994 -3.29004502
1.90918100 -2.99642992 -3.47043490
1.90995097 -3.23385000 -3.25177503
1.85291100 -2.81924009 -3.78478503
1.88664997 -2.79662991 -3.75073504
1.84806097 -2.54190993 -3.96869493
1.88257098 -2.52189994 -3.93376493
1.90346098 -2.49903989 -3.89433503
1.90651095 -2.77066994 -3.71218491
1.90500104 -2.47428989 -3.85181499
1.90725100 -2.74260998 -3.67088509
1.84466100 -2.25191998 -4.13174486
1.87991095 -2.23458004 -4.09591484
1.84233105 -1.95124996 -4.27434492
1.87799001 -1.93652999 -4.23756504
1.89978099 -1.91982996 -4.19619513
1.90153003 -2.21484995 -4.05555487
1.90109098 -1.90149999 -4.15168524
1.90327001 -2.19334006 -4.01196480
1.84065104 -1.64183998 -4.39687490
1.87610996 -1.62960005 -4.35906506
1.83951998 -1.32539999 -4.49951506
1.87470996 -1.31566000 -4.46081495
1.89510000 -1.30451000 -4.41737509
1.89726996 -1.61568999 -4.31659508
1.89410996 -1.29255998 -4.37151480
1.89749002 -1.60054004 -4.27133512
1.83881998 -1.00362003 -4.58242512
1.87421000 -0.99655998 -4.54319477
1.83775997 -0.67786998 -4.64395523
1.87377000 -0.67355001 -4.60453510
1.89437997 -0.98837000 -4.49913502
1.89259005 -0.97970998 -4.45283508
1.74767005 -1.33942997 -4.55812502
1.74615002 -1.01305997 -4.64133501
1.74408996 -0.68291998 -4.70291519
1.74070001 -0.35057399 -4.74120522
1.83552003 -0.34949201 -4.68242502
1.73737001 -0.01734100 -4.75624514
1.87256002 -0.34788600 -4.64319515
1.64016998 -0.68632001 -4.75362492
1.63558996 -0.35070300 -4.79252481
1.63092005 -0.01429800 -4.80792522
1.62794006 0.32177299 -4.79958487
1.73549998 0.31547400 -4.74808502
1.62553000 0.65585202 -4.76858521
1.50806999 -0.01019100 -4.87121487
1.50136006 0.32999700 -4.86452484
1.49403000 0.66805398 -4.83491516
1.48693001 1.00185204 -4.78197479
1.62259996 0.98627901 -4.71596479
1.48046005 1.33001494 -4.70696497
1.31605601 0.68685299 -4.96042490
1.30638194 1.02776694 -4.90923500
1.29698801 1.36329901 -4.83560514
1.28926599 1.69250000 -4.73964500
1.47501004 1.65117002 -4.61110497
1.28245699 2.01518011 -4.62178516
1.12081504 1.41610003 -5.03826523
1.11288702 1.75813997 -4.93935490
1.10643303 2.09320998 -4.81700516
1.10085702 2.42087007 -4.67174482
1.27579999 2.33115005 -4.48246479
1.09637797 2.73895001 -4.50282478
