2.95600000 -15.73840000 6.30180000
-3.34970000 10.73420000 -13.15480000
-6.29310000 -2.86290000 9.71400000
-4.36090000 11.97330000 -11.76730000
-3.95500000 12.15490000 -11.87320000
-3.78320000 11.74840000 -12.29500000
-4.13290000 11.62980000 -12.29320000
-4.57620000 11.37820000 -12.16560000
-4.33920000 11.09660000 -12.52040000
-3.83880000 11.02580000 -12.76330000
-3.66320000 11.26900000 -12.62570000
-4.99140000 11.32760000 -11.78990000
-4.90460000 10.76820000 -12.34830000
-3.92120000 10.50750000 -13.15970000
5.14960000 -8.07660000 12.79180000
5.22040000 -8.44260000 12.53430000
-4.73690000 10.24470000 -12.80240000
5.35920000 -9.34820000 11.13910000
4.99060000 1.93790000 -6.91340000
5.06550000 -9.24140000 11.98620000
-3.28960000 13.22480000 -10.33740000
4.80070000 1.54790000 -7.91010000
3.98730000 4.07560000 -11.35430000
-3.09910000 12.90680000 -10.97750000
-5.84190000 -1.54020000 13.48160000
-3.36950000 12.91240000 -10.64990000
-5.65180000 -1.47340000 13.80550000
-6.12380000 5.50220000 4.64910000
-3.66670000 13.04660000 -10.15200000
-4.00140000 13.05150000 -10.06500000
-3.66900000 12.78390000 -10.58690000
-3.96870000 12.74540000 -10.64030000
4.03380000 3.01660000 -11.34720000
-5.30990000 -1.14500000 14.20300000
-3.53080000 12.35160000 -11.70330000
-3.21010000 12.60300000 -11.38410000
-5.90930000 3.91660000 3.33070000
-2.85210000 11.95430000 -12.03970000
-3.28080000 12.02220000 -11.93170000
-5.91070000 3.39330000 1.91810000
-3.52770000 12.67390000 -11.07930000
-3.68980000 12.53020000 -11.44940000
-4.14360000 12.53400000 -11.11230000
-4.14430000 12.35630000 -11.47020000
-3.54980000 11.94390000 -12.06990000
-5.94010000 2.69800000 2.91050000
-5.29810000 -2.70330000 14.20980000
-6.36740000 -3.08810000 11.64550000
-6.16000000 5.58840000 6.19220000
-4.27550000 12.81610000 -10.55620000
-4.58520000 12.47170000 -10.89030000
6.82670000 -4.06200000 9.62270000
4.59950000 -8.89760000 13.08730000
4.70670000 -8.33830000 13.17920000
-6.37520000 -2.36710000 10.90200000
-3.27300000 11.56560000 -12.35010000
-3.13010000 11.30690000 -12.65830000
-6.08450000 5.47060000 5.52240000
4.70830000 -9.14830000 12.77580000
4.51060000 1.97120000 -9.15030000
-6.42670000 -3.10690000 10.65880000
4.19930000 1.49270000 -11.08730000
-6.39390000 -3.90490000 10.28490000
4.78060000 -10.51240000 11.03320000
4.39330000 1.41950000 -9.88830000
6.61900000 -2.80760000 12.15100000
-6.03840000 4.46400000 4.44370000
6.72510000 -3.73780000 11.08480000
-1.44440000 16.60900000 -6.70690000
-6.00270000 4.96060000 5.36000000
-6.03880000 4.71440000 4.78430000
-6.44890000 -4.26530000 10.88090000
4.44140000 -9.84950000 12.55770000
3.75870000 -9.19060000 13.78020000
4.02680000 -8.85150000 13.59470000
4.09910000 -9.72660000 13.16680000
-6.05110000 -1.88740000 12.99640000
6.41620000 -3.04170000 13.00190000
3.99290000 1.37490000 -12.71910000
-6.02030000 3.75070000 4.88790000
6.20610000 -3.40180000 13.60810000
-6.12690000 -3.55630000 12.73250000
-5.80810000 -2.92830000 13.49230000
6.56860000 -3.93460000 12.10640000
-5.53110000 -3.88270000 13.92200000
6.28190000 -4.16320000 13.09900000
4.04070000 -0.45350000 -13.01940000
4.04260000 -10.70450000 12.27750000
4.30390000 -11.01270000 11.30520000
4.18460000 -0.27360000 -12.07970000
-6.00090000 4.26290000 5.78770000
-5.97470000 3.94350000 5.39260000
-6.28360000 -3.90770000 12.20860000
-3.81450000 15.75090000 -5.85680000
-3.19200000 16.15030000 -5.73040000
4.28020000 0.61670000 -11.12840000
5.00650000 -11.13880000 9.75280000
6.56080000 -5.10510000 11.30490000
4.55580000 -12.01000000 9.61280000
-6.00080000 3.76400000 4.31520000
-5.94750000 3.47900000 3.88540000
3.97460000 -12.74820000 9.78750000
3.91400000 -10.41490000 12.80600000
-5.93130000 -4.58810000 13.22830000
3.75490000 -9.91540000 13.38090000
-5.71210000 -5.03550000 13.64210000
3.28150000 -9.60140000 13.90600000
3.63430000 -10.49100000 13.05670000
-6.42930000 -5.25490000 11.40440000
3.33950000 -10.23310000 13.47870000
6.33390000 -5.29930000 12.36590000
3.14000000 -10.57930000 13.33110000
3.75180000 -11.24980000 11.92970000
4.83460000 0.35910000 -8.19500000
3.61290000 -10.99800000 12.56450000
4.67460000 0.22290000 -9.09470000
3.35500000 -11.63490000 11.91460000
3.21520000 -11.20130000 12.65140000
2.55950000 -9.91510000 14.18010000
2.37980000 -10.35500000 13.90990000
-6.14090000 -5.66900000 12.72110000
2.48720000 -10.79160000 13.45260000
3.65890000 -1.91400000 16.12850000
5.53970000 -2.49130000 14.85400000
4.45990000 -0.91590000 -10.32470000
5.90640000 -2.86810000 14.30340000
5.74130000 -3.39860000 14.52210000
5.45890000 -2.96360000 14.90410000
5.05230000 -3.07990000 15.19600000
4.11380000 -3.48580000 -12.57120000
4.13820000 -2.93690000 15.87740000
4.37710000 -1.96660000 -11.23630000
3.75550000 -2.55270000 16.09330000
4.56690000 -3.11070000 15.52900000
-5.98510000 2.36110000 3.76660000
4.71060000 -3.63640000 15.25840000
5.07830000 -3.89260000 15.02670000
4.14940000 -3.67990000 15.74570000
4.46360000 -3.57790000 15.44800000
-6.33960000 -3.35640000 9.43540000
-6.41340000 -3.61510000 9.11540000
2.97300000 -11.75760000 12.12890000
4.11150000 -4.22850000 15.63440000
5.90980000 -3.86520000 14.18300000
6.04240000 -4.46050000 13.68100000
-5.77710000 13.68940000 -6.60220000
2.38400000 -11.66270000 12.65060000
-6.04970000 2.63490000 4.66690000
1.79180000 -11.27830000 13.39630000
4.82170000 -1.57180000 -8.61330000
-5.72420000 13.02810000 -8.26240000
5.38130000 -4.10930000 14.76700000
-6.43720000 -3.97960000 8.80660000
5.69280000 -4.29070000 14.38350000
-5.98620000 13.10440000 -7.31030000
3.57840000 -11.94620000 11.20100000
4.02070000 -11.76890000 10.79390000
4.53790000 -3.47000000 -10.31300000
-6.40530000 -4.65800000 9.42210000
-6.35160000 -4.50960000 8.28210000
5.77640000 -5.01570000 13.94900000
6.05040000 -5.42190000 13.20910000
-6.41480000 -5.19010000 8.86630000
5.46940000 -5.31170000 14.21800000
5.01550000 -5.14490000 14.78070000
-6.33670000 -3.98960000 9.86320000
4.54660000 -4.45220000 15.32100000
-6.38180000 -4.63530000 9.90980000
5.21770000 4.89220000 -4.67950000
5.76510000 -5.75030000 13.55280000
-6.03990000 1.86040000 3.93720000
4.44490000 -4.98390000 15.33160000
3.50490000 -12.91090000 10.22050000
4.87860000 -6.01490000 14.53690000
-6.36400000 12.18260000 -7.86940000
-6.47240000 -5.06440000 10.59160000
-6.42660000 -5.63570000 10.32200000
-6.11030000 12.28830000 -8.57540000
-5.92250000 11.90500000 -9.53810000
-6.43730000 -6.46090000 8.87630000
-6.37620000 -6.19300000 9.90580000
-6.41290000 -6.55790000 9.38350000
5.41360000 2.81890000 -5.42550000
6.11930000 -6.36410000 12.30630000
-5.79470000 4.14930000 0.24310000
-6.31280000 11.76800000 -8.79340000
3.06320000 -12.43350000 11.22580000
-6.24450000 -5.76670000 7.38180000
5.56900000 4.05990000 -3.57070000
-5.80940000 3.37810000 0.69940000
5.94830000 -6.52750000 12.57900000
2.92570000 -13.31420000 10.41080000
5.62950000 -6.45130000 13.25470000
-5.93970000 3.42360000 1.20630000
5.56730000 3.39390000 -4.43220000
-6.68600000 11.56350000 -7.87330000
5.19230000 -6.40900000 13.95210000
2.43730000 -13.00990000 11.16810000
-6.28210000 -5.49320000 8.16960000
-5.74500000 2.55230000 0.57730000
-5.87480000 2.77720000 -0.50130000
-5.73210000 2.83110000 0.04020000
-5.81170000 2.25080000 -0.32820000
-5.31100000 10.86470000 -11.83440000
5.22170000 -7.06210000 13.34130000
-5.16280000 10.18770000 -12.43300000
5.14730000 2.72550000 -6.16790000
-6.31440000 -6.73210000 8.03610000
-6.37740000 -6.19540000 8.51810000
-6.27920000 -6.70350000 7.04570000
5.68210000 2.34440000 -4.56850000
-5.72360000 1.40750000 0.30530000
-6.26610000 -6.73550000 7.49130000
6.27140000 1.76700000 -1.29410000
3.92840000 -13.37510000 9.10690000
-5.80240000 1.20220000 -0.16340000
-5.91380000 2.68200000 1.87770000
-5.88390000 2.59740000 1.16910000
-5.49440000 11.39030000 -10.96170000
6.24120000 1.77360000 -1.67060000
5.97850000 2.67150000 -2.19620000
6.12590000 1.41910000 -2.43680000
-5.92080000 11.36590000 -10.18090000
5.25430000 1.54160000 -6.22880000
-5.95090000 2.10530000 1.64680000
-5.93960000 2.18550000 2.23330000
6.23420000 0.99530000 -1.78590000
5.68970000 1.40000000 -5.04280000
-5.80690000 1.75760000 0.88520000
6.27810000 1.16540000 -0.54040000
-5.72880000 11.05170000 -10.72320000
-5.52990000 10.66380000 -11.54220000
-5.69340000 10.52070000 -11.13410000
3.54830000 -13.65080000 9.41000000
6.36490000 -0.16110000 -0.82970000
5.49090000 0.77990000 -5.69450000
-5.91750000 1.69930000 1.25460000
3.11560000 -13.86120000 9.64700000
-6.25450000 11.43580000 -9.27860000
-6.21010000 11.12060000 -9.56200000
-5.94700000 1.44490000 1.99110000
-5.92830000 0.99120000 1.38730000
-5.79150000 0.84970000 0.79160000
-5.97840000 10.94490000 -10.23550000
-6.15760000 10.86120000 -9.71240000
-6.03130000 10.62350000 -9.90440000
-5.83920000 10.51150000 -10.50460000
5.76880000 3.23130000 -3.30440000
-6.45780000 -7.66250000 8.55920000
-5.91820000 1.64130000 -0.62880000
-5.94180000 1.26310000 -0.80530000
-6.46410000 -8.07520000 8.53950000
-5.71200000 1.24590000 -1.55520000
3.18590000 -14.31420000 8.95010000
-5.84260000 0.96670000 -1.26320000
6.19870000 0.38200000 -2.73730000
-6.62560000 11.27860000 -8.28190000
2.55320000 -14.58990000 9.26090000
-6.41230000 10.93090000 -8.90720000
5.88550000 1.58120000 -3.94840000
-6.17620000 10.49770000 -9.26930000
5.84310000 2.26090000 -3.42170000
-6.64110000 10.98950000 -8.09690000
-6.41470000 10.70900000 -8.64280000
-6.45980000 10.65240000 -8.08250000
-5.86350000 0.50990000 -1.10490000
-6.16610000 10.35080000 -8.80940000
-5.84510000 0.44380000 -0.60070000
-5.94280000 10.32030000 -9.69330000
-5.78920000 10.01600000 -9.86940000
-5.75760000 10.22660000 -10.73480000
-5.74480000 0.51960000 -1.68380000
-6.49000000 -6.29920000 10.84840000
-3.61110000 -11.40390000 11.23830000
-4.01150000 -10.89230000 11.38020000
-4.02530000 -11.25000000 10.70550000
-5.75530000 0.29560000 -2.34050000
6.24990000 -1.07330000 -2.34740000
-3.68460000 -11.98730000 10.23330000
5.96480000 2.26010000 -2.57910000
6.10740000 -0.46000000 -3.59920000
-5.82850000 9.96610000 -8.96500000
-5.75270000 0.04070000 -1.71370000
5.93730000 1.54830000 -3.24790000
-6.00950000 10.15590000 -8.62710000
-5.75780000 -0.11460000 -0.87500000
-5.69410000 9.60030000 -8.93840000
-5.69210000 9.50620000 -9.56730000
-4.09960000 -10.58170000 11.82620000
-3.55930000 -11.03770000 11.79350000
-3.57790000 -10.66580000 12.12720000
-5.66270000 -0.45140000 -1.85970000
-3.22790000 -12.03400000 11.00940000
-5.58830000 10.10290000 -11.49890000
-3.07340000 -10.79710000 12.49980000
-2.84100000 -11.65210000 11.83950000
-5.36410000 10.05980000 -12.21660000
6.40730000 -1.34080000 -0.80410000
-6.43070000 -7.07470000 10.44600000
5.89220000 0.74970000 -4.47000000
-5.52860000 9.48400000 -11.79120000
-6.35770000 -6.06460000 11.93260000
-5.73300000 0.12870000 -0.13360000
5.67890000 0.25400000 -5.33670000
5.96370000 -0.73160000 -4.31260000
-5.73300000 0.26400000 0.39460000
-6.19770000 -6.92670000 12.36800000
-3.40800000 -12.61080000 9.98570000
-5.65830000 9.80030000 -10.59700000
-2.91190000 -12.64990000 10.78970000
-5.62260000 9.47990000 -10.61710000
-2.56110000 -12.50690000 11.37560000
6.05450000 0.64850000 -3.51230000
-5.56410000 8.94610000 -11.38170000
-2.56350000 -10.96180000 12.91590000
-2.45860000 -11.66340000 12.28610000
-5.68020000 -0.85430000 -0.71570000
6.42900000 0.09450000 0.76420000
-6.38830000 -8.00240000 9.55490000
-1.94770000 -11.00340000 13.59400000
-1.94780000 -11.43210000 13.25110000
-2.12580000 -11.60520000 12.90790000
-5.72770000 -0.89020000 0.59860000
-2.19810000 -12.04510000 12.35430000
-1.91880000 -12.45840000 12.57480000
0.21790000 3.26050000 16.51590000
-5.67340000 9.01760000 -10.71700000
5.06750000 0.30480000 -7.11400000
-6.01020000 1.90410000 2.81400000
-2.26630000 -12.61330000 11.78160000
-5.69850000 9.10740000 -9.41990000
-5.77880000 8.72090000 -10.22980000
-5.78290000 8.66680000 -9.58270000
-0.31290000 2.85930000 16.43920000
6.53720000 -1.30940000 0.83170000
-1.89900000 -13.29190000 12.07160000
-2.24900000 -13.10240000 11.57430000
-5.70810000 8.44230000 -10.84770000
-5.96050000 1.36550000 3.06500000
5.43960000 -0.71570000 -6.05030000
-1.48400000 3.12030000 16.12340000
-2.97150000 -13.36380000 10.11080000
6.50710000 -0.73540000 1.62860000
-2.66330000 -13.07200000 10.90640000
5.68470000 -1.64280000 -5.33910000
6.60280000 -1.22280000 2.77370000
-5.82910000 8.12900000 -10.13910000
-5.85060000 0.88490000 2.04520000
-5.93380000 0.31750000 1.62240000
-5.76980000 7.60230000 -10.32560000
-2.55090000 -13.85510000 10.69230000
-5.86410000 0.92660000 2.66630000
-5.83380000 0.32450000 2.51300000
0.39840000 1.87600000 16.65820000
-5.86440000 0.19460000 2.02690000
6.55960000 -1.90140000 1.68300000
-2.34760000 -13.85670000 11.16250000
-2.13770000 -13.50630000 11.64920000
5.17440000 -1.18870000 -6.89730000
-1.99400000 -13.76150000 11.68540000
-2.13860000 -14.22290000 11.20960000
-1.89760000 -14.06810000 11.48820000
-0.40560000 1.85800000 16.55470000
-2.40760000 -14.27060000 10.77670000
-1.94310000 -14.50930000 11.02860000
-1.63000000 -14.15020000 11.45430000
-1.36500000 -14.64910000 10.87540000
-6.15060000 13.37410000 -6.07540000
-2.24380000 -14.62100000 10.67160000
-1.20190000 2.62470000 16.25450000
-1.77650000 -14.90120000 10.55270000
-2.08090000 -15.11110000 10.19380000
6.42020000 -2.36960000 -1.08080000
-1.13510000 2.18950000 16.37630000
-5.90070000 -0.24570000 2.65330000
1.44970000 -16.59170000 6.09540000
2.08980000 -16.50300000 5.72610000
1.67820000 -16.47050000 6.45610000
2.46690000 -16.21580000 5.92990000
-1.45770000 1.56940000 16.37700000
2.29730000 -15.59820000 7.85620000
-1.00860000 0.45310000 16.54590000
-0.41240000 -0.05860000 16.68570000
6.54300000 -2.65530000 0.35760000
-6.46840000 12.73630000 -6.30000000
1.74100000 -15.61330000 8.32590000
2.19970000 -15.20430000 8.66770000
2.01620000 -16.04240000 7.17480000
-6.49920000 13.11300000 -4.52130000
1.20050000 0.49910000 16.73410000
-5.90850000 0.27390000 1.12060000
-6.62420000 12.49970000 -5.69330000
-5.97410000 -0.46730000 1.69070000
5.19220000 -2.59940000 -6.94150000
-5.83420000 -0.32900000 0.96430000
4.94030000 -2.90680000 -8.06270000
6.57390000 -3.27520000 1.42910000
1.05110000 -16.44560000 7.02890000
0.67650000 -16.69070000 6.53990000
0.78830000 -16.81110000 5.98970000
6.37380000 -3.75920000 -1.16260000
0.71020000 -15.90670000 8.36490000
0.68370000 -15.41110000 9.21560000
1.24150000 -16.12600000 7.71290000
1.62780000 -16.28970000 6.99280000
6.51350000 -4.42240000 0.33580000
6.10780000 -3.20440000 -3.44050000
4.78630000 -4.80840000 -8.72010000
1.72680000 -0.46480000 16.77230000
5.23770000 -4.43840000 -6.49600000
-5.94060000 -0.37100000 2.10200000
5.68240000 -3.35880000 -5.10490000
-6.63210000 12.73710000 -4.31210000
-6.73410000 12.16300000 -5.06440000
-5.89170000 -0.84410000 1.39390000
0.35280000 -16.39670000 7.62030000
-2.62130000 -15.68650000 6.89360000
-2.17280000 -15.80450000 7.66180000
-2.62140000 -15.37680000 7.63200000
-2.45970000 -15.34310000 8.49180000
0.35830000 0.16320000 16.74140000
-1.12650000 -16.51290000 6.07850000
-0.08010000 -16.67810000 6.20200000
-0.46800000 -16.57900000 6.54450000
-1.25130000 -17.01200000 5.24020000
-0.45320000 -17.00000000 5.29970000
-1.28230000 -16.65830000 5.69250000
-0.09280000 -16.76920000 5.88780000
6.22850000 -3.27060000 -2.67870000
-1.95480000 -17.30690000 4.86160000
-2.33770000 -16.81960000 5.41260000
-6.77750000 12.03260000 -6.60410000
-2.36790000 -16.18500000 6.19280000
-2.18170000 -16.06610000 6.56920000
-1.73270000 -16.36890000 6.15980000
-1.69080000 -16.23410000 6.76420000
-1.90940000 -16.06050000 7.43040000
-2.13310000 -15.97490000 6.97400000
5.87300000 -5.16430000 -3.93360000
-5.70130000 -2.05500000 0.28920000
-0.96190000 -16.46670000 6.80850000
-6.62170000 12.35280000 -3.10080000
-2.01600000 -16.55470000 5.75930000
-2.61050000 -16.38080000 5.78660000
0.64300000 -1.13440000 16.82000000
-6.69750000 12.37980000 -3.94650000
-6.79660000 11.86230000 -4.53800000
-5.76980000 -2.51440000 1.14480000
-6.74470000 11.75160000 -3.40310000
-0.50090000 -15.67440000 9.22780000
0.12600000 -14.96160000 10.11150000
-0.73070000 -14.93130000 10.36450000
-6.90060000 11.68990000 -5.99330000
-2.00830000 1.97220000 16.16420000
-6.90550000 11.67300000 -6.56260000
-6.93950000 11.24350000 -6.32010000
-6.90230000 11.34900000 -7.19630000
-6.89050000 10.92560000 -6.76300000
-6.84220000 11.02620000 -7.48510000
-6.69180000 10.70220000 -7.50510000
-2.23460000 0.07090000 16.20050000
-6.78210000 10.70570000 -7.06270000
-1.76100000 0.37470000 16.36130000
-6.51910000 10.47700000 -7.35390000
-6.73260000 10.61470000 -6.55920000
-6.35020000 10.30750000 -7.01610000
-5.89700000 -1.30780000 2.02850000
-6.87340000 10.91400000 -6.00070000
-6.90530000 11.50320000 -5.35140000
-0.55530000 -16.16890000 8.38850000
6.14650000 -4.93060000 -2.80660000
-6.80800000 11.33050000 -4.22050000
-6.76200000 10.90270000 -4.89080000
-6.65430000 10.64960000 -5.21130000
-6.74630000 10.70390000 -5.81080000
-6.50990000 10.41710000 -5.87770000
-6.22900000 10.15380000 -5.89500000
-2.13160000 -15.59780000 8.59000000
-6.12350000 10.10610000 -6.82900000
-1.80430000 -15.95570000 8.03770000
-6.02720000 9.92330000 -6.50300000
-5.99810000 9.82840000 -5.89590000
-1.07460000 -1.27360000 16.62440000
-1.31060000 -16.06600000 8.55320000
-1.83490000 -15.77860000 8.92950000
-1.25430000 -16.26680000 7.57190000
-6.37610000 10.41440000 -4.92750000
-2.70010000 -0.46300000 15.99880000
6.38520000 -4.78940000 -0.90280000
-1.22550000 -15.56180000 9.53620000
6.21900000 -5.50450000 -1.82930000
-6.07620000 2.18170000 -12.70280000
-1.88390000 -15.60800000 9.44000000
-1.67670000 -15.49830000 9.67210000
-5.57600000 1.53970000 -11.61880000
-5.55880000 1.83520000 -10.74270000
-5.64860000 1.37690000 -11.05820000
-5.57270000 2.82390000 -8.77280000
-5.63600000 2.74490000 -9.49780000
-5.55820000 3.12510000 -8.51360000
-5.60010000 2.34260000 -9.05460000
-5.65990000 3.71770000 -7.28680000
-5.72750000 3.59800000 -7.68870000
-5.62400000 3.32580000 -8.12410000
-1.14410000 -16.02000000 8.76640000
-5.72430000 2.98740000 -7.73280000
-6.69170000 11.31810000 -2.72200000
-6.69360000 11.02680000 -3.78150000
-5.48890000 3.62020000 -6.65670000
-5.57670000 2.88970000 -6.77460000
-5.72530000 3.13560000 -7.25600000
3.98000000 -0.82620000 -13.96050000
-5.76840000 2.79850000 -7.43380000
-6.71700000 11.82230000 -2.25260000
-0.31730000 -16.60390000 7.22120000
-0.64730000 -16.52450000 7.41630000
-0.12320000 -16.53840000 7.47740000
-0.77120000 -16.32410000 7.95750000
-6.63460000 11.05500000 -2.23530000
-5.58030000 2.62600000 -8.15090000
-6.55530000 10.85700000 -3.32830000
-5.55290000 2.15360000 -8.52860000
6.65930000 -2.41810000 3.39810000
-6.41430000 10.73580000 -2.74890000
-5.79240000 2.10710000 -7.59560000
-6.27370000 10.46760000 -3.38610000
-5.64750000 2.24210000 -7.94970000
0.17360000 -16.64580000 6.79480000
-5.62360000 1.88160000 -8.27890000
-5.75440000 1.61690000 -7.97320000
-5.61890000 2.31070000 -9.87500000
-5.59320000 1.99590000 -9.96650000
3.79730000 -2.78040000 -14.73460000
3.98480000 -1.88540000 -13.46080000
-6.49960000 10.63120000 -4.23930000
-5.65470000 1.54420000 -10.54460000
-6.04420000 10.18470000 -3.88730000
-5.66240000 1.10010000 -10.86150000
3.98380000 -3.13170000 -13.20380000
1.79390000 -1.41630000 16.77180000
-5.66270000 1.45380000 -9.69070000
-6.10230000 10.19060000 -4.53610000
3.94190000 -3.35610000 -13.79010000
-5.89320000 9.83820000 -4.38270000
-6.02430000 9.95090000 -5.17520000
-5.91710000 9.67120000 -5.29680000
-5.86910000 9.44310000 -5.91600000
6.59420000 -3.62010000 2.74120000
3.60740000 -3.12360000 -15.14640000
3.45750000 -4.65860000 -15.09880000
3.86460000 -3.96010000 -14.16270000
2.89460000 -4.18530000 -15.93270000
2.71530000 -5.13530000 -15.87160000
3.00960000 -4.81140000 -15.74230000
3.23370000 -4.96380000 -15.42560000
3.69230000 -4.74360000 -14.57580000
-5.87800000 9.00820000 -5.07570000
-5.86860000 9.32020000 -4.81900000
-5.65800000 1.11670000 -9.81530000
-5.95830000 10.06540000 -3.24010000
2.65900000 -2.17020000 16.44380000
4.25280000 -3.18490000 -12.06820000
-5.61780000 0.79860000 -10.71600000
-5.81730000 9.39310000 -4.23380000
-5.87990000 8.80890000 -4.25500000
-5.92270000 8.30040000 -4.33660000
6.02150000 -6.26440000 -2.80020000
1.59990000 -9.90950000 14.55660000
1.14230000 -11.06190000 13.83990000
-6.08400000 10.10710000 -7.53670000
-5.92710000 9.93640000 -7.97490000
0.38830000 -10.88910000 14.23450000
1.10230000 -11.74680000 13.28330000
1.87570000 -11.74550000 12.91040000
-5.75350000 9.65620000 -8.29710000
6.09400000 -6.13040000 -2.04700000
6.04810000 -7.01250000 -2.23140000
1.01320000 -2.17990000 16.83030000
-5.63440000 0.75120000 -9.31070000
-5.63810000 0.14430000 -10.11430000
-5.67550000 9.18600000 -8.41450000
4.31440000 -4.24590000 -11.73120000
-5.80530000 9.56190000 -7.46080000
-5.68330000 9.09870000 -7.61170000
-5.64470000 1.71040000 -9.02630000
1.27440000 -12.32870000 12.63170000
4.47380000 -5.31010000 -10.52400000
-5.70040000 1.37000000 -8.59760000
1.46190000 -2.84740000 16.73830000
2.37600000 -2.91610000 16.50420000
3.99250000 -4.88530000 -12.99750000
6.15400000 -6.41400000 -1.63440000
0.19900000 -11.81400000 13.54800000
-5.72900000 8.70190000 -8.29040000
-1.46920000 -2.33400000 16.52760000
-0.27850000 -11.30870000 14.04910000
-0.02840000 -10.60860000 14.47610000
-5.92770000 9.83410000 -7.10840000
-5.87750000 9.55000000 -6.61180000
3.83780000 -6.23650000 -13.57350000
3.70430000 -6.11770000 -14.12980000
-0.61560000 -11.93490000 13.55870000
-5.65750000 0.35500000 -9.47000000
6.21700000 -7.58410000 -0.35330000
-5.75720000 9.28640000 -7.09920000
-5.81490000 1.24070000 -7.85690000
-2.07410000 -2.50820000 16.30230000
-5.69110000 0.63440000 -8.38210000
0.67060000 -12.36150000 12.86360000
-5.81280000 8.88660000 -6.72780000
4.13460000 -5.39940000 -12.43590000
-5.66340000 8.63000000 -7.72800000
-0.25780000 -2.05130000 16.78280000
4.36690000 -5.87980000 -11.10220000
-0.00330000 -12.84170000 12.57330000
-0.22200000 -12.36950000 13.12660000
-5.65240000 -0.19210000 -8.87240000
-5.77370000 8.21030000 -8.20620000
-5.64180000 7.67530000 -7.65430000
-5.69120000 8.46340000 -7.16250000
-5.62850000 7.55190000 -7.38140000
4.19270000 -5.97300000 -11.88780000
-5.60840000 -0.37630000 -9.74680000
-6.09900000 1.98330000 -12.96880000
6.54120000 -4.62310000 1.94000000
6.53230000 -5.15040000 1.14440000
2.92070000 -5.51240000 -15.63210000
3.20160000 -5.93820000 -15.22200000
-5.80200000 8.14530000 -9.78030000
-5.72760000 0.94590000 -13.69170000
-5.71910000 7.94600000 -9.36820000
-5.77090000 8.29420000 -9.08500000
0.18600000 -3.03960000 16.83760000
-5.97770000 1.65270000 -12.49640000
-5.80190000 8.37950000 -8.67140000
1.64610000 -12.88350000 11.80560000
1.21140000 -13.83490000 11.00250000
2.03660000 -13.73410000 10.67070000
-6.05940000 1.45520000 -12.76680000
6.45760000 -5.17040000 3.08470000
-5.76590000 7.76480000 -8.53090000
-6.03810000 1.13610000 -12.91450000
-5.93080000 0.95940000 -13.26820000
-5.67470000 7.60520000 -8.97580000
-5.68150000 7.31990000 -9.68680000
-5.73790000 7.21540000 -10.02780000
-5.60660000 6.91100000 -9.39780000
6.37430000 -6.49140000 1.50240000
6.65870000 -3.49130000 4.69110000
0.79770000 -12.94030000 12.13760000
6.48040000 -4.98980000 4.19120000
4.61730000 -4.82970000 -9.58520000
-5.73670000 7.58040000 -8.05000000
-5.67930000 7.11910000 -8.76280000
-5.64500000 6.88230000 -7.90050000
-5.70980000 6.52650000 -8.28550000
-5.60350000 6.47750000 -8.98520000
-5.62730000 -0.37940000 -13.65210000
-5.98890000 0.40540000 -12.97580000
-5.92030000 -0.06960000 -13.09920000
4.55820000 -6.20240000 -9.62820000
-0.12270000 -13.67560000 11.66950000
-5.66300000 6.23420000 -8.70820000
-5.86130000 1.14600000 -12.28660000
0.38870000 -14.36760000 10.76280000
-1.04550000 -11.36900000 14.05200000
-5.85550000 8.91250000 -5.71320000
-5.74350000 0.65450000 -12.06830000
-5.58110000 0.86710000 -11.43720000
-5.60810000 0.74090000 -11.75180000
-5.96230000 0.81510000 -12.47570000
-6.00010000 0.46900000 -12.62280000
-0.78720000 -3.18740000 16.71400000
-5.72210000 0.09760000 -12.03070000
-5.99760000 -0.27570000 -12.67940000
-1.08460000 -3.86320000 16.67260000
-0.21830000 -4.19310000 16.84060000
-1.03410000 -4.92450000 16.66190000
-5.95770000 -0.36110000 -12.40030000
-5.75990000 8.35670000 -6.41280000
-1.57380000 -11.25630000 13.90750000
-5.77830000 8.63100000 -5.80130000
-5.67450000 8.24780000 -6.02390000
-1.52090000 -12.14140000 13.31100000
-5.85690000 -0.57600000 -12.17120000
-5.82180000 8.56880000 -5.00140000
2.39850000 -4.94680000 -16.03630000
-5.70200000 8.34200000 -5.41130000
2.01840000 -5.21920000 -16.03970000
-1.34200000 -11.31140000 14.04250000
-1.18840000 -11.82890000 13.69860000
-5.94750000 -1.16780000 -12.84580000
3.21950000 -3.22920000 16.24860000
-5.66390000 7.88010000 -5.56350000
-1.05570000 -12.33760000 13.27320000
-5.75550000 7.71850000 -6.53980000
3.69590000 -3.70130000 16.01210000
-5.74120000 7.59490000 -6.87800000
-5.98720000 -1.11580000 -12.57050000
-0.73780000 -12.88150000 12.71270000
6.31760000 -6.61060000 3.17350000
-5.35130000 0.02980000 -14.22030000
3.90250000 -6.68600000 -13.09660000
-5.67630000 7.65040000 -6.03330000
-1.42570000 -12.50700000 13.08250000
3.92780000 -6.70980000 -12.73550000
-1.35120000 -12.78800000 12.84460000
4.04820000 -6.66040000 -12.09570000
-5.06230000 -1.26890000 -14.34290000
-5.41960000 -1.35810000 -13.80720000
-1.07160000 -13.27710000 12.32620000
-5.72050000 8.13190000 -5.13020000
6.32990000 -6.29830000 4.59330000
3.10380000 -4.35530000 16.23410000
3.88960000 -7.35810000 -12.52270000
-1.77380000 -12.05360000 13.11640000
3.59410000 -4.71720000 15.97610000
-5.78570000 6.88110000 -6.65610000
-5.73600000 6.99580000 -5.99680000
-1.73600000 -12.62980000 12.74880000
-5.76960000 6.70770000 -6.37630000
-5.87290000 8.06170000 -4.64090000
2.21620000 -5.95470000 -15.81360000
2.64810000 -6.20880000 -15.60580000
-5.77630000 7.42760000 -5.24650000
-1.60680000 -13.13430000 12.42680000
1.28240000 -5.60550000 -15.99080000
1.56610000 -6.15460000 -15.84500000
2.29550000 -4.16530000 16.47640000
2.97380000 -6.40910000 -15.34350000
3.45900000 -6.76510000 -14.59480000
-5.67100000 6.30300000 -6.19960000
-5.80200000 6.93820000 -5.19390000
-5.65760000 6.52630000 -5.61090000
6.41720000 -6.31070000 0.35690000
-0.72700000 -14.20680000 11.23500000
2.26430000 -6.79340000 -15.56120000
2.91540000 -6.91130000 -15.24280000
3.18130000 -4.92730000 16.21190000
2.72700000 -7.16180000 -15.26050000
-4.86450000 -3.07480000 -14.30770000
-5.14480000 -2.98500000 -13.96220000
-5.66920000 6.96910000 -7.15250000
-5.52200000 6.22440000 -7.52620000
-5.55540000 6.18020000 -7.80270000
2.61560000 -5.37170000 16.39600000
-5.78280000 -2.00330000 -13.09050000
-5.56450000 6.28840000 -7.25270000
-5.72310000 6.57430000 -6.93240000
0.74310000 -6.57440000 -15.68730000
1.22990000 -6.94820000 -15.57970000
1.38020000 -4.07240000 16.75540000
-5.70910000 6.18700000 -6.69330000
0.81830000 -3.60110000 16.84780000
-5.57730000 5.79700000 -6.89570000
1.90730000 -7.32490000 -15.41070000
-5.64120000 5.81140000 -8.17510000
-1.55590000 -13.52770000 12.07150000
2.44310000 -7.57270000 -15.19610000
1.44670000 -7.61320000 -15.25620000
0.96460000 -4.38140000 16.87090000
6.26230000 -7.74240000 0.59110000
-5.47620000 5.45460000 -7.16990000
-5.55640000 0.40710000 -10.95470000
-5.54930000 0.16840000 -11.47640000
-5.56120000 5.89850000 -5.90830000
-5.62560000 5.80160000 -6.42760000
-5.51490000 5.26890000 -6.44940000
6.20630000 -7.82900000 1.48810000
-5.54590000 -0.25770000 -10.96580000
3.64220000 -7.42160000 -14.02160000
1.61580000 -5.19300000 16.69730000
3.18520000 -7.13870000 -14.92130000
3.38410000 -7.35500000 -14.58040000
-5.66340000 -0.54330000 -11.87020000
-5.58580000 -0.77680000 -11.55180000
2.97900000 -7.52180000 -14.96560000
3.18970000 -7.71000000 -14.68700000
1.65160000 -5.78370000 16.62230000
3.34320000 -8.17040000 -14.28300000
2.19620000 -14.44250000 9.77610000
0.35870000 -4.37580000 16.89100000
3.72950000 -8.12030000 -13.31270000
3.82270000 -7.64960000 -12.94550000
1.12350000 -14.78600000 9.93300000
3.48390000 -8.34070000 -13.97100000
2.74870000 -7.97080000 -14.90420000
1.60210000 -15.16270000 9.20270000
2.98690000 -8.33260000 -14.56130000
-1.78100000 17.49640000 2.17280000
-0.74890000 17.63090000 2.79850000
-0.91250000 17.81960000 1.16620000
-1.58980000 17.33110000 3.30470000
2.38730000 -8.29660000 -14.85910000
1.93680000 -8.39160000 -14.87240000
0.40830000 -5.20220000 16.84720000
0.11400000 17.73080000 3.14500000
-0.11630000 17.93110000 1.67480000
2.80570000 -8.89760000 -14.40640000
2.18820000 -8.83950000 -14.65990000
6.07390000 -8.63170000 1.45150000
-5.94780000 -1.24550000 -12.33430000
-0.29950000 -5.28480000 16.79630000
-5.84870000 -1.46150000 -12.13200000
0.93750000 -5.33080000 16.82340000
3.01600000 -9.05400000 -14.23730000
3.22550000 -9.20950000 -13.96310000
3.47170000 -9.11820000 -13.55850000
0.36600000 17.58160000 4.02850000
-5.58070000 -1.18600000 -11.32990000
2.50210000 -9.31950000 -14.42660000
0.84980000 17.48440000 4.47270000
3.27000000 -9.71220000 -13.61170000
0.87120000 -6.08300000 16.69050000
1.56810000 -6.26610000 16.49770000
-0.26930000 17.37280000 4.47460000
-5.67790000 -1.78130000 -11.83850000
0.20070000 -6.15100000 16.70060000
2.90250000 -9.81340000 -14.05090000
3.06700000 -10.11800000 -13.65820000
0.05360000 -6.73970000 16.56120000
0.42300000 17.39210000 4.85180000
-5.59230000 -0.71880000 -10.16900000
0.80910000 -7.49200000 -15.28720000
-0.31200000 -6.79480000 -15.50410000
0.21680000 -7.10190000 -15.43470000
4.10830000 -5.91080000 15.26290000
3.76180000 -5.07560000 15.84400000
3.61930000 -6.00660000 15.67320000
0.18410000 -7.95030000 -15.28560000
6.06940000 -8.06580000 3.18060000
0.65830000 -7.88040000 -15.21360000
-5.63690000 -1.01580000 -10.57420000
-5.64970000 -1.24840000 -9.78930000
-5.61450000 -1.37670000 -11.07700000
1.09650000 -8.07040000 -15.05780000
1.49780000 -8.02340000 -15.05400000
1.26080000 -8.45880000 -15.00340000
0.75800000 -8.57540000 -15.13760000
4.19300000 -6.71500000 14.90400000
4.55820000 -6.99890000 14.29600000
3.09500000 -5.68860000 16.14400000
-5.67870000 -1.39130000 -10.61890000
-1.03300000 17.07130000 5.03530000
-2.17790000 17.17780000 3.06000000
-2.20430000 17.40440000 1.57860000
-2.68680000 17.11080000 2.12570000
-0.56240000 -8.40840000 -15.11500000
-2.83480000 16.70310000 3.84110000
-5.56490000 -2.04150000 -11.23470000
-1.54110000 -8.19600000 -14.93340000
5.79120000 -9.58730000 2.50400000
-3.27940000 16.66380000 2.81430000
-2.92670000 17.04220000 1.53090000
-3.36570000 16.68440000 2.05190000
-5.59480000 -1.83130000 -10.77930000
-5.66460000 -1.58870000 -10.38010000
2.63190000 -5.83040000 16.37440000
3.17490000 -6.36420000 15.89790000
-4.08920000 15.93960000 2.67340000
-4.00060000 16.11880000 1.67440000
-3.89310000 15.83010000 4.48290000
-5.58980000 -1.73900000 -9.90390000
-5.51860000 -2.36470000 -10.35230000
0.16420000 -9.47060000 -14.95090000
0.74700000 -9.23940000 -15.01310000
3.66940000 -7.14380000 15.15630000
-2.19350000 16.78300000 4.84340000
-5.94610000 -1.80910000 -12.68150000
-5.93780000 -1.93100000 -12.36920000
-5.92270000 -2.25300000 -12.61520000
-1.67560000 16.63350000 5.97780000
-5.81830000 -2.73980000 -12.78040000
5.16890000 -7.63240000 12.95380000
4.15460000 -14.73160000 3.11210000
1.41420000 -8.84420000 -14.96920000
1.85920000 -9.09880000 -14.78900000
-5.80020000 -2.32940000 -12.10500000
5.63550000 -10.32150000 1.59510000
1.37490000 -9.32930000 -14.92270000
-5.82930000 -2.73970000 -12.39230000
-5.49330000 -3.30870000 -13.42000000
-3.23470000 16.50670000 3.71710000
2.06620000 -9.79600000 -14.56570000
4.61600000 -7.99550000 13.45720000
4.47720000 -7.77170000 13.85340000
1.32500000 -9.85140000 -14.78230000
1.57690000 -10.25390000 -14.55050000
2.52580000 -9.92790000 -14.30280000
3.88440000 -15.33310000 2.92920000
3.99500000 -8.14690000 14.09300000
3.81890000 -7.82520000 14.61750000
2.52650000 -10.44190000 -14.02540000
-3.23930000 16.02310000 5.92200000
2.14690000 -10.49660000 -14.21550000
-2.74450000 16.12860000 6.32840000
1.78730000 -10.94590000 -14.06190000
3.61490000 -15.77400000 2.96450000
3.52120000 -16.00350000 1.90390000
3.44360000 -8.48750000 14.50600000
2.29710000 -11.16980000 -13.66360000
-5.71410000 -3.49620000 -12.97230000
4.28440000 -8.37740000 13.54610000
0.89340000 -10.02470000 -14.77890000
-3.66550000 15.88430000 5.39060000
-5.60070000 -2.45610000 -11.72950000
3.81520000 -8.57860000 13.97090000
3.82410000 -15.08770000 3.95560000
1.04240000 -10.64110000 -14.46440000
0.27770000 -10.29750000 -14.69090000
-0.45240000 18.01220000 0.26100000
-5.51910000 -2.79850000 -11.38990000
-5.62480000 -3.12720000 -11.92100000
2.33530000 -6.16060000 16.40320000
2.62080000 -6.49230000 16.19680000
2.85130000 -7.12990000 15.81830000
1.83540000 -6.91600000 16.20250000
2.99750000 -8.20560000 15.10280000
2.36840000 -7.48920000 15.86720000
-5.77860000 -3.47210000 -12.42750000
-5.80160000 -4.07330000 -12.65380000
1.35330000 -11.60170000 -13.72140000
0.22220000 -11.66000000 -13.89300000
2.48320000 -8.03060000 15.51580000
-5.55920000 -3.72660000 -11.52570000
-5.57140000 -3.95340000 -11.04700000
4.24380000 -6.85850000 -11.40100000
3.11630000 -16.40840000 2.31640000
3.39040000 -15.91820000 3.78470000
2.88530000 -16.43960000 3.86600000
0.42460000 -7.16350000 16.39760000
3.98510000 -7.70690000 -12.13330000
4.08270000 -8.41590000 -11.42930000
3.11770000 -16.10900000 4.41310000
2.51920000 -16.85100000 2.89860000
1.42190000 -7.57560000 16.05560000
-5.61820000 -3.99440000 -11.79620000
-5.71840000 -4.32220000 -12.00450000
-5.80300000 -4.19920000 -12.33960000
1.72180000 -8.20450000 15.72360000
4.50890000 -7.29930000 -9.86420000
4.29330000 -7.91540000 -10.64670000
0.84260000 -8.34740000 15.78550000
-3.35840000 16.70540000 0.90920000
2.71160000 -8.98960000 14.71800000
4.85680000 -5.93610000 -7.96570000
-4.43600000 -4.12650000 -14.52760000
-4.78160000 -4.21590000 -14.22670000
4.71390000 -6.92690000 -8.75880000
2.50770000 -16.94740000 1.89040000
-3.77190000 -4.46030000 -14.87480000
4.78760000 -7.04870000 -7.83480000
1.89940000 -8.84490000 15.23330000
1.33160000 -9.06680000 15.27240000
-4.21220000 16.06250000 0.58290000
-3.79330000 -3.45830000 15.42170000
0.40180000 17.12290000 5.70550000
1.05830000 17.07120000 5.68560000
4.43750000 -8.43290000 -9.57750000
2.68410000 -16.40600000 4.80320000
-2.77280000 -2.64910000 16.01810000
4.63230000 -7.90800000 -8.57900000
1.53460000 16.96600000 5.77690000
-3.25680000 -3.00120000 15.76340000
4.26300000 -9.66650000 -9.25500000
2.35710000 -16.84150000 3.98490000
1.51910000 16.74360000 6.57980000
1.77510000 16.72890000 6.20350000
1.77400000 -17.09020000 4.61170000
1.81190000 -17.26520000 3.32450000
1.18440000 16.71570000 6.91420000
-5.60230000 -4.20520000 -13.16270000
-5.52710000 -5.33100000 -13.26430000
0.76750000 16.81230000 6.61200000
1.01860000 -17.61790000 3.57790000
1.35980000 -17.54420000 2.64880000
-4.53360000 -2.61880000 14.91460000
1.29380000 -17.35490000 4.38360000
-4.15610000 -6.05330000 -14.29480000
0.44860000 -17.82380000 3.62710000
0.39040000 -17.87630000 2.98390000
-0.29670000 16.97760000 5.88000000
0.91790000 -17.50570000 4.47320000
0.56030000 -17.66140000 4.23040000
-4.61070000 -5.75040000 -14.07920000
0.65580000 -17.42840000 4.98680000
-4.86530000 -4.21140000 14.63050000
-0.13190000 16.62980000 7.00780000
1.85540000 -17.35610000 2.24210000
-5.24400000 -5.86320000 -13.51150000
3.86680000 -9.21210000 -11.81940000
0.57550000 15.93640000 8.87820000
1.49290000 16.40120000 7.38230000
3.53950000 -9.41210000 -13.11160000
2.11920000 16.09580000 7.11010000
0.95990000 16.39060000 7.81010000
1.70660000 15.98740000 7.98770000
-3.46760000 -6.52430000 -14.55690000
3.35720000 -10.09370000 -13.11160000
3.51960000 -10.30700000 -12.20500000
-1.91800000 -3.76680000 16.41090000
0.10810000 -17.95250000 2.36120000
-2.24670000 -4.56580000 16.26890000
4.07740000 -10.05120000 -10.22980000
2.18350000 -16.78580000 4.81540000
0.55240000 16.52130000 7.58500000
1.16310000 16.02330000 8.49670000
1.46060000 -17.08560000 5.11620000
1.78700000 -16.68010000 5.55470000
-5.72110000 -4.92170000 -12.95130000
-0.44300000 16.10290000 8.35990000
0.39550000 16.13910000 8.46110000
1.33020000 -16.73990000 5.69510000
1.36940000 -16.93900000 5.41700000
-5.83130000 -4.68410000 -12.52610000
-5.83660000 -5.24550000 -12.21230000
-5.86240000 -5.44050000 -12.57330000
0.92550000 -17.01380000 5.57220000
2.85930000 -10.65160000 -13.56130000
3.14240000 -10.69730000 -13.06600000
0.62250000 -17.07690000 5.49870000
-3.13850000 -4.70970000 15.82490000
0.99090000 -17.27310000 5.18800000
2.67610000 -11.15500000 -13.37360000
3.01500000 -11.16140000 -12.93100000
-4.98490000 -7.35000000 -13.44790000
-2.37490000 -5.35040000 16.15580000
3.32360000 -11.62670000 -11.58930000
-1.49400000 16.07490000 8.09280000
-1.74960000 16.21310000 7.50080000
-1.29330000 16.50280000 6.85120000
-0.14230000 -17.92640000 3.12970000
0.08230000 -17.79840000 3.66260000
-1.96540000 15.85480000 8.33680000
-2.24820000 15.89090000 7.98660000
3.06450000 -11.95220000 -12.00720000
-5.78880000 -6.05310000 -12.82880000
-1.01720000 -17.95710000 3.22860000
2.81670000 -11.67390000 -12.79330000
-2.50970000 15.96900000 7.35790000
-1.05280000 -17.86660000 3.68420000
-0.32670000 -17.75500000 3.76740000
-0.98800000 -17.66710000 4.07000000
-5.88860000 -6.09780000 -12.40210000
-3.15370000 -5.60640000 15.69840000
-5.64540000 -6.66320000 -12.95810000
1.99100000 -11.87960000 -13.28260000
2.47720000 -11.84750000 -12.99910000
0.23900000 -17.54490000 4.47460000
0.31750000 -17.34200000 4.98550000
-1.52100000 -6.01140000 16.44380000
2.01480000 -12.63890000 -12.55880000
-4.43510000 -8.20990000 -13.66090000
-0.14400000 -17.45230000 4.42250000
0.05270000 -17.12380000 5.19730000
-1.00490000 -17.36400000 4.71390000
2.77030000 -12.39690000 -12.08960000
-0.51550000 -17.51370000 4.24370000
2.43710000 -12.59650000 -12.26970000
-2.01270000 -6.80830000 16.08740000
-3.19580000 -6.91200000 15.47380000
-5.53710000 2.79750000 -6.43160000
-5.75330000 2.27190000 -7.14490000
-2.79890000 -17.45380000 4.32790000
-1.94070000 -17.69460000 4.24480000
-2.38350000 -17.42320000 4.69000000
-5.58900000 2.91580000 -6.05130000
-2.32370000 -17.64110000 3.94090000
-1.56300000 -17.64880000 4.40560000
-5.73400000 2.63660000 -5.76360000
-1.50410000 -17.85710000 3.40650000
-5.62020000 2.16690000 -6.42600000
-5.64450000 2.30030000 -6.04500000
-5.36910000 -5.48820000 14.11260000
-5.69180000 2.01900000 -6.71720000
-4.16100000 -4.72590000 15.18510000
-5.75310000 1.82990000 -6.00070000
-5.80980000 1.73680000 -6.87190000
-5.86740000 1.66180000 -7.27920000
-4.81720000 -5.73100000 14.67420000
-5.85990000 0.88230000 -7.54880000
-0.43940000 15.64130000 9.37690000
-5.75670000 1.71740000 -6.33090000
-4.37050000 -6.03550000 14.96330000
-5.84410000 1.28660000 -6.47620000
-1.19990000 15.71100000 9.02150000
-5.84220000 0.94980000 -7.15300000
-5.76400000 0.90660000 -6.61840000
-5.78850000 2.11590000 -5.66840000
-1.91490000 15.46030000 9.18170000
-1.18930000 15.34380000 9.82320000
2.80670000 -13.08490000 -11.24740000
2.47130000 -13.22630000 -11.58950000
-5.21410000 -5.89860000 14.32540000
-1.93000000 15.02040000 10.04620000
-5.42410000 -6.52530000 14.09880000
-4.27220000 15.52180000 4.09680000
-6.31160000 -13.23290000 -1.64580000
-6.21270000 -13.11300000 -1.02970000
-6.53520000 -13.54740000 -0.80170000
-4.64020000 15.22910000 3.16050000
-6.23810000 -11.46800000 2.59330000
-4.93230000 14.78730000 3.89140000
-6.26710000 -11.71320000 3.29470000
-6.28690000 -11.59380000 2.02660000
-4.33400000 15.31220000 5.76980000
-5.80430000 -6.57030000 13.40900000
-6.31010000 -12.21860000 1.89880000
-6.33210000 -12.08450000 2.35440000
-6.25550000 -12.21030000 3.05100000
-6.29270000 -12.60660000 2.04530000
-5.52310000 -7.11140000 13.81140000
-6.22380000 -12.71410000 2.99970000
-6.28340000 -12.89900000 2.43430000
-5.02830000 -6.93210000 14.44790000
-6.14580000 -12.69780000 -0.25010000
-5.23980000 -7.26100000 14.12900000
-5.08910000 -7.96010000 14.01420000
-4.71350000 -9.64020000 12.05030000
-4.17660000 -9.80770000 12.54290000
-4.36080000 -9.64570000 12.77050000
-6.17250000 -12.95620000 -0.31410000
-4.34630000 -10.06260000 12.04760000
-6.22190000 -12.78470000 1.17060000
-6.30700000 -13.11510000 1.14830000
-5.85770000 1.55170000 -5.70700000
-5.70260000 2.04900000 -4.76980000
-6.30080000 -13.25890000 -0.11330000
-5.82800000 1.43800000 -5.18570000
-5.72410000 1.54250000 -4.88860000
-4.68840000 15.07160000 4.75160000
-6.59840000 -13.68160000 0.06770000
-6.76480000 -13.97860000 -0.86920000
-2.24740000 -7.86770000 15.76270000
-5.34740000 14.31280000 4.75620000
-5.86630000 1.12800000 -5.63920000
-5.80720000 0.88500000 -5.83940000
-5.67510000 0.51880000 -6.07120000
-3.32090000 -7.90240000 15.22250000
-5.83280000 0.63930000 -5.06550000
-5.82570000 0.41120000 -5.25960000
-5.67350000 0.02630000 -5.46130000
-5.04810000 14.67490000 5.41720000
-2.98850000 -8.94570000 15.15260000
-6.53140000 -13.43610000 1.42850000
-4.48450000 -7.12900000 14.74750000
-6.83750000 -14.45650000 -0.33060000
-6.76650000 -14.05420000 0.40070000
-5.58200000 13.90890000 6.35320000
-4.21210000 -8.09630000 14.62560000
-6.07650000 13.39870000 4.75430000
-4.78760000 -8.26680000 14.17390000
-5.99870000 13.46070000 5.82590000
-6.39340000 12.91800000 5.42920000
-4.71870000 15.62090000 0.74070000
-6.66790000 -13.63740000 2.03590000
-4.93070000 15.33390000 1.36440000
-6.84540000 -14.48210000 0.71100000
-5.14460000 15.19890000 0.41920000
-5.71660000 -0.17390000 -8.19300000
-6.80830000 -14.15320000 1.88650000
-3.80280000 -9.02430000 14.62880000
-5.84420000 0.39390000 -7.46840000
-5.70030000 0.55320000 -6.86530000
-5.72260000 0.16110000 -7.09330000
-5.81060000 -0.09390000 -7.77750000
-6.79930000 -14.89200000 -0.02350000
-6.83120000 -14.63730000 1.53660000
-5.78110000 -0.28030000 -7.34300000
-6.78020000 -14.92290000 1.50450000
-6.61730000 -15.36900000 0.67840000
-3.10730000 -9.38140000 14.93370000
-5.11210000 14.97250000 2.02780000
-6.37930000 -8.42820000 8.18780000
-6.28360000 -8.93450000 7.99120000
-6.25350000 -9.38600000 7.74140000
-5.71400000 -0.99400000 -8.35540000
-5.80230000 -0.77170000 -7.61720000
-6.33770000 -9.10390000 6.57340000
-6.27660000 -9.39020000 6.95200000
-6.35040000 -9.75200000 6.27510000
-6.35470000 -9.91930000 6.58970000
-5.57430000 -0.32960000 -6.70870000
-5.57900000 0.01840000 -6.39860000
-6.25830000 -10.00500000 7.31670000
-6.30270000 -10.45990000 7.02190000
-5.60030000 -0.75090000 -6.93980000
-5.53780000 -0.36100000 -5.79170000
-6.20090000 -10.28400000 5.62420000
-5.47130000 14.46860000 2.17670000
-5.53980000 -0.95010000 -5.86330000
-6.19190000 -10.42840000 5.29050000
-6.23950000 -10.48630000 4.74140000
-6.23060000 -10.87260000 4.24830000
-6.01250000 14.04710000 0.61080000
-5.61490000 1.62600000 -4.48500000
-5.61210000 1.22170000 -4.20020000
-5.70800000 1.02760000 -4.80620000
-5.61440000 1.04800000 -4.47050000
-3.83990000 -10.19840000 12.42650000
-4.09820000 -9.90510000 13.22180000
-6.21130000 -11.27360000 4.46390000
-6.19990000 -10.98170000 5.39550000
-5.74270000 0.57090000 -4.45790000
-3.68190000 -10.11030000 13.15790000
-5.82500000 13.94210000 2.18450000
-3.65830000 -10.20270000 12.77800000
-5.72980000 0.73460000 -3.91950000
-6.28860000 -11.02390000 5.88780000
-6.41960000 -10.66240000 6.42650000
-6.39970000 -10.80560000 6.69770000
-6.38500000 -10.97240000 6.15430000
-6.41820000 -11.30520000 6.45970000
-6.35420000 -11.59530000 6.19860000
-6.17810000 -11.50720000 5.20580000
-6.18270000 -12.20700000 4.18740000
-6.21870000 -12.29940000 4.92420000
-6.24330000 -11.62690000 5.79000000
-6.29140000 -12.27880000 6.02320000
-6.36270000 -13.07360000 5.22530000
-6.46620000 -8.74500000 8.54460000
-6.38560000 -9.29990000 8.34010000
-3.24650000 -10.43320000 12.97330000
-3.69460000 -10.09850000 13.66010000
-3.71530000 -9.62100000 14.47030000
-2.87050000 -9.67280000 14.89430000
-3.35930000 -9.87510000 14.44800000
-2.79020000 -9.88380000 14.69530000
-3.29460000 -10.11890000 14.02370000
-2.47870000 -10.21230000 14.18840000
-2.88180000 -10.01500000 14.39760000
-3.91220000 -9.89730000 14.11320000
-3.96000000 -9.98580000 13.84150000
-3.07710000 -10.30610000 13.58800000
-2.68860000 -10.56720000 13.38880000
-2.34110000 -10.45580000 13.92280000
-2.00680000 -10.59250000 13.98600000
-0.72740000 -6.27430000 16.60930000
-1.15640000 -5.76790000 16.60750000
-1.28160000 -6.94000000 16.37250000
-0.85930000 -7.07420000 16.42980000
-0.32660000 -7.44750000 16.28830000
0.18430000 -8.10660000 15.98910000
-0.57010000 -8.41670000 15.86450000
-5.54250000 14.11790000 3.32400000
-6.30950000 -9.90180000 8.06850000
-0.27660000 -8.82630000 15.67200000
-6.51550000 -8.95460000 8.92100000
-6.51000000 -9.64700000 8.65700000
-0.96060000 -7.53940000 16.27860000
-0.90140000 -8.12530000 16.01650000
-1.54570000 -7.63620000 16.09640000
-1.66890000 -8.21510000 15.81840000
-6.53110000 -9.62090000 9.10970000
-6.42530000 -9.10790000 9.54240000
-5.67170000 -1.26640000 -7.31350000
-1.30860000 -8.96920000 15.56690000
-6.38170000 -10.12890000 8.32020000
-6.48140000 -10.13860000 8.75850000
-6.29120000 -10.59320000 7.57200000
-6.30720000 -10.62190000 7.97470000
0.40260000 -9.50940000 15.14960000
-6.30360000 -10.56500000 8.39940000
-6.18090000 13.54770000 1.24550000
0.78740000 -10.00470000 14.72750000
-6.69200000 11.88820000 0.87970000
-6.36600000 12.79550000 2.18520000
-6.69280000 11.23720000 0.95870000
-6.24200000 -11.13490000 7.62220000
-6.14770000 -10.85380000 8.32850000
-6.44350000 -9.78550000 9.35030000
-6.35340000 -9.68240000 9.75380000
-6.31070000 -10.15320000 9.24410000
-0.83700000 -9.94280000 14.97170000
-6.20870000 -9.81650000 9.98030000
-5.89280000 -10.35250000 9.49620000
-5.96640000 -9.79490000 10.30110000
-6.60170000 10.91770000 0.89890000
-6.70580000 11.46020000 2.10070000
-6.60570000 10.97500000 1.93750000
-6.44340000 10.63810000 1.32210000
-5.71700000 -11.01740000 8.60460000
-5.37600000 -11.43850000 8.44590000
-5.73810000 -1.30400000 -7.78840000
-5.64060000 -1.45220000 -8.49020000
-6.00360000 13.39960000 2.99170000
-5.56490000 -1.74330000 -7.64200000
-5.51440000 -1.35540000 -6.64390000
-5.53150000 -1.65740000 -7.09400000
-5.67720000 13.91640000 4.03160000
-5.34440000 -10.72660000 9.49000000
-5.14500000 -11.03990000 9.22300000
-6.16880000 13.16900000 3.74290000
-6.33920000 -11.31330000 7.01060000
-5.97560000 -11.48860000 7.71120000
-6.38170000 12.67300000 3.30950000
-2.31560000 -8.62650000 15.53230000
-1.85980000 -8.86720000 15.56500000
-5.38130000 -12.19050000 7.80530000
-2.04360000 -9.33090000 15.30790000
-4.68090000 -12.32650000 8.44220000
-2.46960000 -9.23940000 15.25530000
-5.28790000 -12.91180000 7.35720000
-4.66580000 -13.08990000 7.76360000
-4.59580000 -13.57480000 7.34690000
-6.36970000 -11.92250000 6.47450000
-6.32240000 -12.22980000 6.60400000
-6.58440000 12.08270000 2.93540000
-1.57100000 -9.94170000 14.96540000
-6.19270000 -11.62630000 7.29210000
-2.24850000 -9.61570000 15.08200000
-6.23150000 -12.45580000 6.80500000
-2.32290000 -9.92260000 14.70310000
-1.91420000 -9.99230000 14.82370000
-6.00800000 -12.00550000 7.34520000
-6.57900000 12.17440000 3.64090000
-1.32910000 -10.62210000 14.51970000
-6.38000000 -13.09450000 6.09780000
-1.67850000 -10.60100000 14.31820000
-6.68110000 11.56170000 3.01130000
-6.03990000 -12.98890000 6.76520000
-6.46010000 12.72650000 4.59180000
-6.32930000 -13.30050000 6.34220000
-5.54900000 -13.41860000 6.81250000
-6.63500000 12.31110000 4.57400000
-5.79860000 0.31550000 -3.77230000
-5.75750000 0.02640000 -5.00090000
-5.78630000 0.14870000 -4.42380000
-5.72170000 -0.06010000 -3.89110000
-5.61520000 -0.36250000 -4.58310000
-5.56120000 -0.60700000 -4.87480000
-6.45190000 -7.32740000 11.17210000
-5.77080000 0.11800000 -2.77410000
-6.47110000 -7.38790000 10.81100000
-6.39090000 -7.49910000 11.53190000
-5.61310000 -0.39550000 -3.25950000
-5.57990000 -0.72810000 -3.42360000
-5.61120000 -1.20990000 -4.75880000
-6.48400000 10.77580000 2.60550000
-5.62260000 -1.40270000 -3.91090000
-6.38760000 -7.85490000 10.32290000
-5.59910000 -1.43600000 -3.11210000
-6.37290000 -13.16590000 2.71720000
-6.34490000 10.52980000 1.97660000
-6.13390000 10.21850000 2.45430000
-5.56620000 -1.58860000 -5.41810000
-6.00340000 9.87700000 2.56160000
-5.47240000 -2.11870000 -5.69890000
