4.09150000 -2.56600000 1.37700000
-3.79730000 -3.37620000 -0.80410000
-3.85900000 3.09470000 -3.30780000
0.95060000 -1.97900000 -12.14530000
-1.64420000 1.26580000 12.95670000
-1.77800000 0.43760000 12.91890000
3.58560000 -10.11660000 6.00820000
-1.27440000 0.34090000 13.09310000
3.94000000 -9.55250000 6.10800000
-3.96430000 4.29770000 -5.33940000
3.52900000 -1.49100000 -0.17430000
-4.08460000 4.72210000 -5.13250000
-3.68570000 -2.92640000 -0.84990000
-3.73820000 -3.06840000 -0.56640000
-3.74090000 -2.52980000 -0.63260000
3.24450000 -0.94620000 -0.06730000
3.18700000 -0.51760000 0.04600000
-3.75720000 -2.75600000 -0.37860000
-3.80270000 -2.45390000 -0.27270000
3.22350000 -10.38270000 6.20640000
3.41080000 -1.33800000 0.15530000
-3.73330000 -1.75820000 -0.45370000
-4.12280000 4.35920000 -4.87780000
-4.04260000 4.93500000 -4.64600000
-3.77520000 -1.31780000 -0.30400000
-3.75980000 -2.12680000 -0.37090000
-0.09570000 -0.07670000 13.29960000
-0.72850000 -0.22830000 13.22390000
-0.41430000 -0.47200000 13.21930000
3.23110000 -0.38780000 0.54500000
-3.76530000 -1.86980000 -0.22510000
3.40810000 -1.15300000 0.49930000
-0.41470000 0.37470000 13.29610000
-4.09220000 4.20850000 -4.55990000
-4.15070000 3.66040000 -4.47340000
-3.92160000 -2.01060000 -0.01100000
3.74820000 -1.89620000 0.55030000
1.30770000 -1.73560000 -11.78530000
3.50670000 -1.47590000 0.52470000
-3.85850000 -1.47280000 -0.03320000
-4.08290000 5.35520000 -4.79960000
4.48250000 -8.61600000 5.76300000
-4.05650000 -1.77470000 0.13470000
-4.17190000 -1.26160000 0.25480000
3.37610000 -0.79720000 0.82240000
-3.52130000 -5.41310000 -1.26230000
-3.52510000 -5.73090000 -1.31080000
-4.04520000 5.74920000 -4.60510000
-3.59650000 -5.14880000 -1.14180000
-1.06470000 0.77920000 13.15200000
3.09800000 0.35760000 0.34190000
-3.92090000 4.68620000 -4.32000000
-3.74940000 -4.91680000 -0.94970000
4.56390000 -8.06430000 6.04030000
-3.62150000 -5.91930000 -1.08770000
-3.75980000 -6.06030000 -0.86150000
-3.96590000 4.27650000 -4.23250000
-3.91990000 4.45050000 -3.86970000
-0.99350000 1.69590000 13.12060000
-3.97560000 5.46650000 -4.23740000
1.61600000 -2.00000000 -11.37320000
-3.99010000 6.03290000 -4.18440000
-0.57660000 1.20490000 13.22340000
1.65350000 -0.98090000 -11.36550000
-4.01910000 -4.56370000 -1.20160000
-3.92530000 4.97130000 -4.22080000
-4.12400000 -4.26200000 -1.18390000
-0.17090000 1.45220000 13.28810000
-0.40200000 2.24740000 13.14230000
-4.02590000 5.34230000 -3.97550000
-4.14500000 -4.40010000 -0.88900000
4.27260000 -8.79180000 6.30880000
-3.97170000 4.80300000 -3.87490000
-4.11370000 5.20060000 -3.71560000
-3.97110000 -4.71810000 -0.77040000
3.16270000 0.25350000 1.21120000
-4.16090000 -3.91480000 -0.78070000
-4.14770000 5.64130000 -3.58330000
-4.19820000 -4.11970000 -0.79030000
3.27460000 -0.34180000 1.25800000
-4.02090000 -3.60170000 -0.69310000
-4.03400000 3.81190000 -3.91960000
-4.10300000 3.42850000 -4.03790000
3.66610000 -1.43600000 0.97640000
3.74260000 -1.86610000 0.78850000
-4.11970000 -4.63520000 -0.34800000
-3.94410000 4.04360000 -3.67920000
-2.24440000 2.61960000 12.57720000
-1.61640000 2.73470000 12.79250000
-4.27520000 -4.20940000 -0.26020000
-4.28880000 -3.88540000 -0.22390000
-4.23930000 -4.50170000 0.03610000
-4.02410000 -6.23440000 -0.54420000
-3.97390000 3.36870000 -3.70880000
3.62440000 -1.13410000 1.33450000
4.04800000 -9.00260000 6.63690000
0.07520000 -5.04690000 -12.07540000
-0.28890000 -5.17680000 -12.03160000
-2.03270000 4.70010000 12.29910000
-3.92460000 4.21920000 -3.30000000
-1.80030000 4.27110000 12.48340000
-1.71000000 4.87930000 12.35970000
-3.90880000 3.45040000 -3.47020000
-4.45670000 -6.54100000 -0.00070000
3.39300000 -0.68100000 1.33250000
-3.92940000 3.74850000 -3.20060000
-1.54390000 3.89220000 12.59900000
3.53280000 -9.48850000 6.98280000
3.82030000 -8.98270000 7.09770000
-3.54280000 -5.61020000 -0.83580000
-3.61650000 -5.73590000 -0.62640000
-4.04780000 3.83720000 -2.90550000
-3.62390000 -5.42050000 -0.55270000
-3.72990000 -5.13510000 -0.49930000
-4.05380000 4.76220000 -3.55730000
3.85180000 -1.58850000 1.37670000
-4.18060000 5.18110000 -3.36510000
0.30240000 -5.34340000 -11.88080000
-4.02410000 4.62900000 -3.14070000
-3.90920000 -5.00130000 -0.23950000
-4.16760000 5.05230000 -2.84990000
2.51480000 -10.90040000 6.08220000
-4.21830000 5.42330000 -2.79170000
-3.85780000 -5.97640000 -0.25840000
-3.96890000 4.37480000 -2.91710000
-4.04170000 4.74610000 -2.46490000
-4.11330000 4.15780000 -2.49910000
-4.06490000 4.42550000 -2.36060000
-3.80630000 -5.69990000 -0.04600000
1.72560000 -10.79100000 6.69410000
2.16220000 -10.78920000 6.49750000
-3.82120000 -5.36440000 -0.04570000
-3.92860000 -5.59480000 0.39980000
-4.17020000 -6.21900000 0.15580000
-4.14930000 5.04940000 -2.26270000
-3.69930000 0.61460000 -4.02240000
-3.79430000 0.86680000 -4.07740000
-3.85230000 1.29710000 -3.96370000
-3.99240000 -5.88550000 0.42690000
-3.75220000 1.15890000 -3.58000000
-3.77230000 1.68090000 -3.60480000
3.62990000 -1.01650000 1.84170000
-1.24530000 2.07840000 13.02750000
-4.00210000 -5.79040000 0.78920000
3.40930000 -0.70810000 1.78280000
3.32100000 -0.44980000 1.90830000
2.84690000 -10.37540000 6.64380000
-3.76040000 1.97020000 -3.29470000
3.24750000 -0.03800000 2.07990000
2.50980000 -10.52770000 6.68820000
-4.03010000 -4.98680000 0.06310000
-3.74050000 0.96420000 -3.31200000
-3.63270000 0.39410000 -3.67720000
-3.86750000 0.88900000 -3.03580000
-3.71150000 0.02400000 -3.28080000
-3.99430000 -5.32980000 0.52470000
-4.09190000 -5.03240000 0.55680000
-3.89750000 2.09580000 -2.99910000
-4.26200000 -4.33070000 0.57300000
-4.18810000 -4.75480000 0.63400000
3.33710000 -0.19320000 2.67340000
-2.11510000 0.52580000 -13.04180000
-2.69340000 0.18150000 -12.79960000
-2.61540000 1.27540000 -12.78950000
-0.88910000 2.60480000 12.99780000
-0.77790000 3.29790000 12.90910000
-2.48540000 -0.24330000 -12.87650000
-0.35650000 3.03420000 13.03990000
0.18790000 3.03270000 13.00880000
0.08440000 2.41270000 13.12250000
-3.97360000 -5.52300000 0.98150000
-3.85430000 2.63650000 -3.13540000
-3.96120000 -5.34330000 1.27540000
-4.06520000 -4.94850000 1.14540000
-4.08330000 -4.69160000 1.31890000
2.36800000 -10.10320000 7.39320000
-4.07800000 2.95840000 -2.66970000
1.20530000 -10.42250000 7.41350000
2.54060000 6.39840000 -3.63940000
2.53780000 6.12790000 -3.22550000
2.60740000 5.71030000 -4.02990000
2.37210000 7.10400000 -3.42610000
2.41150000 6.91170000 -2.97140000
2.43030000 6.73150000 -3.31590000
-3.99310000 1.75360000 -2.77070000
2.32570000 7.28820000 -3.10830000
-4.17360000 -3.51500000 -0.32730000
-4.01180000 2.02060000 -2.60620000
-3.97170000 2.51270000 -2.55480000
-3.95160000 -3.07660000 -0.30570000
-3.88810000 0.42410000 -2.86460000
2.84390000 3.44520000 -3.58510000
2.90100000 3.14650000 -4.22110000
2.76980000 4.13230000 -4.02850000
-3.96050000 -2.42510000 -0.05880000
-4.06190000 -2.48140000 0.00190000
-4.01210000 0.99950000 -2.63080000
-4.20830000 -2.88620000 0.05310000
-4.06240000 1.43680000 -2.48700000
-4.33330000 -3.10170000 0.26440000
1.89910000 -10.18450000 7.51820000
-4.34480000 -3.63710000 0.31000000
-4.03400000 3.16650000 -2.91660000
-4.14710000 3.69570000 -2.65320000
-4.37540000 -2.08760000 0.52690000
2.66600000 5.03310000 -4.08590000
2.68460000 4.49980000 -3.47160000
-4.26390000 -1.75320000 0.33290000
-4.18200000 3.54210000 -2.33800000
-4.08430000 2.95310000 -2.47230000
1.58050000 -9.62120000 8.42360000
2.59060000 4.07500000 -2.73710000
1.06890000 -9.70940000 8.47370000
-4.45510000 -2.70680000 0.82200000
3.19540000 -9.93910000 6.86750000
2.53770000 4.74980000 -2.80560000
-3.95000000 6.47540000 -3.81560000
2.79680000 -9.97960000 7.25850000
-4.52590000 -1.37960000 1.43500000
-4.45400000 -1.13490000 0.78930000
2.91180000 2.83440000 -3.03110000
-4.03990000 6.09260000 -3.70820000
-3.97180000 6.78150000 -3.73990000
-4.05390000 7.04750000 -3.62780000
2.69190000 3.53040000 -2.66840000
-4.32180000 -3.74030000 0.55940000
2.55600000 -9.64410000 7.89120000
1.19330000 2.99020000 12.71210000
1.62660000 2.03530000 12.82690000
1.64400000 2.95890000 12.48780000
-4.16960000 5.77470000 -3.20330000
2.85630000 2.95650000 -2.39110000
-3.96210000 6.61750000 -3.31000000
-4.27690000 -3.72330000 0.92970000
-4.16040000 -4.26510000 1.02880000
-3.99770000 6.87230000 -3.20060000
-4.01730000 6.27580000 -2.95970000
3.26920000 1.75270000 11.18370000
3.10860000 -9.48560000 7.55930000
-4.41190000 -3.20860000 1.11640000
3.29580000 -9.00480000 7.86120000
-4.13510000 -3.94330000 1.13240000
-4.19050000 -3.67190000 1.24970000
2.91640000 2.03450000 11.62690000
-4.23360000 -3.48730000 1.56860000
3.08480000 2.16800000 -1.81180000
-4.01280000 -4.11270000 1.58910000
3.10220000 1.40150000 11.65900000
-3.99610000 -4.54050000 1.82030000
-3.97490000 6.62190000 -2.62680000
2.81110000 -9.31440000 8.04340000
-4.14650000 7.32190000 -3.16180000
-4.03580000 -3.77500000 1.64940000
-4.49980000 -2.67880000 1.45650000
-4.25440000 7.75410000 -3.05770000
2.73830000 2.70160000 11.54600000
2.83800000 -8.70890000 8.66790000
-4.68290000 -0.61890000 -9.72440000
-4.52750000 -2.07010000 1.83430000
-4.08500000 7.19140000 -2.64110000
2.25010000 3.22380000 11.84540000
-4.37570000 -3.24740000 1.70040000
-4.45680000 -2.98190000 1.81450000
2.69500000 3.26020000 -1.84490000
-4.19890000 -3.43080000 2.22350000
-4.30710000 -3.18270000 2.35860000
2.39240000 2.30780000 12.16590000
-4.03960000 6.90890000 -2.17100000
2.41100000 4.23660000 -1.93070000
-4.40590000 -2.85790000 2.32890000
1.87110000 -9.14720000 8.94430000
2.48070000 3.84270000 -1.76540000
-3.95530000 -3.95530000 2.03320000
-4.16830000 7.43150000 -1.98410000
-4.02500000 -3.68550000 2.14480000
-4.59540000 0.63690000 -10.01240000
-4.12360000 5.99730000 -2.88120000
2.60120000 5.30280000 -3.20430000
2.56220000 1.63790000 12.26080000
2.01140000 1.39830000 12.77070000
2.40720000 1.05830000 12.58410000
-4.72330000 -0.63230000 -9.03100000
-4.21670000 5.78070000 -2.37800000
2.92320000 1.19560000 12.01590000
2.73410000 1.01950000 12.28770000
-4.15690000 6.03030000 -2.19880000
-4.50630000 1.99590000 -10.18010000
2.48240000 6.39320000 -2.56710000
-4.23980000 5.43010000 -2.03240000
-3.67060000 -11.11370000 -1.18200000
2.44420000 5.96350000 -2.12180000
2.24940000 -9.04540000 8.80270000
2.40940000 5.30370000 -2.10200000
-4.15070000 -10.28750000 -1.21520000
2.11530000 2.14970000 12.49220000
1.79950000 3.33860000 12.20950000
-3.84520000 -10.73880000 -0.48600000
-4.41710000 -9.55690000 -0.93100000
2.41890000 6.99450000 -2.39290000
-4.55410000 -9.21090000 -1.41190000
4.64360000 -7.22740000 6.12870000
4.48920000 -6.74330000 6.91490000
4.39920000 -8.31230000 6.49740000
-4.26530000 8.14500000 -2.04060000
4.45500000 -7.79800000 6.67100000
-4.29630000 9.26570000 -1.28480000
2.37050000 6.80650000 -1.90930000
-4.11670000 -10.14990000 -0.24030000
1.96070000 4.01920000 11.74200000
1.35310000 4.27390000 12.06510000
4.16320000 -8.27920000 7.07700000
-4.35340000 9.60080000 -1.76380000
-4.34300000 -9.54790000 0.04510000
2.33850000 4.86650000 -1.79840000
4.22870000 -7.58860000 7.35970000
2.32970000 4.37810000 -1.35050000
3.79010000 -8.55180000 7.56360000
-3.53830000 -11.12960000 -0.05890000
-4.67300000 0.39170000 -8.58220000
2.26190000 5.11490000 -1.13550000
3.76880000 -8.04450000 7.96100000
3.01010000 3.69200000 -6.80370000
2.96510000 4.28850000 -6.74000000
3.42200000 -8.59630000 8.09510000
2.29310000 5.77000000 -1.25730000
-3.21620000 -11.48400000 -0.00900000
2.26740000 6.45720000 -0.83870000
-3.63050000 -10.86000000 0.56550000
-3.24560000 -11.22640000 1.09880000
2.24110000 5.77770000 -0.73860000
0.83700000 4.31330000 12.40360000
2.39330000 -8.45290000 9.34460000
1.86030000 -8.71620000 9.50040000
0.54570000 3.86630000 12.70420000
2.22830000 7.51480000 -2.53870000
2.15470000 7.58490000 -3.12180000
2.03410000 7.86230000 -3.05970000
2.76920000 5.35880000 -6.12860000
-4.13100000 -9.71870000 1.32100000
2.58670000 6.31280000 -5.88450000
2.07520000 -8.01580000 10.05230000
2.35070000 7.23800000 -2.22160000
2.20600000 7.61980000 -2.02870000
1.97200000 8.08620000 -2.84060000
4.56080000 -6.21950000 6.82180000
1.82120000 8.53800000 -1.82750000
1.64310000 8.69760000 -3.05110000
2.86430000 4.87230000 -6.28400000
0.80650000 3.09080000 12.84180000
-3.94750000 -10.27050000 0.83530000
-3.58540000 -10.75880000 1.24290000
3.04340000 3.89970000 -6.08420000
2.89860000 4.48550000 -5.96730000
-2.81800000 -6.16790000 -11.06370000
-3.24540000 -5.99910000 -10.83480000
-3.87440000 -9.96610000 2.15340000
2.71860000 4.89270000 -5.85390000
-4.65570000 -8.60990000 -1.01690000
2.25180000 7.45390000 -1.62880000
2.64570000 5.07970000 -5.58330000
2.65230000 5.76200000 -5.75080000
-4.52000000 -8.88640000 0.16270000
2.24110000 7.07880000 -0.80030000
2.64530000 5.45220000 -5.29200000
-4.60510000 -8.60120000 -0.12170000
-3.18860000 -6.71000000 -10.53490000
2.02510000 8.09640000 -1.02740000
3.09400000 3.21600000 -6.05160000
-4.67900000 -7.81180000 -0.13300000
4.34700000 -6.94610000 7.33960000
2.20200000 7.45030000 -0.89410000
3.02050000 3.54790000 -5.69270000
2.91370000 3.68290000 -5.47010000
3.00430000 3.95480000 -5.85270000
2.10400000 7.85830000 -0.44520000
2.90830000 4.21980000 -5.74740000
4.34250000 -6.12910000 7.65620000
2.78570000 4.27420000 -5.58440000
1.49010000 9.11350000 -2.12390000
-3.60770000 -5.65050000 -10.65100000
2.73600000 4.05880000 -5.11890000
2.68610000 4.34380000 -5.40790000
-3.91170000 -5.01960000 -10.55400000
2.87160000 3.39630000 -5.07030000
4.42850000 -5.45420000 7.53250000
1.28860000 0.90350000 13.19700000
0.89320000 1.08550000 13.27590000
1.32400000 0.28240000 13.22050000
2.79400000 3.85540000 -4.62760000
1.42780000 9.35870000 -1.17310000
-3.65130000 -7.08360000 -9.74470000
2.62540000 4.66360000 -5.40220000
0.12570000 1.43100000 13.29470000
-3.71980000 -6.27980000 -10.20720000
1.74650000 8.75920000 -0.72580000
0.61700000 1.95200000 13.18490000
0.51990000 1.26840000 13.29700000
4.30890000 -5.06230000 7.90840000
2.63250000 4.92550000 -4.84160000
-4.65890000 -7.10450000 -0.08420000
0.94360000 2.02800000 13.08560000
1.42550000 1.28970000 13.10480000
4.02760000 -5.79920000 8.39670000
-3.98230000 -6.94070000 -9.32780000
-4.66370000 -7.17920000 0.48580000
2.67970000 4.46910000 -4.60530000
-3.93370000 -5.76430000 -10.22670000
-4.16140000 -5.84360000 -9.81620000
-4.19660000 -5.19790000 -10.03390000
3.65240000 -6.71590000 8.79970000
3.44850000 -7.35460000 8.86690000
-4.61130000 -7.97930000 0.89940000
-4.22400000 -6.55980000 -9.09750000
4.01890000 -6.48080000 8.23710000
-4.41690000 -5.38940000 -9.38180000
2.01690000 8.20140000 0.58690000
-4.40810000 -6.16260000 -8.88290000
-4.60270000 -7.21140000 1.71360000
2.34630000 7.07370000 -5.53050000
0.59910000 -0.07260000 13.27250000
0.30630000 0.54860000 13.31420000
-4.31210000 -9.24810000 1.19740000
2.17430000 7.65500000 -5.26680000
1.01890000 0.17220000 13.27330000
1.89950000 8.58770000 -5.33460000
2.22010000 6.82320000 -0.02720000
3.52220000 -5.47870000 9.62170000
1.90140000 8.22310000 -5.08850000
1.85380000 8.09360000 -4.79120000
4.22880000 -3.92870000 8.16220000
3.99990000 -4.47640000 8.67830000
2.42550000 6.74170000 -5.23840000
2.15830000 7.53610000 0.02550000
2.55950000 6.25920000 -5.02360000
3.92440000 -5.07310000 8.81460000
-4.39640000 -8.66430000 2.02130000
-4.48700000 -8.11670000 2.24570000
-3.97940000 -4.20860000 -10.69440000
2.44480000 6.77760000 -4.92690000
2.15440000 7.54950000 -4.93960000
2.31570000 7.14470000 -4.69120000
-4.30980000 -3.75350000 -10.21540000
-4.22830000 -4.49100000 -10.22370000
2.06530000 7.66520000 -4.53860000
2.15170000 7.71580000 0.75710000
-4.47990000 -4.03410000 -9.79280000
1.27330000 9.62120000 -1.73430000
2.20960000 0.63350000 12.81980000
1.82140000 0.75960000 13.01860000
3.94490000 -3.85170000 9.02150000
2.51260000 6.64030000 -4.19730000
1.69870000 0.33220000 13.10780000
1.12030000 10.15690000 -1.61330000
1.17860000 9.80390000 -1.11500000
1.13590000 10.09890000 -1.04220000
-4.60090000 -3.23280000 -9.66770000
-4.63980000 -2.45350000 -9.72550000
-4.69780000 -2.66760000 -9.16930000
-4.69770000 -3.25600000 -9.25550000
3.61860000 -4.75840000 9.69160000
-4.55830000 -4.25280000 -9.44960000
2.32260000 7.08100000 -4.12440000
2.21910000 7.35380000 -3.99360000
1.88710000 8.04750000 -4.04170000
1.27280000 9.88350000 -0.47340000
1.38630000 9.49690000 -0.29630000
-2.97620000 -11.57890000 0.72990000
1.60910000 9.01440000 -0.02430000
2.14050000 7.63990000 -3.63310000
-4.62440000 -4.88790000 -8.85250000
-4.68350000 -4.00320000 -8.94920000
0.67600000 2.62760000 13.03270000
3.76560000 -3.93600000 9.59770000
1.20920000 10.26100000 -0.66470000
1.04380000 10.56030000 -1.56220000
1.13210000 10.59550000 -0.63600000
-2.67520000 -11.69200000 1.33620000
-4.73000000 -3.68640000 -8.33950000
-4.72650000 -2.67860000 -8.60170000
0.91800000 10.96760000 -0.90770000
1.08040000 10.80470000 0.03450000
3.31370000 -7.83170000 8.81660000
2.92750000 -8.17830000 9.06150000
-3.77960000 10.78150000 6.66010000
-3.28260000 11.72440000 6.14830000
-3.62310000 11.37330000 6.15030000
-3.48580000 11.14590000 6.74610000
2.81690000 -7.55640000 9.69940000
-3.03870000 -11.22550000 1.78670000
-2.60700000 -11.43520000 2.35210000
-3.38400000 -10.86380000 1.74930000
1.55960000 9.37350000 0.84920000
-3.10240000 11.50230000 6.77060000
-3.59390000 -10.15850000 2.93200000
-2.86860000 12.02980000 6.13000000
0.77010000 10.33520000 -4.82340000
-2.61170000 11.93950000 6.55360000
-2.74740000 11.75420000 6.75310000
1.44620000 10.04560000 0.47660000
-1.60160000 12.13280000 -5.47460000
-1.36530000 12.10460000 -5.28860000
-4.55530000 -5.87400000 -8.48350000
-3.23540000 10.85830000 7.46820000
1.41000000 10.43360000 0.66250000
-3.05250000 -10.84270000 3.02050000
3.26280000 -6.27130000 9.75760000
-3.25120000 -10.48470000 3.36820000
3.04590000 -7.09530000 9.64580000
-1.18110000 12.06480000 -5.01110000
-2.20330000 -11.85970000 1.83410000
-0.72590000 11.62620000 -4.92190000
1.27750000 10.72640000 0.72410000
3.04810000 -6.58240000 9.97670000
-3.90280000 9.68560000 7.64490000
1.87770000 8.51810000 1.08130000
-4.21750000 9.07930000 7.26110000
2.46430000 -8.09220000 9.66830000
-3.89940000 -7.72600000 -8.82810000
2.54300000 -7.73810000 9.91110000
0.03590000 10.90550000 -5.04670000
1.68910000 8.97630000 1.06020000
-4.15960000 -7.56390000 -8.27180000
-0.28530000 11.24650000 -4.76070000
-4.40530000 -6.81770000 -8.17720000
-3.62690000 10.33940000 7.50540000
-4.53840000 -6.49830000 -7.64780000
0.41020000 10.61970000 -5.02620000
-3.66930000 9.71390000 8.11070000
0.40320000 10.89970000 -4.41520000
2.14960000 -7.24530000 10.66770000
1.47710000 10.58540000 1.12530000
-3.34430000 10.20400000 8.11060000
1.67110000 9.59500000 1.29770000
1.78860000 9.76130000 1.64760000
-2.72510000 11.30090000 7.38580000
2.78000000 -6.74490000 10.27560000
-2.16810000 11.79600000 6.96690000
-2.43890000 11.64860000 7.09930000
-2.91100000 10.69960000 7.98370000
2.44790000 -7.08720000 10.47710000
-0.69000000 11.81970000 -4.18580000
1.71560000 10.10580000 1.59050000
1.64500000 10.37110000 1.71150000
2.20650000 -6.76510000 10.93100000
-2.22410000 11.37790000 7.58260000
-4.44470000 -7.09950000 -7.57330000
-1.92920000 11.55490000 7.38410000
3.21800000 -5.55860000 10.20690000
2.45120000 3.86130000 -1.16180000
-2.32850000 11.02080000 8.00180000
2.96240000 -5.85630000 10.53340000
3.03870000 2.31640000 -1.05280000
-4.13050000 -9.12060000 2.87850000
2.63210000 -6.42650000 10.62000000
-4.57570000 -6.20420000 -7.31520000
2.52880000 -6.11510000 10.98440000
1.71030000 8.75330000 -4.87730000
1.66620000 9.16550000 -5.03400000
-4.62520000 -5.59560000 -8.06840000
2.13070000 -6.18130000 11.30440000
-4.68840000 -4.81330000 -8.29960000
3.16660000 1.76560000 -0.67120000
1.59780000 9.15050000 -4.69830000
-4.74530000 -4.43160000 -8.03220000
1.62890000 8.61160000 -4.61310000
2.41780000 -5.69750000 11.34420000
1.63570000 8.51930000 -4.40270000
2.16560000 -5.57850000 11.65430000
1.46220000 9.14140000 -4.38560000
-2.48660000 10.49700000 8.49830000
1.39670000 9.00620000 -4.09540000
2.70370000 3.15290000 -0.67070000
3.18930000 -4.90370000 10.53510000
1.38970000 9.64570000 -4.98630000
-3.84700000 -9.42720000 3.68820000
-3.05920000 10.09870000 8.53750000
2.93690000 -5.44990000 10.83400000
-4.60500000 -5.42020000 -7.62380000
-2.63170000 10.20690000 8.70980000
1.08370000 9.97390000 -4.59030000
-4.70130000 -4.72880000 -7.62310000
0.85990000 10.31080000 -4.40880000
-4.20540000 -8.55360000 3.69870000
-4.26680000 -8.12530000 4.10860000
-4.54470000 -5.39260000 -7.27540000
-4.52430000 -5.10700000 -7.11100000
1.40770000 9.53730000 -4.61860000
-4.72600000 -4.31460000 -7.52230000
-4.71390000 -3.71800000 -7.59150000
1.27920000 9.58510000 -4.35550000
2.95830000 2.34670000 0.64320000
1.22480000 9.36240000 -3.89320000
1.11250000 9.85250000 -4.17200000
0.98090000 10.19470000 -4.01100000
-3.97840000 -8.82090000 4.35570000
1.17940000 9.57790000 -3.64470000
1.08210000 10.04960000 -3.62210000
-4.61920000 -4.64070000 -7.13840000
3.16550000 1.49840000 -0.02980000
-4.63270000 -3.85260000 -7.16390000
2.55830000 -5.20020000 11.45620000
-4.17680000 8.45770000 7.99900000
1.64330000 8.57390000 -3.73710000
-4.47760000 -4.65640000 -6.80360000
-4.49570000 -3.66410000 -6.76340000
-4.31850000 -4.56150000 -6.57770000
-4.54330000 6.26400000 7.33200000
-3.22900000 -9.35720000 6.02410000
-3.59370000 -9.41930000 4.70230000
-2.90480000 -9.73480000 6.05440000
-4.49400000 -5.60060000 -6.82900000
1.40420000 8.96630000 -3.65250000
-2.88600000 -9.31370000 6.85190000
1.27670000 9.21080000 -3.52140000
-4.33460000 -5.34480000 -6.56800000
2.26420000 4.95570000 -0.78520000
-2.27560000 -10.02710000 6.62750000
-4.50950000 -6.03710000 -6.73340000
-4.46020000 6.14490000 8.63800000
1.38000000 9.17040000 -2.98540000
-4.36410000 6.99470000 8.42470000
-1.44660000 -10.56010000 6.68970000
1.22070000 9.55020000 -3.17700000
2.40720000 4.09980000 -0.34340000
-4.39370000 -5.91410000 -6.49010000
2.34790000 4.56980000 -0.40650000
-1.79200000 -10.46810000 6.53330000
2.55490000 3.55080000 0.07210000
1.29400000 9.44240000 -2.51000000
-4.20080000 7.73050000 8.42720000
-3.99690000 8.44600000 8.52100000
2.48990000 4.02420000 0.49090000
2.42760000 4.51870000 0.01970000
-3.71290000 -3.34170000 -6.38120000
-4.03330000 -3.87500000 -6.43160000
-3.76990000 -4.67960000 -6.30290000
-3.72850000 -8.74690000 5.52670000
2.21410000 5.55420000 -0.43490000
0.66630000 10.87470000 -3.83430000
-3.48410000 -4.26190000 -6.20060000
0.33660000 11.27330000 -3.79070000
2.38920000 4.84080000 0.12060000
2.29020000 5.18940000 0.03750000
-2.09800000 -9.92800000 7.20100000
-3.30120000 -3.76410000 -5.93160000
-3.30020000 -4.43580000 -5.94780000
-4.08720000 7.22800000 9.16300000
-4.60900000 -6.79270000 0.36990000
-2.42310000 -9.68190000 7.15740000
-3.84860000 8.01270000 9.14390000
0.87390000 10.62220000 -3.51670000
-4.08260000 -5.08760000 -6.40030000
-4.15750000 -5.74580000 -6.30060000
-4.43200000 -6.42230000 0.50260000
2.23240000 6.08870000 0.08610000
2.25460000 5.86420000 0.41130000
-4.56220000 -6.60540000 0.75210000
-2.18400000 -9.57260000 7.71360000
-4.31220000 -6.24880000 0.90040000
-3.82650000 -5.35480000 -6.24870000
-3.90820000 -5.74320000 -6.13360000
0.73230000 11.07390000 -3.09850000
-4.61730000 -6.88790000 1.01450000
-3.58160000 -5.35010000 -6.07500000
-3.71460000 -5.74300000 -5.94810000
-3.76090000 7.46250000 9.69160000
-3.57420000 8.22440000 9.40240000
-3.52890000 7.59950000 9.97520000
2.32380000 5.68130000 0.85900000
-3.41050000 -5.54280000 -5.62690000
-3.42550000 -5.33440000 -5.88310000
-1.18100000 -10.40870000 7.10480000
0.48580000 11.37750000 -3.21290000
-4.48180000 -6.45900000 1.19740000
-4.06870000 -5.94620000 1.10800000
-4.14700000 -6.09270000 1.52270000
2.75440000 2.91300000 0.86540000
-4.30900000 -6.27410000 1.70690000
-4.49530000 -6.54500000 1.61190000
-0.89570000 -10.37110000 7.35350000
-4.03540000 8.98680000 8.02600000
2.48910000 4.55030000 0.90910000
-3.94090000 -5.70210000 1.39020000
-1.66170000 -10.04760000 7.46230000
-3.96740000 -5.85590000 1.59130000
-3.48330000 -4.93550000 -6.11310000
0.51840000 11.47470000 -2.71290000
-3.88990000 -5.16170000 1.73380000
-3.31840000 -4.90360000 -5.92060000
3.10820000 1.10300000 0.17380000
1.10490000 10.16860000 -3.11450000
-4.56650000 -6.83330000 1.99270000
-3.28150000 -4.20370000 -5.70530000
-1.78810000 -9.65960000 8.02620000
-3.27250000 -4.67110000 -5.79420000
-4.45450000 -6.54880000 2.20620000
-3.27750000 -5.22120000 -5.53550000
1.16250000 9.94780000 -2.58460000
-3.29700000 -4.83430000 -5.44540000
1.00350000 10.57180000 -2.94160000
-1.17730000 -10.11980000 7.71650000
0.82820000 10.96770000 -2.79980000
3.09610000 1.89200000 0.70840000
1.04290000 10.48340000 -2.33970000
-3.40760000 9.73440000 8.49930000
-3.37000000 -4.54870000 -5.37130000
-3.53480000 -4.15080000 -5.22730000
-3.30590000 -3.93950000 -5.55210000
-1.37070000 -9.81500000 8.07390000
-3.79840000 8.96820000 8.55700000
-4.54600000 -7.02280000 2.65910000
3.12440000 1.48780000 0.86500000
1.20660000 9.75930000 -2.13550000
-3.84260000 -5.55300000 1.86810000
-3.46760000 -4.66580000 -5.14710000
-3.89370000 -4.89230000 1.88850000
-3.75440000 -5.31850000 2.17080000
-3.75870000 -5.02690000 2.27570000
-3.71020000 -4.29140000 -5.02600000
-3.64650000 8.83720000 8.90400000
-4.00260000 -6.00800000 2.06760000
0.76580000 11.11250000 -2.21480000
-3.79540000 -5.70320000 2.30220000
-4.69990000 -1.81360000 -9.67540000
-3.85290000 -5.86800000 2.48170000
0.64110000 11.35870000 -1.97160000
-3.29910000 9.24210000 9.01150000
-3.72150000 -5.43030000 2.44150000
-3.71460000 -5.21760000 2.72970000
-3.75060000 -5.63990000 2.90650000
2.57770000 3.86780000 1.13480000
-2.93760000 9.75530000 8.88900000
2.69570000 3.17960000 1.74980000
-4.75070000 -1.79400000 -8.93250000
-0.77950000 -9.94690000 8.13190000
-4.49000000 -6.72210000 2.73280000
2.62180000 3.69260000 1.62150000
-4.26090000 -6.32710000 2.52600000
-4.02900000 -6.10270000 2.82720000
-4.36040000 -6.44070000 3.00130000
2.38270000 6.13940000 1.52470000
-4.47440000 -6.69090000 3.33090000
0.21240000 -9.91380000 8.33870000
-3.89530000 -5.94930000 3.01620000
-3.26890000 8.41230000 9.63540000
-0.64740000 -9.61600000 8.64460000
-3.75630000 -5.53480000 3.41120000
-0.06380000 -9.34790000 9.08810000
-3.83780000 -5.79420000 3.46260000
2.65280000 4.37040000 1.77460000
-4.09970000 -6.12350000 3.48400000
-4.31110000 -6.34620000 3.50570000
0.77160000 9.74510000 7.15790000
0.74780000 9.30280000 7.85940000
2.63400000 4.95640000 1.97480000
-3.56260000 -8.67950000 6.22030000
2.68080000 3.90870000 2.03100000
-3.81110000 -8.14370000 6.16600000
-3.96680000 -5.93010000 4.18630000
-4.68310000 -0.66270000 -8.00610000
-3.33810000 -8.83680000 6.59430000
-3.91460000 2.30950000 -2.17830000
-3.98200000 1.99500000 -2.21230000
2.82500000 4.53380000 2.60280000
-3.96550000 -4.44700000 2.31450000
2.96300000 4.82620000 3.17330000
-3.91450000 0.56910000 -2.35180000
-4.04560000 0.94040000 -2.12670000
-3.81340000 -4.84570000 2.59470000
-3.48210000 -8.08170000 7.42410000
-3.72030000 0.00250000 -2.10020000
-3.86180000 0.46080000 -2.07610000
-3.84600000 0.13400000 -1.66650000
0.19910000 9.57350000 8.44190000
-3.95370000 -4.16960000 2.47010000
-3.94350000 -3.83860000 2.53900000
-3.95670000 -7.34160000 6.93720000
-3.98120000 0.36440000 -1.55810000
-0.58890000 10.74370000 7.89260000
-0.92830000 10.92590000 7.94710000
3.05880000 0.72390000 1.01650000
3.06130000 1.08830000 0.96120000
-4.07370000 0.65670000 -1.51140000
-3.91700000 -4.05130000 2.97630000
-1.63590000 11.44810000 7.51400000
-3.86040000 -4.72460000 3.05300000
-3.69120000 -7.53680000 7.59090000
-4.05560000 1.58380000 -2.11490000
-4.73570000 -2.71990000 -7.94250000
-3.77990000 -4.97490000 3.28400000
-4.07290000 1.17900000 -1.91820000
-3.94730000 -4.36780000 3.33870000
-1.33530000 11.10090000 7.90480000
-1.92910000 11.15330000 7.94690000
-1.61010000 10.72600000 8.40910000
-3.97130000 2.12760000 -1.69480000
3.16120000 0.64700000 1.72800000
3.06730000 1.21130000 1.46170000
-3.93510000 1.71410000 -1.50710000
-4.01140000 -3.56690000 2.64750000
-3.99470000 1.38520000 -1.56070000
-4.11010000 0.91970000 -1.32300000
-4.07720000 -3.25900000 2.78100000
3.07040000 1.35020000 1.93040000
-3.20710000 -8.63200000 7.30850000
-4.02610000 1.24370000 -1.27400000
-3.96290000 1.88450000 -1.14660000
2.80740000 2.66250000 1.61540000
-3.94650000 1.51170000 -1.07990000
-3.89330000 -3.70540000 3.23230000
-1.25100000 10.55660000 8.56040000
-1.57490000 9.81980000 9.43310000
-1.72670000 10.29040000 8.96570000
-1.86550000 9.96620000 9.27910000
-3.92940000 -3.24390000 3.11710000
-2.07640000 10.71510000 8.38110000
-2.81350000 -8.76090000 7.89950000
-3.96030000 1.90270000 -0.80620000
3.08320000 1.68800000 1.45130000
-2.57040000 -9.28190000 7.57720000
-3.93130000 -3.17370000 3.33860000
2.99280000 1.92090000 1.90550000
-3.96480000 2.71520000 -2.24390000
-4.07290000 3.11650000 -2.07120000
-4.70540000 -2.37460000 -7.53000000
-3.95010000 2.73730000 -1.90450000
-3.98110000 -4.14010000 4.03490000
-3.93510000 -3.63730000 3.61240000
-4.60470000 -0.46580000 -7.55350000
-2.12780000 10.40760000 8.76960000
-4.16610000 3.51610000 -1.88510000
-4.08030000 -3.46890000 3.87440000
-2.15740000 10.09260000 9.07780000
-3.75270000 -5.28640000 3.53000000
-4.05050000 3.24920000 -1.59420000
-3.89540000 -4.82890000 4.20570000
-4.21160000 4.03930000 -1.96740000
-3.02070000 -8.31270000 8.09300000
-4.10800000 4.51210000 -1.85910000
-0.23960000 10.48530000 7.84070000
-4.63610000 -2.28950000 -7.17380000
-4.54820000 -0.85460000 -7.25400000
-4.11830000 4.80960000 -1.70740000
-3.36170000 -7.74640000 8.23280000
2.90850000 2.15250000 2.28270000
-3.80720000 -5.15070000 4.03850000
-4.23190000 3.82860000 -1.48690000
-4.50190000 -2.68910000 -6.83870000
-3.96840000 -4.58860000 4.19760000
-4.17490000 3.60640000 -1.33360000
-3.82050000 -5.55370000 4.13290000
-4.44170000 -1.21500000 -6.94920000
-4.21410000 4.26740000 -1.30060000
-4.22770000 -1.10460000 -6.71320000
-0.77580000 10.45020000 8.48110000
-0.19530000 10.11570000 8.30190000
-4.15660000 4.51850000 -1.11210000
-0.52950000 10.11370000 8.63680000
-3.84650000 -5.43290000 4.64320000
3.23140000 0.31440000 2.62240000
-4.03780000 2.57210000 -1.59190000
-2.81740000 -8.18280000 8.69680000
3.19260000 0.94180000 2.32280000
-3.16760000 -7.74030000 8.63670000
-4.08740000 2.37080000 -1.40460000
-4.12720000 -6.45580000 7.15860000
3.23300000 0.68940000 2.70720000
-4.03360000 2.98810000 -1.45210000
-3.98930000 -3.92300000 4.21550000
-4.10310000 2.71770000 -1.20000000
-4.06990000 -3.65600000 4.32640000
-4.03470000 -6.54150000 7.61430000
-4.05680000 3.25570000 -1.23350000
-1.11800000 10.15670000 8.98420000
-4.05110000 2.94450000 -0.53500000
-4.04160000 2.15060000 -1.03260000
-4.08400000 2.54310000 -0.87740000
-0.86760000 10.09860000 8.91110000
-4.03950000 -4.41840000 4.72270000
-4.00240000 2.40930000 -0.47670000
-3.77200000 -7.07660000 7.98160000
-4.07220000 -3.90930000 4.89050000
-3.92610000 -6.37360000 8.16270000
-4.07020000 -4.15360000 5.05780000
3.24080000 0.55980000 3.41340000
-1.24210000 9.69750000 9.52840000
3.05640000 1.44380000 2.44250000
-0.12270000 9.42150000 9.10350000
-0.62720000 9.75330000 9.17370000
-4.13260000 3.27320000 -0.56240000
-4.23310000 3.52050000 -0.44290000
-4.49700000 -7.19450000 3.43760000
3.19510000 1.23190000 2.79250000
-4.27320000 3.94340000 -0.63030000
-4.12180000 -5.48920000 8.23180000
3.18570000 1.60430000 3.11550000
-4.23800000 4.24620000 -0.50790000
2.97730000 1.82360000 2.60370000
2.93270000 2.38570000 2.70870000
3.09660000 1.98290000 3.16140000
-0.32960000 9.18750000 9.61510000
-4.46170000 0.88200000 -7.29760000
-4.37830000 -7.75480000 3.98340000
-0.81830000 9.57750000 9.53300000
-4.30450000 4.12110000 0.09960000
-4.30060000 3.46680000 0.30030000
-3.53830000 -7.11830000 8.51680000
3.27850000 1.14340000 3.20350000
-4.38230000 -7.35760000 4.42390000
-4.02000000 6.43690000 -2.24260000
-4.39220000 -6.61390000 3.89670000
-4.41920000 -6.94970000 4.17850000
3.31650000 1.67080000 3.61990000
-3.66360000 -6.41410000 8.84820000
-4.14470000 6.10630000 -1.72710000
-4.20260000 -6.23510000 4.29180000
-4.35990000 0.07390000 -7.01380000
-4.14170000 0.72770000 -6.81330000
-4.25190000 5.73700000 -1.47800000
-4.04450000 6.60790000 -1.52410000
-4.29130000 -6.41950000 4.49780000
-2.56130000 9.77750000 9.10260000
-2.85980000 8.98350000 9.56780000
-3.85680000 -5.80660000 8.77510000
2.77550000 3.03840000 2.29230000
2.82760000 3.79360000 2.68060000
-3.95270000 -4.76370000 9.04790000
-2.27190000 9.53010000 9.50840000
-4.08710000 6.37010000 -0.99780000
-4.11960000 6.99420000 -0.89540000
-4.22220000 7.51200000 -1.35280000
-1.90590000 9.42410000 9.74220000
-4.35930000 -6.93630000 4.75270000
-4.33000000 -6.65340000 4.78190000
-2.50710000 8.50230000 10.11950000
-3.69750000 -5.19010000 9.45780000
-4.26680000 8.67300000 -0.68490000
-4.64560000 -3.28200000 -7.09670000
-3.28880000 -7.31470000 8.82310000
-4.20220000 -6.30940000 5.24890000
-3.02640000 8.12550000 10.07080000
-3.18630000 -7.00910000 9.34460000
-4.06620000 -8.11130000 5.17140000
2.91370000 3.13660000 2.94780000
-4.24360000 -7.57330000 4.99440000
-3.43550000 -6.36350000 9.39680000
-4.26290000 -2.71090000 -6.62650000
-4.31180000 -3.55690000 -6.56910000
-4.26490000 7.91550000 -0.64630000
-2.29400000 -9.26060000 8.11540000
3.00080000 3.85230000 3.29550000
-1.96060000 -9.30380000 8.42560000
-2.41560000 -8.90930000 8.39110000
-4.25430000 -7.21350000 5.32230000
-3.68940000 -1.26090000 -6.37790000
-3.95600000 -0.96410000 -6.54670000
-3.68320000 -2.24420000 -6.40540000
-3.95870000 -2.67190000 -6.50530000
-2.18430000 -8.84120000 8.75390000
-4.22170000 7.36990000 -0.28210000
-3.45730000 -1.68210000 -6.16180000
-4.29370000 -6.86880000 5.22370000
-3.49860000 -1.00660000 -6.13930000
3.14140000 4.27220000 3.70740000
-1.37010000 -9.47560000 8.61880000
-3.40060000 -1.58080000 -5.94750000
-3.41570000 -1.33440000 -5.74860000
-1.37420000 9.26190000 9.97980000
-1.64740000 -9.23480000 8.76790000
-3.86410000 0.82310000 -6.61790000
-3.64440000 0.07550000 -6.37470000
-3.63240000 1.07170000 -6.42000000
-4.22840000 -6.45520000 5.54010000
-1.94260000 8.57410000 10.34100000
-4.23190000 -6.83250000 5.68290000
-1.58490000 9.10240000 10.09220000
-1.74710000 -8.78460000 9.19510000
3.07580000 2.78130000 3.28270000
-0.69660000 9.12000000 9.93710000
-1.03990000 9.36600000 9.83400000
-3.47810000 0.67310000 -6.10970000
-2.44320000 -8.24500000 9.16640000
3.12720000 2.32820000 3.45170000
-2.82360000 -7.69230000 9.20580000
-1.23090000 8.59800000 10.47110000
-0.96340000 8.86140000 10.24870000
-1.97440000 -8.32210000 9.54350000
3.25070000 2.90610000 3.87320000
-3.92570000 -5.79800000 4.67640000
-2.42900000 -7.71660000 9.70320000
-4.10750000 -6.08810000 5.04030000
3.26020000 2.24000000 3.80530000
-3.89390000 -5.55640000 5.11610000
3.16750000 3.57260000 3.81260000
-2.17860000 8.03530000 10.69030000
-3.87720000 -5.10730000 5.03480000
-4.19700000 4.97580000 -1.37030000
-0.92860000 -9.28320000 9.04150000
-3.48860000 -0.33450000 -6.12670000
-1.54900000 8.38240000 10.61690000
-3.42960000 -0.23940000 -5.92620000
-3.42630000 0.17480000 -5.66770000
-1.25610000 8.02670000 10.94640000
-4.26520000 5.20840000 -1.17470000
-1.68660000 7.84370000 11.03050000
-1.27570000 -8.70940000 9.53930000
-3.97170000 -5.78350000 5.30090000
-4.12460000 -6.01950000 5.68820000
-3.42790000 -0.77790000 -5.86070000
-3.43230000 -0.80840000 -5.65980000
-4.23530000 5.90980000 -1.12420000
-4.29340000 5.52370000 -0.75850000
-0.89780000 -8.73990000 9.64940000
-0.28510000 -8.96980000 9.55450000
-3.96700000 -4.58290000 5.29410000
-1.66540000 -8.32300000 9.75600000
2.25470000 6.90180000 0.82970000
-4.16870000 4.63940000 -0.60090000
-4.23010000 4.90400000 -0.47240000
-4.31460000 5.25770000 -0.14380000
-1.93710000 -7.80980000 10.03670000
-3.43580000 0.56320000 -5.82520000
-3.47470000 0.77600000 -5.55810000
-4.18760000 6.04130000 -0.66440000
-4.34330000 6.13520000 9.26200000
-3.49740000 0.01460000 -5.39860000
-4.14080000 6.32740000 -0.13790000
-3.64410000 -0.46160000 -5.18830000
-3.51320000 -0.65570000 -5.42960000
-4.09060000 6.65710000 -0.50350000
-1.26620000 -8.13290000 10.16350000
-4.16120000 6.91390000 0.39510000
-1.56340000 -7.81470000 10.28740000
-4.16080000 5.91300000 9.83800000
-4.27530000 5.82700000 -0.34520000
-3.59180000 0.33300000 -5.03200000
-3.61370000 0.00530000 -5.07300000
-2.78680000 -7.24140000 9.74020000
-4.26040000 6.03040000 0.39810000
2.21420000 7.67910000 1.60240000
-3.66890000 0.53070000 -4.76400000
-3.88280000 6.55580000 9.98960000
-2.96530000 -6.69190000 9.91630000
-3.94700000 0.03690000 -1.14210000
-4.13480000 0.37060000 -0.91180000
-4.21490000 4.46730000 -0.10850000
-2.45240000 -7.04790000 10.28150000
-3.83660000 -0.32770000 -0.67900000
-4.21310000 4.71920000 -0.04890000
1.80530000 8.70160000 1.74830000
-4.29010000 4.76910000 0.16960000
1.77550000 8.94460000 1.84400000
-3.95200000 -0.01230000 -0.69840000
-3.23290000 -6.22690000 9.84460000
-4.33830000 5.51370000 0.32720000
-3.41640000 -3.00640000 -6.18900000
-3.45080000 -3.35980000 -6.23380000
-3.45370000 -2.34600000 -6.18970000
-4.06230000 0.20790000 -0.34140000
-3.35930000 -5.50390000 9.98410000
-4.16870000 6.54510000 0.81140000
-3.36720000 -2.36660000 -5.87880000
-3.31550000 -3.08400000 -5.86290000
-4.18480000 1.08880000 -0.86550000
-4.21430000 0.63270000 -0.78930000
-4.07680000 1.48810000 -0.74100000
-4.23200000 1.48860000 -0.43550000
-2.85790000 -6.24760000 10.36060000
-4.30160000 0.96600000 -0.45130000
-4.30260000 0.58860000 0.01120000
-3.07980000 -5.51440000 10.43830000
-4.36090000 1.34200000 -0.00190000
-2.82200000 -5.49010000 10.78740000
-4.37320000 0.85470000 0.13060000
-3.38080000 -1.82670000 -5.76930000
-3.88940000 -0.12060000 -0.41650000
-2.11190000 -7.38590000 10.30590000
2.31750000 7.26760000 2.04610000
-3.84940000 -0.71310000 -0.20600000
-2.06610000 -6.73950000 10.78900000
-3.86020000 -0.93420000 -0.09870000
-3.99780000 -0.54940000 0.05530000
-3.90540000 -0.26310000 -0.10860000
-1.58830000 -7.41050000 10.60190000
-4.09680000 0.13510000 0.01770000
-3.77960000 -1.97350000 -5.13910000
-4.00210000 -2.25470000 -4.82860000
-3.93230000 -1.67660000 -4.92850000
-4.22490000 -0.00600000 0.25060000
-4.00160000 5.41730000 10.36460000
-1.68160000 -6.73410000 11.02360000
-2.54260000 -6.24230000 10.70100000
-3.36780000 -3.20230000 -5.53080000
-3.59650000 6.91610000 10.26930000
-4.30160000 -0.68100000 0.38060000
-4.06050000 -0.94710000 0.14730000
-2.28270000 -5.87680000 11.09490000
-3.22940000 7.52810000 10.36320000
-4.36380000 -0.14700000 0.47640000
-3.38470000 6.78740000 10.58170000
-1.90100000 -5.93120000 11.36640000
-3.41880000 -2.26180000 -5.57670000
-3.65850000 5.70420000 10.69750000
-4.36200000 0.39150000 0.41320000
-4.46060000 0.92130000 0.91220000
-3.43470000 -1.59110000 -5.56700000
-3.55250000 -1.46310000 -5.35930000
-2.88310000 7.49130000 10.65430000
-4.43160000 0.33890000 0.67620000
-3.53300000 -2.73840000 -5.34460000
0.69800000 -9.37540000 9.02450000
2.47990000 6.54630000 2.37620000
-4.48690000 -0.08080000 1.14840000
-4.23560000 7.14730000 1.36880000
-4.26310000 8.12600000 1.11240000
2.75020000 5.89560000 3.02580000
-3.72110000 -2.87880000 -5.15180000
-3.06040000 6.76110000 10.92030000
-3.45360000 -3.74520000 -5.32210000
-4.02360000 2.03590000 -0.35320000
-3.77380000 -3.62000000 -5.04810000
-4.17350000 1.90390000 -0.12910000
-4.31170000 1.74040000 0.10120000
-3.94030000 -3.09020000 -4.82050000
-3.92120000 -3.76090000 -4.82810000
-4.02420000 2.42050000 -0.10660000
-4.10370000 2.81730000 0.09460000
-4.12590000 2.40140000 0.21280000
2.34500000 7.51020000 2.55860000
-4.03160000 -2.96250000 -4.59510000
-3.91090000 -2.68390000 -4.95000000
-3.23430000 5.73350000 11.14040000
2.47830000 7.50310000 2.95710000
2.70470000 6.96810000 3.63230000
-4.35820000 2.06240000 0.66860000
-4.25620000 2.30560000 0.48330000
0.50570000 -8.93790000 9.59130000
-4.07070000 -2.22550000 -4.55850000
-4.25970000 3.15050000 0.38880000
0.13530000 -8.32410000 10.20410000
-4.18540000 2.82660000 0.40090000
0.71530000 -8.40360000 10.14040000
-4.06930000 -2.44060000 -4.08130000
-4.07350000 -2.05450000 -4.21520000
-0.44190000 -8.56030000 9.93380000
-4.26960000 2.66590000 0.70570000
-4.27670000 2.93860000 1.04050000
-4.38510000 2.04340000 1.22980000
-2.40740000 7.45630000 11.02160000
2.85210000 6.19730000 3.74310000
-2.63600000 6.30870000 11.41630000
-2.67580000 6.96680000 11.14400000
-3.73640000 -1.10060000 -5.14840000
-2.30690000 6.95780000 11.36490000
-4.22220000 2.96590000 1.58370000
-4.43130000 1.52050000 0.87200000
-0.85450000 -8.00880000 10.41680000
2.06180000 8.17550000 1.94910000
-1.88050000 7.36420000 11.30610000
-0.33460000 -7.91910000 10.56980000
-3.89070000 -0.87590000 -4.80080000
-3.75430000 -0.40600000 -4.71430000
2.25190000 7.91320000 2.27740000
-3.95990000 -1.41360000 -4.78260000
2.15440000 8.37110000 2.33070000
1.93780000 8.56890000 2.12960000
1.89710000 8.87210000 2.18510000
-3.91810000 -0.69570000 -4.42330000
1.38600000 -8.97620000 9.39580000
-2.16430000 5.93320000 11.80750000
-4.02270000 -1.42130000 -4.39820000
2.06640000 8.86250000 2.42210000
-3.98350000 -1.02820000 -4.14070000
-3.64290000 -0.00350000 -4.68500000
-1.79730000 6.53160000 11.72850000
1.13450000 -8.61350000 9.86120000
2.39320000 8.12070000 2.54750000
2.31350000 8.61940000 2.63710000
-3.68310000 -0.07730000 -4.13210000
2.46920000 8.39640000 2.85540000
-4.47600000 1.56010000 1.91910000
2.41500000 8.83890000 3.03580000
1.92290000 9.24190000 2.14870000
-4.30790000 2.40950000 1.45680000
-4.36280000 2.27010000 1.84630000
-3.63550000 0.30100000 -4.22980000
2.04770000 9.48510000 2.43050000
1.93790000 9.82430000 2.36150000
-3.78750000 -0.33950000 -4.18110000
1.79360000 10.08590000 2.44370000
-3.89500000 -0.76500000 -3.90790000
2.15440000 9.11310000 2.57090000
-4.28390000 2.68100000 2.16040000
-3.69530000 -0.29820000 -3.67170000
-3.63460000 0.03950000 -3.62570000
1.93610000 9.84800000 3.06630000
1.61140000 -8.42600000 9.91320000
2.22440000 9.30420000 2.79340000
2.24050000 9.35400000 3.27860000
2.12650000 9.61070000 2.93260000
-4.38400000 -1.30840000 0.57560000
-3.99200000 -1.59000000 -3.85810000
2.52690000 7.89760000 2.99650000
0.58770000 -7.66850000 10.76580000
1.36180000 -7.90460000 10.46590000
1.80210000 -7.83910000 10.37510000
1.92390000 9.78280000 3.63100000
-3.80420000 -1.36780000 -3.48510000
2.59360000 8.06970000 3.28520000
2.55780000 8.53360000 3.35070000
2.71920000 8.14640000 3.62920000
2.73570000 8.29780000 3.91510000
2.73660000 7.61450000 3.66080000
-3.76230000 -1.38780000 -3.19620000
1.52850000 -7.35610000 10.86720000
1.53020000 7.93530000 8.34100000
2.86940000 7.26850000 4.19600000
2.81960000 7.79060000 4.05330000
-3.77550000 -0.70180000 -3.57280000
1.07980000 8.50390000 8.46200000
-3.72800000 -0.64630000 -3.31210000
-4.51880000 0.54720000 1.75870000
2.82810000 7.99460000 4.74150000
2.93560000 7.43740000 4.90910000
-0.68180000 -7.14040000 11.00710000
-1.25730000 -7.09480000 10.92580000
2.47760000 8.81700000 3.47710000
-4.51300000 0.12100000 2.06010000
2.27590000 9.20140000 3.58960000
2.46960000 8.84170000 4.03020000
-1.12310000 -6.43030000 11.32800000
-0.10910000 -7.29600000 11.02720000
2.08180000 9.56100000 4.09060000
-4.51420000 -1.58570000 2.07470000
2.11700000 9.45020000 4.46110000
-0.67760000 -6.36750000 11.41800000
2.72440000 8.37700000 4.41770000
-0.27240000 -6.51430000 11.43670000
-1.63400000 -5.91750000 11.50710000
2.45470000 8.88590000 4.40880000
2.59500000 8.57670000 4.80980000
2.04530000 -4.40890000 -10.40450000
2.00240000 -3.45310000 -10.62450000
-1.25810000 -5.66180000 11.74630000
2.13990000 9.26160000 4.87280000
0.52200000 8.94620000 8.85280000
2.25450000 -3.12960000 -10.17690000
-0.58570000 -5.75200000 11.80980000
0.99380000 -7.05190000 11.19060000
0.50980000 -7.11140000 11.19000000
1.32830000 7.75640000 9.16670000
0.88230000 8.24410000 9.33440000
2.50850000 -3.40150000 -9.47700000
2.34890000 -3.82890000 -9.80120000
2.01460000 -1.30630000 -10.74470000
1.93760000 -2.32290000 -10.83590000
0.98130000 -6.48210000 11.59980000
0.56550000 -6.48340000 11.61540000
3.18820000 4.68350000 4.01910000
3.09010000 5.35260000 4.24330000
0.32810000 8.66280000 9.51630000
2.29950000 -0.92340000 -10.10810000
0.06030000 -6.26650000 11.66580000
0.75710000 8.02000000 9.80410000
2.89520000 6.36450000 4.28500000
-0.00780000 -5.45560000 12.08780000
0.46930000 -5.87840000 11.91530000
2.95550000 6.49220000 4.70020000
1.27550000 7.36790000 9.82080000
1.91070000 -7.03280000 10.96830000
2.53150000 8.45730000 5.36400000
2.30160000 -2.10840000 -10.18400000
1.56260000 -6.64060000 11.34390000
0.14500000 8.47160000 9.92280000
-0.21150000 8.44000000 10.23890000
-0.51790000 8.72580000 10.21520000
-0.31770000 8.03690000 10.62620000
-0.87210000 8.37320000 10.59710000
3.40700000 2.19340000 4.07750000
0.59420000 7.75650000 10.24270000
3.45490000 2.80270000 4.38970000
1.87330000 -6.11600000 11.53360000
0.17050000 7.77770000 10.56460000
0.96580000 -5.78390000 11.96780000
2.57510000 -2.46910000 -9.42710000
1.60600000 -5.72270000 11.84960000
3.33730000 3.61960000 4.45640000
3.25040000 4.14510000 4.33500000
1.10660000 -5.27480000 12.20920000
-0.97970000 7.92110000 11.02700000
-0.53480000 7.83030000 10.96660000
3.31990000 4.19080000 4.79440000
-1.14490000 7.58630000 11.32850000
3.50600000 3.46540000 4.85610000
1.74250000 -4.98880000 12.16820000
-0.14830000 7.34420000 11.21920000
1.43830000 -5.10080000 12.22320000
2.70580000 -1.32950000 -9.10150000
3.39750000 4.37770000 5.25280000
-0.62700000 7.45340000 11.34930000
-0.39700000 7.09230000 11.51980000
3.23000000 4.80730000 4.52830000
2.62230000 0.12390000 -9.23850000
3.01920000 5.84530000 4.79180000
1.02690000 7.22650000 10.30340000
3.12220000 6.17280000 5.22300000
2.97000000 -1.79380000 -8.28090000
0.45650000 7.33020000 10.80020000
0.79520000 6.94010000 10.82890000
1.91290000 -4.98840000 -10.49300000
3.25590000 4.80490000 4.92950000
3.13750000 5.41270000 5.06790000
-4.06740000 -2.64830000 6.25110000
3.26260000 5.24580000 5.43470000
-4.16580000 -2.23610000 6.50050000
-4.15640000 -1.37750000 6.39160000
2.30100000 -4.71310000 -9.85320000
3.37970000 5.04150000 5.79640000
-4.20210000 -0.70640000 6.38140000
0.31740000 6.90390000 11.25160000
-4.38020000 -0.17640000 6.60130000
-4.21880000 -0.03570000 6.39060000
-4.28230000 -0.98010000 6.56170000
-4.45740000 -0.58210000 6.69880000
0.71790000 6.50490000 11.26640000
3.24170000 5.87790000 5.55970000
-4.33350000 0.36160000 6.56820000
3.17300000 6.36030000 5.75930000
0.34400000 6.27670000 11.68740000
2.62520000 -5.29030000 -9.00740000
2.56300000 -5.75930000 -9.09640000
2.48200000 -4.60350000 -9.38250000
3.29090000 5.81720000 6.10610000
2.67570000 -4.82290000 -8.79460000
0.09960000 6.69030000 11.54950000
2.56420000 -4.07900000 -9.04700000
-4.07870000 -3.65930000 6.41470000
-4.31890000 -3.73400000 6.90150000
-4.18550000 -3.53140000 6.62970000
-4.35830000 -3.00150000 6.85310000
2.74480000 -3.48740000 -8.49630000
-4.45130000 -2.19790000 6.89600000
-4.31270000 -2.59540000 6.73450000
3.03170000 6.92160000 4.99160000
2.90150000 -4.11600000 -7.83460000
2.90910000 -3.63620000 -7.78930000
-0.55300000 6.28600000 12.01120000
-1.19470000 6.40600000 11.90320000
-0.82440000 5.64140000 12.24710000
-1.46090000 7.24710000 11.50130000
-1.08890000 7.05990000 11.64070000
3.08960000 6.74200000 5.99880000
2.92580000 7.37140000 5.81620000
-0.62500000 6.94830000 11.66800000
3.01820000 -5.33900000 -8.03690000
3.01500000 -5.76780000 -8.10240000
2.74770000 8.01240000 5.42740000
2.82520000 -2.77180000 -8.54200000
-1.87500000 5.50860000 12.07830000
2.59140000 7.98630000 6.10400000
3.02290000 6.76780000 6.46730000
2.78220000 7.45020000 6.31980000
-0.24440000 6.49680000 11.84080000
-0.14470000 5.66980000 12.18770000
2.94280000 -4.84720000 -8.03500000
3.11300000 -4.22860000 -7.23890000
3.24820000 -5.03890000 -7.42970000
0.41010000 11.46510000 0.41900000
3.31520000 -4.43520000 -6.88730000
0.75650000 11.15500000 0.13040000
-4.18920000 -4.47590000 8.52910000
0.08730000 11.69970000 0.82790000
0.91150000 11.09290000 0.62680000
-4.06460000 -3.67300000 9.09020000
-3.89540000 -3.79860000 9.52040000
0.67290000 11.39470000 1.11420000
3.05000000 -2.80650000 -7.52360000
0.95410000 11.19700000 1.35050000
0.48010000 11.48630000 1.52630000
3.10550000 -1.84020000 -7.65710000
-3.67820000 -4.19770000 9.88190000
