-1.66869700 -1.30873895 1.44597495
-1.62559199 -1.30068195 1.31728601
-1.58792400 -1.29406595 1.18749201
-1.44677603 -1.29137099 1.24275899
-1.30051994 -1.28966606 1.29946601
5.41034222 0.13968900 1.74795604
5.53561020 0.19294100 1.53823900
5.48121786 0.14088300 1.52357996
5.59463787 0.18831500 1.30055499
5.53957701 0.13660900 1.29052305
5.40147495 0.07311900 1.49971294
5.33283377 0.07201700 1.71615696
-1.61135197 -2.09734988 -2.82049799
-1.60180104 -2.00551009 -2.82164001
-1.63349795 -2.19075108 -2.82998705
-1.44846106 -2.09005904 -2.91627002
2.71231508 -1.38583899 -0.81846702
2.71188903 -1.39528203 -0.96148401
2.63189006 -1.38143396 -0.96444398
2.89502096 1.78851795 -6.90524721
2.57574010 1.79406095 -7.03903008
2.60418296 1.84785604 -7.10264015
2.86929607 1.73635602 -6.85306406
2.55163789 1.74248505 -6.98469114
2.28943706 1.80038905 -7.14972782
2.26721692 1.74953604 -7.09396601
2.31593704 1.85337305 -7.21510792
2.84402204 1.68017197 -6.80415678
2.52874708 1.68691397 -6.93334818
2.81423807 1.60236597 -6.74747181
2.50236797 1.60989499 -6.87410402
2.24709105 1.69442201 -7.04054499
2.22456002 1.61791003 -6.97867393
-2.56013203 -0.48225901 -3.85890889
-2.79524994 -0.47764701 -3.73300505
-2.69515491 -0.51567000 -3.56837893
-2.46615505 -0.51897502 -3.69100499
-2.92212200 -0.50964099 -3.44015288
-1.81998098 -2.19862890 -3.03308606
-1.83555698 -2.11233711 -3.04675007
-1.68534696 -2.10758495 -3.13998795
-1.67118704 -2.19849110 -3.12325001
-1.98113704 -2.11460090 -2.94808006
-1.99760795 -2.02083206 -2.95570207
-1.85100102 -2.01642704 -3.05806303
5.06882000 0.28268999 3.87235999
4.95895815 0.10990800 3.78733993
4.87137794 0.28991699 4.10823107
4.76817083 0.11693300 4.01711607
4.85370302 -0.04153600 3.70757103
-7.85623217 1.96147799 -0.91325998
-7.88729620 1.96553397 -0.53293103
-7.91728592 1.99223804 -0.53651899
-7.88591290 1.98844504 -0.91734701
-7.91246223 2.01828790 -0.91732901
-7.94395781 2.02079892 -0.53784198
-7.95888519 2.05161905 -0.53777301
-7.92656994 2.05000401 -0.91707897
-7.91893005 2.08259010 -0.92046899
-7.95363903 2.08509898 -0.53718400
-7.93313408 2.11460805 -0.53545600
-7.89620686 2.11062789 -0.92205101
-7.86506891 2.12869906 -0.91637701
-7.90228224 2.13351107 -0.53196901
-7.86508703 2.14436197 -0.52832198
-7.82861996 2.13911796 -0.90830702
-5.93059301 0.85702097 2.32139802
-6.13875198 1.16059697 2.39506006
-5.74829817 0.59982002 2.25764108
-5.85677195 0.60239100 1.98254097
-6.03968620 0.85713601 2.03964090
-5.31909800 -0.23046300 -2.57327890
-5.42954016 -0.23520400 -2.32069111
-5.57686520 -0.06915000 -2.37772012
-5.46315193 -0.06315000 -2.63974309
-5.52716398 -0.24015500 -2.06322289
-5.67649984 -0.07655300 -2.11074591
-5.81343985 0.08651700 -2.15571594
-5.71003294 0.09319000 -2.42983699
-5.59176302 0.09749200 -2.69975495
5.11250782 -0.24964100 0.29175001
5.08449221 -0.26842400 0.04258300
-6.40400410 1.10369396 -2.71759701
-6.55111790 1.32266998 -2.77707601
-6.27184010 1.10499299 -3.01890111
-1.60494804 -0.41902301 5.32568312
-1.36170197 -0.42479300 5.38599300
-1.39310503 -0.26533499 5.55268621
-1.33821499 -0.56790602 5.21874523
-1.11373305 -0.43288401 5.43367720
-1.13854897 -0.27130300 5.60427189
-1.56599998 -1.58412898 -2.79650211
-1.54156995 -1.50702798 -2.75450301
-1.41902101 -1.56961799 -2.86767912
-5.39528418 -0.47908700 1.51566505
-5.31200981 -0.47831401 1.76689601
-5.46562099 -0.48097500 1.25490999
3.93119788 -0.06894700 -4.66356897
4.02268982 0.08055500 -4.76275396
3.70246005 -0.06511400 -4.84590101
3.78874803 0.08387800 -4.94932604
4.11959314 0.25395399 -4.86340523
5.13016891 0.86826402 -3.74953604
5.28925419 0.86689901 -3.51275301
5.48809099 1.16442597 -3.62150693
4.95960999 0.61532098 -3.64885998
5.11411810 0.61232102 -3.41924500
5.25984478 0.60991102 -3.17903709
5.43790913 0.86538100 -3.26650906
5.64066982 1.16372705 -3.36779594
-2.45633793 -2.28831792 -2.19498706
-2.32966805 -2.29350495 -2.33480597
-2.50599408 -2.34540892 -2.22131705
-2.37369895 -2.35159707 -2.36738992
-2.54938889 -2.35555410 -2.25379205
-2.41649199 -2.35765100 -2.40089989
-0.51522201 -0.55700803 2.78385806
-0.62933803 -0.57089800 2.56973410
-0.40633899 -0.54294801 2.99359989
-0.19025400 -0.55492198 2.89757109
-0.29890901 -0.56940699 2.68411899
-0.41251799 -0.58374298 2.46617794
-0.05268000 -1.40011501 3.85315299
-0.26444101 -1.40301704 3.82947707
-0.05493600 -1.32417798 4.01742411
-0.27748299 -1.32705498 3.99419594
-1.75709999 -1.30602598 1.26156294
-1.72126806 -1.29966795 1.13709104
-1.79904199 -1.31373894 1.38346601
-0.63158900 -2.07206392 3.49784493
-0.61510700 -2.17157507 3.47777700
-0.40685499 -2.16655803 3.51824903
-0.81754702 -2.17499089 3.42559099
-0.58913600 -2.25098395 3.44675493
3.49888992 -2.16092205 -1.08242297
3.51459289 -2.06518197 -1.08939302
3.43677497 -2.16196489 -1.26168299
3.45297503 -2.06653595 -1.26873100
6.77872086 1.20397699 2.22607088
6.65961123 1.20826399 2.54550290
6.49917698 0.97656298 2.48286009
6.61620998 0.97317398 2.17022610
6.54484415 1.21260798 2.82175589
6.38677597 0.98042703 2.75280190
1.03017998 0.22816700 -6.28370523
-4.05174208 2.15964103 -6.50268221
-3.73576498 2.16700101 -6.67941189
-4.02765322 2.14932704 -6.45842695
-3.71360993 2.15671802 -6.63410616
-3.39400911 2.16318107 -6.79369211
-3.41416192 2.17348599 -6.83979416
-3.99427700 2.13159704 -6.39922905
-3.68083811 2.13878798 -6.57454014
-3.95293403 2.10328293 -6.32484007
-3.63976598 2.10976505 -6.50007820
-3.36198092 2.14476609 -6.73360586
2.04266000 -1.67774296 2.55083299
2.06445193 -1.76257598 2.57083392
2.17144489 -1.67526805 2.44400191
2.19064689 -1.76284301 2.46606588
2.20173693 -1.85595500 2.47757101
2.07738495 -1.85371602 2.58109093
-1.47115004 0.07335100 5.86054897
-1.50078702 0.22227301 5.98161077
-1.77913296 0.22353400 5.90556097
-1.19499004 0.06947800 5.92196894
-1.21764004 0.21936101 6.04472208
-1.53146100 0.39311001 6.10824490
-1.81691504 0.39389500 6.03122997
0.10578100 -0.98050898 -4.92384100
0.39744899 -0.96246397 -4.94206095
0.38426599 -1.04876900 -4.77764416
0.11114000 -1.06410599 -4.76264906
0.65190500 -1.03264701 -4.77952385
0.37052199 -1.14466405 -4.57702923
-2.32481098 -2.32394004 -2.55947208
-2.29087901 -2.35596108 -2.52387500
-2.16706610 -2.35254788 -2.63251996
-2.13025093 -2.34967494 -2.58675289
-2.25046897 -2.35206509 -2.48494005
-2.20889091 -2.29252005 -2.45068502
-2.08806896 -2.28886294 -2.55322003
-2.17279291 -2.20608592 -2.42545605
-6.00334215 1.12578404 -2.77878308
-6.16060305 1.37081897 -2.86580801
-6.28923321 1.37427294 -2.57892489
-6.12748480 1.12954903 -2.50071311
-6.42389679 1.57892895 -2.64577293
2.74950194 -1.36626804 -0.13047500
2.72112608 -1.35968697 0.05112700
2.61966801 -1.34763002 0.03150900
2.64948893 -1.35302496 -0.14607599
2.51847911 -1.33837795 0.00919300
2.54926705 -1.34259498 -0.16457599
2.41517806 -1.32940102 -0.01581400
2.44772100 -1.33349299 -0.18685700
2.37914801 -1.32616198 0.15650900
3.09399700 0.47185799 -5.18115377
3.04330397 0.36290300 -5.09790182
2.88037801 0.47389600 -5.30373192
2.83510208 0.36525699 -5.21860981
2.78982091 0.26033199 -5.13351488
2.99254298 0.25776601 -5.01479387
2.95604801 0.18691300 -4.95599699
2.75779009 0.18988501 -5.07297611
2.92618799 0.13431500 -4.90928316
4.02154398 -1.26071298 1.61431599
-0.18955900 -1.36875498 2.78317094
-0.17423500 -1.34599900 2.66346002
0.01832500 -1.34878695 2.68934894
0.00571700 -1.37218702 2.81003499
-0.15468000 -1.33042097 2.53689289
0.03500200 -1.33285296 2.56229806
0.03446400 -1.29132903 -1.91052604
-0.13371100 -1.28963399 -1.94334996
-0.10523400 -1.29947603 -2.09416389
0.06447800 -1.29963601 -2.06082106
0.24113500 -1.30031800 -2.02012396
0.20637800 -1.29396498 -1.87346399
-7.09040785 1.30939996 -0.13362101
-7.21719599 1.46873403 -0.13699999
-7.31247616 1.57752502 -0.13951600
-3.13474488 -1.83746195 -0.47614101
-3.15068698 -1.94062304 -0.47976699
-3.12067795 -1.93100095 -0.66630298
-3.10330009 -1.82654500 -0.66353703
-3.15571499 -1.84789896 -0.28684300
-3.16959190 -1.95025098 -0.29123801
2.51819992 0.08893900 4.95434093
2.78046489 0.08539500 4.81609297
2.56162810 0.16649400 5.03351593
2.82584310 0.16255900 4.89414501
3.03827310 0.08374500 4.66620922
3.08529305 0.16076800 4.74258995
2.62020993 0.28213200 5.14063406
2.88739300 0.27776599 4.99988222
2.67795706 0.40100801 5.24490976
2.94834900 0.39660001 5.10294914
3.21368790 0.39548999 4.94750404
3.14965510 0.27608499 4.84618378
0.54858899 -1.43481898 -3.90316701
0.34477401 -1.44216800 -3.91277003
0.34794000 -1.38700104 -4.03582621
0.54530698 -1.46140599 -3.84885502
0.34355199 -1.46908200 -3.85913992
0.14103299 -1.47826695 -3.85780311
0.14076801 -1.45089602 -3.90999389
0.54037601 -1.48996305 -3.79895806
0.33985901 -1.49870503 -3.80974293
0.33596301 -1.54068804 -3.76413703
0.13834600 -1.50927603 -3.80940700
-5.70985603 0.07392500 0.45829701
-5.78830814 0.14896300 0.46244401
-5.75265121 0.14923300 0.74844199
-5.67435408 0.07352300 0.73905599
-5.89774418 0.26012799 0.47005200
-6.00677013 0.37538499 0.47844300
-5.96970415 0.37834099 0.77683002
-5.86135387 0.26175001 0.76253700
-3.44998789 -2.25257111 -0.33834800
-3.46273804 -2.25300407 -0.13368300
-3.49345589 -2.16692901 -0.13892300
-3.42011404 -2.31657290 -0.12392000
-3.46036601 -2.25694990 0.07227500
-3.49421191 -2.17157602 0.07082300
0.55290598 -1.64197397 -3.26531196
0.55216801 -1.75462496 -3.27937198
0.76527399 -1.74494898 -3.23853588
0.76174498 -1.63513899 -3.22514200
0.76504803 -1.85594201 -3.23113298
0.97902697 -1.73672998 -3.18185210
0.98584598 -1.84502697 -3.17303705
0.95256501 -1.28821599 1.39806199
0.99397498 -1.28801501 1.24787199
0.91394699 -1.28924501 1.54499400
0.74957800 -1.28703403 1.51012099
0.78591400 -1.28721094 1.36253095
0.82644302 -1.28808606 1.21184695
5.77150583 0.40982401 -1.52275300
5.66356421 0.28874001 -1.49208295
5.74261904 0.29826301 -1.21268404
5.85085678 0.41844699 -1.23914897
5.55445194 0.17170000 -1.46132696
5.63323879 0.18222100 -1.18593001
5.70036507 0.19448701 -0.90526903
5.80929613 0.30846199 -0.92813700
5.91698885 0.42654300 -0.95047301
5.47484398 0.09402200 -1.44039798
5.55345678 0.10536600 -1.16755402
5.48854208 0.04985800 -1.15369701
5.55629921 0.06391400 -0.87781900
5.62079382 0.11882800 -0.88922101
3.30655098 -1.61667097 -1.81131697
3.28021193 -1.70642197 -1.79711795
3.33631897 -1.55044699 -1.82839799
-1.96828699 -0.62714201 1.03751695
-2.06073999 -0.60914999 1.36509800
-1.85506296 -0.62172598 1.26108205
-1.94985604 -0.60114801 1.59227800
-1.74297905 -0.61400098 1.48657703
-1.64602005 -0.63434500 1.15754402
-1.53336501 -0.62709701 1.38105595
-1.76013994 -0.63926297 0.93431902
-2.65111804 -2.11908197 -2.33393002
-2.52014208 -2.12494493 -2.47402000
-2.66878200 -2.02679610 -2.34108400
-0.25724101 -1.81761003 3.22475910
-0.04286800 -1.81561697 3.24002790
-0.04975500 -1.92524505 3.24752808
-0.26728699 -1.92925298 3.23129892
-0.05748400 -2.03738594 3.25088596
2.04687309 -2.33072495 -2.77210689
2.02199697 -2.30942512 -2.74177003
2.00343895 -2.27305007 -2.72144699
-5.98236895 2.29167390 5.08437920
-6.00782919 2.26832390 5.10294580
-5.74995995 2.27526402 5.38092995
-5.72819281 2.29763699 5.35893297
-6.02526808 2.23718095 5.11381721
-5.76490021 2.24490905 5.39389420
-5.49460793 2.25072289 5.65829086
-5.48112011 2.28044105 5.64391994
-5.46141195 2.30237198 5.61992502
-6.03002977 2.19866800 5.11287498
-5.76957321 2.20644307 5.39238882
-6.02405119 2.15844297 5.10374784
-5.76490021 2.16594195 5.38176584
-5.49272919 2.17293501 5.64702892
-5.49796581 2.21291494 5.65739393
-6.00926304 2.12216091 5.09006405
-5.75180006 2.12948394 5.36737585
-5.98916101 2.08921599 5.07388306
-5.73360586 2.09614897 5.35083389
-5.48043823 2.13669896 5.63299084
-5.46393824 2.10311508 5.61658287
-5.96724176 2.05900311 5.05726624
-5.71365595 2.06501794 5.33375788
-5.94420099 2.03048706 5.03941917
-5.69229698 2.03550601 5.31565809
-5.42669821 2.04062390 5.58060503
-5.44607878 2.07108688 5.59910822
-0.86301702 -1.85857201 -3.53082705
-0.86593997 -1.76225901 -3.54771399
3.10912490 0.01919800 5.22765112
3.16839409 0.17145801 5.34224701
3.22982693 0.34719601 5.46123314
2.68771005 0.50352001 -5.98844719
2.81592798 0.78595501 -6.14558983
0.46553200 -1.30569100 -2.10239697
0.50135499 -1.31428003 -2.23725510
0.53436702 -1.32366002 -2.36825800
-1.22523701 -0.67544001 0.39090300
-1.44783294 -0.66442001 0.50051999
-0.99884701 -0.68572402 0.27872500
-1.33813202 -0.67485398 0.17032599
2.83238697 -1.93745697 1.75412202
2.93742800 -1.93240297 1.57375205
2.82248592 -1.83149600 1.75286198
0.45438200 -1.30833304 2.20668602
0.47405300 -1.30010295 2.06606793
0.43598199 -1.31768095 2.34440398
0.26166999 -1.31408501 2.32164693
0.28589699 -1.30563402 2.18186593
0.31090599 -1.29822505 2.03808188
-2.08652210 -1.37350905 -1.84429896
-2.17897892 -1.39351904 -1.89315605
-2.09305596 -1.39980805 -2.04120708
-2.00820994 -1.37969995 -1.99350595
-2.00121093 -1.40402400 -2.17539310
-1.92469800 -1.38373697 -2.12879610
-1.84153199 -1.37075496 -2.08104491
-1.91656804 -1.36599898 -1.94402599
-1.98777795 -1.35941696 -1.79365695
4.26129818 0.51410699 4.26912308
4.48781919 0.53181601 4.05863523
4.32986784 0.64884198 4.35395288
4.55838490 0.66503698 4.13997602
4.77343893 0.68238503 3.91804790
4.70054102 0.55113602 3.84126902
-3.87712097 0.21472099 4.82814598
-3.63576603 0.22018901 5.01134586
-3.79960895 0.06726700 4.73036909
-3.56217504 0.07318000 4.91113901
-1.12860596 2.15762305 7.07069302
-1.11899805 2.08526206 7.00433588
-1.10613596 1.97701395 6.91638422
-3.14184690 -1.77102602 0.09906300
-3.14056802 -1.75903594 -0.09193100
-3.16444111 -1.87049699 0.09610600
-3.16530609 -1.85900795 -0.09590700
-3.12893391 -1.74750400 -0.28198400
-0.58120298 2.03127098 -7.82136917
-0.96039999 2.02857399 -7.78198195
-0.96077901 2.06221509 -7.80061007
-0.57922697 1.99082899 -7.77837086
-0.95618498 1.98790705 -7.73864698
-0.57693797 1.93157005 -7.69634104
-0.94913000 1.92850494 -7.65767813
-0.94083798 1.86557901 -7.56667185
3.03848791 -2.03830290 1.38115501
3.04696298 -2.14925289 1.37583196
3.12282610 -2.03460503 1.18215501
3.13126612 -2.14369893 1.17602801
-3.45673800 1.00857902 5.33305979
-3.70770502 0.99134898 5.15767097
-3.83756590 1.28577197 5.32013988
-3.57540202 1.29992902 5.50018120
-3.59390306 0.74126703 5.01749086
-3.94905591 0.97267801 4.97009182
-1.01375902 0.98582399 -6.33957195
-0.68927002 0.99545902 -6.38891077
-0.72819197 1.26803601 -6.57691097
-1.06016600 1.25810099 -6.52625799
-0.76308203 1.49715102 -6.73262501
7.64444494 1.90317297 -1.97768700
7.53750086 1.90812194 -2.33546996
7.57027578 1.93172801 -2.34491396
7.67797089 1.92683804 -1.98519301
7.41347599 1.91244304 -2.68832803
7.44636011 1.93589497 -2.69835806
7.47385788 1.96305895 -2.70565701
7.59712982 1.95926797 -2.35281706
7.70471621 1.95464396 -1.99263000
7.61285877 1.99325299 -2.35984802
7.71911097 1.98915195 -2.00080299
7.49048519 1.99637401 -2.71154308
7.49291801 2.03216410 -2.71275091
7.61476088 2.02958989 -2.36206794
7.71973085 2.02601695 -2.00480509
7.60013294 2.06418896 -2.35554004
7.70515299 2.06089807 -1.99972498
7.47783279 2.06675601 -2.70601797
7.57507896 2.09663105 -2.34601498
7.45202684 2.09942007 -2.69694090
7.68077898 2.09339309 -1.99080396
7.54570007 2.12649298 -2.33924198
7.65201616 2.12310195 -1.98328400
7.42229891 2.12942505 -2.69111609
7.51331520 2.15270996 -2.33288407
7.61985922 2.14917111 -1.97662401
0.51421601 -0.46491799 -4.57113981
0.26860401 -0.47955099 -4.53425694
0.48523799 -0.42197800 -4.74478197
0.23377199 -0.43854901 -4.71139193
-3.04148602 -1.80850101 0.84159601
-3.08270597 -1.80225599 0.66411602
-3.05341506 -1.70803404 0.66203499
-3.05943799 -1.90592897 0.84535801
-3.10117602 -1.90075696 0.66555899
-3.13323903 -1.89255702 0.47925499
-3.11364007 -1.79390299 0.48068199
-1.20077503 0.30193499 -5.78675890
-1.22844803 0.43173099 -5.88681221
-0.89962399 0.31022000 -5.84665298
-0.92347199 0.43940800 -5.94733286
-1.94907403 -0.65226299 -1.10606599
-1.85360801 -0.65814400 -0.89555597
-1.62305200 -0.66462100 -1.01398206
-2.17218304 -0.64565498 -0.99475598
-2.07960391 -0.65074903 -0.78414297
-1.75713503 -0.66325003 -0.68403000
-6.42498779 2.04464698 4.47832108
-6.40125179 2.01662397 4.46103287
-6.17995977 2.02439690 4.75518703
-6.20351982 2.05250096 4.77277422
-6.22587395 2.08239508 4.78886318
-6.44724417 2.07451105 4.49403620
-6.46763420 2.10658097 4.50801182
-6.24640179 2.11490512 4.80387783
-6.26179695 2.15060806 4.81590080
-6.48334122 2.14158607 4.51849079
-6.26875305 2.19007993 4.82301188
-6.49155188 2.18025398 4.52371502
-6.26484680 2.22827697 4.82262993
-6.48930407 2.21805811 4.52172184
-6.24765921 2.26015306 4.81217480
-6.47363281 2.25046396 4.51054001
-6.22121477 2.28466105 4.79583979
-6.44764280 2.27598095 4.49499989
-3.80445910 -0.50101101 1.96885204
-3.69090104 -0.48958200 2.21808004
-3.45030999 -0.51881301 2.10115790
-3.56846809 -0.47614801 2.46034288
-3.33155894 -0.50677401 2.33361793
0.95868599 -0.57325798 -3.64107490
1.17841494 -0.56373799 -3.69754791
1.12437499 -0.54636902 -3.90046191
0.90530902 -0.55787700 -3.85182095
-2.97277689 -2.10932207 1.18398905
-2.96369910 -2.00810409 1.18101704
-2.89825296 -2.01248407 1.33533502
-2.90573502 -2.11296797 1.34053695
-2.95251298 -1.90885401 1.17886198
-2.88894010 -1.91441000 1.33253801
-2.81776810 -1.91824698 1.48339403
-2.82442093 -2.01555800 1.48589802
-2.82981706 -2.11531210 1.49144602
-4.49703312 0.24094599 -4.45754623
-4.58686399 0.40512401 -4.54130983
-3.46587801 -0.54055500 -2.52364206
-3.77892709 -0.49195799 -2.61486602
-3.62836504 -0.53139699 -2.41101909
-3.92962193 -0.47946200 -2.48774290
-3.77602410 -0.52160001 -2.29905009
-3.48584509 -0.56002098 -2.20325398
-3.32306695 -0.56679201 -2.30772090
-3.36120200 -2.34784102 -0.10980400
-3.29938197 -2.34596610 -0.09898800
-3.24803400 -2.31010509 -0.09912600
-3.21111393 -2.24617410 -0.10310800
2.67034602 2.25248194 -7.24137402
2.68526411 2.24325991 -7.27265120
2.39543509 2.24705791 -7.37495279
2.38230610 2.25539088 -7.34158516
2.99390006 2.24861193 -7.11576080
3.00929189 2.23817897 -7.14563084
3.02678204 2.21993399 -7.17050600
2.70146608 2.22587705 -7.29970980
2.40842199 2.23039007 -7.40502501
2.71545291 2.19944310 -7.32319117
2.41933894 2.20468211 -7.43132210
3.04236698 2.19301701 -7.19127989
3.05325007 2.16004992 -7.20565224
2.72420001 2.16652298 -7.34132099
2.42565799 2.17222595 -7.45272398
2.72468090 2.12968206 -7.35233212
2.42484999 2.13531303 -7.46811485
3.05663109 2.12365508 -7.21130991
3.05356598 2.08735204 -7.20818186
2.71971798 2.09267402 -7.35356283
2.41961288 2.09781098 -7.47306919
2.71213102 2.05924892 -7.34235477
2.41264606 2.06358600 -7.46316624
3.04511309 2.05466008 -7.19618511
2.70251989 2.02914000 -7.32225800
2.40430808 2.03285289 -7.44295120
5.10591507 -0.85992497 -0.85954201
5.05743217 -0.85963303 -1.10413599
4.88264084 -0.95797700 -1.06570804
4.99873495 -0.85847598 -1.34515297
4.82675505 -0.95543301 -1.29990399
-1.40159702 -0.46299499 3.67090392
-5.09849787 0.85485899 4.32441187
-4.95835018 0.58671999 4.20058393
-4.74997807 0.59596997 4.43296480
-4.88399887 0.86249101 4.56376314
-4.62852812 0.35872900 4.31501389
-4.41657782 0.36960500 4.53001404
-4.53127384 0.60462099 4.65505314
-4.65868282 0.86907399 4.79234505
-0.89101100 -1.35578501 -2.59302902
-0.89070898 -1.36434603 -2.69331598
-0.71426100 -1.35683596 -2.68994689
-1.05281603 -1.37185299 -2.68557811
-0.89288098 -1.37813401 -2.78905106
-0.71060902 -1.36742306 -2.79543304
0.73092800 -0.40141699 -4.77012396
0.71405900 -0.35957500 -4.89793777
0.46344900 -0.38230699 -4.87625408
0.95555699 -0.33495101 -4.91070604
0.69898301 -0.30232301 -5.02820110
-7.04049492 1.77140999 0.58314002
-7.13088703 1.87863505 0.59081203
-7.09557819 1.88501000 0.94581997
-7.00385094 1.77793396 0.93364102
-7.20075512 1.94889903 0.59423202
-7.26321411 1.99722695 0.59607601
-7.22752190 2.00268102 0.96043801
-7.16554213 1.95460403 0.95407498
2.79967403 -0.62010098 0.20107099
3.00155091 -0.60968900 0.11053100
3.17599297 -0.59986001 0.03572300
-0.62141001 0.05563200 6.00488710
-0.91097403 0.06291800 5.97011518
-0.89168298 -0.10695200 5.81610107
-0.60926700 -0.11565000 5.84882498
-1.16713095 -0.09896300 5.77109385
-0.87238097 -0.28053999 5.64543390
-0.59768301 -0.29016101 5.67595577
2.24707294 -1.36517799 -1.53784096
2.12931395 -1.35740602 -1.60021901
2.19930911 -1.35425401 -1.44647300
2.08417201 -1.34817696 -1.50608099
1.95346296 -1.34197700 -1.56840599
1.99541295 -1.34934795 -1.66473401
-3.74634600 1.14626205 5.74128008
-4.01974678 1.14163601 5.55647898
-3.84170890 1.37505400 5.87626410
-4.11953306 1.37040901 5.68800306
-4.28542280 1.13703001 5.35853100
-4.38939619 1.36544096 5.48622513
4.81532478 -1.05159700 0.38454300
4.99990082 -0.95943201 0.39372501
4.82343292 -1.05434406 0.14507499
5.00951481 -0.96227098 0.14580899
2.88090992 -2.24116802 -1.78135896
2.78013301 -2.23619199 -1.92792702
2.80505204 -2.28911996 -1.94601595
2.90537000 -2.29427004 -1.79818404
2.67087412 -2.23109198 -2.07072091
2.69554210 -2.28417301 -2.08937907
2.72296190 -2.31654501 -2.11106396
2.83366704 -2.32101798 -1.96724701
2.93486905 -2.32591510 -1.81846297
2.87006307 -2.33780503 -1.99415004
2.97267389 -2.34176898 -1.84435904
2.75786901 -2.33430600 -2.13860202
2.90842795 -2.33627200 -2.02075410
3.01224303 -2.33912992 -1.87033105
-5.85398483 0.37961999 1.36632800
-5.74696684 0.26182300 1.34085095
-5.81113911 0.26176301 1.05425501
-5.91890383 0.37924400 1.07408500
-5.63892984 0.14817899 1.31536698
-5.70261288 0.14838700 1.03452802
-5.55999422 0.07215400 1.29754806
-5.62368679 0.07232400 1.02103400
-5.49044085 0.01312900 1.28014398
-5.55663776 0.01498900 1.00849998
0.23954700 -1.32408202 2.45671606
0.41796699 -1.32818997 2.47702193
0.59250498 -1.33299506 2.49110794
-1.41512895 -1.87567604 3.26574707
-1.41627598 -1.97469699 3.24967408
-1.41494095 -2.08032393 3.22942901
-6.66456318 2.26501489 4.18354511
-6.68993282 2.23897409 4.19996500
-6.70430803 2.20638108 4.21247387
-6.70424414 2.16876793 4.21589994
-6.69388390 2.13052702 4.21178198
-6.67737198 2.09605289 4.20165586
-6.65677214 2.06438708 4.18766499
-6.63414621 2.03457594 4.17194891
-6.60975504 2.00655699 4.15502596
2.85822296 -2.16094589 -1.76582396
2.75482392 -2.15631604 -1.91044903
2.84166002 -2.06737900 -1.75496602
2.73461103 -2.06286097 -1.89819503
2.62178397 -2.05756998 -2.03939891
2.64422107 -2.15120697 -2.05226302
2.92701101 2.21037412 -6.89593983
2.89210892 2.16710806 -6.81100988
3.19453812 2.17240405 -6.68260622
3.23500705 2.21311498 -6.76389599
2.85806608 2.11537790 -6.73057318
3.15588307 2.12260389 -6.60522699
2.83312011 2.06464005 -6.66892385
3.12953305 2.07199788 -6.54505205
-1.19075000 1.97182202 -7.05152607
-1.53637898 1.96595097 -6.98393583
-1.20466006 2.02837896 -7.12146902
-1.55403602 2.02233291 -7.05283403
-1.89956999 2.01786494 -6.96845913
-1.87853503 1.96167898 -6.90059996
-1.22355795 2.08732605 -7.21395493
-1.57768202 2.08125401 -7.14368296
-1.24406505 2.13931704 -7.31040096
-1.60288799 2.13311505 -7.23842716
-1.95904696 2.12790489 -7.15040922
-1.92833495 2.07646894 -7.05750799
5.15263414 -0.85026997 0.67001200
5.12094402 -0.84233499 0.93155098
5.28817892 -0.72867399 0.96041799
5.23906088 -0.72475302 1.21810699
5.07601309 -0.83607900 1.18699801
6.74494123 1.81824398 2.20092106
6.62943077 1.67557395 2.16591692
6.52221489 1.67958403 2.46713805
6.63606501 1.82228899 2.50960302
6.42015314 1.68346500 2.72791696
6.53230715 1.82662106 2.77712607
6.61814117 1.92516696 2.81243300
6.72310686 1.92127097 2.54022503
6.83305597 1.91798496 2.22622490
6.89933205 1.98520100 2.24667192
6.78899193 1.98728597 2.56360102
6.68330097 1.99014902 2.83825588
6.73902512 2.03658009 2.86231589
6.84544992 2.03478789 2.58489990
6.95610714 2.03385901 2.26497602
-4.51545715 -0.13582601 3.82360506
-4.32917976 -0.12614000 4.03198385
-4.43892193 0.03516000 4.14079618
-4.13380909 -0.11479100 4.23115921
-4.24062300 0.04859300 4.34149218
0.92799199 -0.66200203 -1.67781401
1.17244303 -0.65353101 -1.79149604
1.27046502 -0.65997499 -1.57197499
1.41589999 -0.64516199 -1.89782596
1.51201200 -0.65111202 -1.68271601
1.80589902 1.90455902 7.29534101
1.82473505 1.95855403 7.39448500
2.17480898 1.89789701 7.19701910
2.19778800 1.95223498 7.29542208
2.21710205 2.00045395 7.38637590
1.84134197 2.00629306 7.48544693
1.85099697 2.03943992 7.53743505
2.22854495 2.03371000 7.43856096
1.85691702 2.06763291 7.56723785
5.91873598 0.03497200 1.95468795
5.81537819 0.03639600 2.22779989
5.71754599 0.04088400 2.46497607
0.92388499 -1.34531796 2.49962211
0.76286298 -1.33859003 2.49911809
0.75275803 -1.35395002 2.61383390
-4.69772816 0.38501999 3.64079595
-4.76357698 0.47942400 3.69598103
-4.85046482 0.62126398 3.76372600
-1.88385904 -1.34742606 -1.74614096
-1.94818294 -1.34062600 -1.59131396
-2.05687308 -1.35271001 -1.63735795
-1.77437496 -1.33696699 -1.70071602
-1.83401501 -1.33015704 -1.54650700
1.15131199 -2.03468299 3.07576895
1.15539098 -2.13107109 3.07736492
0.97575200 -2.12831211 3.13429594
0.97160298 -2.03143001 3.13251901
1.32444704 -2.03876090 3.01111698
1.32819796 -2.13491988 3.01316190
1.16178298 -2.21288300 3.08486104
0.98210102 -2.21041894 3.14196992
6.66075993 1.37720394 2.87189007
6.57028580 1.38182795 3.07142305
6.45634890 1.21865404 3.02096510
6.74492311 1.48990703 2.90729094
6.65333605 1.49328196 3.10564804
6.57330513 1.49560106 3.26154208
6.49110317 1.38506401 3.22790194
6.37889099 1.22312105 3.17706800
6.40767717 1.38499200 3.37832594
6.29723406 1.22272801 3.32400799
6.48876190 1.49616599 3.41523790
6.37636900 1.49785197 3.60514498
6.29679680 1.38574100 3.56323600
-7.15158606 2.17667007 2.40379000
-7.25842905 2.16247797 2.06554198
-7.36186314 2.20020604 2.08786988
-7.05081892 2.12995601 2.37877893
-7.15715408 2.11687303 2.04394698
-7.24713278 2.10563707 1.69908798
-7.34850311 2.14940310 1.71788597
-6.97344208 2.08614802 2.35352802
-7.07863283 2.07370901 2.02302003
-7.01454496 2.02991605 2.00135112
-7.10342216 2.02019310 1.66421795
-7.16787910 2.06339908 1.68231595
7.76478577 1.86559296 -1.25092602
7.80215979 1.88731503 -1.25486803
7.84878492 1.88151395 -0.88771498
7.81166887 1.86004901 -0.88306397
7.87720585 1.87843502 -0.51683199
7.84095478 1.85700405 -0.51187903
7.78753090 1.82526898 -0.50654000
7.75754786 1.82849598 -0.87660903
7.71040487 1.83398902 -1.24348998
7.62245607 1.78013301 -1.23011398
7.67004681 1.77453399 -0.86804003
7.70067978 1.77095795 -0.50218397
7.57678509 1.71172702 -0.85897601
7.60809612 1.70775294 -0.49804899
7.52868080 1.71765006 -1.21535397
2.52550912 2.05822992 -6.78149080
2.54809308 2.10917997 -6.84537601
2.25007606 2.05358601 -6.87294817
2.26933599 2.10481095 -6.93939877
2.57672000 2.16244292 -6.92904186
2.60596800 2.20774508 -7.01722002
2.31550407 2.20559001 -7.11702299
2.29184103 2.15902591 -7.02620697
5.71381807 -0.31100699 -1.52902603
5.78353405 -0.31090900 -1.25262594
5.88231421 -0.14683799 -1.57191002
5.95253277 -0.14818799 -1.28599203
6.00974512 -0.14866200 -0.99313498
5.84076023 -0.30997899 -0.97003001
4.63468790 -0.33770901 1.60874605
4.73515797 -0.29158801 1.65886104
4.80249786 -0.28653699 1.49777699
4.66488123 -0.29885501 1.79952896
4.75419378 -0.25156701 1.85321200
4.82637215 -0.24432600 1.70394003
4.89667511 -0.23914500 1.53337002
-5.00775290 0.88799101 3.88163209
-5.18852997 1.20052695 4.01482582
-4.98719311 1.21249199 4.26020384
-4.81278181 0.90140802 4.12098885
-5.56425905 -0.48686999 0.67893600
-5.52068520 -0.48569801 0.97170800
-5.34728479 -0.63030702 0.94784200
0.36240199 -0.70799601 0.18913101
0.26058501 -0.71183199 -0.03909300
0.13025799 -0.70697898 0.29263201
-1.02478802 -1.28249002 0.92766500
-1.17817295 -1.28358102 0.88347101
-0.86942899 -1.28270304 0.97014999
-0.91130197 -1.27921903 1.12373996
-1.06638598 -1.28089595 1.07729101
-1.21933997 -1.28387594 1.02806795
-2.13367701 -1.48424995 -2.25711107
-2.18492293 -1.54997098 -2.28646708
-2.06908298 -1.55596399 -2.41077590
-2.02347994 -1.48902798 -2.38057995
-2.22362089 -1.62937999 -2.30511808
-2.10281706 -1.63546503 -2.42917609
-1.69102705 -1.29514694 1.01269901
-1.81908405 -1.30183101 0.97257102
-1.55569303 -1.28977001 1.05923295
5.87255716 -0.11327600 1.63782501
6.00828123 0.03377800 1.67089701
6.08230877 0.03075200 1.38156700
6.22419024 0.20040300 1.40590298
6.14913511 0.20400099 1.70489800
-7.56067610 2.22029996 2.14651394
-7.59712076 2.20607090 2.15651608
-7.51320505 2.22509599 2.13163400
-7.44686079 2.21973801 2.11099291
2.20764589 -1.95016897 2.47896004
2.07899904 -1.94813395 2.58457398
2.07656097 -2.04424191 2.58646607
1.93894804 -2.04345393 2.68527508
1.94566596 -1.94608200 2.68053794
3.34124494 -2.27918601 0.56165302
3.29459810 -2.28047800 0.76515698
3.37720990 -2.28100705 0.35574600
3.40951800 -2.31867599 0.35862899
3.37332511 -2.31707907 0.56594199
3.32707906 -2.31758690 0.77006203
3.41691494 -2.34156990 0.56929898
3.37150407 -2.34121704 0.77504498
3.45296597 -2.34239101 0.36082101
3.50163603 -2.34872699 0.36143601
3.46606112 -2.34888601 0.57105500
0.42423299 -1.29945302 -1.96749699
0.38270101 -1.29490304 -1.82605004
0.60757297 -1.29918206 -1.91019106
-3.56257296 -1.66037405 0.44890800
-3.53301811 -1.65644395 0.64842099
-3.56239200 -1.59220302 0.64155900
-3.59306788 -1.59538305 0.43991300
-3.50927997 -1.74128997 0.65840203
-3.47210407 -1.73722506 0.84503901
-3.49495697 -1.65311897 0.83994800
-4.20461702 0.37512699 -4.34405184
-4.41634178 0.39708200 -4.14796305
-4.36935616 0.31468099 -4.08855009
-4.15996408 0.29214200 -4.28129482
3.58583093 1.30186403 -6.12467384
3.65652990 1.47469103 -6.22167110
3.30407000 1.30448306 -6.28594685
3.36994600 1.47688103 -6.38562822
3.41524601 1.59424603 -6.45909500
3.70520711 1.59208000 -6.29373503
-1.12361598 -2.16954494 3.03937602
-0.91527098 -2.16527104 3.11174607
1.65076399 -0.00631300 5.15612411
1.60798597 -0.07956400 5.04204893
1.91909301 -0.01794100 5.05209398
1.87335896 -0.09168500 4.93728209
7.91691017 2.10681200 0.23191400
7.88612604 2.13372588 0.23018800
7.86512280 2.13600302 0.61494601
7.89501619 2.10909009 0.61770201
7.82347393 2.13786793 0.99533498
7.85229301 2.11096191 1.00024903
7.87656689 2.07943892 1.00473404
7.92066479 2.07769799 0.62122101
7.94378281 2.07563806 0.23504500
7.94160318 2.04255605 0.62415498
7.96620321 2.04073501 0.23724701
7.89582396 2.04419088 1.00732005
7.95195913 2.00579095 0.62574399
7.90515614 2.00726295 1.00786805
7.97759390 2.00415206 0.23872000
7.97137499 1.96793699 0.23966099
7.94586182 1.96952903 0.62522501
7.89965296 1.97069800 1.00623798
7.92691088 1.93570602 0.62309003
7.88203287 1.93655300 1.00337994
7.95166302 1.93422997 0.23942500
7.92257214 1.90517402 0.23736601
7.89870691 1.90626204 0.61982602
7.85500717 1.90688300 1.00024199
7.86535978 1.88040996 0.61612302
7.82257986 1.88081205 0.99655598
7.88842821 1.87984002 0.23492301
-5.16678476 -0.39173999 -2.50391293
-5.27861309 -0.38857400 -2.26154709
-5.13130188 -0.52599400 -2.20091009
-5.37947989 -0.38434601 -2.01657295
-3.43452811 -0.38596100 -4.63989305
-3.64744401 -0.39150900 -4.46375799
-3.32899094 -0.52235597 -4.52671719
-3.53884506 -0.52621198 -4.35551023
-3.74447799 -0.52801800 -4.17373180
-3.85549808 -0.39343500 -4.27800322
6.61765289 2.21650791 -3.91188192
6.42117214 2.22006893 -4.20893621
6.67618608 2.21385193 -3.94851899
6.47820997 2.21798110 -4.24652004
6.71543217 2.20026302 -3.97497392
6.51962996 2.20450497 -4.26976299
6.55054712 2.18388605 -4.28752995
-5.92986107 0.46810499 1.38412702
-5.84989214 0.46908599 1.67148101
-5.77455902 0.38099000 1.64967501
-5.95100403 0.60254401 1.69961405
-5.75595808 0.46880800 1.95006096
-5.68159580 0.38119599 1.92332101
3.08663702 -1.70582104 -1.31781602
3.14324403 -1.69829297 -1.16004896
3.10569096 -1.62365305 -1.15230000
3.05487394 -1.63140500 -1.30819798
3.01006794 -1.56741405 -1.29413700
7.47109413 2.18160510 -1.58128798
7.55728817 2.18988299 -1.59732199
7.47199106 2.19261503 -1.94466102
7.53834200 2.18036604 -1.23173201
7.62588406 2.18751693 -1.24486101
7.69453478 2.17848492 -1.25559795
7.62536001 2.18215704 -1.61000705
7.53910017 2.18588090 -1.96078396
7.67224598 2.16611290 -1.61661005
7.58530521 2.17074800 -1.97028100
7.74166203 2.16140389 -1.26082695
7.77663422 2.13817000 -1.26304996
7.70717001 2.14374089 -1.62057304
3.19531393 -2.34352112 -1.55564404
3.10794091 -2.34173703 -1.71548498
3.14361191 -2.31798506 -1.73403096
3.23162699 -2.31997490 -1.57191598
3.04703498 -2.31529903 -1.89083898
3.07446599 -2.27625990 -1.90608203
3.17123699 -2.27890396 -1.74813199
3.25931191 -2.28087211 -1.58470297
3.18818593 -2.23001003 -1.75862503
3.27574492 -2.23141193 -1.59529197
3.09195089 -2.22799706 -1.91626096
3.20145392 -2.16242695 -1.76692700
3.10579300 -2.16138101 -1.92366004
3.28853011 -2.16304111 -1.60422099
3.43482494 0.04271800 -4.44126797
3.25935411 0.05999100 -4.59563494
3.07978511 0.07467700 -4.73580694
0.77814001 -1.29186702 -1.19694996
0.61301702 -1.29118097 -1.24782300
0.44532901 -1.29042101 -1.29535103
-1.84792697 -0.23281901 -4.91785622
-2.12105298 -0.23145600 -4.81717587
-2.04316711 -0.31773800 -4.64085817
-1.77657104 -0.31891000 -4.73786402
-1.95925403 -0.40148801 -4.45324898
-1.69963503 -0.40239000 -4.54649401
5.32566786 0.13291600 1.96858704
5.25018787 0.06555300 1.92935896
1.48065901 -0.61964500 1.87143302
1.25615895 -0.61888999 1.96297300
1.37229395 -0.60282999 2.17965388
1.59083200 -0.60360497 2.08334589
1.36983204 -0.63555700 1.65712404
1.14202905 -0.63532698 1.74686801
-5.14985800 2.04700804 5.83095694
-4.86255980 2.05412507 6.06794977
-4.87975597 2.08485198 6.08774090
-5.16782904 2.07775211 5.85017586
-4.89674377 2.11721992 6.10562515
-5.18488121 2.11003304 5.86799622
-4.91406822 2.15103412 6.12134886
-5.20160103 2.14362907 5.88408709
-4.92969084 2.18652701 6.13283396
-5.21592522 2.17924905 5.89660978
-4.94157982 2.22393203 6.13800001
-5.22579193 2.21759796 5.90372992
-4.94184923 2.25921512 6.13540983
-5.22525787 2.25388694 5.90243387
-4.92261600 2.28834200 6.12363100
-5.20837498 2.28332710 5.88970900
-4.89683723 2.31082106 6.10274982
-5.18475389 2.30569911 5.86778116
-3.17387295 1.90256596 6.78934383
-3.21219897 1.96279395 6.87752581
-3.53919601 1.95910299 6.72793293
-3.49792790 1.89735496 6.64102983
-2.84442306 1.90668702 6.92234278
-2.88057995 1.96524298 7.01070976
-3.24620295 2.01747203 6.95763206
-2.91363311 2.01812410 7.09121799
-3.57532597 2.01543593 6.80648899
-3.26200509 2.05285907 7.00360680
-3.59096789 2.05126905 6.85165691
-2.93132496 2.05312300 7.13727093
-3.27083302 2.08032799 7.03024721
-3.59999609 2.07863593 6.87731123
2.82523394 -1.37707901 0.06804000
2.85042000 -1.38380694 -0.11689000
2.94975400 -1.40935397 -0.10562500
2.92836690 -1.40247703 0.08247600
2.39961791 -2.08234096 2.72466493
2.54419303 -2.07629895 2.59755301
2.38111806 -2.18023801 2.70111609
2.52536201 -2.17511392 2.57428288
-0.29940701 -1.19898796 4.27583313
-0.05893200 -1.19594002 4.29822779
3.98709393 -0.49124399 1.57586205
3.89188194 -0.49938101 1.64200604
4.05565023 -0.48427999 1.52584505
3.92390490 -0.51382899 1.33128905
3.84987497 -0.52035302 1.37196004
4.11715984 -0.47774100 1.47653103
4.20623589 -0.46578699 1.41954505
4.10355616 -0.49250901 1.24755502
3.99338293 -0.50715798 1.29182506
5.01779413 -0.72087598 1.94772601
4.85424995 -0.83421803 1.89150596
4.93788290 -0.83614999 1.66092598
5.10143423 -0.72482300 1.70843804
4.77623892 -0.83121902 2.09097004
-2.98489499 -2.20617604 1.18802702
-3.00684810 -2.28691912 1.19546700
-3.06688404 -2.28390694 1.02072299
-3.04420090 -2.20295095 1.01623499
-3.11727500 -2.28033304 0.83997798
-3.09404302 -2.19917297 0.83736497
-3.07983208 -2.10341001 0.84019101
-3.03079391 -2.10659099 1.01627195
3.64997792 -2.22449899 -0.07386100
3.64288712 -2.22195601 -0.28880301
3.65569091 -2.15013909 -0.29612300
3.62754607 -2.28021789 -0.06968100
3.62216496 -2.27643299 -0.28313199
3.58853889 -2.32066393 -0.06375500
3.58616900 -2.31753707 -0.27519000
2.67076111 -1.82651401 -2.55632210
2.50835705 -1.83137202 -2.71260691
2.53187895 -1.70453000 -2.72794604
2.33357906 -1.83970106 -2.86122394
0.89739799 2.24790406 -7.66788721
0.54264700 2.24927211 -7.69451284
0.89971000 2.23959708 -7.70544577
0.54391402 2.24303508 -7.73306990
0.90274400 2.22288108 -7.73934221
0.54499203 2.22808409 -7.76821995
0.90486300 2.19849491 -7.76762676
0.54548001 2.20476890 -7.79791021
0.90443200 2.16718006 -7.78835678
0.54497200 2.17343998 -7.82008886
0.90424597 2.13097310 -7.79962397
0.54469901 2.13674903 -7.83342695
0.90710098 2.09190989 -7.79952192
0.54589200 2.09734988 -7.83659410
0.90951103 2.05407095 -7.78883696
0.54574102 2.05923510 -7.82944679
-6.92462206 1.45897198 1.93278503
-7.01296902 1.45988405 1.60127997
-6.82051802 1.45916998 2.25928998
-7.01737118 1.56970000 1.95988405
-6.91124201 1.57035100 2.29122210
-7.10705805 1.57035100 1.62350702
2.08100009 -1.31498599 0.84284401
2.02314901 -1.31654406 1.02583396
1.91582501 -1.30709398 0.98859203
1.97306502 -1.30618501 0.80714101
1.80415797 -1.29931998 0.94925100
-6.60461617 0.84348100 -1.42596996
-6.78476810 1.09885097 -1.45867896
-6.84445286 1.09570396 -1.13279903
-6.94706392 1.32358694 -1.48900294
-3.19745994 -0.59240502 0.51306701
-3.41603589 -0.58041900 0.60736102
-3.31046796 -0.57826602 0.85088402
-3.09160399 -0.59045500 0.75142902
-2.98115706 -0.58758700 0.98920000
-2.90108991 -0.60034198 0.66109103
-5.97163820 -0.13763100 0.14283501
-5.94815588 -0.14685100 0.43732801
-6.10134888 0.01835800 0.45959300
-5.77751589 -0.31675300 0.41280001
4.06261206 1.65834296 -5.60256577
4.12884092 1.81092501 -5.69133615
4.38812399 1.81288505 -5.50073910
4.43880510 1.91996896 -5.56315184
4.17591906 1.91727602 -5.75669813
4.21096087 1.98930597 -5.80629301
4.47608280 1.99182606 -5.61115408
4.24173784 2.04210496 -5.84967804
7.23752403 2.17922902 2.74602795
7.16050911 2.17560697 2.70910907
7.29647017 2.16991711 2.77661800
7.41596699 2.17119503 2.42474103
7.35469007 2.17914796 2.40112305
7.27524519 2.17442203 2.37176204
7.33622313 2.15422392 2.79456711
7.36517096 2.13244605 2.80461407
7.45675898 2.15599394 2.44088006
7.48583889 2.13448811 2.45164609
2.97502995 -2.24340701 -1.63451004
3.06106496 -2.24408603 -1.48496699
3.04389811 -2.16290903 -1.47554398
2.95544004 -2.16269302 -1.62183297
3.03344011 -2.06847000 -1.47017205
2.94239211 -2.06891704 -1.61360502
6.03906107 1.15924895 -2.55752802
5.82782793 0.86239702 -2.47382402
5.93960190 0.86543000 -2.19601107
5.91502380 1.15869403 -2.83538890
5.70727587 0.86161101 -2.74487996
4.69410896 -0.25845799 1.96168602
4.77132702 -0.21217801 2.01415110
4.83177423 -0.20550600 1.90075195
4.63730192 -0.26565200 2.05024409
4.71480989 -0.21901700 2.10654593
4.57495499 -0.27380300 2.13977003
4.65298510 -0.22673200 2.19999909
4.48807812 -0.28457701 2.25146294
4.56649017 -0.23737800 2.31666207
0.98502499 -1.29349196 -1.30532598
0.93983197 -1.29255903 -1.14269102
1.10011196 -1.29344702 -1.08694100
0.89606202 -1.29388595 -0.97480500
-1.93557405 -0.56867898 2.14648199
-1.73040199 -0.58017302 2.04867911
-1.84069300 -0.59109700 1.82357502
-2.04541397 -0.57921499 1.92491496
-2.15332198 -0.58886498 1.69724703
-0.05603000 -0.48221901 3.78461909
-0.19487800 -0.51044297 3.43689895
-2.09549594 -0.94028002 -4.56568718
-2.01942897 -1.02308702 -4.43925619
-2.23134208 -1.03058302 -4.32397699
-2.31107497 -0.94777298 -4.44861412
-1.94220400 -1.10087097 -4.31042004
-2.15112209 -1.10826302 -4.19714499
-4.25861406 2.15481591 5.85841608
-4.22015476 2.10269809 5.81209898
-4.49974585 2.09316111 5.60527802
-4.53928185 2.14560294 5.65109110
-3.96778202 2.16357899 6.05332708
-3.93094993 2.11200690 6.00604582
-3.88840890 2.04186702 5.94998693
-4.17521000 2.03197289 5.75706911
-4.45285892 2.02207494 5.55134821
-4.11690617 1.92628300 5.68309402
-4.39021683 1.91608095 5.47977877
-3.83453608 1.93677199 5.87447691
-4.04250813 1.77102304 5.58670616
-3.76587605 1.78226995 5.77554798
2.47787404 1.46847296 6.20823622
2.78529191 1.45861804 6.07605314
2.68971610 1.18705595 5.90467882
2.38823009 1.19655097 6.03318405
2.86532092 1.68471503 6.21898890
3.08520007 1.45060301 5.93112898
2.98475790 1.17963195 5.76320982
0.19142000 -1.41288197 2.93751311
0.38521701 -1.42076004 2.94067192
0.57507300 -1.43020594 2.93278694
0.57425803 -1.48127198 3.02051401
0.38258699 -1.47155905 3.03349805
1.81906700 -1.48811698 2.52399898
1.69658697 -1.48931098 2.60560989
1.66328299 -1.44716597 2.54887891
1.78081405 -1.44558299 2.47053909
1.56463003 -1.48631406 2.67845011
1.53517604 -1.44442105 2.61788988
0.99368799 -0.83156902 4.93932676
0.95945400 -0.93471998 4.76421022
1.20664203 -0.93474001 4.71644592
1.24753499 -0.83259600 4.88763618
1.15846300 -1.04790199 4.50280619
0.15973599 -0.71264398 -0.26550999
0.05769000 -0.71071303 -0.49025801
-2.57937002 -0.21512599 -5.35498381
-2.50216198 -0.36607400 -5.22688293
-2.74808788 -0.36808899 -5.10004187
-2.83038998 -0.21808100 -5.22320414
-2.66138101 -0.50924402 -4.97308397
-2.89486098 -0.51006597 -4.83905220
-2.98637104 -0.37094399 -4.96135521
-3.58056688 -1.42541099 1.41512203
-3.81289697 -1.32536602 1.49491704
-3.73126888 -1.32676899 1.66148496
-4.07774401 -1.21103406 1.58477700
-2.46179104 2.01178598 -7.45623779
-2.82280302 2.00600004 -7.33254814
-2.44295812 1.97362006 -7.41218901
-2.79999709 1.96798599 -7.28843880
-2.41368699 1.91607904 -7.33192205
-2.76415396 1.91118300 -7.20881701
-2.38317490 1.85432398 -7.24201393
-2.72724390 1.85050201 -7.11959410
3.37964511 -2.31934595 -1.23492706
3.34438396 -2.34361100 -1.22030199
3.27415609 -2.34391308 -1.39023805
3.31002307 -2.31997705 -1.40574801
3.33719611 -2.28046203 -1.41827905
3.40632701 -2.27948904 -1.24687397
3.35377002 -2.23098493 -1.42783499
3.42329788 -2.22998905 -1.25509501
3.36681294 -2.16277909 -1.43571103
-7.13114786 1.95848501 -1.50096297
-7.07278204 1.91069305 -1.48411500
-6.99503279 1.90668201 -1.81072605
-7.05306578 1.95363402 -1.82960200
-7.00742102 1.84140897 -1.46441197
-6.93031502 1.83857799 -1.78816497
-6.92163706 1.73724604 -1.43936706
-6.84626389 1.73559105 -1.75897706
0.03436000 -0.60784298 2.25477791
-0.19049400 -0.59633201 2.35904288
-0.07655100 -0.58169299 2.57424808
0.14935900 -0.59288597 2.46583104
0.03285100 -0.56683999 2.78715205
0.26034799 -0.57765001 2.67636704
0.72557002 -1.31158805 -0.27719101
0.76916701 -1.30775797 -0.45408201
0.60970199 -1.31297398 -0.50555903
0.81132698 -1.30275702 -0.63175303
-2.84272099 -1.42290699 -0.43464401
-2.80364990 -1.41486394 -0.61173302
-2.87625194 -0.55941898 1.81324100
-2.65353298 -0.57295197 1.68985403
-2.76254892 -0.57903302 1.46529496
-2.45966601 -0.58462799 1.57880294
-3.16573691 -0.60732102 -1.05326200
-3.24132609 -0.60097802 -1.26001203
-3.41590691 -0.59310102 -1.19433701
-3.34601593 -0.59918398 -0.98929000
-3.48059893 -0.58631802 -1.38793397
-2.19727206 0.67728001 -5.80060196
-1.89437699 0.67583001 -5.90356588
-1.58722603 0.67732698 -5.99310684
-4.65306902 1.50233698 -5.54023504
-4.38841677 1.50392795 -5.75837421
-4.90802288 1.50101602 -5.31172323
-4.71542501 1.61022305 -5.60864115
-7.30616379 1.74407899 1.67026401
-7.38358879 1.79126704 1.68826997
-7.45871496 1.79014003 1.33258498
-7.38085699 1.74360704 1.31815398
-7.43874216 1.74375606 0.96151900
-7.31495810 1.69688702 1.30593598
-7.37255287 1.69768298 0.95255500
-7.24059010 1.69654298 1.65519500
-7.17857695 1.64393497 1.64054501
-7.25236797 1.64513803 1.29489994
-7.30970192 1.64633799 0.94338799
-7.18019819 1.57201600 1.28193796
2.55118299 -1.36992002 -0.97016102
2.55424809 -1.37623405 -1.08015299
-3.61628294 2.10957289 6.89732695
-3.94872093 2.10530496 6.71981812
-3.93134809 2.07438803 6.70044899
-3.63324499 2.14340305 6.91476917
-3.96639395 2.13895202 6.73662519
-4.29082584 2.13251591 6.54055786
-4.27345705 2.09925389 6.52363205
-4.25613308 2.06838799 6.50412798
-3.64429688 2.17945194 6.93270302
-3.97908497 2.17496109 6.75346899
-3.64929295 2.21759701 6.94883299
-3.98453307 2.21342492 6.76915789
-4.31427383 2.20625591 6.57064819
-4.30602884 2.16811991 6.55623817
-3.64808607 2.25771499 6.96086597
-3.98047709 2.25443697 6.78249693
-3.64373302 2.29514289 6.96107817
-3.97288489 2.29218793 6.78375483
-4.30176497 2.28458500 6.58558989
-4.31077099 2.24711204 6.58376408
-3.63929391 2.32521701 6.94174623
-3.96772408 2.32086897 6.76319790
-3.63154411 2.34731793 6.91120291
-3.96074891 2.34118605 6.73069096
-4.28396416 2.33230591 6.53449583
-4.29350281 2.31257391 6.56612682
-7.50039911 2.12133694 -2.36538410
-7.53698683 2.11380005 -2.37491894
-7.37993288 2.11853695 -2.70592690
-7.41392612 2.11101294 -2.72075605
-7.44620705 2.09678197 -2.73372889
-7.57195902 2.09928203 -2.38126993
-7.59950686 2.07363892 -2.39061999
-7.47341299 2.07201791 -2.74656796
-7.61299276 2.04239511 -2.39530396
-7.48746681 2.04183412 -2.75318003
-7.60577822 2.01107311 -2.38765407
-7.48029089 2.01134300 -2.74747205
-7.45835114 1.98241103 -2.73718095
-7.58370399 1.98149896 -2.37731409
-7.55260992 1.95549595 -2.37392592
-7.42810917 1.95690405 -2.73004508
-7.39493179 1.93385100 -2.72271109
-7.51831818 1.93210602 -2.37125397
-3.15728807 -2.27605796 0.65720201
-3.19388604 -2.33163500 0.66707301
-3.15390992 -2.33498597 0.85261798
-3.20238590 -2.36027908 0.86331898
-3.24136591 -2.35826898 0.67714298
-3.29734993 -2.35312390 0.67941898
-3.26113796 -2.35335898 0.86011899
-3.35023999 -2.32066798 0.67877001
2.89533091 0.08394500 -4.86242104
2.84666896 0.01780500 -4.79176903
-1.01744998 -0.24701400 4.83269596
-1.20057297 -0.23535401 4.82564592
-0.82753998 -0.26163799 4.82636023
-0.84872103 -0.30821499 4.69323683
-1.02932203 -0.29353300 4.70320511
-3.96906710 -0.01445000 3.77417588
-3.88020802 -0.08430200 3.70007300
-4.14886284 -0.03354900 3.54889297
2.05926609 -2.26456499 2.87987089
2.20527291 -2.26406288 2.77412009
2.23577309 -2.18404198 2.81873202
2.34967589 -2.26205397 2.65862298
1.82385099 -0.24717499 -4.83797598
1.70974505 -0.25545299 -4.86546278
1.61269903 -0.26423499 -4.88308907
1.51059699 -0.27505001 -4.89866018
1.37663698 -0.28990301 -4.90983105
-0.86901700 -1.68151295 -3.57100010
-0.66182601 -1.66702700 -3.62596202
-1.06897497 -1.69663203 -3.50765109
-0.87202102 -1.61736906 -3.59929395
-1.96739304 -1.80052602 2.97058702
-1.78494596 -1.79683399 3.08575606
-1.59968305 -1.79298103 3.18881989
-4.76371098 1.68165100 -5.66072798
-4.80518484 1.73202801 -5.70613289
-4.84710884 1.77675903 -5.75448895
-4.89616013 1.82338297 -5.81097698
-1.66831696 1.60336900 6.52673721
-1.62855601 1.34504402 6.35214615
4.60381985 -0.41980699 0.57143402
4.62925291 -0.40561399 0.77677202
4.57019615 -0.43439800 0.35273099
4.36185884 -0.47695300 0.39075300
4.40350294 -0.46360001 0.60134202
4.44044495 -0.44995999 0.79929203
2.25823498 -1.35239303 1.30476999
2.32951999 -1.35048199 1.12664294
2.43025208 -1.36450005 1.16001105
2.16139698 -1.34010303 1.27167702
2.22674489 -1.33783102 1.09360802
2.28906894 -1.33589303 0.90960997
2.39622402 -1.34862494 0.94237298
2.50067997 -1.36257303 0.97487402
0.16712099 -1.32232106 4.02885914
0.15964501 -1.39868999 3.86359906
0.37113401 -1.39760399 3.86099696
0.15633900 -1.44492900 3.77423191
-4.79900789 1.64021599 -5.10048199
-5.03771687 1.65328896 -4.87315083
-4.95965481 1.49867904 -4.78743410
-4.85545206 1.74782205 -5.16471815
-5.09600878 1.76156294 -4.93629408
-5.26211596 1.67261899 -4.62927294
-5.32222891 1.78165495 -4.69058895
-4.89744616 1.82067502 -5.21254301
-5.13938618 1.83382797 -4.98373413
-4.93349600 1.87494397 -5.25444984
-5.17689514 1.88624704 -5.02529001
-5.36765289 1.85346496 -4.73753500
4.44353724 0.30536899 4.55404711
4.21596003 0.30867100 4.75944996
4.13243103 0.12981400 4.64974403
4.35207176 0.12982400 4.45180988
4.04966593 -0.02502000 4.54694414
-3.38404393 -0.56502599 4.22738600
-3.49047995 -0.42199400 4.35762119
-3.69946003 -0.42722401 4.18130493
-3.58917308 -0.57004100 4.05472183
-3.59805799 -0.26600599 4.48592091
-3.81275392 -0.27210599 4.30375290
1.50590205 -1.41284394 2.55234599
1.37301898 -1.40746999 2.60594606
1.35051501 -1.38524997 2.52888393
1.39726102 -1.43791199 2.67731810
1.75413001 -1.38130701 3.53833008
1.71862400 -1.42169201 3.45457792
1.81635106 -1.31128299 3.68701410
1.62652302 -1.31133997 3.76417589
1.56990302 -1.38259304 3.61225390
-3.23887897 -1.38803899 -2.45282602
-3.36373901 -1.38477898 -2.28233290
-3.58158803 -1.27510405 -2.42200589
-3.48106694 -1.38143599 -2.10450292
-0.84924901 1.14249206 -6.94040203
-0.51586598 1.14511001 -6.97449589
-2.95077801 -0.57876003 -2.53066397
-2.74276710 -0.58404601 -2.64595604
-2.88196611 -0.56467599 -2.87957096
-3.09561801 -0.55701298 -2.76046705
