2.52790000 40.66380000 -5.75190000
1.02240000 -14.90900000 -25.79590000
1.58580000 -12.42560000 -27.24070000
2.06340000 -13.99110000 -26.73080000
-0.35470000 1.98690000 -5.24780000
1.64460000 0.27650000 -6.89080000
2.76630000 -9.21640000 -8.59420000
2.75220000 -7.94290000 -9.17460000
2.21190000 -7.33920000 -12.31840000
1.42030000 -6.66360000 -14.19760000
1.77690000 -8.74720000 -12.41080000
0.65950000 -28.83720000 -7.19840000
1.29570000 -29.51870000 -4.83730000
0.48280000 -29.07460000 -4.83710000
0.90340000 -29.65720000 -1.86510000
1.77610000 -30.04420000 -1.69280000
1.33360000 -29.73790000 1.69030000
2.63980000 -31.91460000 -26.13570000
2.52600000 -33.54700000 -26.25060000
2.53780000 -34.32640000 -24.52230000
2.73130000 -29.14920000 -28.92180000
2.58950000 -30.38180000 -29.37430000
2.72200000 -10.36650000 32.82200000
2.68260000 -8.94640000 33.14390000
2.84100000 -9.65510000 31.56500000
2.09770000 -12.08300000 33.43200000
2.37910000 -14.18170000 33.82050000
2.70010000 16.26910000 33.63770000
2.73880000 14.29730000 33.44690000
2.74470000 14.66700000 35.53750000
2.33120000 15.10770000 31.21050000
2.38080000 13.63130000 29.79600000
2.34850000 13.54480000 31.95090000
2.96060000 -27.83170000 21.32460000
2.79150000 -28.99630000 21.49260000
2.52730000 -29.72480000 17.12500000
2.57120000 -28.60820000 19.19340000
2.90500000 -28.55970000 16.76200000
3.32810000 2.99990000 -20.01580000
3.34400000 3.82510000 -23.06120000
3.15850000 3.73650000 -25.08380000
3.26640000 -20.85730000 -28.15420000
3.34630000 -21.74630000 -25.68990000
2.51040000 -22.92090000 -21.58840000
0.80610000 18.80550000 -19.47940000
0.71810000 21.50140000 -18.77340000
3.19970000 -17.40440000 -11.04840000
3.21440000 -19.04490000 -10.78100000
3.24230000 -17.70660000 -10.07660000
1.29170000 -13.43680000 -11.98970000
2.07310000 18.99720000 34.67560000
2.54960000 17.48010000 34.83520000
3.00070000 -13.82020000 16.43860000
2.72580000 -14.52160000 15.87370000
2.91450000 -15.85960000 18.28020000
2.59530000 -14.87030000 19.82820000
2.92850000 -13.22550000 20.61060000
2.90940000 -13.40860000 19.25650000
1.95160000 -7.07210000 -2.69630000
1.51460000 -6.08910000 -4.04030000
0.70580000 -26.18000000 -13.70500000
0.62460000 -27.71880000 -10.18430000
0.45130000 -26.87560000 -11.18420000
1.49610000 -28.87030000 -8.27200000
2.98590000 9.80730000 16.08360000
1.31200000 4.87640000 15.67650000
1.72940000 6.66150000 15.52700000
2.69820000 -28.05910000 27.23820000
2.36850000 -29.62690000 26.69250000
2.14920000 -28.00220000 28.80530000
2.69040000 -23.16860000 25.43170000
2.65890000 -25.39320000 24.50210000
2.62110000 -25.24640000 26.05300000
2.18870000 -0.13430000 29.85100000
2.10880000 -1.94710000 -18.40570000
2.64850000 -4.19480000 -18.46490000
2.50470000 -6.17980000 -17.80570000
3.16200000 -5.37180000 -18.96720000
3.12920000 -7.59530000 -21.60460000
3.15480000 -20.51630000 4.82680000
3.04790000 -23.85610000 4.91600000
3.17150000 -22.51000000 5.89340000
2.80220000 -24.90770000 5.53430000
2.97680000 -24.14160000 7.23190000
2.86430000 -37.61800000 4.94050000
2.81990000 -35.12810000 5.11170000
2.75130000 -32.28590000 4.26980000
2.51900000 -30.94850000 7.79080000
2.46490000 -31.47930000 5.79270000
-1.37700000 -52.35290000 12.22200000
-1.49000000 -51.02890000 15.19210000
1.78910000 -53.87450000 2.50150000
0.70660000 -52.46400000 -11.36700000
1.53060000 -35.38010000 -40.17230000
0.07280000 -35.50510000 -39.96170000
0.16380000 -32.97570000 -42.09480000
0.48300000 -38.43890000 -37.18020000
3.09210000 15.47360000 -14.28380000
3.20090000 13.85290000 -13.18470000
2.80750000 14.85240000 -13.15530000
3.02120000 -4.65890000 20.34850000
2.97000000 -5.32710000 22.13990000
2.91630000 -3.32260000 20.64320000
1.25850000 -2.01340000 16.51830000
2.92210000 32.35340000 -15.79620000
2.85550000 30.69590000 -16.20640000
3.29340000 33.98090000 -17.21140000
3.13650000 33.66640000 -14.01650000
3.24950000 35.08740000 -13.59750000
2.70050000 -21.43940000 -14.57990000
2.85470000 -19.87630000 -13.58980000
3.22280000 -19.99770000 -12.81910000
2.99910000 -17.97320000 -11.96440000
4.51980000 -19.05220000 22.68920000
2.29690000 25.73530000 14.01400000
2.03290000 23.70310000 16.50190000
2.31640000 24.64370000 16.64990000
2.81740000 24.17570000 22.44520000
2.78810000 24.60280000 19.46100000
-1.17620000 44.05060000 -27.48300000
2.75180000 18.64020000 2.03160000
2.94730000 20.77430000 1.31570000
2.70740000 17.97810000 1.51260000
2.85060000 17.02710000 4.74590000
1.90080000 16.38520000 3.98650000
2.42230000 15.79730000 7.03210000
2.80410000 -36.66740000 -17.96760000
1.39160000 -41.59700000 -15.74810000
1.10680000 5.16430000 0.21430000
-0.59010000 4.10090000 1.10480000
1.87100000 5.38830000 1.64710000
3.10790000 -24.69320000 -4.93830000
3.18610000 -24.74680000 -3.18150000
2.78740000 -24.93150000 -6.55590000
1.53800000 -26.74660000 -3.50430000
2.64350000 -25.65100000 -3.03970000
3.40120000 22.45290000 -27.70550000
3.13190000 21.96810000 -28.99450000
3.17490000 21.06880000 -27.17520000
2.73330000 21.08130000 -23.22850000
3.07380000 21.85800000 -23.64300000
3.02880000 19.93070000 -24.97010000
2.82690000 27.00770000 -30.64940000
2.74620000 25.58020000 -31.37110000
3.00270000 27.24650000 -28.80250000
2.64970000 29.47970000 -30.59380000
2.85920000 30.03970000 -29.05430000
2.77470000 32.21680000 -27.37740000
3.16610000 32.39060000 -6.31210000
2.94340000 31.39050000 -3.95820000
2.57860000 30.21070000 -6.76630000
3.43770000 8.87130000 -36.51320000
3.19930000 13.14480000 -36.52420000
3.24540000 11.68070000 -37.98260000
2.06320000 -43.36430000 0.76370000
2.46800000 -40.80550000 -0.09070000
-4.71970000 -0.73670000 -0.10150000
-1.48240000 -5.21960000 0.17050000
1.23220000 -6.87950000 -0.75200000
0.09030000 -5.80150000 1.12100000
2.19260000 -27.23080000 12.53090000
0.41670000 -23.29960000 16.41920000
0.57420000 -26.39950000 12.09080000
0.67230000 -24.61300000 15.63020000
-1.38260000 48.81480000 21.71780000
-1.17700000 47.90270000 23.69250000
0.57960000 47.28820000 25.56200000
2.94440000 -13.64880000 -1.37860000
1.91150000 -14.70480000 0.55210000
2.81210000 -13.77380000 1.30490000
1.61100000 -13.53010000 6.01230000
2.46350000 -13.02010000 5.02970000
1.60890000 -14.18160000 4.74500000
3.02300000 20.42630000 -29.47800000
3.11790000 21.85970000 -30.57200000
2.87060000 26.10700000 -32.79440000
2.78810000 24.68700000 -33.12950000
2.66140000 -15.91210000 -40.42920000
2.74640000 -14.83930000 -39.63310000
2.68240000 -13.62340000 -41.06070000
2.20330000 12.47930000 27.05490000
2.02190000 13.87940000 25.75540000
1.85400000 11.64980000 26.72560000
2.75760000 15.69240000 27.84640000
2.72240000 17.34650000 26.09520000
2.35910000 14.54550000 27.08990000
1.36090000 -9.95290000 10.90260000
1.87360000 -12.64620000 6.76820000
2.91480000 -10.93090000 6.55880000
2.31320000 -11.93470000 6.03480000
1.73040000 4.04320000 16.52500000
2.50990000 5.87460000 16.52150000
1.35460000 2.25340000 16.53000000
1.25430000 -4.52310000 25.78910000
3.02100000 -3.91230000 22.64610000
0.27100000 -46.88510000 -26.37200000
1.42960000 -46.93380000 -26.50360000
2.82250000 -47.07020000 -27.23190000
1.92890000 -11.95030000 13.22510000
1.53970000 -10.29000000 14.15510000
2.55160000 26.50860000 -14.49720000
2.58520000 25.25210000 -15.60690000
2.28880000 25.67220000 -14.17830000
2.26360000 27.80950000 -9.39650000
2.50590000 28.66610000 -6.97370000
2.45900000 28.57930000 -10.31420000
2.78970000 9.00820000 -0.96050000
2.68220000 11.25300000 -2.08210000
2.82650000 10.45520000 -3.21110000
2.66830000 10.09820000 3.82870000
2.75720000 8.60900000 2.32020000
2.65430000 8.33610000 5.00480000
3.14430000 9.73020000 -20.17970000
3.34290000 10.91220000 -21.56560000
3.16900000 9.01990000 -22.38460000
3.15810000 5.03520000 -22.71140000
3.19680000 6.93020000 -21.83380000
2.90140000 13.22040000 -14.22240000
2.91820000 12.20240000 -14.21200000
3.12180000 13.23510000 -13.58700000
3.00460000 31.04550000 5.19720000
2.94110000 30.44990000 8.29630000
2.91850000 31.37990000 10.94960000
2.89980000 31.62410000 12.33800000
-1.37930000 -35.81950000 39.13050000
-1.47320000 -33.05580000 40.14400000
-1.38610000 -31.67500000 42.91580000
3.23690000 -18.73970000 -30.71880000
3.24140000 -16.90740000 -30.97290000
3.37310000 -22.02940000 -30.63630000
2.77320000 2.48850000 -11.65520000
2.99720000 0.89900000 -12.00800000
2.81820000 -0.52340000 -10.42560000
1.61780000 -1.15180000 -15.16470000
1.54870000 -3.99760000 -14.73410000
2.42260000 -2.04150000 -14.02780000
2.36100000 -29.59650000 7.29750000
2.35020000 -30.74240000 6.16200000
0.49020000 -29.32640000 1.10140000
0.77410000 -29.27610000 3.69910000
3.34790000 -22.06670000 47.34010000
3.39830000 -9.35310000 -33.02590000
3.22550000 -8.05970000 -31.81630000
2.83520000 -6.58570000 -29.98210000
2.59810000 -3.45550000 -30.00820000
2.83940000 -5.03610000 -30.85850000
2.82100000 -7.86680000 31.37130000
2.78620000 -5.46470000 34.82090000
2.70480000 -3.72390000 36.51070000
2.96390000 -33.16990000 -7.89820000
3.01940000 -32.70570000 -6.17920000
2.89260000 -31.88090000 -9.08090000
2.97640000 -35.73100000 -8.63820000
2.82910000 -35.57380000 -9.86860000
2.77750000 -36.83060000 -8.47220000
0.55510000 26.99440000 5.37670000
0.73380000 25.94010000 5.01080000
0.54270000 25.84350000 7.38680000
2.69200000 23.48920000 6.26120000
1.48320000 24.69450000 6.75530000
-1.23660000 19.90120000 40.38970000
-1.37500000 30.40050000 34.02000000
-4.27550000 -1.18590000 -2.84200000
-4.51400000 -0.11320000 -2.34400000
-3.96450000 -0.05650000 -3.29910000
-3.03960000 2.60330000 -2.03930000
-1.69820000 3.14100000 -3.10190000
-3.18410000 1.69790000 -3.23620000
2.69270000 10.75000000 21.73370000
2.75380000 9.29850000 21.16710000
2.72550000 8.74970000 22.72280000
1.62220000 12.03670000 22.46090000
0.70060000 -43.72040000 -31.16090000
1.98490000 -42.67300000 -33.05230000
0.33010000 -42.49770000 -32.70940000
2.87310000 -16.84230000 28.98890000
2.74600000 -14.52020000 30.79850000
2.84380000 -19.26470000 31.03720000
2.76780000 -17.57320000 30.59960000
2.56810000 2.27330000 -29.99810000
0.46820000 -15.66990000 51.56910000
0.67490000 -11.65880000 52.53060000
-0.44360000 -11.84910000 52.69980000
2.79110000 23.65690000 23.96160000
2.87830000 24.46270000 27.68840000
2.55170000 22.61860000 29.52250000
-0.77560000 -17.87730000 40.93570000
-0.93360000 -14.74090000 42.27930000
0.44550000 -14.46390000 41.11660000
0.91550000 -21.32930000 20.02330000
1.88930000 -21.94440000 19.80430000
2.19360000 -23.55010000 18.47030000
2.27410000 -22.48730000 20.39220000
2.61610000 25.01990000 -17.92520000
2.72830000 24.31460000 -19.44440000
2.55360000 23.60440000 -18.23740000
3.27450000 25.66140000 -19.47340000
2.68960000 -35.83540000 17.54000000
2.86180000 -34.43590000 18.81620000
2.96650000 -35.15490000 16.71050000
2.22120000 -36.57230000 19.89380000
2.08170000 -36.12820000 22.30780000
2.69780000 32.32340000 -24.36360000
2.74290000 33.98650000 -23.42840000
2.72170000 33.83260000 -25.23850000
2.15790000 36.41280000 -22.72090000
2.32520000 -26.19670000 -35.23800000
2.44400000 -22.95310000 -37.16040000
-0.21700000 -22.48180000 -40.27290000
0.65570000 -20.94010000 -40.19280000
-0.02340000 -18.00280000 -42.19540000
3.92150000 -51.24060000 11.34170000
2.71570000 21.33770000 49.51230000
2.78980000 -12.84680000 -14.31280000
1.63330000 -12.61350000 -13.41030000
2.06830000 -11.41810000 -14.79780000
2.96970000 -12.69330000 -15.67660000
0.65470000 35.18920000 -39.98470000
2.10350000 37.10390000 -38.63200000
1.62540000 32.97090000 -42.10560000
0.04080000 39.02950000 -35.96550000
3.93520000 -15.04120000 -51.29720000
3.86110000 -9.66930000 -52.61780000
2.31520000 -37.32240000 15.56440000
2.19510000 -39.34090000 11.55990000
2.19060000 -39.34570000 14.63450000
0.80720000 -42.35580000 13.04230000
2.04670000 -4.74900000 40.60740000
2.00740000 -6.37010000 41.45160000
2.01580000 -2.85090000 40.34740000
2.62370000 -4.53120000 38.43740000
2.91160000 37.48270000 -10.39800000
2.77790000 35.32020000 -11.51140000
2.77430000 32.96520000 -11.96180000
2.88290000 33.94120000 -10.71700000
1.27260000 -25.67350000 -15.35740000
1.54080000 -27.26890000 -12.56690000
2.35050000 -22.36350000 -20.75240000
2.11580000 -23.71180000 -18.98880000
2.04360000 -18.21710000 -3.77550000
2.68750000 -18.31480000 -5.57120000
2.79460000 -18.90760000 -3.10870000
2.31290000 -17.23670000 -7.41590000
1.59190000 -17.33440000 -5.77090000
-0.19480000 28.55270000 -44.89300000
-0.53860000 25.64790000 -46.51400000
1.94520000 7.61640000 10.82890000
2.78580000 6.53490000 10.29590000
2.32920000 5.26600000 11.41950000
1.89100000 40.24970000 12.95170000
1.91040000 38.66190000 17.25050000
1.31310000 41.84110000 9.46040000
-1.67380000 53.07040000 3.05610000
1.21730000 22.59870000 -37.91420000
-1.00060000 -49.93750000 -20.43810000
-1.25630000 -49.78790000 -18.63370000
-1.16240000 -48.98980000 -22.16200000
0.22740000 -49.84140000 -19.84260000
1.81410000 26.15440000 11.92770000
2.32410000 28.33980000 9.73460000
2.16640000 27.46080000 10.02740000
2.37150000 27.40420000 11.34250000
1.70480000 -16.90530000 -24.82330000
2.25500000 -15.89810000 -25.72460000
0.76840000 -18.61090000 -23.07690000
0.62240000 27.81110000 0.52740000
0.83400000 28.22760000 -1.66540000
0.87650000 27.83420000 -5.46820000
2.29770000 28.94010000 -4.59470000
2.88840000 -18.48920000 8.12920000
2.06970000 -36.65990000 -24.10690000
0.84300000 10.26890000 -25.60710000
0.75410000 9.48430000 -26.93640000
0.83430000 5.49740000 -27.33720000
0.73340000 11.21570000 -26.34720000
0.75620000 13.43970000 -25.35020000
1.20050000 12.40720000 -26.44060000
-0.89160000 41.89050000 33.01070000
0.80540000 41.38950000 34.14600000
1.57240000 13.35700000 9.73840000
1.51160000 15.12280000 6.65560000
2.75300000 -0.94330000 33.42480000
2.71600000 1.94460000 31.84400000
2.60300000 0.94660000 33.53260000
2.67550000 4.13150000 33.80780000
3.19680000 -10.52890000 -6.82810000
3.16990000 -10.72080000 -7.93930000
3.20180000 -11.67410000 -6.11680000
2.71330000 -10.93040000 -4.68430000
2.36020000 35.11480000 20.45940000
2.44490000 33.95150000 19.40270000
2.26060000 33.29200000 21.30420000
2.97640000 -36.83660000 -10.78360000
2.65890000 -37.55790000 -9.21870000
2.66520000 -39.40490000 -10.31120000
-1.24720000 25.73890000 36.83180000
-0.27340000 27.97840000 33.96990000
-1.05350000 -36.64020000 27.71730000
1.27760000 -33.21180000 28.08710000
1.69700000 -29.40950000 31.02790000
3.06410000 20.66770000 -2.06320000
3.01610000 18.41610000 -2.61880000
2.98900000 19.56780000 -1.51070000
2.06380000 17.08780000 -1.12960000
1.59860000 16.58440000 -3.39230000
1.39490000 16.34280000 -0.82140000
2.60090000 -15.65500000 -26.28230000
2.74250000 -13.95840000 -27.48840000
2.75670000 -15.51820000 -27.45670000
3.20640000 -13.80760000 -30.21970000
3.15640000 -14.78220000 -30.70420000
3.35590000 -15.52590000 -29.71090000
3.07060000 -6.40750000 9.95630000
2.87400000 -6.78510000 8.80890000
3.07890000 -7.75350000 9.53530000
2.62930000 -2.49920000 9.57540000
2.53630000 -3.73040000 9.48940000
2.59510000 -3.87020000 10.77270000
0.94930000 19.40970000 -21.36900000
2.73640000 20.39670000 -22.60890000
2.69460000 19.64180000 -24.05270000
2.06990000 11.96860000 -6.18280000
2.93150000 10.38830000 -7.31470000
2.93500000 10.20130000 -6.22700000
3.08880000 11.45980000 -4.18270000
2.98360000 11.88190000 -2.69170000
2.39350000 12.25330000 -4.75430000
2.86370000 -30.35630000 11.33830000
3.01570000 -30.97400000 12.33180000
2.95870000 -29.71820000 13.70360000
2.90450000 -31.02100000 17.20250000
2.91870000 -32.73910000 17.91970000
2.75320000 -2.59230000 10.56510000
2.88400000 -3.36610000 11.37040000
2.49230000 1.02990000 10.92660000
-0.37950000 -3.30630000 53.87570000
0.92760000 -4.57000000 53.57110000
0.40300000 -0.95040000 53.78270000
-1.34510000 2.56820000 53.83450000
0.21710000 2.82120000 53.70310000
-0.98290000 5.53450000 53.66890000
2.61040000 -26.03950000 -34.72210000
2.71660000 -26.65170000 -31.44770000
2.38170000 -27.73240000 -32.82840000
-0.37740000 -41.80980000 34.46260000
-0.51770000 -44.10680000 31.57750000
0.58310000 -43.02550000 32.46040000
-0.35240000 -48.56440000 24.81910000
0.85570000 -46.61090000 26.75340000
-0.08950000 -45.98980000 28.64060000
2.02400000 29.79640000 28.30160000
1.87590000 30.33800000 29.22500000
2.19550000 31.07110000 27.69840000
1.44740000 30.02360000 30.45100000
2.02180000 -15.81920000 37.03470000
1.75220000 -14.08970000 40.10190000
1.89910000 -16.80570000 38.89390000
0.58860000 -17.27820000 40.01990000
3.38380000 -6.24990000 -23.54100000
3.29240000 -7.98550000 -23.84160000
3.16690000 -10.62590000 -22.71090000
3.29980000 -13.33600000 -21.43720000
0.44260000 53.76260000 -5.57530000
-1.65080000 53.16460000 -1.75250000
-1.53460000 53.18280000 -5.00090000
2.50560000 -4.07820000 -43.31240000
1.39550000 -2.61940000 -44.39010000
-0.42360000 -43.79150000 11.53610000
-0.71680000 -43.20620000 14.56200000
2.53590000 -11.42680000 22.31630000
0.48310000 -16.73230000 21.60650000
2.32270000 41.29800000 6.22310000
2.41820000 40.18130000 6.08910000
2.36300000 39.24970000 5.08300000
2.37000000 40.41140000 2.84290000
2.98870000 -36.08110000 6.70740000
2.85670000 -37.99210000 7.17290000
2.48510000 -39.02100000 9.60500000
2.39820000 -40.23540000 6.24290000
2.89640000 -2.62790000 -32.12570000
2.74870000 2.81020000 -31.73900000
2.82710000 -0.46210000 -32.13510000
2.71280000 0.77590000 -31.24770000
2.24730000 34.58100000 19.62830000
2.15210000 -26.56580000 32.56890000
2.14060000 -24.68410000 33.56550000
2.13690000 -27.23370000 30.28270000
3.16110000 -13.07980000 -34.30620000
3.16560000 -14.84460000 -34.10990000
3.33860000 -14.94680000 -32.74980000
2.76560000 -12.14250000 -30.55360000
3.01810000 -13.40760000 -31.15390000
-1.57600000 30.21110000 43.63590000
1.51640000 -17.79360000 2.13760000
2.93850000 -22.86280000 3.28940000
2.86460000 -21.34540000 4.24300000
2.72240000 -20.32570000 3.55330000
2.25700000 16.23100000 25.78390000
2.34010000 18.30100000 24.43970000
2.36900000 20.95920000 22.26120000
2.00330000 -4.22990000 53.77080000
-4.37180000 -1.59120000 0.89680000
-4.11590000 -2.84290000 0.15930000
-3.44160000 -2.69970000 1.73720000
-3.72140000 -1.12550000 2.12080000
-2.44610000 -1.76480000 3.18690000
2.95550000 38.16840000 -4.32040000
2.89520000 37.47880000 -2.41480000
3.03700000 38.00240000 -1.23860000
2.95360000 36.54330000 -4.58550000
2.88680000 37.32310000 -5.29450000
2.00160000 25.04130000 -3.13920000
2.78720000 22.58230000 -3.67450000
2.75260000 20.13410000 -3.48310000
2.82340000 20.45480000 -2.76690000
3.18840000 12.32980000 -18.80820000
3.10240000 13.58280000 -20.73040000
3.20210000 12.18870000 -20.85520000
3.31070000 14.83640000 -17.45080000
3.05770000 14.46130000 -18.45610000
3.32920000 19.67400000 -31.89360000
3.09580000 17.07560000 -32.88960000
3.34160000 16.78800000 -31.45500000
3.24440000 15.23320000 -32.84700000
2.90730000 16.41550000 -38.24740000
2.74620000 18.89050000 -38.13940000
2.83880000 15.69080000 -39.40770000
3.06980000 17.75880000 -35.27660000
2.97900000 17.12180000 -36.23350000
2.92260000 -4.47770000 -42.55770000
2.77590000 -6.03170000 -42.50950000
2.82780000 -5.88210000 -41.38130000
0.19500000 -20.61590000 -49.64690000
0.22050000 -23.82480000 -47.99870000
-0.39630000 -22.58270000 -48.77900000
2.64950000 22.48880000 9.24100000
2.80960000 20.80040000 8.62770000
2.86390000 19.33470000 10.32310000
1.42870000 -15.62490000 -9.22450000
1.86120000 -15.08740000 -10.71310000
1.64680000 0.65830000 25.63430000
2.32140000 -0.27130000 24.67940000
1.25040000 -1.79800000 26.05230000
2.94520000 1.89620000 21.34050000
2.94120000 1.32250000 23.43770000
2.89620000 2.17860000 23.86530000
2.79780000 5.62310000 18.65390000
2.80720000 7.08990000 18.10520000
2.90420000 7.07240000 16.83240000
2.78430000 6.12070000 20.55850000
2.70500000 7.45070000 21.32870000
2.78520000 7.60590000 20.25990000
3.07360000 7.37220000 -18.58740000
0.47340000 18.81110000 39.21050000
2.10670000 15.87990000 37.46250000
2.06300000 17.25100000 38.35720000
2.99650000 -1.05820000 -23.08000000
3.27360000 -0.11050000 -22.26700000
3.14770000 -0.54710000 -25.21080000
2.73110000 2.41310000 -25.83970000
3.21270000 17.22360000 -15.83140000
2.94220000 15.74390000 -16.43650000
3.24030000 15.75820000 -15.57730000
1.37740000 -2.97500000 -17.77560000
1.29060000 -6.09120000 -16.82430000
1.49630000 -8.20100000 -16.46640000
-1.60170000 49.37640000 20.10980000
-1.13030000 50.38340000 17.62090000
-1.85010000 49.34560000 17.27220000
-1.34640000 13.65860000 43.52910000
0.08380000 16.87290000 40.23210000
0.35960000 12.62380000 41.66060000
-0.56700000 14.84780000 41.70110000
0.15710000 -45.08610000 -29.37620000
1.95830000 -45.64610000 -28.77120000
2.78100000 -45.87690000 -29.14200000
2.19360000 -46.33080000 -27.75010000
3.16980000 50.83250000 12.78200000
1.10910000 -0.72080000 5.34930000
2.94690000 2.27970000 -41.75040000
2.84360000 2.33880000 -42.57180000
1.94540000 4.20920000 -43.75060000
-0.50120000 -5.33500000 -53.36900000
-0.15090000 -8.30620000 -53.06550000
0.64220000 3.32240000 -4.84850000
-2.12910000 1.92990000 -4.05550000
0.76730000 4.35060000 -3.65040000
2.01520000 4.77220000 -4.04950000
2.71790000 -11.27650000 -2.21830000
2.90920000 -12.48530000 -3.67440000
3.04250000 -12.18700000 -2.00000000
2.87420000 -12.68980000 1.30820000
2.59630000 -11.83470000 1.10540000
2.74300000 -12.19960000 0.41800000
2.93520000 -30.43180000 -17.20520000
3.08440000 -31.54100000 -16.18200000
2.98710000 -32.44580000 -13.72720000
2.79220000 -31.90300000 -13.15470000
2.85730000 -31.50370000 -15.15410000
1.18080000 15.51680000 24.13880000
2.31010000 33.11040000 42.46570000
2.55490000 34.58500000 41.29200000
1.19580000 22.14690000 17.93850000
2.35970000 22.28870000 20.99710000
2.25790000 21.08310000 20.61550000
2.69270000 30.38110000 6.03900000
2.43740000 29.50540000 6.73000000
-0.55780000 37.19160000 -37.63310000
0.43220000 8.80000000 26.48820000
0.43440000 14.09260000 23.94400000
1.44970000 8.45420000 27.69150000
1.93810000 9.88980000 27.51990000
0.42670000 -44.41540000 -8.18290000
3.09530000 -3.66670000 -38.18190000
3.11370000 -5.00210000 -38.47640000
3.18500000 -6.43080000 -35.70400000
3.22770000 -4.73690000 -36.92400000
1.91610000 13.35500000 -11.33310000
1.58250000 14.11330000 -9.76930000
2.38800000 15.12730000 -9.01810000
3.02030000 17.86100000 -9.08380000
0.84040000 1.38400000 -29.14080000
1.13150000 3.83330000 -29.14790000
1.21790000 3.90660000 -26.98050000
1.12090000 7.15570000 -26.27330000
2.90320000 -8.71970000 16.57790000
2.89940000 -10.57640000 15.69610000
2.98060000 -11.33890000 17.16020000
2.91470000 -11.59180000 19.33660000
0.91640000 40.26440000 -17.27160000
2.48750000 39.46670000 -15.61190000
2.12770000 40.69890000 -12.83560000
2.35420000 26.70880000 -12.48940000
1.72540000 25.34240000 -14.04620000
2.04750000 26.99470000 -10.92430000
0.65970000 26.63840000 -8.65690000
2.70640000 35.05550000 10.82390000
2.76780000 32.44320000 10.54710000
-1.91770000 -2.26120000 -4.98010000
-3.23650000 -3.94300000 -1.96490000
-3.81240000 -2.91860000 -2.59670000
-2.70400000 -3.78610000 -3.19610000
2.18010000 25.11730000 32.60850000
2.07880000 22.59840000 32.69160000
2.13480000 26.68940000 30.56080000
2.22890000 26.65810000 32.06810000
0.60450000 -17.78870000 20.42240000
0.61290000 -19.73460000 18.72450000
0.39180000 -53.34000000 -5.54860000
-0.13820000 -53.62270000 0.74090000
1.43610000 -53.84320000 0.12160000
-0.28650000 -53.44900000 4.58020000
1.72440000 -5.87800000 42.03830000
0.14260000 -6.73130000 43.23100000
-0.48760000 -10.48900000 43.01390000
3.13050000 48.90580000 19.66740000
-0.15570000 46.77010000 -25.42280000
1.76660000 47.01920000 -25.94300000
2.64660000 8.03950000 -10.65310000
2.39300000 6.25360000 -12.41920000
1.72480000 10.24610000 -9.77350000
2.58280000 9.52870000 -9.29990000
2.10390000 11.15210000 -7.85780000
2.55140000 6.96090000 38.29190000
2.64920000 5.09540000 36.35120000
2.68680000 -11.81850000 2.36760000
2.67110000 -10.33440000 2.74890000
2.95570000 -13.03890000 3.80740000
2.22080000 -14.09750000 2.97940000
3.09760000 11.27800000 -33.37640000
2.93850000 10.02230000 -33.11330000
3.03840000 10.58820000 -31.54310000
3.10870000 9.95570000 -31.22640000
3.27820000 9.19450000 -30.96700000
2.86860000 9.33680000 -30.22090000
0.56320000 -35.65850000 40.65720000
0.56760000 -39.05210000 37.22600000
3.34410000 -13.95080000 -19.21190000
3.05620000 -15.19520000 -20.84560000
3.13700000 19.26780000 -5.47060000
2.98650000 16.93250000 -6.88510000
2.77440000 17.02240000 -4.98360000
2.99650000 18.55270000 -3.68630000
2.94620000 21.23460000 -3.91530000
3.19560000 19.99280000 -4.40960000
0.54000000 -16.95260000 23.63050000
2.02510000 -14.91690000 25.78270000
3.13240000 11.08820000 0.89940000
2.95830000 9.67520000 1.06240000
2.88660000 10.36180000 2.60410000
2.61190000 -0.43910000 10.82580000
3.00070000 -1.14730000 11.21740000
2.11140000 -2.12530000 13.23990000
1.34440000 2.47320000 13.93460000
1.88970000 1.26980000 13.46560000
2.91030000 27.19590000 -18.52560000
3.18920000 31.29850000 -18.32830000
3.17090000 29.88280000 -17.70340000
3.16240000 30.74880000 -17.41030000
3.64770000 -26.11970000 -47.26520000
3.82620000 -28.02510000 -45.81960000
3.91430000 -23.51250000 -48.15390000
3.17220000 25.67420000 -28.24990000
3.36510000 27.13670000 -26.25010000
3.35030000 27.62080000 -27.46040000
3.35300000 29.01540000 -25.11700000
3.13650000 30.67010000 -24.40180000
3.04810000 29.31650000 -26.25170000
2.88740000 -2.42690000 -12.95170000
2.76920000 -1.19620000 -11.74770000
3.01440000 0.44730000 -13.07640000
2.77630000 -3.29920000 -11.65340000
-0.86270000 21.49000000 -48.03310000
-0.54360000 21.89550000 -48.52390000
-0.21840000 -16.55040000 51.51780000
-0.52770000 -18.33230000 51.05180000
-0.03300000 -21.10520000 49.89730000
0.87540000 -17.96010000 51.02260000
2.60180000 -6.66320000 23.96510000
2.33660000 -2.60400000 24.82410000
-0.17000000 8.19260000 53.16570000
-1.84120000 6.30470000 52.75750000
-1.11990000 42.14970000 15.93710000
-0.23550000 41.45340000 14.85340000
-1.16960000 40.95030000 18.81820000
-1.15540000 40.04110000 21.99070000
3.09570000 19.10460000 -9.70360000
3.06380000 -19.48620000 -33.77240000
2.75420000 -15.41140000 -38.22950000
2.74460000 -18.71640000 -36.87130000
2.94620000 -0.83700000 -19.71840000
1.54630000 1.81520000 -17.97800000
2.35730000 0.79830000 -18.54020000
1.51940000 -0.42090000 -18.14640000
-0.28880000 48.97530000 -21.46140000
-0.77530000 52.60980000 -10.93780000
-0.62910000 51.08570000 -16.27830000
2.77510000 12.01380000 13.32030000
2.94270000 13.96080000 14.97870000
2.92480000 10.85750000 14.56050000
3.00760000 10.01320000 15.33110000
2.86750000 35.27480000 -4.70360000
2.88310000 33.93730000 -4.70000000
3.12900000 34.30570000 -3.56010000
-0.26770000 15.85550000 51.26800000
3.13780000 6.68440000 -10.71400000
3.10290000 4.73820000 -11.63580000
3.16410000 5.51460000 -9.94620000
2.94820000 9.91940000 5.11820000
3.05880000 10.11320000 5.94990000
2.90070000 8.56930000 5.69070000
3.03130000 8.89760000 7.07500000
2.46890000 -25.85680000 0.68390000
3.10120000 -19.52700000 -0.68250000
3.12870000 -21.49290000 -0.95750000
2.95220000 -22.28520000 -0.04000000
2.89080000 -33.35320000 -16.61040000
3.13390000 -33.03770000 -18.15040000
2.89910000 -35.13350000 -17.42180000
2.87310000 -33.92240000 -18.98850000
3.19140000 -35.18460000 -19.01670000
3.08250000 7.97740000 -32.86440000
2.92660000 6.86390000 -33.73980000
3.04890000 5.30400000 -33.52420000
2.10120000 41.16380000 34.65440000
1.57340000 42.39470000 32.85630000
0.66400000 -14.47250000 -51.80220000
-1.38840000 46.92720000 25.46700000
1.67530000 -23.95240000 17.23150000
2.11130000 -25.49020000 15.41410000
2.32950000 -27.61050000 14.79450000
2.46080000 11.43780000 37.35620000
2.32380000 15.15230000 36.13910000
2.76240000 12.41740000 35.86490000
2.84860000 17.19590000 15.33000000
2.93670000 19.25040000 13.24010000
1.25000000 8.68070000 12.09900000
2.24470000 -41.65210000 4.28890000
2.39750000 -40.83380000 2.90200000
2.29380000 -41.28120000 0.27540000
2.28840000 -42.35820000 0.17550000
2.38850000 -41.99210000 1.28200000
3.17760000 -26.71870000 -25.29620000
3.08100000 -24.63690000 -25.24710000
3.18600000 -24.55160000 -23.33580000
3.14240000 -22.70140000 -24.30920000
-1.61770000 -48.06050000 24.22450000
2.68110000 21.22760000 2.02330000
3.07950000 18.96700000 2.96400000
2.83350000 21.38260000 2.56500000
2.50490000 24.29550000 2.19590000
2.78090000 21.95920000 -34.43860000
2.85850000 20.55240000 -36.18460000
2.90780000 23.59170000 -32.28120000
3.27650000 20.98760000 -33.29200000
3.26760000 23.48830000 -31.13690000
2.99010000 -12.21430000 14.77690000
1.95000000 -13.84100000 11.40710000
2.63740000 -13.28590000 12.70940000
-1.32920000 34.59560000 29.39920000
-1.04170000 34.74110000 28.16920000
-1.33150000 -53.24680000 -5.20900000
-0.06600000 -37.35350000 39.15560000
-1.20380000 -33.25410000 41.43110000
-0.81560000 -35.35820000 40.32770000
-0.72520000 -33.52560000 42.09590000
-0.33220000 -51.54100000 15.59150000
0.41370000 -51.29290000 15.12680000
-0.10730000 -50.19630000 19.29000000
2.79060000 -33.80270000 14.81860000
2.69530000 -32.47300000 14.12270000
2.41010000 -33.36850000 13.81020000
2.91790000 -36.24570000 14.89280000
2.62510000 -35.52500000 14.56400000
3.06430000 -36.19950000 12.90450000
2.32580000 -38.44300000 17.80260000
2.09420000 -39.59030000 16.35050000
2.40620000 -35.47010000 18.81840000
2.22390000 -36.57790000 17.74060000
2.10510000 -36.40030000 19.10690000
2.28360000 31.07260000 26.51610000
2.78850000 27.49540000 24.77830000
2.85230000 26.05080000 26.15370000
1.17470000 -3.92920000 4.33600000
0.21850000 -3.20070000 4.26590000
2.73260000 15.94030000 32.57490000
2.33200000 14.64670000 32.10300000
2.52940000 19.08920000 29.40260000
2.56130000 17.43870000 31.37220000
2.80400000 22.15590000 28.42210000
2.76410000 21.53830000 27.39040000
2.83330000 19.71360000 27.27730000
1.31610000 15.77500000 3.31380000
1.68500000 16.71700000 1.52110000
2.35660000 -17.85140000 32.28980000
2.38060000 -19.55760000 32.57700000
2.76440000 -18.17720000 33.48950000
2.04730000 -20.08930000 34.62450000
2.01810000 -20.76980000 21.44230000
2.55670000 -22.87520000 24.82520000
1.39580000 -11.48090000 -10.74950000
2.95940000 -8.97990000 -10.45430000
2.09620000 -10.06110000 -10.93950000
2.81020000 -10.40930000 -9.32810000
2.45440000 -0.79590000 39.13920000
2.68560000 0.01780000 38.58290000
2.61000000 -2.89160000 38.83200000
2.53990000 3.42270000 38.82830000
-0.00020000 -13.66440000 -43.67170000
1.81640000 -16.03470000 -41.27980000
1.59850000 12.19180000 -12.42530000
2.01380000 11.71960000 -13.16440000
2.81950000 12.54480000 -17.29690000
2.84530000 10.90870000 -16.10560000
3.08790000 11.35030000 -15.41850000
-0.51090000 33.16510000 -41.34940000
-0.25720000 31.15830000 -43.05150000
1.15080000 29.71810000 -44.40780000
0.10890000 3.22910000 43.73280000
0.98280000 7.66500000 42.41230000
3.04760000 -17.71360000 13.06150000
3.03800000 -16.07810000 10.94820000
2.10140000 -15.33620000 9.60930000
2.86470000 -15.62910000 10.52570000
2.58270000 -14.57460000 11.19530000
2.76950000 -31.78590000 23.02320000
2.92180000 -31.98320000 21.54760000
2.66580000 -30.37480000 24.97930000
1.74190000 14.53920000 8.28560000
2.84570000 17.43280000 9.57650000
3.08390000 19.56300000 -26.62810000
3.19080000 21.69210000 -25.61560000
0.73860000 -3.95720000 -28.30880000
0.68390000 -10.86960000 -26.84930000
0.83490000 -6.32350000 -27.25060000
2.71360000 -51.10400000 -18.08590000
-0.94280000 52.88670000 7.92690000
-1.56760000 52.29060000 9.67980000
-0.98490000 51.74070000 13.19130000
-1.03850000 -40.03460000 22.70570000
0.58190000 -2.11010000 28.49770000
2.05440000 -3.12730000 29.52380000
2.62940000 22.74620000 -20.48660000
2.69150000 22.86840000 -19.76080000
2.23210000 20.60170000 -21.00350000
3.24870000 33.25700000 -16.69220000
2.61970000 -7.20210000 7.81870000
2.69800000 -8.80800000 7.23450000
2.74490000 -7.77450000 8.79140000
2.85580000 -8.97060000 9.55550000
2.92570000 -10.45410000 8.09010000
1.75110000 -11.25320000 9.06650000
2.54210000 -37.52840000 -17.42440000
2.43850000 -38.75000000 -16.03950000
2.64650000 -20.72990000 -24.61670000
2.67630000 -22.41440000 -23.46420000
2.60990000 -21.10000000 -22.74090000
3.30880000 -19.40230000 -27.45800000
3.00130000 -18.04570000 -27.66950000
3.09880000 -18.82930000 -28.39700000
3.37230000 2.49600000 -39.70250000
2.89330000 -14.97740000 -13.13280000
3.70110000 -23.80880000 45.10750000
3.67600000 -27.11530000 46.21340000
-0.55360000 42.44470000 12.31370000
2.69760000 -15.83440000 31.26210000
2.35710000 -13.29360000 33.24160000
2.49050000 -12.71920000 32.06400000
2.76910000 -17.04220000 32.83190000
2.70660000 -29.57700000 -12.34560000
2.20470000 41.39010000 -8.92870000
2.05560000 42.18470000 -6.86240000
-0.47660000 -45.18220000 4.58640000
-0.79730000 -46.03270000 -1.24410000
0.44250000 22.91700000 15.08160000
0.47940000 21.55220000 17.70300000
2.42330000 -31.01820000 -5.10040000
2.51710000 -31.97560000 -3.48360000
2.47670000 -30.83400000 -3.71040000
2.51120000 -29.59850000 -9.24230000
2.55450000 -30.66460000 -7.00230000
2.20520000 -30.17400000 -4.20050000
2.71440000 10.25140000 0.01300000
2.59030000 10.18240000 14.32070000
2.67340000 8.23180000 15.55620000
2.77810000 8.73420000 16.98740000
-0.56200000 44.46210000 -5.88350000
2.52990000 28.40120000 8.42500000
2.66420000 29.66090000 8.73180000
0.61220000 -22.66950000 18.08880000
0.45590000 -20.35580000 20.10930000
0.97990000 -23.47180000 17.55050000
2.64510000 -29.37300000 20.95750000
2.71930000 -31.04620000 21.82050000
2.78500000 -30.25970000 23.04860000
3.31340000 27.12920000 -23.52570000
3.22890000 26.20150000 -20.38590000
2.93490000 26.75230000 -20.21980000
2.82790000 27.72410000 -19.22410000
2.92900000 27.73040000 -21.47190000
0.97580000 5.08880000 -1.48380000
2.17560000 5.63520000 -1.73380000
1.85090000 5.22390000 -2.80000000
2.56660000 -17.87970000 5.37460000
1.95420000 -16.60070000 7.05540000
2.15280000 -18.01460000 3.56690000
2.71760000 -18.74900000 3.55300000
2.84590000 -18.33910000 4.55400000
1.73420000 1.19510000 53.92100000
2.80360000 -11.19020000 35.25950000
2.70370000 -10.20700000 36.29600000
2.78890000 -9.94190000 35.23640000
2.37990000 -12.61650000 35.39060000
2.32590000 -7.57850000 34.58150000
2.51880000 -7.64860000 33.26900000
2.40390000 -8.86100000 34.20560000
2.56960000 -8.73860000 36.56820000
2.57470000 -8.87700000 35.21330000
2.87130000 -22.29700000 7.48010000
2.49380000 34.81300000 -24.52170000
2.71470000 35.88770000 -21.90500000
2.69090000 35.63010000 -19.82180000
2.75280000 33.09960000 -22.11960000
2.26580000 26.63970000 11.94050000
2.38130000 27.09400000 13.23650000
3.08560000 53.01550000 -8.74280000
3.03190000 -29.59920000 -24.39310000
2.59270000 -33.51630000 -23.84940000
2.23450000 7.77090000 28.87380000
2.62180000 7.04670000 31.27540000
2.91780000 26.27900000 18.05350000
2.76220000 28.32230000 20.15530000
3.24100000 37.10520000 -8.68660000
2.92430000 35.54730000 -10.61010000
3.08530000 -33.14230000 8.26720000
3.04820000 -32.28080000 7.04480000
2.70610000 14.11500000 28.81870000
2.34330000 12.79290000 28.07330000
-1.02200000 53.10770000 -7.91510000
-1.37420000 51.78920000 -12.04360000
2.86830000 4.22020000 -30.47190000
2.84640000 5.39000000 -29.98050000
2.76260000 5.67040000 -30.66780000
2.97010000 7.98180000 -30.95520000
2.65990000 13.65240000 -40.55330000
2.89680000 14.59060000 -39.12430000
3.11530000 -10.37710000 -21.28080000
3.21270000 -8.62280000 -21.54980000
3.14030000 -8.38780000 -20.28040000
2.53670000 -24.12340000 48.45730000
3.61760000 -25.00890000 46.72070000
2.20190000 6.26060000 29.67880000
1.96620000 4.60750000 29.05540000
2.24670000 2.46900000 30.12710000
1.85960000 0.36110000 29.39500000
0.80800000 0.63950000 28.83100000
1.06080000 -1.29980000 28.97890000
1.82740000 -29.51960000 4.52450000
-1.14990000 -44.13880000 -30.92570000
-1.17640000 -42.80180000 -32.30250000
2.30760000 -14.67070000 20.74250000
1.57800000 -12.48240000 22.91120000
2.97050000 -11.86820000 20.65400000
2.66960000 -5.50100000 17.18010000
1.96530000 -4.21660000 17.03260000
2.24040000 -1.64990000 17.51230000
-0.12050000 2.71650000 -45.65390000
-0.33650000 -2.66420000 -46.18310000
2.98530000 -3.91600000 18.35790000
2.63090000 -1.94010000 18.02540000
2.39640000 -0.55600000 18.05680000
0.13320000 34.58750000 -28.27330000
0.34880000 -27.94940000 6.11670000
0.39490000 -26.29240000 11.05890000
-0.58760000 -29.43180000 -36.28530000
-0.72460000 -33.78010000 -32.87920000
2.02720000 -20.99270000 36.43860000
1.92470000 -20.32090000 37.30000000
1.52790000 -19.92330000 38.05830000
-1.06370000 -17.94680000 41.59210000
2.87080000 0.89460000 19.02120000
2.82900000 0.73280000 21.64780000
2.73130000 3.51040000 17.80370000
1.97430000 2.61220000 17.06510000
2.50940000 -38.82180000 -17.67070000
2.59520000 -37.87870000 -19.47700000
2.53220000 -36.49170000 -20.78800000
3.17000000 -5.73130000 -34.85340000
3.40000000 -5.90340000 -33.44010000
2.67580000 -8.35300000 -11.37870000
2.87370000 -6.63420000 -9.62460000
2.17090000 31.42430000 43.68750000
-1.08120000 -40.16120000 -35.45820000
-1.18580000 -41.06670000 -33.44530000
-1.05660000 -42.22900000 -33.48250000
-1.15060000 -41.44540000 -33.95980000
-0.75040000 -41.60120000 -34.45080000
2.76680000 11.89130000 34.71600000
2.35960000 12.91730000 33.20190000
0.59090000 26.72390000 -5.43180000
2.55970000 35.53010000 8.23680000
-0.20270000 -51.78720000 13.76220000
-0.92990000 -52.28030000 13.61750000
-0.84790000 -51.53640000 16.41240000
2.61800000 30.98860000 9.55640000
2.86600000 32.76820000 7.88420000
3.10640000 33.45110000 8.83160000
2.87250000 15.67730000 -19.47890000
2.54210000 15.32210000 -20.30100000
2.93160000 12.32180000 -22.00650000
2.64250000 14.40420000 -20.85570000
2.50700000 41.02060000 -1.29180000
2.36660000 41.95530000 -0.95100000
2.52700000 41.38480000 -5.71490000
2.29690000 41.96510000 2.02820000
2.50440000 40.91050000 0.97510000
-0.33930000 16.02150000 -43.36550000
2.88530000 -6.62480000 23.35310000
2.73100000 -7.44740000 22.44680000
2.70070000 -9.83930000 22.50480000
2.92890000 -4.62270000 23.74030000
2.76590000 -11.96200000 -39.52190000
2.79580000 -12.67510000 -40.44410000
2.80720000 -10.51180000 -41.21590000
0.72600000 -22.18980000 -17.18380000
0.47750000 -23.24580000 -17.20590000
0.56530000 -23.86380000 -15.21390000
0.94430000 -24.64910000 -16.92240000
2.91650000 -19.50630000 -7.79650000
3.00410000 -19.12660000 -4.60140000
2.91500000 -21.05010000 -4.35780000
-3.75410000 1.96480000 -1.49680000
-3.92450000 1.20250000 -2.58610000
-4.34030000 1.11730000 -1.52200000
-4.47960000 0.34350000 0.37440000
0.40590000 -22.60160000 16.26350000
0.50600000 -24.69990000 12.38420000
2.75490000 29.80090000 -9.31800000
2.65550000 27.94940000 -13.85060000
2.72390000 26.12720000 -15.72460000
1.69810000 15.39650000 24.51380000
0.54400000 5.97860000 27.68710000
-0.98660000 37.87760000 -36.21220000
-0.95200000 34.82930000 -38.53740000
3.09340000 8.22100000 -21.06950000
3.38550000 6.03430000 -37.35540000
3.19980000 7.62660000 -37.41810000
2.80270000 31.87780000 -26.23460000
2.85680000 31.87290000 -25.23130000
2.85720000 32.95940000 -25.21390000
1.12700000 26.01540000 1.78420000
0.57490000 27.02290000 1.91390000
2.27380000 -40.24770000 13.81250000
2.26630000 -40.87500000 9.91010000
-0.33580000 -42.39270000 15.40150000
0.08170000 -3.01450000 -53.61110000
-0.87690000 -3.44710000 -52.72230000
-0.77440000 0.21630000 -53.29830000
-1.94570000 -3.15730000 2.91210000
-2.51860000 -3.96680000 1.62070000
2.99600000 -22.13530000 -2.56830000
3.14200000 -19.75560000 -2.91330000
3.21920000 -20.49130000 -3.53860000
2.83820000 -19.36170000 -1.78110000
2.75480000 -21.24670000 -1.95300000
2.92680000 -22.84790000 -1.55050000
1.91370000 -11.45550000 27.17150000
1.28270000 -9.89340000 27.40930000
1.34270000 -12.81270000 26.29940000
2.13140000 -8.49440000 28.54800000
3.09360000 -15.76560000 -17.56400000
2.95300000 -16.03840000 -18.71660000
3.31330000 -15.34820000 -19.69860000
1.28410000 -12.89690000 8.01210000
1.24590000 -14.56950000 5.52930000
2.55370000 -11.55220000 7.30120000
1.68930000 -12.18700000 8.22060000
-1.14110000 53.40070000 3.58790000
-1.48080000 53.01960000 5.92170000
2.33540000 10.60010000 7.09120000
2.87030000 8.69010000 8.32030000
2.53580000 -21.60940000 -37.87170000
2.20510000 -20.35400000 -38.97990000
3.93600000 -49.71780000 17.87930000
0.67450000 -7.29720000 53.29700000
-0.71430000 -23.51660000 -48.26610000
-0.52310000 -24.51010000 -47.81650000
-0.83700000 -26.76690000 -46.55480000
-0.32780000 -27.38620000 -46.33770000
-0.67020000 -27.87830000 -46.01530000
2.87230000 -12.57740000 -29.26590000
2.75460000 -13.45130000 -28.86700000
3.33290000 13.02670000 -35.59570000
3.16860000 11.81110000 -36.79860000
3.08620000 12.15630000 -35.10820000
3.17970000 14.24980000 -33.97660000
-0.04970000 -36.34700000 26.05530000
1.58920000 -35.42260000 25.03410000
-1.04070000 45.07330000 4.35180000
2.93530000 17.76820000 2.70330000
2.48920000 17.33950000 1.26800000
3.02420000 19.82300000 3.75840000
2.83220000 -20.03380000 15.04710000
2.85710000 -17.73660000 10.55640000
2.81990000 -18.85090000 12.29140000
0.57090000 -25.93150000 -10.84770000
0.40390000 -28.31150000 -7.54080000
3.17540000 18.65760000 -14.94970000
2.95240000 16.34520000 -13.66010000
2.98240000 17.54020000 -15.33510000
2.63550000 38.19150000 -13.48540000
2.57390000 37.26100000 -12.35280000
3.00930000 36.27570000 -12.51710000
2.57940000 37.22480000 -11.47430000
3.20200000 -33.69170000 -4.99580000
3.19760000 -35.65810000 -5.73150000
3.00150000 -35.47190000 -3.53260000
3.08490000 -34.63150000 -6.76380000
3.01570000 -36.46170000 -6.97630000
2.69040000 -3.65180000 12.47410000
2.93280000 -1.49790000 12.31770000
2.66970000 0.48890000 12.67350000
2.69920000 3.60510000 -18.21780000
1.94060000 4.01420000 -17.63830000
2.37440000 6.46430000 -17.01390000
-0.68830000 -35.23320000 28.02090000
0.33450000 -34.47050000 27.66550000
1.97430000 -6.42320000 39.56530000
2.57400000 -25.63620000 -17.64170000
2.56530000 -27.08360000 -17.66720000
2.46050000 -26.84420000 -16.23950000
1.65130000 -24.83750000 -17.04620000
2.43480000 -24.92200000 -17.76110000
2.04370000 -25.98330000 -15.50820000
2.39450000 -42.62440000 -1.22130000
2.38310000 -41.81580000 -1.22190000
2.29760000 -42.79710000 -2.98020000
2.16320000 -43.28950000 -3.05100000
3.16870000 -21.23670000 -30.72240000
3.14240000 -20.22890000 -29.60910000
3.03360000 -20.03730000 -30.66590000
3.34460000 -10.67890000 -33.99230000
3.22340000 -12.17650000 -33.68220000
3.03410000 -13.70200000 -32.61990000
-1.27060000 2.63030000 45.78630000
-0.87960000 0.52560000 44.51140000
-1.28420000 47.97250000 -21.27980000
-1.13050000 45.30550000 -26.69820000
2.75370000 1.60350000 11.35140000
3.03470000 3.58300000 10.83070000
2.86350000 3.68970000 9.81210000
2.68600000 4.77020000 10.43630000
1.76130000 4.64410000 -13.95510000
2.90360000 2.69830000 -13.17770000
2.40980000 3.71480000 -13.53080000
2.22030000 0.96340000 -14.38110000
0.34110000 -53.15110000 6.70810000
0.41050000 -52.26870000 11.52100000
-0.31950000 -52.94390000 8.50360000
2.79710000 22.22850000 -1.01040000
2.75930000 24.05210000 -3.64870000
3.14930000 22.73230000 -2.18390000
3.03350000 23.85820000 -1.68760000
0.25970000 3.45130000 3.05320000
2.22670000 37.66830000 18.17280000
2.41780000 36.75850000 17.92310000
2.22550000 36.51720000 19.90850000
2.21970000 38.98370000 15.29110000
-1.07170000 -42.60910000 33.28930000
3.00290000 -19.49950000 -16.47810000
3.19520000 -20.09770000 -15.26110000
-1.80080000 14.06540000 51.61140000
-0.98570000 12.50900000 52.60500000
-0.32410000 11.25700000 52.56450000
-0.26250000 13.52040000 52.17730000
3.11530000 -23.88430000 3.12600000
2.62380000 -25.28350000 4.06740000
2.43850000 -39.90620000 -12.25060000
3.09670000 -38.27710000 -7.49220000
3.07590000 -39.52140000 -7.08230000
2.65060000 11.24820000 -1.20750000
2.43790000 12.75340000 -2.62710000
2.68420000 -24.34820000 -33.37740000
2.67500000 -25.54270000 -33.11830000
2.96720000 -23.24110000 -33.40720000
3.24760000 -24.44920000 -31.91040000
3.12950000 -14.84930000 -14.24540000
3.09140000 -13.99150000 -15.80560000
2.90500000 32.83570000 -13.69630000
0.68300000 -17.51000000 -22.17670000
0.55460000 -19.28050000 -21.56560000
0.70730000 -20.35750000 -19.35650000
0.55420000 -21.29970000 -20.34820000
0.64030000 -22.39810000 -19.39750000
0.51330000 -21.50580000 -19.09170000
1.06540000 26.95440000 -34.93020000
2.15770000 30.01430000 -31.04080000
3.31630000 5.42010000 -24.21240000
3.30460000 2.80010000 -24.70640000
3.21490000 6.50090000 -23.43510000
-1.11240000 28.00890000 45.26450000
-1.95270000 31.47600000 42.23270000
0.39250000 -19.10650000 20.27020000
0.81550000 -18.62910000 19.29890000
1.70530000 -14.33770000 25.72050000
0.75810000 -13.93730000 25.50310000
1.09060000 -16.96680000 24.06120000
0.11390000 21.06850000 -49.13330000
-0.36870000 -32.50190000 -33.12650000
2.83060000 17.54780000 -2.95860000
2.02510000 16.71940000 -4.20340000
1.94430000 15.78170000 -7.09350000
2.74630000 25.36750000 23.79200000
2.65570000 24.81370000 24.95580000
2.92020000 24.49630000 25.83940000
-0.69800000 -44.31730000 -13.34390000
2.76010000 -33.11190000 -12.04870000
2.94260000 -33.81020000 -10.22460000
2.78890000 -34.11600000 -8.64220000
3.04180000 51.96280000 -14.71220000
2.18730000 -37.71830000 16.16780000
2.17430000 -38.37340000 16.88790000
2.38200000 -8.31570000 -16.94670000
2.70670000 -10.73880000 -15.79060000
3.89270000 -18.05960000 -50.60820000
3.93930000 -21.64740000 -48.98830000
0.78100000 -7.51380000 -28.34570000
1.43190000 -3.67980000 -29.52040000
0.60790000 16.30370000 20.95160000
0.46910000 13.60840000 23.46080000
2.60250000 -4.61810000 8.42890000
2.87650000 -5.82180000 8.56890000
2.78850000 -5.62620000 9.57970000
3.24770000 -3.08680000 -39.48090000
3.29570000 -5.09380000 -39.47830000
2.76540000 -30.44030000 14.40130000
2.46260000 -31.07460000 14.80560000
2.53700000 -30.41170000 16.23440000
2.36160000 21.41200000 32.72980000
2.66900000 17.75750000 33.81720000
-1.03120000 -37.91840000 -38.00140000
-0.99840000 -39.13120000 -36.93830000
0.64650000 -14.79500000 -25.30060000
0.70690000 -12.39870000 -25.46810000
2.66850000 -1.32180000 -31.24860000
2.90220000 11.66800000 19.90580000
2.61160000 10.52460000 20.13390000
2.78280000 -25.56070000 -34.06060000
-1.27630000 -51.56250000 -15.22060000
-1.10760000 -51.36300000 -16.56970000
-1.22180000 -50.62720000 -17.99180000
-0.76280000 -50.77940000 -18.31690000
0.20400000 -32.50940000 43.27190000
1.45600000 12.67230000 -6.59160000
1.56240000 13.34820000 -4.25630000
-0.72200000 43.71360000 -11.10340000
-0.89270000 45.09550000 -7.19970000
3.13730000 -39.02430000 -2.37050000
3.04690000 -38.06060000 -1.30620000
2.02830000 12.45060000 -26.79590000
2.32100000 11.52780000 -27.46740000
1.48350000 10.45690000 -27.46210000
2.78710000 15.28270000 17.20160000
2.69600000 14.33720000 16.80390000
2.70870000 -37.81570000 8.74880000
3.02200000 -37.15490000 9.94700000
-0.39620000 -38.39270000 37.86900000
2.80520000 -7.62350000 -30.47060000
2.84500000 -8.56360000 -30.98090000
2.10930000 -16.95450000 36.06780000
2.51060000 -16.07930000 35.96960000
3.47310000 -19.94170000 48.28260000
2.67520000 20.28420000 6.38310000
2.87950000 21.45810000 10.54550000
2.82220000 22.56090000 7.72080000
2.76860000 34.81320000 13.67730000
2.68320000 36.62170000 11.89250000
2.95300000 28.07090000 -30.80120000
2.35150000 28.77310000 4.19690000
3.10290000 23.11020000 1.33730000
2.79330000 23.19750000 2.30530000
2.98900000 23.89370000 0.31360000
2.79140000 14.72190000 10.17410000
2.79220000 14.53970000 10.95510000
2.71670000 17.06370000 12.26970000
3.02150000 18.41790000 -26.22770000
2.75210000 17.33220000 -26.32660000
2.60790000 17.42020000 -25.11950000
2.53960000 13.44830000 -26.65300000
2.69320000 15.70270000 -25.74080000
2.80850000 15.01730000 -26.75690000
2.31020000 3.23390000 24.63240000
2.57740000 0.95180000 24.45010000
2.74890000 -18.00630000 28.40330000
2.67410000 -18.82440000 27.83590000
3.09340000 -19.93680000 5.57270000
3.02840000 -18.59530000 5.44750000
2.87750000 -20.47940000 6.31560000
2.93390000 -17.69310000 7.60180000
0.54290000 25.03080000 12.25810000
0.58190000 -16.78870000 -23.78760000
0.85100000 -15.23010000 -23.51590000
2.38520000 23.50570000 31.25910000
2.15580000 28.23810000 27.85870000
-1.73330000 2.19120000 53.42250000
