0.60416000 -8.44715000 -0.06770000
1.20523000 -8.38253000 -0.06770000
1.80016000 -8.27519000 -0.06770000
2.38592000 -8.12569000 -0.06770000
2.95952000 -7.93477000 -0.06770000
3.51804000 -7.70343000 -0.06770000
4.05863000 -7.43283000 -0.06770000
4.57854000 -7.12435000 -0.06770000
5.07512000 -6.77957000 -0.06770000
5.54584000 -6.40024000 -0.06770000
5.98830000 -5.98830000 -0.06770000
6.40024000 -5.54584000 -0.06770000
6.77957000 -5.07513000 -0.06770000
7.12435000 -4.57855000 -0.06770000
7.43282000 -4.05864000 -0.06770000
7.70343000 -3.51805000 -0.06770000
7.93477000 -2.95953000 -0.06770000
8.12568000 -2.38593000 -0.06770000
8.27519000 -1.80017000 -0.06770000
8.38253000 -1.20524000 -0.06770000
8.44715000 -0.60417000 -0.06770000
1.75636000 0.12562000 -0.06771000
1.76085000 -0.00000000 -0.06771000
3.19836000 0.52147000 -0.06771000
1.74292000 0.25059000 -0.06771000
6.03190000 1.78247000 -0.04374000
5.98411000 1.54219000 -0.04374000
5.84800000 2.22645000 -0.04374000
5.98411000 2.02275000 -0.04374000
1.48132000 0.95198000 -0.06771000
1.54546000 0.84388000 -0.06771000
3.44501000 2.57890000 -0.06771000
1.40963000 1.05524000 -0.06771000
3.54861000 3.53116000 -0.06771000
3.65598000 3.37047000 -0.06771000
3.19836000 3.67624000 -0.06771000
3.38791000 3.63853000 -0.06771000
0.95199000 1.48132000 -0.06771000
1.05524000 1.40963000 -0.06771000
2.71975000 3.63316000 -0.06771000
1.62334000 2.97293000 -0.06771000
0.84388000 1.54546000 -0.06771000
0.55076000 2.99137000 -0.06771000
0.25060000 1.74292000 -0.06771000
0.37430000 1.72060000 -0.06771000
0.65813000 2.83068000 -0.06771000
0.12562000 1.75636000 -0.06771000
0.51305000 3.18092000 -0.06771000
0.00000000 1.76085000 -0.06771000
-0.12562000 1.75636000 -0.06771000
-0.45310000 3.15137000 -0.06771000
-0.25059000 1.74292000 -0.06771000
-0.84388000 1.54546000 -0.06771000
-1.53186000 2.83068000 -0.06771000
-1.63923000 2.99137000 -0.06771000
-0.95198000 1.48132000 -0.06771000
-1.05524000 1.40963000 -0.06771000
-1.48132000 0.95198000 -0.06771000
-1.40963000 1.05523000 -0.06771000
-3.56116000 2.72330000 -0.06771000
-3.72185000 2.83068000 -0.06771000
-3.27965000 1.79082000 -0.06771000
-2.95449000 1.61327000 -0.06771000
-1.54546000 0.84388000 -0.06771000
-1.75636000 0.12562000 -0.06771000
-1.74292000 0.25059000 -0.06771000
-3.37161000 0.52147000 -0.06771000
-1.76085000 -0.00000000 -0.06771000
-1.75636000 -0.12562000 -0.06771000
-3.82812000 -0.55041000 -0.06771000
-1.74292000 -0.25060000 -0.06771000
-6.30507000 -1.91740000 -0.04374000
-6.25727000 -1.67712000 -0.04374000
-6.12117000 -2.36138000 -0.04374000
-6.25727000 -2.15768000 -0.04374000
-1.48132000 -0.95199000 -0.06771000
-1.54546000 -0.84389000 -0.06771000
-3.10749000 -1.69682000 -0.06771000
-3.77998000 -2.82967000 -0.06771000
-1.40963000 -1.05524000 -0.06771000
-3.72185000 -3.66173000 -0.06771000
-3.82923000 -3.50103000 -0.06771000
-2.91400000 -3.12194000 -0.06771000
-1.15311000 -1.33076000 -0.06771000
-1.24510000 -1.24511000 -0.06771000
-3.02137000 -2.96124000 -0.06771000
-0.95198000 -1.48132000 -0.06771000
-1.05523000 -1.40963000 -0.06771000
-2.82718000 -3.77668000 -0.06771000
-1.63923000 -3.12194000 -0.06771000
-0.12562000 -1.75636000 -0.06771000
-0.25059000 -1.74292000 -0.06771000
0.00000000 -1.76085000 -0.06771000
0.12562000 -1.75636000 -0.06771000
0.55076000 -3.50103000 -0.06771000
0.51305000 -3.31149000 -0.06771000
1.27017000 -5.85815000 -0.04374000
0.95199000 -1.48132000 -0.06771000
0.84388000 -1.54546000 -0.06771000
1.67328000 -3.06439000 -0.06771000
2.84812000 -3.66173000 -0.06771000
1.48132000 -0.95199000 -0.06771000
1.40963000 -1.05524000 -0.06771000
3.67016000 -2.74745000 -0.06771000
5.66050000 -3.07566000 -0.06771000
5.38589000 -2.92335000 -0.06771000
5.06738000 -2.74670000 -0.06771000
3.00881000 -1.60497000 -0.06771000
1.75636000 -0.12562000 -0.06771000
1.74292000 -0.25060000 -0.06771000
1.19970000 0.08580000 0.51478000
1.14807000 0.08211000 0.56324000
1.15100000 -0.00000000 0.56324000
1.20187000 -0.00000000 0.51562000
1.19454000 0.17175000 0.51098000
1.13928000 0.16380000 0.56324000
1.12470000 0.24466000 0.56324000
1.19296000 0.26052000 0.50265000
1.10438000 0.32427000 0.56324000
1.19346000 0.35388000 0.48240000
1.19958000 0.45206000 0.44955000
1.07843000 0.40223000 0.56324000
1.04699000 0.47814000 0.56324000
1.21135000 0.52820000 0.40906000
1.20278000 0.54929000 0.40290000
1.01021000 0.55162000 0.56324000
1.16053000 0.63370000 0.40290000
0.96828000 0.62228000 0.56324000
1.11237000 0.71487000 0.40290000
0.92142000 0.68977000 0.56324000
1.05853000 0.79241000 0.40290000
0.86987000 0.75374000 0.56324000
0.99931000 0.86590000 0.40290000
0.81388000 0.81388000 0.56324000
0.93499000 0.93499000 0.40290000
0.75375000 0.86987000 0.56324000
0.86590000 0.99931000 0.40290000
0.68977000 0.92142000 0.56324000
0.79241000 1.05853000 0.40290000
0.62228000 0.96828000 0.56324000
0.71487000 1.11237000 0.40290000
0.55162000 1.01021000 0.56324000
0.63370000 1.16053000 0.40290000
0.47814000 1.04699000 0.56324000
0.54929000 1.20278000 0.40290000
0.40223000 1.07843000 0.56324000
0.46209000 1.23890000 0.40290000
0.32427000 1.10438000 0.56324000
0.37253000 1.26871000 0.40290000
0.24466000 1.12470000 0.56324000
0.28107000 1.29205000 0.40290000
0.16380000 1.13928000 0.56324000
0.18818000 1.30881000 0.40290000
0.08211000 1.14807000 0.56324000
0.09433000 1.31890000 0.40290000
0.00000000 1.15100000 0.56324000
0.00000000 1.32227000 0.40290000
-0.08211000 1.14807000 0.56324000
-0.09433000 1.31890000 0.40290000
-0.16380000 1.13928000 0.56324000
-0.18818000 1.30881000 0.40290000
-0.24466000 1.12470000 0.56324000
-0.28107000 1.29205000 0.40290000
-0.32427000 1.10438000 0.56324000
-0.37253000 1.26871000 0.40290000
-0.40223000 1.07843000 0.56324000
-0.46209000 1.23890000 0.40290000
-0.47814000 1.04699000 0.56324000
-0.54929000 1.20278000 0.40290000
-0.55162000 1.01021000 0.56324000
-0.63370000 1.16053000 0.40290000
-0.62228000 0.96828000 0.56324000
-0.71487000 1.11237000 0.40290000
-0.68977000 0.92142000 0.56324000
-0.79241000 1.05853000 0.40290000
-0.75374000 0.86987000 0.56324000
-0.86590000 0.99931000 0.40290000
-0.81388000 0.81388000 0.56324000
-0.93499000 0.93499000 0.40290000
-0.86987000 0.75374000 0.56324000
-0.99931000 0.86590000 0.40290000
-0.92142000 0.68977000 0.56324000
-1.05853000 0.79241000 0.40290000
-0.96828000 0.62228000 0.56324000
-1.11237000 0.71487000 0.40290000
-1.01021000 0.55161000 0.56324000
-1.16053000 0.63370000 0.40290000
-1.04699000 0.47814000 0.56324000
-1.20278000 0.54929000 0.40290000
-1.21135000 0.52820000 0.40906000
-1.19958000 0.45206000 0.44955000
-1.07843000 0.40223000 0.56324000
-1.19346000 0.35388000 0.48240000
-1.10438000 0.32427000 0.56324000
-1.19296000 0.26052000 0.50264000
-1.12470000 0.24466000 0.56324000
-1.19454000 0.17175000 0.51098000
-1.13928000 0.16380000 0.56324000
-1.19970000 0.08580000 0.51478000
-1.14807000 0.08211000 0.56324000
-1.20187000 -0.00000000 0.51562000
-1.15100000 -0.00000000 0.56324000
-1.20376000 -0.08590000 0.51632000
-1.14807000 -0.08211000 0.56324000
-1.20478000 -0.17298000 0.50842000
-1.13928000 -0.16381000 0.56324000
-1.20405000 -0.26163000 0.49435000
-1.12470000 -0.24466000 0.56324000
-1.20544000 -0.35537000 0.47180000
-1.10438000 -0.32428000 0.56324000
-1.21066000 -0.45644000 0.43480000
-1.07843000 -0.40224000 0.56324000
-1.21680000 -0.51711000 0.40644000
-1.20278000 -0.54929000 0.40290000
-1.04699000 -0.47814000 0.56324000
-1.01021000 -0.55162000 0.56324000
-1.16053000 -0.63370000 0.40290000
-0.96828000 -0.62228000 0.56324000
-1.11236000 -0.71488000 0.40290000
-0.92142000 -0.68977000 0.56324000
-1.05853000 -0.79241000 0.40290000
-0.86987000 -0.75375000 0.56324000
-0.99930000 -0.86591000 0.40290000
-0.81388000 -0.81388000 0.56324000
-0.93499000 -0.93499000 0.40290000
-0.75374000 -0.86987000 0.56324000
-0.86590000 -0.99931000 0.40290000
-0.68977000 -0.92143000 0.56324000
-0.79241000 -1.05854000 0.40290000
-0.62228000 -0.96828000 0.56324000
-0.71487000 -1.11237000 0.40290000
-0.55161000 -1.01021000 0.56324000
-0.63370000 -1.16053000 0.40290000
-0.47814000 -1.04699000 0.56324000
-0.54929000 -1.20278000 0.40290000
-0.40223000 -1.07843000 0.56324000
-0.46208000 -1.23890000 0.40290000
-0.32427000 -1.10438000 0.56324000
-0.37252000 -1.26871000 0.40290000
-0.24466000 -1.12470000 0.56324000
-0.28107000 -1.29205000 0.40290000
-0.16380000 -1.13929000 0.56324000
-0.18818000 -1.30881000 0.40290000
-0.08211000 -1.14807000 0.56324000
-0.09433000 -1.31890000 0.40290000
0.00000000 -1.15100000 0.56324000
0.00000000 -1.32227000 0.40290000
0.08211000 -1.14807000 0.56324000
0.09433000 -1.31890000 0.40290000
0.16381000 -1.13929000 0.56324000
0.18818000 -1.30881000 0.40290000
0.24466000 -1.12470000 0.56324000
0.28107000 -1.29205000 0.40290000
0.32427000 -1.10438000 0.56324000
0.37253000 -1.26871000 0.40290000
0.40223000 -1.07843000 0.56324000
0.46209000 -1.23890000 0.40290000
0.47814000 -1.04699000 0.56324000
0.54929000 -1.20278000 0.40290000
0.55162000 -1.01021000 0.56324000
0.63370000 -1.16053000 0.40290000
0.62228000 -0.96828000 0.56324000
0.71487000 -1.11237000 0.40290000
0.68977000 -0.92142000 0.56324000
0.79241000 -1.05853000 0.40290000
0.75374000 -0.86987000 0.56324000
0.86590000 -0.99931000 0.40290000
0.81388000 -0.81388000 0.56324000
0.93499000 -0.93499000 0.40290000
0.86987000 -0.75375000 0.56324000
0.99931000 -0.86591000 0.40290000
0.92142000 -0.68977000 0.56324000
1.05853000 -0.79241000 0.40290000
0.96828000 -0.62228000 0.56324000
1.11237000 -0.71488000 0.40290000
1.01021000 -0.55162000 0.56324000
1.16053000 -0.63370000 0.40290000
1.04699000 -0.47814000 0.56324000
1.20278000 -0.54929000 0.40290000
1.21680000 -0.51711000 0.40644000
1.21065000 -0.45644000 0.43480000
1.07843000 -0.40224000 0.56324000
1.20544000 -0.35537000 0.47180000
1.10438000 -0.32428000 0.56324000
1.20405000 -0.26163000 0.49435000
1.12470000 -0.24467000 0.56324000
1.13928000 -0.16381000 0.56324000
1.20478000 -0.17298000 0.50842000
1.20376000 -0.08591000 0.51632000
1.14807000 -0.08211000 0.56324000
0.35127000 0.02512000 0.95303000
0.21472000 0.01536000 0.98760000
0.21527000 -0.00000000 0.98760000
0.35217000 -0.00000000 0.95303000
0.66041000 0.04723000 0.85643000
0.66210000 -0.00000000 0.85643000
0.93603000 -0.00000000 0.72359000
0.93365000 0.06678000 0.72359000
1.69642000 -0.00000000 -0.03803000
1.69210000 0.12102000 -0.03803000
1.67722000 0.11996000 -0.01953000
1.68142000 -0.00000000 -0.01942000
0.34858000 0.05012000 0.95303000
0.21308000 0.03064000 0.98760000
0.65536000 0.09423000 0.85643000
0.92650000 0.13321000 0.72359000
1.67915000 0.24143000 -0.03803000
1.66448000 0.23932000 -0.01964000
0.34412000 0.07486000 0.95303000
0.21035000 0.04576000 0.98760000
0.64697000 0.14074000 0.85643000
0.91464000 0.19897000 0.72359000
1.65765000 0.36060000 -0.03803000
1.64325000 0.35747000 -0.01975000
0.33790000 0.09922000 0.95303000
0.20655000 0.06065000 0.98760000
0.63528000 0.18653000 0.85643000
0.89811000 0.26371000 0.72359000
1.62770000 0.47794000 -0.03803000
1.61364000 0.47381000 -0.01985000
0.32997000 0.12307000 0.95303000
0.20170000 0.07523000 0.98760000
0.62035000 0.23138000 0.85643000
0.87701000 0.32711000 0.72359000
1.58946000 0.59284000 -0.03803000
1.57581000 0.58775000 -0.01996000
0.32034000 0.14630000 0.95303000
0.19581000 0.08942000 0.98760000
0.60227000 0.27505000 0.85643000
0.85144000 0.38884000 0.72359000
1.54312000 0.70472000 -0.03803000
1.52994000 0.69870000 -0.02006000
1.21578000 0.58973000 0.37413000
0.30909000 0.16878000 0.95303000
0.18894000 0.10317000 0.98760000
0.58111000 0.31731000 0.85643000
0.82153000 0.44859000 0.72359000
1.48891000 0.81301000 -0.03803000
1.47626000 0.80610000 -0.02016000
1.24535000 0.68452000 0.30897000
0.29626000 0.19040000 0.95303000
0.18110000 0.11638000 0.98760000
0.55699000 0.35796000 0.85643000
0.78744000 0.50606000 0.72359000
1.42712000 0.91715000 -0.03803000
1.41506000 0.90940000 -0.02025000
1.26835000 0.75932000 0.24018000
1.24086000 0.79745000 0.24256000
0.28193000 0.21105000 0.95303000
0.17233000 0.12900000 0.98760000
0.53004000 0.39678000 0.85643000
0.74933000 0.56094000 0.72359000
1.39946000 0.93190000 -0.02027000
1.35805000 1.01663000 -0.03803000
1.28045000 0.95853000 0.08221000
1.32410000 0.89507000 0.07003000
1.18081000 0.88394000 0.24256000
0.26615000 0.23062000 0.95303000
0.16269000 0.14097000 0.98760000
0.50038000 0.43358000 0.85643000
0.70740000 0.61297000 0.72359000
1.28207000 1.11092000 -0.03803000
1.20881000 1.04744000 0.08221000
1.11474000 0.96593000 0.24256000
0.24902000 0.24902000 0.95303000
0.15222000 0.15222000 0.98760000
0.46817000 0.46817000 0.85643000
0.66187000 0.66187000 0.72359000
1.19955000 1.19955000 -0.03803000
1.13100000 1.13100000 0.08221000
1.04299000 1.04299000 0.24256000
0.23062000 0.26615000 0.95303000
0.14097000 0.16269000 0.98760000
0.43358000 0.50038000 0.85643000
0.61297000 0.70740000 0.72359000
1.11092000 1.28207000 -0.03803000
1.04744000 1.20881000 0.08221000
0.96593000 1.11474000 0.24256000
0.21105000 0.28193000 0.95303000
0.12901000 0.17233000 0.98760000
0.39678000 0.53004000 0.85643000
0.56094000 0.74933000 0.72359000
1.01663000 1.35805000 -0.03803000
0.95853000 1.28045000 0.08221000
0.88394000 1.18081000 0.24256000
0.19040000 0.29626000 0.95303000
0.11638000 0.18109000 0.98760000
0.35796000 0.55699000 0.85643000
0.50606000 0.78744000 0.72359000
0.91715000 1.42712000 -0.03803000
0.86475000 1.34557000 0.08221000
0.79745000 1.24086000 0.24256000
0.16878000 0.30909000 0.95303000
0.10317000 0.18894000 0.98760000
0.31731000 0.58111000 0.85643000
0.44859000 0.82153000 0.72359000
0.81301000 1.48891000 -0.03803000
0.76655000 1.40383000 0.08221000
0.70690000 1.29459000 0.24256000
0.14630000 0.32034000 0.95303000
0.08943000 0.19581000 0.98760000
0.27505000 0.60227000 0.85643000
0.38884000 0.85144000 0.72359000
0.70472000 1.54312000 -0.03803000
0.66445000 1.45494000 0.08221000
0.61274000 1.34172000 0.24256000
0.12307000 0.32996000 0.95303000
0.07523000 0.20169000 0.98760000
0.23138000 0.62035000 0.85643000
0.32711000 0.87701000 0.72359000
0.59284000 1.58946000 -0.03803000
0.55896000 1.49863000 0.08221000
0.51546000 1.38201000 0.24256000
0.09922000 0.33790000 0.95303000
0.06065000 0.20655000 0.98760000
0.18654000 0.63528000 0.85643000
0.26371000 0.89811000 0.72359000
0.47794000 1.62770000 -0.03803000
0.45063000 1.53469000 0.08221000
0.41556000 1.41526000 0.24256000
0.07486000 0.34412000 0.95303000
0.04576000 0.21035000 0.98760000
0.14074000 0.64697000 0.85643000
0.19897000 0.91464000 0.72359000
0.36060000 1.65765000 -0.03803000
0.33999000 1.56293000 0.08221000
0.31354000 1.44130000 0.24256000
0.05012000 0.34858000 0.95303000
0.03064000 0.21308000 0.98760000
0.09423000 0.65536000 0.85643000
0.13321000 0.92650000 0.72359000
0.24143000 1.67915000 -0.03803000
0.22763000 1.58320000 0.08221000
0.20992000 1.46000000 0.24256000
0.02512000 0.35127000 0.95303000
0.01536000 0.21472000 0.98760000
0.04723000 0.66041000 0.85643000
0.06678000 0.93365000 0.72359000
0.12102000 1.69210000 -0.03803000
0.11411000 1.59541000 0.08221000
0.10523000 1.47125000 0.24256000
0.00000000 0.35217000 0.95303000
0.00000000 0.21527000 0.98760000
0.00000000 0.66210000 0.85643000
0.00000000 0.93603000 0.72359000
0.00000000 1.69642000 -0.03803000
0.00000000 1.59948000 0.08221000
0.00000000 1.47501000 0.24256000
-0.02512000 0.35127000 0.95303000
-0.01536000 0.21472000 0.98760000
-0.04723000 0.66041000 0.85643000
-0.06678000 0.93365000 0.72359000
-0.12102000 1.69210000 -0.03803000
-0.11410000 1.59541000 0.08221000
-0.10523000 1.47125000 0.24256000
-0.05012000 0.34858000 0.95303000
-0.03064000 0.21308000 0.98760000
-0.09423000 0.65536000 0.85643000
-0.13321000 0.92650000 0.72359000
-0.24142000 1.67915000 -0.03803000
-0.22763000 1.58320000 0.08221000
-0.20992000 1.46000000 0.24256000
-0.07486000 0.34412000 0.95303000
-0.04576000 0.21035000 0.98760000
-0.14074000 0.64697000 0.85643000
-0.19897000 0.91464000 0.72359000
-0.36060000 1.65765000 -0.03803000
-0.33999000 1.56293000 0.08221000
-0.31354000 1.44130000 0.24256000
-0.09922000 0.33790000 0.95303000
-0.06065000 0.20655000 0.98760000
-0.18653000 0.63528000 0.85643000
-0.26371000 0.89811000 0.72359000
-0.47794000 1.62770000 -0.03803000
-0.45063000 1.53469000 0.08221000
-0.41556000 1.41526000 0.24256000
-0.12307000 0.32996000 0.95303000
-0.07523000 0.20169000 0.98760000
-0.23138000 0.62035000 0.85643000
-0.32711000 0.87701000 0.72359000
-0.59284000 1.58946000 -0.03803000
-0.55896000 1.49863000 0.08221000
-0.51546000 1.38201000 0.24256000
-0.14630000 0.32034000 0.95303000
-0.08943000 0.19581000 0.98760000
-0.27505000 0.60227000 0.85643000
-0.38884000 0.85144000 0.72359000
-0.70472000 1.54312000 -0.03803000
-0.66445000 1.45494000 0.08221000
-0.61274000 1.34172000 0.24256000
-0.16878000 0.30909000 0.95303000
-0.10317000 0.18894000 0.98760000
-0.31731000 0.58111000 0.85643000
-0.44859000 0.82153000 0.72359000
-0.81301000 1.48891000 -0.03803000
-0.76655000 1.40383000 0.08221000
-0.70690000 1.29459000 0.24256000
-0.19040000 0.29626000 0.95303000
-0.11638000 0.18109000 0.98760000
-0.35796000 0.55699000 0.85643000
-0.50606000 0.78744000 0.72359000
-0.91715000 1.42712000 -0.03803000
-0.86474000 1.34557000 0.08221000
-0.79745000 1.24086000 0.24256000
-0.21105000 0.28193000 0.95303000
-0.12900000 0.17233000 0.98760000
-0.39678000 0.53004000 0.85643000
-0.56094000 0.74933000 0.72359000
-1.01663000 1.35805000 -0.03803000
-0.95853000 1.28045000 0.08221000
-0.88394000 1.18081000 0.24256000
-0.23062000 0.26615000 0.95303000
-0.14097000 0.16269000 0.98760000
-0.43358000 0.50038000 0.85643000
-0.61297000 0.70740000 0.72359000
-1.11092000 1.28207000 -0.03803000
-1.04744000 1.20881000 0.08221000
-0.96593000 1.11474000 0.24256000
-0.24902000 0.24902000 0.95303000
-0.15222000 0.15222000 0.98760000
-0.46817000 0.46817000 0.85643000
-0.66187000 0.66187000 0.72359000
-1.19955000 1.19955000 -0.03803000
-1.13100000 1.13100000 0.08221000
-1.04299000 1.04299000 0.24256000
-0.26615000 0.23062000 0.95303000
-0.16269000 0.14097000 0.98760000
-0.50038000 0.43358000 0.85643000
-0.70740000 0.61297000 0.72359000
-1.28207000 1.11092000 -0.03803000
-1.20881000 1.04744000 0.08221000
-1.11474000 0.96593000 0.24256000
-0.28193000 0.21105000 0.95303000
-0.17233000 0.12900000 0.98760000
-0.53004000 0.39678000 0.85643000
-0.74933000 0.56094000 0.72359000
-1.35805000 1.01663000 -0.03803000
-1.28045000 0.95853000 0.08221000
-1.18081000 0.88394000 0.24256000
-0.29626000 0.19040000 0.95303000
-0.18109000 0.11638000 0.98760000
-0.55699000 0.35796000 0.85643000
-0.78744000 0.50606000 0.72359000
-1.24086000 0.79745000 0.24256000
-0.30909000 0.16878000 0.95303000
-0.18894000 0.10317000 0.98760000
-0.58111000 0.31731000 0.85643000
-0.82153000 0.44859000 0.72359000
-1.42712000 0.91715000 -0.03803000
-1.48891000 0.81301000 -0.03803000
-1.47626000 0.80610000 -0.02016000
-1.41506000 0.90940000 -0.02025000
-1.26835000 0.75932000 0.24018000
-1.24535000 0.68452000 0.30898000
-0.32034000 0.14630000 0.95303000
-0.19581000 0.08942000 0.98760000
-0.60227000 0.27504000 0.85643000
-0.85144000 0.38884000 0.72359000
-1.54312000 0.70472000 -0.03803000
-1.52994000 0.69870000 -0.02006000
-1.21578000 0.58973000 0.37413000
-0.32996000 0.12307000 0.95303000
-0.20169000 0.07523000 0.98760000
-0.62035000 0.23138000 0.85643000
-0.87701000 0.32711000 0.72359000
-1.58946000 0.59284000 -0.03803000
-1.57581000 0.58774000 -0.01996000
-0.33790000 0.09922000 0.95303000
-0.20655000 0.06065000 0.98760000
-0.63528000 0.18653000 0.85643000
-0.89811000 0.26371000 0.72359000
-1.62770000 0.47794000 -0.03803000
-1.61364000 0.47381000 -0.01986000
-0.34412000 0.07486000 0.95303000
-0.21035000 0.04576000 0.98760000
-0.64697000 0.14074000 0.85643000
-0.91464000 0.19897000 0.72359000
-1.65765000 0.36060000 -0.03803000
-1.64325000 0.35747000 -0.01975000
-0.34858000 0.05012000 0.95303000
-0.21308000 0.03064000 0.98760000
-0.65536000 0.09423000 0.85643000
-0.92650000 0.13321000 0.72359000
-1.67915000 0.24142000 -0.03803000
-1.66236000 0.23901000 -0.01964000
-0.35127000 0.02512000 0.95303000
-0.21472000 0.01536000 0.98760000
-0.66041000 0.04723000 0.85643000
-0.93365000 0.06677000 0.72359000
-1.69210000 0.12102000 -0.03803000
-1.67722000 0.11996000 -0.01953000
-0.35217000 -0.00000000 0.95303000
-0.21527000 -0.00000000 0.98760000
-0.66210000 -0.00000000 0.85643000
-0.93603000 -0.00000000 0.72359000
-1.69642000 -0.00000000 -0.03803000
-1.68142000 -0.00000000 -0.01943000
-0.35127000 -0.02512000 0.95303000
-0.21472000 -0.01536000 0.98760000
-0.66041000 -0.04723000 0.85643000
-0.93365000 -0.06678000 0.72359000
-1.69210000 -0.12102000 -0.03803000
-1.67705000 -0.11995000 -0.01932000
-0.34858000 -0.05012000 0.95303000
-0.21308000 -0.03064000 0.98760000
-0.65536000 -0.09423000 0.85643000
-0.92650000 -0.13321000 0.72359000
-1.67915000 -0.24143000 -0.03803000
-1.66413000 -0.23927000 -0.01921000
-0.34412000 -0.07486000 0.95303000
-0.21035000 -0.04576000 0.98760000
-0.64697000 -0.14074000 0.85643000
-0.91464000 -0.19897000 0.72359000
-1.65765000 -0.36060000 -0.03803000
-1.64274000 -0.35736000 -0.01910000
-0.33790000 -0.09922000 0.95303000
-0.20655000 -0.06065000 0.98760000
-0.63528000 -0.18654000 0.85643000
-0.89811000 -0.26371000 0.72359000
-1.62770000 -0.47794000 -0.03803000
-1.61298000 -0.47362000 -0.01900000
-0.32996000 -0.12307000 0.95303000
-0.20169000 -0.07523000 0.98760000
-0.62035000 -0.23138000 0.85643000
-0.87701000 -0.32711000 0.72359000
-1.58946000 -0.59284000 -0.03803000
-1.57500000 -0.58745000 -0.01889000
-0.32034000 -0.14630000 0.95303000
-0.19581000 -0.08943000 0.98760000
-0.60226000 -0.27505000 0.85643000
-0.85144000 -0.38884000 0.72359000
-1.54312000 -0.70472000 -0.03803000
-1.52901000 -0.69828000 -0.01879000
-1.22063000 -0.58304000 0.37133000
-0.30909000 -0.16878000 0.95303000
-0.18894000 -0.10317000 0.98760000
-0.58111000 -0.31731000 0.85643000
-0.82153000 -0.44859000 0.72359000
-1.48891000 -0.81301000 -0.03803000
-1.47523000 -0.80554000 -0.01869000
-0.29626000 -0.19040000 0.95303000
-0.18109000 -0.11638000 0.98760000
-0.55699000 -0.35796000 0.85643000
-0.78744000 -0.50606000 0.72359000
-1.42712000 -0.91716000 -0.03803000
-1.41394000 -0.90869000 -0.01860000
-1.26892000 -0.75016000 0.24256000
-1.24086000 -0.79745000 0.24256000
-1.24455000 -0.66929000 0.31002000
-0.28193000 -0.21105000 0.95303000
-0.17233000 -0.12901000 0.98760000
-0.53004000 -0.39678000 0.85643000
-0.74933000 -0.56094000 0.72359000
-1.28045000 -0.95854000 0.08221000
-1.32785000 -0.88858000 0.07762000
-1.39961000 -0.92929000 -0.01858000
-1.35805000 -1.01663000 -0.03803000
-1.18081000 -0.88394000 0.24256000
-0.26615000 -0.23062000 0.95303000
-0.16269000 -0.14097000 0.98760000
-0.50038000 -0.43358000 0.85643000
-0.70740000 -0.61297000 0.72359000
-1.28207000 -1.11092000 -0.03803000
-1.20881000 -1.04744000 0.08221000
-1.11474000 -0.96593000 0.24256000
-0.24902000 -0.24902000 0.95303000
-0.15222000 -0.15222000 0.98760000
-0.46817000 -0.46818000 0.85643000
-0.66187000 -0.66188000 0.72359000
-1.19955000 -1.19955000 -0.03803000
-1.13100000 -1.13101000 0.08221000
-1.04299000 -1.04299000 0.24256000
-0.23062000 -0.26615000 0.95303000
-0.14097000 -0.16269000 0.98760000
-0.43358000 -0.50038000 0.85643000
-0.61297000 -0.70741000 0.72359000
-1.11092000 -1.28207000 -0.03803000
-1.04744000 -1.20881000 0.08221000
-0.96592000 -1.11474000 0.24256000
-0.21105000 -0.28193000 0.95303000
-0.12900000 -0.17233000 0.98760000
-0.39678000 -0.53004000 0.85643000
-0.56094000 -0.74933000 0.72359000
-1.01662000 -1.35806000 -0.03803000
-0.95853000 -1.28045000 0.08221000
-0.88394000 -1.18081000 0.24256000
-0.19040000 -0.29626000 0.95303000
-0.11638000 -0.18110000 0.98760000
-0.35796000 -0.55699000 0.85643000
-0.50605000 -0.78744000 0.72359000
-0.91715000 -1.42712000 -0.03803000
-0.86474000 -1.34557000 0.08221000
-0.79745000 -1.24086000 0.24256000
-0.16878000 -0.30909000 0.95303000
-0.10317000 -0.18894000 0.98760000
-0.31731000 -0.58111000 0.85643000
-0.44859000 -0.82154000 0.72359000
-0.81300000 -1.48891000 -0.03803000
-0.76655000 -1.40383000 0.08221000
-0.70689000 -1.29459000 0.24256000
-0.14630000 -0.32035000 0.95303000
-0.08942000 -0.19582000 0.98760000
-0.27504000 -0.60227000 0.85643000
-0.38884000 -0.85144000 0.72359000
-0.70472000 -1.54312000 -0.03803000
-0.66445000 -1.45494000 0.08221000
-0.61274000 -1.34172000 0.24256000
-0.12307000 -0.32997000 0.95303000
-0.07523000 -0.20170000 0.98760000
-0.23138000 -0.62035000 0.85643000
-0.32711000 -0.87701000 0.72359000
-0.59284000 -1.58946000 -0.03803000
-0.55896000 -1.49864000 0.08221000
-0.51546000 -1.38201000 0.24256000
-0.09922000 -0.33790000 0.95303000
-0.06065000 -0.20655000 0.98760000
-0.18653000 -0.63528000 0.85643000
-0.26371000 -0.89812000 0.72359000
-0.47793000 -1.62770000 -0.03803000
-0.45062000 -1.53469000 0.08221000
-0.41556000 -1.41526000 0.24256000
-0.07486000 -0.34412000 0.95303000
-0.04576000 -0.21035000 0.98760000
-0.14074000 -0.64697000 0.85643000
-0.19897000 -0.91464000 0.72359000
-0.36060000 -1.65765000 -0.03803000
-0.33999000 -1.56293000 0.08221000
-0.31353000 -1.44130000 0.24256000
-0.05012000 -0.34859000 0.95303000
-0.03064000 -0.21308000 0.98760000
-0.09423000 -0.65536000 0.85643000
-0.13321000 -0.92650000 0.72359000
-0.24142000 -1.67915000 -0.03803000
-0.22763000 -1.58320000 0.08221000
-0.20991000 -1.46000000 0.24256000
-0.02512000 -0.35127000 0.95303000
-0.01536000 -0.21472000 0.98760000
-0.04723000 -0.66041000 0.85643000
-0.06677000 -0.93365000 0.72359000
-0.12102000 -1.69210000 -0.03803000
-0.11410000 -1.59541000 0.08221000
-0.10522000 -1.47125000 0.24256000
0.00000000 -0.35217000 0.95303000
0.00000000 -0.21527000 0.98760000
0.00000000 -0.66210000 0.85643000
0.00000000 -0.93603000 0.72359000
0.00000000 -1.69642000 -0.03803000
0.00000000 -1.59948000 0.08221000
0.00000000 -1.47501000 0.24256000
0.02512000 -0.35127000 0.95303000
0.01536000 -0.21472000 0.98760000
0.04723000 -0.66041000 0.85643000
0.06678000 -0.93365000 0.72359000
0.12102000 -1.69210000 -0.03803000
0.11411000 -1.59541000 0.08221000
0.10523000 -1.47125000 0.24256000
0.05012000 -0.34859000 0.95303000
0.03064000 -0.21308000 0.98760000
0.09423000 -0.65536000 0.85643000
0.13321000 -0.92650000 0.72359000
0.24143000 -1.67915000 -0.03803000
0.22763000 -1.58320000 0.08221000
0.20992000 -1.46000000 0.24256000
0.07486000 -0.34412000 0.95303000
0.04576000 -0.21035000 0.98760000
0.14074000 -0.64697000 0.85643000
0.19897000 -0.91464000 0.72359000
0.36060000 -1.65765000 -0.03803000
0.34000000 -1.56293000 0.08221000
0.31354000 -1.44130000 0.24256000
0.09922000 -0.33790000 0.95303000
0.06065000 -0.20655000 0.98760000
0.18654000 -0.63528000 0.85643000
0.26371000 -0.89811000 0.72359000
0.47794000 -1.62770000 -0.03803000
0.45063000 -1.53469000 0.08221000
0.41556000 -1.41526000 0.24256000
0.12307000 -0.32997000 0.95303000
0.07523000 -0.20170000 0.98760000
0.23138000 -0.62035000 0.85643000
0.32711000 -0.87701000 0.72359000
0.59284000 -1.58946000 -0.03803000
0.55896000 -1.49863000 0.08221000
0.51546000 -1.38201000 0.24256000
0.14630000 -0.32034000 0.95303000
0.08943000 -0.19582000 0.98760000
0.27505000 -0.60227000 0.85643000
0.38884000 -0.85144000 0.72359000
0.70472000 -1.54312000 -0.03803000
0.66445000 -1.45494000 0.08221000
0.61274000 -1.34172000 0.24256000
0.16878000 -0.30909000 0.95303000
0.10317000 -0.18894000 0.98760000
0.31731000 -0.58111000 0.85643000
0.44859000 -0.82153000 0.72359000
0.81301000 -1.48891000 -0.03803000
0.76655000 -1.40383000 0.08221000
0.70690000 -1.29459000 0.24256000
0.19040000 -0.29626000 0.95303000
0.11638000 -0.18110000 0.98760000
0.35796000 -0.55699000 0.85643000
0.50606000 -0.78744000 0.72359000
0.91715000 -1.42712000 -0.03803000
0.86475000 -1.34557000 0.08221000
0.79745000 -1.24086000 0.24256000
0.21105000 -0.28193000 0.95303000
0.12901000 -0.17233000 0.98760000
0.39678000 -0.53004000 0.85643000
0.56094000 -0.74933000 0.72359000
1.01663000 -1.35805000 -0.03803000
0.95853000 -1.28045000 0.08221000
0.88394000 -1.18081000 0.24256000
0.23062000 -0.26615000 0.95303000
0.14097000 -0.16269000 0.98760000
0.43358000 -0.50038000 0.85643000
0.61297000 -0.70741000 0.72359000
1.11092000 -1.28207000 -0.03803000
1.04744000 -1.20881000 0.08221000
0.96593000 -1.11474000 0.24256000
0.24902000 -0.24902000 0.95303000
0.15222000 -0.15222000 0.98760000
0.46817000 -0.46818000 0.85643000
0.66187000 -0.66187000 0.72359000
1.19955000 -1.19955000 -0.03803000
1.13100000 -1.13101000 0.08221000
1.04299000 -1.04299000 0.24256000
0.26615000 -0.23062000 0.95303000
0.16269000 -0.14097000 0.98760000
0.50038000 -0.43358000 0.85643000
0.70740000 -0.61297000 0.72359000
1.28207000 -1.11092000 -0.03803000
1.20881000 -1.04744000 0.08221000
1.11474000 -0.96593000 0.24256000
0.28193000 -0.21105000 0.95303000
0.17233000 -0.12901000 0.98760000
0.53004000 -0.39678000 0.85643000
0.74933000 -0.56094000 0.72359000
1.35805000 -1.01663000 -0.03803000
1.28045000 -0.95854000 0.08221000
1.18081000 -0.88394000 0.24256000
0.29626000 -0.19040000 0.95303000
0.18109000 -0.11638000 0.98760000
0.55699000 -0.35796000 0.85643000
0.78744000 -0.50606000 0.72359000
1.24086000 -0.79745000 0.24256000
0.30909000 -0.16878000 0.95303000
0.18894000 -0.10317000 0.98760000
0.58111000 -0.31731000 0.85643000
0.82153000 -0.44859000 0.72359000
1.42712000 -0.91716000 -0.03803000
1.48891000 -0.81301000 -0.03803000
1.47523000 -0.80554000 -0.01869000
1.41394000 -0.90869000 -0.01860000
1.24455000 -0.66929000 0.31002000
1.26892000 -0.75016000 0.24256000
0.32034000 -0.14630000 0.95303000
0.19581000 -0.08943000 0.98760000
0.60227000 -0.27505000 0.85643000
0.85144000 -0.38884000 0.72359000
1.54312000 -0.70472000 -0.03803000
1.52901000 -0.69828000 -0.01879000
1.22063000 -0.58304000 0.37133000
0.32996000 -0.12307000 0.95303000
0.20170000 -0.07523000 0.98760000
0.62035000 -0.23138000 0.85643000
0.87701000 -0.32711000 0.72359000
1.58946000 -0.59284000 -0.03803000
1.57500000 -0.58745000 -0.01889000
0.33790000 -0.09922000 0.95303000
0.20655000 -0.06065000 0.98760000
0.63528000 -0.18654000 0.85643000
0.89811000 -0.26371000 0.72359000
1.62770000 -0.47794000 -0.03803000
1.61298000 -0.47362000 -0.01899000
0.34412000 -0.07486000 0.95303000
0.21035000 -0.04576000 0.98760000
0.64697000 -0.14074000 0.85643000
0.91464000 -0.19897000 0.72359000
1.65765000 -0.36060000 -0.03803000
1.64274000 -0.35736000 -0.01910000
0.34858000 -0.05012000 0.95303000
0.21308000 -0.03064000 0.98760000
0.65536000 -0.09423000 0.85643000
0.92650000 -0.13321000 0.72359000
1.67915000 -0.24143000 -0.03803000
1.66413000 -0.23927000 -0.01921000
0.35127000 -0.02512000 0.95303000
0.21472000 -0.01536000 0.98760000
0.66041000 -0.04724000 0.85643000
0.93365000 -0.06678000 0.72359000
1.69210000 -0.12103000 -0.03803000
1.67705000 -0.11995000 -0.01932000
1.28872000 0.83886000 0.15698000
-1.28872000 0.83886000 0.15698000
-1.32410000 0.89507000 0.07003000
-1.29542000 -0.83252000 0.15901000
1.29542000 -0.83252000 0.15901000
1.32785000 -0.88858000 0.07762000
1.72061000 0.37429000 -0.06771000
1.68952000 0.49609000 -0.06771000
1.64982000 0.61535000 -0.06771000
1.60172000 0.73148000 -0.06771000
1.33076000 1.15311000 -0.06771000
1.24511000 1.24511000 -0.06771000
1.15311000 1.33076000 -0.06771000
0.73148000 1.60172000 -0.06771000
0.61535000 1.64982000 -0.06771000
0.49609000 1.68952000 -0.06771000
-0.37429000 1.72060000 -0.06771000
-0.49609000 1.68952000 -0.06771000
-0.61535000 1.64982000 -0.06771000
-0.73148000 1.60172000 -0.06771000
-1.15311000 1.33076000 -0.06771000
-1.24511000 1.24511000 -0.06771000
-1.33076000 1.15311000 -0.06771000
-1.60172000 0.73148000 -0.06771000
-1.64982000 0.61535000 -0.06771000
-1.68952000 0.49609000 -0.06771000
-1.72061000 0.37429000 -0.06771000
-1.72060000 -0.37430000 -0.06771000
-1.68952000 -0.49609000 -0.06771000
-1.64982000 -0.61536000 -0.06771000
-1.60172000 -0.73148000 -0.06771000
-1.33076000 -1.15311000 -0.06771000
-0.84388000 -1.54546000 -0.06771000
-0.73148000 -1.60172000 -0.06771000
-0.61535000 -1.64983000 -0.06771000
-0.49608000 -1.68952000 -0.06771000
-0.37429000 -1.72061000 -0.06771000
0.25060000 -1.74292000 -0.06771000
0.37430000 -1.72061000 -0.06771000
0.49609000 -1.68952000 -0.06771000
0.61535000 -1.64982000 -0.06771000
0.73148000 -1.60172000 -0.06771000
1.05524000 -1.40963000 -0.06771000
1.15311000 -1.33076000 -0.06771000
1.24511000 -1.24511000 -0.06771000
1.33076000 -1.15311000 -0.06771000
1.54546000 -0.84389000 -0.06771000
1.60172000 -0.73148000 -0.06771000
1.64982000 -0.61536000 -0.06771000
1.68952000 -0.49609000 -0.06771000
1.72060000 -0.37430000 -0.06771000
0.00000000 -0.00000000 1.01504000
2.29423000 -6.06185000 -0.04374000
2.43034000 -5.85815000 -0.04374000
1.00837000 -2.81617000 -0.06771000
1.19792000 -2.85387000 -0.06771000
1.60998000 -6.19796000 -0.04374000
1.40628000 -6.06185000 -0.04374000
2.09053000 -6.19796000 -0.04374000
1.85026000 -6.24575000 -0.04374000
2.39851000 -5.39078000 -0.00496000
2.31931000 -5.42359000 -0.00616000
2.35796000 -5.61788000 -0.00616000
2.44369000 -5.61788000 -0.00496000
2.26987000 -5.19826000 -0.00496000
2.20926000 -5.25887000 -0.00616000
2.07735000 -5.06962000 -0.00496000
2.04455000 -5.14882000 -0.00616000
1.85026000 -5.02444000 -0.00496000
1.85026000 -5.11017000 -0.00616000
1.62316000 -5.06962000 -0.00496000
1.65597000 -5.14882000 -0.00616000
1.43064000 -5.19826000 -0.00496000
1.49125000 -5.25887000 -0.00616000
1.30200000 -5.39078000 -0.00496000
1.38120000 -5.42358000 -0.00616000
1.25682000 -5.61788000 -0.00496000
1.34255000 -5.61788000 -0.00616000
1.30200000 -5.84497000 -0.00496000
1.38120000 -5.81217000 -0.00616000
1.43064000 -6.03749000 -0.00496000
1.49125000 -5.97688000 -0.00616000
1.62316000 -6.16613000 -0.00496000
1.65597000 -6.08693000 -0.00616000
1.85026000 -6.21131000 -0.00496000
1.85026000 -6.12558000 -0.00616000
2.07735000 -6.16613000 -0.00496000
2.04455000 -6.08693000 -0.00616000
2.26988000 -6.03749000 -0.00496000
2.20926000 -5.97688000 -0.00616000
2.39851000 -5.84497000 -0.00496000
2.31931000 -5.81217000 -0.00616000
2.27223000 -5.61788000 0.00744000
2.24011000 -5.45639000 0.00744000
2.10326000 -5.51308000 0.05128000
2.12411000 -5.61788000 0.05128000
2.14864000 -5.31949000 0.00744000
2.04390000 -5.42423000 0.05128000
2.01174000 -5.22802000 0.00744000
1.95505000 -5.36487000 0.05128000
1.85026000 -5.19590000 0.00744000
1.85026000 -5.34402000 0.05128000
1.68877000 -5.22802000 0.00744000
1.74546000 -5.36487000 0.05128000
1.55187000 -5.31949000 0.00744000
1.65661000 -5.42423000 0.05128000
1.46040000 -5.45639000 0.00744000
1.59725000 -5.51308000 0.05128000
1.42828000 -5.61788000 0.00744000
1.57640000 -5.61788000 0.05128000
1.46040000 -5.77936000 0.00744000
1.59725000 -5.72267000 0.05128000
1.55187000 -5.91626000 0.00744000
1.65661000 -5.81152000 0.05128000
1.68877000 -6.00773000 0.00744000
1.74546000 -5.87088000 0.05128000
1.85026000 -6.03985000 0.00744000
1.85026000 -5.89173000 0.05128000
2.01174000 -6.00773000 0.00744000
1.95505000 -5.87088000 0.05128000
2.14864000 -5.91626000 0.00744000
2.04390000 -5.81152000 0.05128000
2.24011000 -5.77936000 0.00744000
2.10326000 -5.72267000 0.05128000
2.00923000 -5.55203000 0.13310000
2.02233000 -5.61788000 0.13310000
1.97193000 -5.49620000 0.13310000
1.91610000 -5.45890000 0.13310000
1.85026000 -5.44580000 0.13310000
1.78441000 -5.45890000 0.13310000
1.72858000 -5.49620000 0.13310000
1.69128000 -5.55203000 0.13310000
1.67818000 -5.61788000 0.13310000
1.69128000 -5.68372000 0.13310000
1.72858000 -5.73955000 0.13310000
1.78441000 -5.77685000 0.13310000
1.85026000 -5.78995000 0.13310000
1.91610000 -5.77685000 0.13310000
1.97193000 -5.73955000 0.13310000
2.00923000 -5.68372000 0.13310000
1.94747000 -5.57761000 0.21492000
1.95548000 -5.61788000 0.21492000
1.92466000 -5.54347000 0.21492000
1.89052000 -5.52066000 0.21492000
1.85026000 -5.51266000 0.21492000
1.80999000 -5.52066000 0.21492000
1.77585000 -5.54347000 0.21492000
1.75305000 -5.57761000 0.21492000
1.74504000 -5.61788000 0.21492000
1.75305000 -5.65814000 0.21492000
1.77585000 -5.69228000 0.21492000
1.80999000 -5.71509000 0.21492000
1.85026000 -5.72310000 0.21492000
1.89052000 -5.71509000 0.21492000
1.92466000 -5.69228000 0.21492000
1.94747000 -5.65814000 0.21492000
1.90742000 -5.59420000 0.29675000
1.91213000 -5.61788000 0.29675000
1.89401000 -5.57412000 0.29675000
1.87393000 -5.56071000 0.29675000
1.85026000 -5.55600000 0.29675000
1.82658000 -5.56071000 0.29675000
1.80651000 -5.57412000 0.29675000
1.79309000 -5.59420000 0.29675000
1.78838000 -5.61788000 0.29675000
1.79309000 -5.64155000 0.29675000
1.80651000 -5.66163000 0.29675000
1.82658000 -5.67504000 0.29675000
1.85026000 -5.67975000 0.29675000
1.87393000 -5.67504000 0.29675000
1.89401000 -5.66163000 0.29675000
1.90742000 -5.64155000 0.29675000
1.87853000 -5.60616000 0.37857000
1.88086000 -5.61788000 0.37857000
1.87190000 -5.59623000 0.37857000
1.86197000 -5.58960000 0.37857000
1.85026000 -5.58727000 0.37857000
1.83854000 -5.58960000 0.37857000
1.82861000 -5.59623000 0.37857000
1.82198000 -5.60616000 0.37857000
1.81965000 -5.61788000 0.37857000
1.82198000 -5.62959000 0.37857000
1.82861000 -5.63952000 0.37857000
1.83854000 -5.64615000 0.37857000
1.85026000 -5.64848000 0.37857000
1.86197000 -5.64615000 0.37857000
1.87190000 -5.63952000 0.37857000
1.87853000 -5.62959000 0.37857000
1.85026000 -5.61788000 0.40977000
0.81882000 -2.85387000 -0.06771000
0.65813000 -2.96124000 -0.06771000
2.47814000 -5.61788000 -0.04374000
2.43034000 -5.37760000 -0.04374000
2.29423000 -5.17390000 -0.04374000
2.09053000 -5.03779000 -0.04374000
1.85026000 -4.99000000 -0.04374000
1.60998000 -5.03779000 -0.04374000
1.40628000 -5.17390000 -0.04374000
1.27017000 -5.37760000 -0.04374000
1.22238000 -5.61788000 -0.04374000
-2.30035000 -6.06185000 -0.04374000
-2.43646000 -5.85815000 -0.04374000
-1.85637000 -6.24575000 -0.04374000
-2.09665000 -6.19796000 -0.04374000
-1.41240000 -6.06185000 -0.04374000
-1.27629000 -5.85815000 -0.04374000
-5.43691000 -2.49749000 -0.04374000
-5.67719000 -2.54528000 -0.04374000
-2.87629000 -1.14735000 -0.06771000
-2.91400000 -1.33690000 -0.06771000
-2.91400000 -0.95780000 -0.06771000
-3.02137000 -0.79711000 -0.06771000
-6.12117000 2.31911000 -0.04374000
-5.91747000 2.45522000 -0.04374000
-6.30507000 1.87513000 -0.04374000
-6.25727000 2.11541000 -0.04374000
-6.12117000 1.43115000 -0.04374000
-5.91747000 1.29505000 -0.04374000
-1.90975000 6.19189000 -0.04374000
-1.66947000 6.14409000 -0.04374000
-2.48983000 5.80429000 -0.04374000
-2.53763000 5.56401000 -0.04374000
-1.37117000 2.72330000 -0.06771000
-1.18162000 2.68560000 -0.06771000
-1.53186000 3.53116000 -0.06771000
-1.37117000 3.63853000 -0.06771000
-1.90975000 4.93613000 -0.04374000
-2.15003000 4.98392000 -0.04374000
-1.18162000 3.67624000 -0.06771000
-0.99207000 3.63853000 -0.06771000
-1.46577000 5.12003000 -0.04374000
-1.66947000 4.98392000 -0.04374000
-0.83138000 3.53116000 -0.06771000
-1.32966000 5.80429000 -0.04374000
-1.28187000 5.56401000 -0.04374000
2.09040000 4.98392000 -0.04374000
1.46599000 3.37047000 -0.06771000
2.29410000 5.12003000 -0.04374000
2.29410000 6.00799000 -0.04374000
2.43021000 5.80429000 -0.04374000
1.85012000 6.19189000 -0.04374000
2.09040000 6.14409000 -0.04374000
1.40614000 6.00799000 -0.04374000
1.27004000 5.80429000 -0.04374000
0.81882000 3.63853000 -0.06771000
1.00837000 3.67624000 -0.06771000
1.40614000 5.12003000 -0.04374000
1.27004000 5.32373000 -0.04374000
1.19792000 3.63853000 -0.06771000
1.85012000 4.93613000 -0.04374000
1.60984000 4.98392000 -0.04374000
5.16375000 2.36256000 -0.04374000
5.40402000 2.41035000 -0.04374000
5.98411000 -2.25034000 -0.04374000
5.84800000 -2.45404000 -0.04374000
6.03190000 -2.01006000 -0.04374000
5.98411000 -1.76978000 -0.04374000
2.84812000 -0.79711000 -0.06771000
2.74075000 -0.95780000 -0.06771000
4.96005000 -1.56609000 -0.04374000
3.69368000 -1.14735000 -0.06771000
3.65598000 -1.33690000 -0.06771000
4.82394000 -1.76978000 -0.04374000
3.54861000 -1.49759000 -0.06771000
3.38791000 -1.60497000 -0.06771000
4.82394000 -2.25034000 -0.04374000
4.77614000 -2.01006000 -0.04374000
5.64430000 -2.59015000 -0.04374000
-1.30812000 -5.39078000 -0.00496000
-1.38732000 -5.42359000 -0.00616000
-1.34867000 -5.61788000 -0.00616000
-1.26294000 -5.61788000 -0.00496000
-1.43676000 -5.19826000 -0.00496000
-1.49737000 -5.25887000 -0.00616000
-1.62928000 -5.06962000 -0.00496000
-1.66208000 -5.14882000 -0.00616000
-1.85637000 -5.02444000 -0.00496000
-1.85637000 -5.11017000 -0.00616000
-2.08347000 -5.06962000 -0.00496000
-2.05066000 -5.14882000 -0.00616000
-2.27599000 -5.19826000 -0.00496000
-2.21538000 -5.25887000 -0.00616000
-2.40463000 -5.39078000 -0.00496000
-2.32543000 -5.42358000 -0.00616000
-2.44981000 -5.61788000 -0.00496000
-2.36408000 -5.61788000 -0.00616000
-2.40463000 -5.84497000 -0.00496000
-2.32543000 -5.81217000 -0.00616000
-2.27599000 -6.03749000 -0.00496000
-2.21538000 -5.97688000 -0.00616000
-2.08347000 -6.16613000 -0.00496000
-2.05066000 -6.08693000 -0.00616000
-1.85637000 -6.21131000 -0.00496000
-1.85637000 -6.12558000 -0.00616000
-1.62928000 -6.16613000 -0.00496000
-1.66208000 -6.08693000 -0.00616000
-1.43676000 -6.03749000 -0.00496000
-1.49737000 -5.97688000 -0.00616000
-1.30812000 -5.84497000 -0.00496000
-1.38732000 -5.81217000 -0.00616000
-1.43440000 -5.61788000 0.00744000
-1.46652000 -5.45639000 0.00744000
-1.60337000 -5.51308000 0.05128000
-1.58252000 -5.61788000 0.05128000
-1.55799000 -5.31949000 0.00744000
-1.66273000 -5.42423000 0.05128000
-1.69489000 -5.22802000 0.00744000
-1.75158000 -5.36487000 0.05128000
-1.85637000 -5.19590000 0.00744000
-1.85637000 -5.34402000 0.05128000
-2.01786000 -5.22802000 0.00744000
-1.96117000 -5.36487000 0.05128000
-2.15476000 -5.31949000 0.00744000
-2.05002000 -5.42423000 0.05128000
-2.24623000 -5.45639000 0.00744000
-2.10938000 -5.51308000 0.05128000
-2.27835000 -5.61788000 0.00744000
-2.13023000 -5.61788000 0.05128000
-2.24623000 -5.77936000 0.00744000
-2.10938000 -5.72267000 0.05128000
-2.15476000 -5.91626000 0.00744000
-2.05002000 -5.81152000 0.05128000
-2.01786000 -6.00773000 0.00744000
-1.96117000 -5.87088000 0.05128000
-1.85637000 -6.03985000 0.00744000
-1.85637000 -5.89173000 0.05128000
-1.69489000 -6.00773000 0.00744000
-1.75158000 -5.87088000 0.05128000
-1.55799000 -5.91626000 0.00744000
-1.66273000 -5.81152000 0.05128000
-1.46652000 -5.77936000 0.00744000
-1.60337000 -5.72267000 0.05128000
-1.69740000 -5.55203000 0.13310000
-1.68430000 -5.61788000 0.13310000
-1.73470000 -5.49620000 0.13310000
-1.79053000 -5.45890000 0.13310000
-1.85637000 -5.44580000 0.13310000
-1.92222000 -5.45890000 0.13310000
-1.97805000 -5.49620000 0.13310000
-2.01535000 -5.55203000 0.13310000
-2.02845000 -5.61788000 0.13310000
-2.01535000 -5.68372000 0.13310000
-1.97805000 -5.73955000 0.13310000
-1.92222000 -5.77685000 0.13310000
-1.85637000 -5.78995000 0.13310000
-1.79053000 -5.77685000 0.13310000
-1.73470000 -5.73955000 0.13310000
-1.69740000 -5.68372000 0.13310000
-1.75916000 -5.57761000 0.21492000
-1.75115000 -5.61788000 0.21492000
-1.78197000 -5.54347000 0.21492000
-1.81611000 -5.52066000 0.21492000
-1.85637000 -5.51266000 0.21492000
-1.89664000 -5.52066000 0.21492000
-1.93078000 -5.54347000 0.21492000
-1.95359000 -5.57761000 0.21492000
-1.96159000 -5.61788000 0.21492000
-1.95359000 -5.65814000 0.21492000
-1.93078000 -5.69228000 0.21492000
-1.89664000 -5.71509000 0.21492000
-1.85637000 -5.72310000 0.21492000
-1.81611000 -5.71509000 0.21492000
-1.78197000 -5.69228000 0.21492000
-1.75916000 -5.65814000 0.21492000
-1.79921000 -5.59420000 0.29675000
-1.79450000 -5.61788000 0.29675000
-1.81262000 -5.57412000 0.29675000
-1.83270000 -5.56071000 0.29675000
-1.85637000 -5.55600000 0.29675000
-1.88005000 -5.56071000 0.29675000
-1.90013000 -5.57412000 0.29675000
-1.91354000 -5.59420000 0.29675000
-1.91825000 -5.61788000 0.29675000
-1.91354000 -5.64155000 0.29675000
-1.90013000 -5.66163000 0.29675000
-1.88005000 -5.67504000 0.29675000
-1.85637000 -5.67975000 0.29675000
-1.83270000 -5.67504000 0.29675000
-1.81262000 -5.66163000 0.29675000
-1.79921000 -5.64155000 0.29675000
-1.82810000 -5.60616000 0.37857000
-1.82577000 -5.61788000 0.37857000
-1.83473000 -5.59623000 0.37857000
-1.84466000 -5.58960000 0.37857000
-1.85637000 -5.58727000 0.37857000
-1.86809000 -5.58960000 0.37857000
-1.87802000 -5.59623000 0.37857000
-1.88465000 -5.60616000 0.37857000
-1.88698000 -5.61788000 0.37857000
-1.88465000 -5.62959000 0.37857000
-1.87802000 -5.63952000 0.37857000
-1.86809000 -5.64615000 0.37857000
-1.85637000 -5.64848000 0.37857000
-1.84466000 -5.64615000 0.37857000
-1.83473000 -5.63952000 0.37857000
-1.82810000 -5.62959000 0.37857000
-1.85637000 -5.61788000 0.40977000
-1.61610000 -6.19796000 -0.04374000
-1.22850000 -5.61788000 -0.04374000
-1.27629000 -5.37760000 -0.04374000
-1.41240000 -5.17390000 -0.04374000
-1.61610000 -5.03779000 -0.04374000
-1.85637000 -4.99000000 -0.04374000
-2.09665000 -5.03779000 -0.04374000
-2.30035000 -5.17390000 -0.04374000
-2.43646000 -5.37760000 -0.04374000
-2.48425000 -5.61788000 -0.04374000
-5.12893000 -1.69031000 -0.00496000
-5.20813000 -1.72311000 -0.00616000
-5.16948000 -1.91740000 -0.00616000
-5.08376000 -1.91740000 -0.00496000
-5.25757000 -1.49778000 -0.00496000
-5.31819000 -1.55840000 -0.00616000
-5.45009000 -1.36914000 -0.00496000
-5.48290000 -1.44834000 -0.00616000
-5.67719000 -1.32397000 -0.00496000
-5.67719000 -1.40970000 -0.00616000
-5.90428000 -1.36914000 -0.00496000
-5.87148000 -1.44834000 -0.00616000
-6.09681000 -1.49778000 -0.00496000
-6.03619000 -1.55840000 -0.00616000
-6.22545000 -1.69031000 -0.00496000
-6.14625000 -1.72311000 -0.00616000
-6.27062000 -1.91740000 -0.00496000
-6.18489000 -1.91740000 -0.00616000
-6.22545000 -2.14450000 -0.00496000
-6.14625000 -2.11169000 -0.00616000
-6.09681000 -2.33702000 -0.00496000
-6.03619000 -2.27640000 -0.00616000
-5.90428000 -2.46566000 -0.00496000
-5.87148000 -2.38646000 -0.00616000
-5.67719000 -2.51083000 -0.00496000
-5.67719000 -2.42511000 -0.00616000
-5.45009000 -2.46566000 -0.00496000
-5.48290000 -2.38646000 -0.00616000
-5.25757000 -2.33702000 -0.00496000
-5.31819000 -2.27640000 -0.00616000
-5.12893000 -2.14450000 -0.00496000
-5.20813000 -2.11169000 -0.00616000
-5.25521000 -1.91740000 0.00744000
-5.28733000 -1.75592000 0.00744000
-5.42418000 -1.81260000 0.05128000
-5.40334000 -1.91740000 0.05128000
-5.37880000 -1.61902000 0.00744000
-5.48355000 -1.72376000 0.05128000
-5.51570000 -1.52754000 0.00744000
-5.57239000 -1.66440000 0.05128000
-5.67719000 -1.49542000 0.00744000
-5.67719000 -1.64355000 0.05128000
-5.83867000 -1.52754000 0.00744000
-5.78199000 -1.66440000 0.05128000
-5.97557000 -1.61902000 0.00744000
-5.87083000 -1.72376000 0.05128000
-6.06705000 -1.75592000 0.00744000
-5.93019000 -1.81260000 0.05128000
-6.09917000 -1.91740000 0.00744000
-5.95104000 -1.91740000 0.05128000
-6.06705000 -2.07889000 0.00744000
-5.93019000 -2.02220000 0.05128000
-5.97557000 -2.21579000 0.00744000
-5.87083000 -2.11104000 0.05128000
-5.83867000 -2.30726000 0.00744000
-5.78199000 -2.17041000 0.05128000
-5.67719000 -2.33938000 0.00744000
-5.67719000 -2.19125000 0.05128000
-5.51570000 -2.30726000 0.00744000
-5.57239000 -2.17041000 0.05128000
-5.37880000 -2.21579000 0.00744000
-5.48355000 -2.11104000 0.05128000
-5.28733000 -2.07889000 0.00744000
-5.42418000 -2.02220000 0.05128000
-5.51822000 -1.85155000 0.13310000
-5.50512000 -1.91740000 0.13310000
-5.55552000 -1.79573000 0.13310000
-5.61134000 -1.75843000 0.13310000
-5.67719000 -1.74533000 0.13310000
-5.74304000 -1.75843000 0.13310000
-5.79886000 -1.79573000 0.13310000
-5.83616000 -1.85155000 0.13310000
-5.84926000 -1.91740000 0.13310000
-5.83616000 -1.98325000 0.13310000
-5.79886000 -2.03908000 0.13310000
-5.74304000 -2.07638000 0.13310000
-5.67719000 -2.08947000 0.13310000
-5.61134000 -2.07638000 0.13310000
-5.55552000 -2.03908000 0.13310000
-5.51822000 -1.98325000 0.13310000
-5.57998000 -1.87714000 0.21492000
-5.57197000 -1.91740000 0.21492000
-5.60279000 -1.84300000 0.21492000
-5.63692000 -1.82019000 0.21492000
-5.67719000 -1.81218000 0.21492000
-5.71745000 -1.82019000 0.21492000
-5.75159000 -1.84300000 0.21492000
-5.77440000 -1.87714000 0.21492000
-5.78241000 -1.91740000 0.21492000
-5.77440000 -1.95767000 0.21492000
-5.75159000 -1.99180000 0.21492000
-5.71745000 -2.01461000 0.21492000
