3.21136000 -2.64324000 5.93295000
3.09553000 -2.68479000 5.98744000
3.14518000 -2.64340000 5.98526000
3.07793000 -2.64396000 6.03635000
3.00953000 -2.64497000 6.08625000
2.95875000 -2.68611000 6.08762000
2.94004000 -2.64646000 6.13499000
2.86947000 -2.64848000 6.18255000
2.82022000 -2.68941000 6.18137000
2.79786000 -2.65106000 6.22895000
2.79786000 -2.65106000 6.22895000
2.86947000 -2.64848000 6.18255000
2.93550000 -2.60907000 6.17962000
2.94004000 -2.64646000 6.13499000
3.00953000 -2.64497000 6.08625000
3.07793000 -2.64396000 6.03635000
3.12661000 -2.60497000 6.04268000
2.70155000 -2.61734000 6.32988000
2.72526000 -2.65425000 6.27419000
2.65162000 -2.65774000 6.31820000
2.55006000 -2.62451000 6.41668000
2.57694000 -2.66123000 6.36094000
2.50118000 -2.66443000 6.40232000
2.72526000 -2.65425000 6.27419000
2.67419000 -2.69650000 6.27143000
2.65162000 -2.65774000 6.31820000
2.57694000 -2.66123000 6.36094000
2.56474000 -2.70143000 6.33437000
2.50118000 -2.66443000 6.40232000
2.45225000 -2.70580000 6.39534000
2.38899000 -2.63045000 6.49954000
2.42432000 -2.66704000 6.44230000
2.34651000 -2.66920000 6.48104000
2.37365000 -2.55858000 6.60395000
2.25392000 -2.52587000 6.71734000
2.23462000 -2.55962000 6.66987000
2.41061000 -2.59347000 6.53423000
2.21714000 -2.59590000 6.62670000
2.26792000 -2.67108000 6.51873000
2.20175000 -2.63390000 6.58840000
2.18869000 -2.67282000 6.55553000
2.42432000 -2.66704000 6.44230000
2.34651000 -2.66920000 6.48104000
2.30113000 -2.70946000 6.47112000
2.26792000 -2.67108000 6.51873000
2.18869000 -2.67282000 6.55553000
2.17824000 -2.71188000 6.52868000
2.16993000 -2.75000000 6.50700000
2.29037000 -2.74861000 6.45026000
2.16333000 -2.78615000 6.48967000
2.18869000 -2.67282000 6.55553000
2.20175000 -2.63390000 6.58840000
2.07107000 -2.63685000 6.64720000
2.10900000 -2.67458000 6.59163000
2.21714000 -2.59590000 6.62670000
2.08284000 -2.59877000 6.68719000
2.02879000 -2.67600000 6.62679000
2.23462000 -2.55962000 6.66987000
2.09675000 -2.56223000 6.73202000
2.25392000 -2.52587000 6.71734000
2.05680000 -2.52864000 6.80585000
1.90991000 -2.63803000 6.71515000
1.94803000 -2.67670000 6.66080000
1.86669000 -2.67633000 6.69344000
2.18869000 -2.67282000 6.55553000
2.10900000 -2.67458000 6.59163000
2.05258000 -2.71408000 6.58526000
2.17824000 -2.71188000 6.52868000
2.02879000 -2.67600000 6.62679000
2.04640000 -2.75167000 6.56251000
2.16993000 -2.75000000 6.50700000
1.94803000 -2.67670000 6.66080000
1.89639000 -2.71533000 6.65052000
1.86669000 -2.67633000 6.69344000
2.16333000 -2.78615000 6.48967000
1.75726000 -2.63509000 6.77213000
1.78471000 -2.67451000 6.72446000
1.70213000 -2.67150000 6.75397000
1.59382000 -2.62745000 6.82678000
1.61895000 -2.66755000 6.78202000
1.53520000 -2.66290000 6.80869000
1.78471000 -2.67451000 6.72446000
1.77570000 -2.71290000 6.69678000
1.70213000 -2.67150000 6.75397000
1.65078000 -2.70827000 6.74127000
1.61895000 -2.66755000 6.78202000
1.53520000 -2.66290000 6.80869000
1.48321000 -2.69935000 6.79496000
1.42590000 -2.61726000 6.87728000
1.45090000 -2.65781000 6.83407000
1.36606000 -2.65251000 6.85815000
1.24892000 -2.60608000 6.92521000
1.28073000 -2.64726000 6.88095000
1.19493000 -2.64229000 6.90248000
1.45090000 -2.65781000 6.83407000
1.36606000 -2.65251000 6.85815000
1.31519000 -2.68923000 6.84273000
1.28073000 -2.64726000 6.88095000
1.01165000 -2.59626000 6.97921000
0.84754000 -2.62721000 6.97603000
0.93496700 -2.63034000 6.95952000
1.02202000 -2.63387000 6.94176000
1.10868000 -2.63783000 6.92275000
0.69282400 -2.58528000 7.03951000
0.58344700 -2.61985000 7.01803000
0.67171000 -2.62198000 7.00532000
0.75976400 -2.62443000 6.99131000
-6.41870000 -1.49518000 -0.60038900
-6.41005000 -1.40868000 -0.82520600
-6.36198000 -1.47289000 -0.80767200
-6.31251000 -1.53603000 -0.78956500
-6.30689000 -1.62135000 -0.58508600
-6.26155000 -1.59784000 -0.77080300
-6.20899000 -1.65808000 -0.75126900
-6.15471000 -1.71647000 -0.73088000
-6.23057000 -1.70868000 -0.54598300
-6.09875000 -1.77294000 -0.70965900
-6.17310000 -1.76968000 -0.51665200
-6.04116000 -1.82741000 -0.68764000
-6.11675000 -1.82397000 -0.49370100
-6.20899000 -1.65808000 -0.75126900
-6.26155000 -1.59784000 -0.77080300
-6.19806000 -1.58695000 -0.95967000
-6.31251000 -1.53603000 -0.78956500
-6.36198000 -1.47289000 -0.80767200
-6.27467000 -1.48570000 -0.99968900
-6.41005000 -1.40868000 -0.82520600
-6.35326000 -1.38601000 -1.01763000
-6.07509000 -1.72693000 -0.90482300
-6.15471000 -1.71647000 -0.73088000
-6.01953000 -1.78274000 -0.88230900
-6.09875000 -1.77294000 -0.70965900
-5.96235000 -1.83656000 -0.85888000
-6.04116000 -1.82741000 -0.68764000
2.32199000 -2.58927000 -2.62650000
2.42468000 -2.63207000 -2.51882000
2.34612000 -2.62877000 -2.56212000
2.26677000 -2.62525000 -2.60449000
2.15426000 -2.58313000 -2.71400000
2.18652000 -2.62160000 -2.64593000
2.10523000 -2.61788000 -2.68646000
2.02278000 -2.61417000 -2.72608000
1.99940000 -2.57822000 -2.78796000
1.93919000 -2.61056000 -2.76467000
1.85449000 -2.60713000 -2.80208000
2.49595000 -2.59615000 -2.52779000
2.50258000 -2.63508000 -2.47458000
2.64338000 -2.59938000 -2.44131000
2.57985000 -2.63770000 -2.42933000
2.65651000 -2.63985000 -2.38304000
2.79336000 -2.60142000 -2.34727000
2.73258000 -2.64143000 -2.33565000
2.42468000 -2.63207000 -2.51882000
2.50258000 -2.63508000 -2.47458000
2.52692000 -2.67887000 -2.41779000
2.57985000 -2.63770000 -2.42933000
2.65651000 -2.63985000 -2.38304000
2.67701000 -2.68504000 -2.32644000
2.73258000 -2.64143000 -2.33565000
2.32083000 -2.66673000 -2.53589000
2.34612000 -2.62877000 -2.56212000
2.26677000 -2.62525000 -2.60449000
2.13046000 -2.65914000 -2.63131000
2.18652000 -2.62160000 -2.64593000
2.80808000 -2.64235000 -2.28711000
2.78732000 -2.68586000 -2.25703000
2.88299000 -2.64273000 -2.23746000
2.89841000 -2.68614000 -2.18363000
2.95727000 -2.64270000 -2.18670000
3.03091000 -2.64238000 -2.13488000
3.00884000 -2.68581000 -2.10646000
2.88308000 -2.73048000 -2.15638000
2.98996000 -2.72927000 -2.08259000
2.90159000 -2.77164000 -2.11332000
2.97414000 -2.77091000 -2.06290000
2.88076000 -2.82622000 -2.09240000
2.96122000 -2.80886000 -2.04702000
2.95106000 -2.84126000 -2.03457000
2.94297000 -2.86933000 -2.02472000
2.83344000 -2.86178000 -2.10458000
2.93628000 -2.89428000 -2.01659000
2.93031000 -2.91733000 -2.00934000
2.93031000 -2.91733000 -2.00934000
2.93628000 -2.89428000 -2.01659000
3.05264000 -2.85485000 -1.95315000
2.94297000 -2.86933000 -2.02472000
2.95106000 -2.84126000 -2.03457000
2.96122000 -2.80886000 -2.04702000
3.07753000 -2.78495000 -1.97754000
3.03204000 -2.96259000 -1.91332000
2.92436000 -2.93969000 -2.00212000
2.91839000 -2.96128000 -1.99487000
2.91237000 -2.98202000 -1.98752000
2.99943000 -3.01198000 -1.90769000
2.90624000 -3.00180000 -1.97999000
2.92436000 -2.93969000 -2.00212000
2.80850000 -2.96311000 -2.06990000
2.91839000 -2.96128000 -1.99487000
2.91237000 -2.98202000 -1.98752000
3.02977000 -3.04668000 -1.86114000
2.88677000 -3.05495000 -1.95587000
2.89347000 -3.03826000 -1.96422000
2.89995000 -3.02055000 -1.97224000
3.93779000 -2.70364000 5.16418000
4.03059000 -2.66607000 5.08370000
3.98009000 -2.66431000 5.15023000
3.92828000 -2.66237000 5.21616000
3.82914000 -2.70093000 5.29547000
3.87512000 -2.66025000 5.28132000
3.82056000 -2.65799000 5.34561000
3.76454000 -2.65560000 5.40889000
3.71925000 -2.69480000 5.42051000
3.70718000 -2.65319000 5.47117000
3.64860000 -2.65090000 5.53251000
3.60401000 -2.68917000 5.54179000
3.58893000 -2.64884000 5.59293000
3.58893000 -2.64884000 5.59293000
3.64860000 -2.65090000 5.53251000
3.73764000 -2.61438000 5.48575000
3.70718000 -2.65319000 5.47117000
3.76454000 -2.65560000 5.40889000
3.82056000 -2.65799000 5.34561000
3.86817000 -2.61953000 5.33875000
3.58093000 -2.60924000 5.64591000
3.52828000 -2.64714000 5.65244000
3.41432000 -2.60471000 5.80568000
3.46669000 -2.64578000 5.71096000
3.40419000 -2.64472000 5.76837000
3.34079000 -2.64395000 5.82455000
3.52828000 -2.64714000 5.65244000
3.48237000 -2.68632000 5.66024000
3.46669000 -2.64578000 5.71096000
3.40419000 -2.64472000 5.76837000
3.35417000 -2.68424000 5.77724000
3.14518000 -2.64340000 5.98526000
3.25949000 -2.60485000 5.93723000
3.21136000 -2.64324000 5.93295000
3.27654000 -2.64344000 5.87940000
2.58459000 -2.30752000 7.12877000
2.44778000 -2.31164000 7.18132000
2.42121000 -2.33897000 7.11917000
2.39511000 -2.36522000 7.05779000
2.51732000 -2.45646000 6.74523000
2.36957000 -2.39076000 6.99730000
2.34464000 -2.41599000 6.93781000
2.32038000 -2.44131000 6.87940000
2.29703000 -2.46753000 6.82275000
2.27480000 -2.49544000 6.76851000
2.48424000 -2.49459000 6.66973000
2.34464000 -2.41599000 6.93781000
2.36957000 -2.39076000 6.99730000
2.29404000 -2.32559000 7.21170000
2.39511000 -2.36522000 7.05779000
2.42121000 -2.33897000 7.11917000
2.44778000 -2.31164000 7.18132000
2.11765000 -2.43370000 6.99145000
2.32038000 -2.44131000 6.87940000
2.08087000 -2.46916000 6.91922000
2.29703000 -2.46753000 6.82275000
2.06046000 -2.49788000 6.86407000
2.27480000 -2.49544000 6.76851000
-7.01928000 -1.02832000 3.16605000
-7.24645000 -0.61581600 3.30234000
-7.29346000 -0.60380400 3.08567000
-7.06173000 -1.14705000 1.50284000
-7.34112000 -0.71094900 1.56194000
-7.33810000 -0.70569500 1.35567000
-7.01392000 -1.17252000 1.01464000
-7.31857000 -0.68683300 0.90626000
-7.02644000 -1.11582000 0.78070600
-6.85246000 -0.81204300 -0.83857500
-6.75721000 -0.88595000 -0.95319000
-6.71653000 -0.94953900 -0.93781600
-6.68457000 -1.10786000 -0.71005400
-6.67526000 -1.01433000 -0.92240600
-6.63331000 -1.07993000 -0.90688700
-6.59059000 -1.14599000 -0.89118100
-6.54700000 -1.21211000 -0.87521200
-6.60148000 -1.24409000 -0.66018300
-6.50246000 -1.27807000 -0.85892800
-6.45684000 -1.34367000 -0.84227800
-6.51383000 -1.37163000 -0.62598200
-6.59059000 -1.14599000 -0.89118100
-6.63331000 -1.07993000 -0.90688700
-6.51723000 -1.14264000 -1.08714000
-6.67526000 -1.01433000 -0.92240600
-6.71653000 -0.94953900 -0.93781600
-6.74393000 -0.82273700 -1.11036000
-6.75721000 -0.88595000 -0.95319000
-6.43824000 -1.25735000 -1.06433000
-6.54700000 -1.21211000 -0.87521200
-6.50246000 -1.27807000 -0.85892800
-6.45684000 -1.34367000 -0.84227800
-4.01226000 -1.20415000 -4.15304000
-4.16709000 -0.99523800 -4.23583000
-3.99909000 -0.92482600 -4.41292000
-2.10369000 -1.18515000 -5.04048000
-1.95827000 -0.98416800 -5.22927000
-1.91403000 -1.17175000 -5.10051000
-1.08709000 -1.16787000 -5.24827000
-1.12400000 -0.89090300 -5.44169000
-0.91294500 -0.92252300 -5.43747000
3.33757000 -2.28249000 -2.79766000
3.48218000 -2.26782000 -2.72419000
3.43853000 -2.29748000 -2.66883000
3.24591000 -2.33859000 -2.69294000
3.39513000 -2.32558000 -2.61325000
3.35210000 -2.35259000 -2.55770000
3.02332000 -2.43347000 -2.54915000
3.30958000 -2.37895000 -2.50243000
3.26769000 -2.40512000 -2.44772000
3.22693000 -2.43194000 -2.39424000
3.18781000 -2.46026000 -2.34268000
3.06526000 -2.46195000 -2.43185000
3.15081000 -2.49094000 -2.29372000
3.15081000 -2.49094000 -2.29372000
3.18781000 -2.46026000 -2.34268000
3.30493000 -2.45940000 -2.25292000
3.22693000 -2.43194000 -2.39424000
3.39226000 -2.41800000 -2.30268000
3.26769000 -2.40512000 -2.44772000
3.30958000 -2.37895000 -2.50243000
3.52351000 -2.31096000 -2.55486000
3.23522000 -2.52407000 -2.15943000
3.11645000 -2.52482000 -2.24805000
3.20284000 -2.56098000 -2.11866000
3.08489000 -2.56156000 -2.20608000
3.31318000 -2.59996000 -1.97067000
3.31617000 -2.63971000 -1.91609000
3.24674000 -2.64053000 -1.97273000
3.17279000 -2.60031000 -2.08250000
3.17589000 -2.64127000 -2.02800000
3.05632000 -2.60086000 -2.16823000
3.10386000 -2.64190000 -2.08201000
3.03091000 -2.64238000 -2.13488000
3.11645000 -2.52482000 -2.24805000
2.99805000 -2.52622000 -2.33171000
3.08489000 -2.56156000 -2.20608000
2.96807000 -2.56267000 -2.28816000
3.05632000 -2.60086000 -2.16823000
2.94057000 -2.60175000 -2.24918000
3.03091000 -2.64238000 -2.13488000
2.95727000 -2.64270000 -2.18670000
2.88299000 -2.64273000 -2.23746000
2.80808000 -2.64235000 -2.28711000
3.44113000 -2.59797000 -1.86060000
3.38393000 -2.63883000 -1.85798000
3.45012000 -2.63804000 -1.79848000
3.56892000 -2.59701000 -1.73953000
3.51481000 -2.63748000 -1.73772000
3.57809000 -2.63731000 -1.67579000
3.31617000 -2.63971000 -1.91609000
3.38393000 -2.63883000 -1.85798000
3.39443000 -2.68105000 -1.80310000
3.45012000 -2.63804000 -1.79848000
3.51481000 -2.63748000 -1.73772000
3.52407000 -2.68061000 -1.68191000
3.57809000 -2.63731000 -1.67579000
3.26051000 -2.68161000 -1.91826000
3.24674000 -2.64053000 -1.97273000
3.12223000 -2.68456000 -2.02442000
3.17589000 -2.64127000 -2.02800000
2.97414000 -2.77091000 -2.06290000
3.10204000 -2.72795000 -2.00167000
2.98996000 -2.72927000 -2.08259000
3.10386000 -2.64190000 -2.08201000
3.00884000 -2.68581000 -2.10646000
3.03091000 -2.64238000 -2.13488000
3.64006000 -2.63767000 -1.61280000
3.64318000 -2.68041000 -1.56304000
3.70079000 -2.63851000 -1.54887000
3.76036000 -2.63977000 -1.48412000
3.76233000 -2.68267000 -1.43506000
3.81883000 -2.64139000 -1.41868000
4.51184000 -2.72795000 4.27360000
4.55189000 -2.68975000 4.24817000
4.51471000 -2.68776000 4.32065000
4.43560000 -2.72451000 4.41655000
4.47636000 -2.68548000 4.39267000
4.43681000 -2.68304000 4.46416000
4.33717000 -2.72133000 4.58513000
4.39601000 -2.68058000 4.53506000
4.35394000 -2.67824000 4.60532000
4.31071000 -2.67604000 4.67500000
4.26641000 -2.67401000 4.74417000
4.22714000 -2.71319000 4.76161000
4.22115000 -2.67218000 4.81289000
4.22115000 -2.67218000 4.81289000
4.26641000 -2.67401000 4.74417000
4.27455000 -2.63266000 4.78614000
4.31071000 -2.67604000 4.67500000
4.35394000 -2.67824000 4.60532000
4.40001000 -2.63722000 4.58830000
4.39601000 -2.68058000 4.53506000
4.17504000 -2.67057000 4.88123000
4.12709000 -2.62713000 5.00419000
4.12797000 -2.66909000 4.94917000
4.07986000 -2.66763000 5.01666000
4.02783000 -2.62373000 5.14096000
4.03059000 -2.66607000 5.08370000
4.17504000 -2.67057000 4.88123000
4.13250000 -2.71044000 4.90078000
4.12797000 -2.66909000 4.94917000
4.07986000 -2.66763000 5.01666000
4.03827000 -2.70704000 5.03252000
3.87512000 -2.66025000 5.28132000
3.95114000 -2.62216000 5.23810000
3.92828000 -2.66237000 5.21616000
3.98009000 -2.66431000 5.15023000
2.78571000 -2.09138000 7.51514000
2.66401000 -2.03281000 7.68290000
2.63757000 -2.07384000 7.62170000
2.61086000 -2.11316000 7.55975000
2.70139000 -2.16953000 7.39992000
2.58390000 -2.15071000 7.49720000
2.55674000 -2.18645000 7.43419000
2.52939000 -2.22031000 7.37084000
2.65690000 -2.23673000 7.27019000
2.50202000 -2.25240000 7.30741000
2.47477000 -2.28281000 7.24416000
2.55674000 -2.18645000 7.43419000
2.58390000 -2.15071000 7.49720000
2.45192000 -2.13312000 7.59545000
2.61086000 -2.11316000 7.55975000
2.63757000 -2.07384000 7.62170000
2.50776000 -2.05640000 7.71601000
2.66401000 -2.03281000 7.68290000
2.38786000 -2.20330000 7.47461000
2.52939000 -2.22031000 7.37084000
2.35788000 -2.26411000 7.34327000
2.50202000 -2.25240000 7.30741000
2.47477000 -2.28281000 7.24416000
2.69014000 -1.99012000 7.74323000
2.53906000 -1.99255000 7.81123000
2.71593000 -1.94578000 7.80254000
2.58444000 -1.92267000 7.90131000
2.74135000 -1.89977000 7.86071000
2.76637000 -1.85208000 7.91759000
-6.24379000 -0.64231900 5.90937000
-6.35110000 -0.63785600 5.72998000
-6.10189000 -0.99469500 5.72796000
-6.00699000 -0.98507100 5.89538000
-6.93461000 -0.65808400 4.38392000
-6.99848000 -0.65365100 4.19231000
-6.81826000 -0.96387700 4.16409000
-7.06768000 -0.51746900 -0.92280800
-7.02948000 -0.50981700 -1.06043000
-7.00286000 -0.53978700 -1.04986000
-7.01395000 -0.58510600 -0.89279200
-6.97415000 -0.57417600 -1.03840000
-6.94323000 -0.61349900 -1.02606000
-6.95254000 -0.66970900 -0.86454100
-6.90997000 -0.65826500 -1.01282000
-6.87425000 -0.70899200 -0.99867300
-6.83656000 -0.76457800 -0.98386500
-6.79738000 -0.82393000 -0.96862200
-6.90997000 -0.65826500 -1.01282000
-6.94323000 -0.61349900 -1.02606000
-6.88607000 -0.62096100 -1.16250000
-6.97415000 -0.57417600 -1.03840000
-6.91089000 -0.56426900 -1.23410000
-7.00286000 -0.53978700 -1.04986000
-7.02948000 -0.50981700 -1.06043000
-6.98257000 -0.50301700 -1.21008000
-6.84262000 -0.68274600 -1.13850000
-6.87425000 -0.70899200 -0.99867300
-6.83656000 -0.76457800 -0.98386500
-6.79738000 -0.82393000 -0.96862200
1.12949000 -0.80417400 -5.38432000
1.38487000 -0.83977200 -5.30261000
1.28916000 -1.19221000 -5.09035000
3.78305000 -1.83519000 -3.36885000
3.98445000 -1.75866000 -3.32215000
3.94590000 -1.81188000 -3.27894000
3.90660000 -1.86328000 -3.23440000
3.73191000 -1.91329000 -3.28853000
3.86657000 -1.91278000 -3.18852000
3.69469000 -1.96065000 -3.23870000
3.82582000 -1.96025000 -3.14126000
3.78439000 -2.00559000 -3.09263000
3.56509000 -2.03006000 -3.21118000
3.74235000 -2.04887000 -3.04275000
3.69978000 -2.09015000 -2.99175000
3.55789000 -2.09182000 -3.09538000
3.65676000 -2.12949000 -2.93976000
3.65676000 -2.12949000 -2.93976000
3.69978000 -2.09015000 -2.99175000
3.82384000 -2.10820000 -2.85620000
3.74235000 -2.04887000 -3.04275000
3.87794000 -2.05047000 -2.93380000
3.78439000 -2.00559000 -3.09263000
3.92795000 -1.98723000 -3.01495000
3.82582000 -1.96025000 -3.14126000
3.72076000 -2.18505000 -2.75794000
3.61336000 -2.16696000 -2.88692000
3.56972000 -2.20253000 -2.83332000
3.64257000 -2.25019000 -2.64479000
3.52595000 -2.23616000 -2.77905000
3.48218000 -2.26782000 -2.72419000
3.61336000 -2.16696000 -2.88692000
3.48366000 -2.14947000 -3.02734000
3.56972000 -2.20253000 -2.83332000
3.42265000 -2.22025000 -2.90374000
3.52595000 -2.23616000 -2.77905000
3.35210000 -2.35259000 -2.55770000
3.39513000 -2.32558000 -2.61325000
3.43853000 -2.29748000 -2.66883000
3.99194000 -2.60555000 -1.27213000
4.04203000 -2.64907000 -1.15039000
3.98794000 -2.64734000 -1.21860000
3.93267000 -2.64536000 -1.28600000
3.87796000 -2.60127000 -1.40858000
3.87628000 -2.64331000 -1.35267000
3.81883000 -2.64139000 -1.41868000
3.76036000 -2.63977000 -1.48412000
3.72500000 -2.59869000 -1.57815000
3.70079000 -2.63851000 -1.54887000
3.64006000 -2.63767000 -1.61280000
4.09950000 -2.60986000 -1.13341000
4.09491000 -2.65038000 -1.08130000
4.19935000 -2.61066000 -0.99869600
4.14655000 -2.65143000 -1.01135000
4.19691000 -2.65241000 -0.94058000
4.30041000 -2.61259000 -0.85133200
4.24597000 -2.65349000 -0.86903400
4.04203000 -2.64907000 -1.15039000
4.09491000 -2.65038000 -1.08130000
4.04296000 -2.69069000 -1.10131000
4.14655000 -2.65143000 -1.01135000
4.14955000 -2.69362000 -0.95687300
4.19691000 -2.65241000 -0.94058000
4.24597000 -2.65349000 -0.86903400
4.24403000 -2.69644000 -0.81836300
3.96308000 -2.68920000 -1.20100000
3.98794000 -2.64734000 -1.21860000
3.88001000 -2.68628000 -1.30115000
3.93267000 -2.64536000 -1.28600000
3.87628000 -2.64331000 -1.35267000
4.29371000 -2.65487000 -0.79674300
4.34012000 -2.65647000 -0.72365700
4.33401000 -2.69801000 -0.67831500
4.38517000 -2.65825000 -0.64973000
4.42886000 -2.66013000 -0.57490600
4.85072000 -2.73033000 3.45656000
4.90973000 -2.69024000 3.34877000
4.88714000 -2.69087000 3.42612000
4.86320000 -2.69167000 3.50306000
4.79979000 -2.73318000 3.60860000
4.83785000 -2.69252000 3.57954000
4.81101000 -2.69327000 3.65550000
4.78262000 -2.69377000 3.73089000
4.75905000 -2.73262000 3.72091000
4.75284000 -2.69404000 3.80581000
4.71500000 -2.73291000 3.83166000
4.72184000 -2.69405000 3.88030000
4.68977000 -2.69380000 3.95447000
4.68977000 -2.69380000 3.95447000
4.72184000 -2.69405000 3.88030000
4.73600000 -2.65350000 3.92769000
4.75284000 -2.69404000 3.80581000
4.79772000 -2.65282000 3.78185000
4.78262000 -2.69377000 3.73089000
4.81101000 -2.69327000 3.65550000
4.84179000 -2.65185000 3.66726000
4.64828000 -2.65189000 4.12242000
4.65681000 -2.69329000 4.02838000
4.62288000 -2.69247000 4.10199000
4.58792000 -2.69130000 4.17527000
4.56243000 -2.64668000 4.29819000
4.55189000 -2.68975000 4.24817000
4.65681000 -2.69329000 4.02838000
4.65179000 -2.73156000 3.98019000
4.62288000 -2.69247000 4.10199000
4.58443000 -2.73096000 4.12582000
4.58792000 -2.69130000 4.17527000
4.48137000 -2.64240000 4.44783000
4.43681000 -2.68304000 4.46416000
4.47636000 -2.68548000 4.39267000
4.51471000 -2.68776000 4.32065000
2.97696000 -1.72853000 7.97642000
2.86132000 -1.64437000 8.13018000
2.83850000 -1.69887000 8.07945000
2.81502000 -1.75165000 8.02705000
2.91842000 -1.82947000 7.87485000
2.79095000 -1.80272000 7.97307000
2.76637000 -1.85208000 7.91759000
2.74135000 -1.89977000 7.86071000
2.88449000 -1.92482000 7.75232000
2.71593000 -1.94578000 7.80254000
2.69014000 -1.99012000 7.74323000
2.84088000 -2.01116000 7.63280000
3.09090000 -1.61958000 8.04231000
2.88341000 -1.58812000 8.17916000
3.07117000 -1.51351000 8.15902000
2.90477000 -1.53028000 8.22642000
2.92542000 -1.47099000 8.27198000
3.10377000 -1.40768000 8.23766000
2.94536000 -1.41041000 8.31589000
2.86132000 -1.64437000 8.13018000
2.88341000 -1.58812000 8.17916000
2.70637000 -1.61990000 8.22951000
2.90477000 -1.53028000 8.22642000
2.74945000 -1.50592000 8.32328000
2.92542000 -1.47099000 8.27198000
2.94536000 -1.41041000 8.31589000
2.78827000 -1.41559000 8.38615000
2.66278000 -1.72616000 8.13016000
2.83850000 -1.69887000 8.07945000
2.81502000 -1.75165000 8.02705000
2.62041000 -1.82977000 8.01779000
2.79095000 -1.80272000 7.97307000
-7.27694000 -0.34362800 -0.91203000
-7.19856000 -0.35331900 -1.12468000
-7.17976000 -0.36993100 -1.11769000
-7.16711000 -0.42257800 -0.94357300
-7.16039000 -0.38666300 -1.11051000
-7.14046000 -0.40380200 -1.10311000
-7.12000000 -0.42162000 -1.09545000
-7.09904000 -0.44039200 -1.08750000
-7.07720000 -0.46085600 -1.07910000
-7.11853000 -0.46592200 -0.93434700
-7.05414000 -0.48375000 -1.07013000
-7.12000000 -0.42162000 -1.09545000
-7.14046000 -0.40380200 -1.10311000
-7.04123000 -0.44916800 -1.22025000
-7.16039000 -0.38666300 -1.11051000
-7.13307000 -0.34749500 -1.33803000
-7.17976000 -0.36993100 -1.11769000
-7.19856000 -0.35331900 -1.12468000
-7.09904000 -0.44039200 -1.08750000
-7.07720000 -0.46085600 -1.07910000
-7.05414000 -0.48375000 -1.07013000
4.18091000 -1.11132000 -3.81766000
4.37706000 -1.01266000 -3.74182000
4.34928000 -1.07952000 -3.71324000
4.32064000 -1.14606000 -3.68362000
4.12748000 -1.24630000 -3.74964000
4.29114000 -1.21212000 -3.65293000
4.26078000 -1.27753000 -3.62113000
4.22954000 -1.34211000 -3.58816000
4.07431000 -1.34462000 -3.70393000
4.19741000 -1.40571000 -3.55399000
4.01908000 -1.44187000 -3.65506000
4.16433000 -1.46816000 -3.51859000
4.13027000 -1.52931000 -3.48193000
4.13027000 -1.52931000 -3.48193000
4.16433000 -1.46816000 -3.51859000
4.30394000 -1.50614000 -3.36977000
4.19741000 -1.40571000 -3.55399000
4.37127000 -1.38429000 -3.43742000
4.22954000 -1.34211000 -3.58816000
4.26078000 -1.27753000 -3.62113000
4.43064000 -1.25083000 -3.51023000
4.21072000 -1.62024000 -3.31782000
4.09519000 -1.58900000 -3.44394000
4.05915000 -1.64716000 -3.40466000
4.12913000 -1.73480000 -3.24065000
4.02222000 -1.70373000 -3.36406000
3.98445000 -1.75866000 -3.32215000
4.09519000 -1.58900000 -3.44394000
3.95135000 -1.55770000 -3.58754000
4.05915000 -1.64716000 -3.40466000
3.91719000 -1.64859000 -3.51051000
4.02222000 -1.70373000 -3.36406000
3.85230000 -1.73159000 -3.45763000
4.00605000 -1.91579000 -3.07458000
3.86657000 -1.91278000 -3.18852000
4.07251000 -1.84232000 -3.13602000
3.90660000 -1.86328000 -3.23440000
3.94590000 -1.81188000 -3.27894000
4.60348000 -2.62837000 -0.31914400
4.59027000 -2.66830000 -0.26679500
4.55186000 -2.66616000 -0.34502300
4.52600000 -2.62337000 -0.47223900
4.51217000 -2.66408000 -0.42249300
4.47119000 -2.66208000 -0.49914000
4.42611000 -2.61609000 -0.65447800
4.42886000 -2.66013000 -0.57490600
4.38517000 -2.65825000 -0.64973000
4.34012000 -2.65647000 -0.72365700
4.29371000 -2.65487000 -0.79674300
4.69407000 -2.63335000 -0.12628200
4.62745000 -2.67053000 -0.18787500
4.66335000 -2.67277000 -0.10832900
4.69794000 -2.67500000 -0.02825590
4.78053000 -2.63930000 0.08270760
4.73119000 -2.67715000 0.05227390
4.59027000 -2.66830000 -0.26679500
4.62745000 -2.67053000 -0.18787500
4.61792000 -2.71040000 -0.14054700
4.66335000 -2.67277000 -0.10832900
4.69794000 -2.67500000 -0.02825590
4.68607000 -2.71543000 0.01805690
4.73119000 -2.67715000 0.05227390
4.54459000 -2.70557000 -0.29666900
4.55186000 -2.66616000 -0.34502300
4.46613000 -2.70303000 -0.44768400
4.51217000 -2.66408000 -0.42249300
4.47119000 -2.66208000 -0.49914000
4.40224000 -2.70041000 -0.56264600
4.76304000 -2.67917000 0.13318000
4.75055000 -2.71825000 0.17929000
4.79345000 -2.68092000 0.21443900
4.82238000 -2.68228000 0.29603000
4.80784000 -2.72132000 0.34127900
4.84978000 -2.68308000 0.37793200
5.03659000 -2.72457000 2.52659000
5.07767000 -2.68824000 2.37984000
5.07003000 -2.68778000 2.46310000
5.06154000 -2.68755000 2.54615000
5.05209000 -2.68755000 2.62889000
5.00843000 -2.72590000 2.75043000
5.04157000 -2.68777000 2.71120000
5.02984000 -2.68819000 2.79300000
5.01686000 -2.68871000 2.87424000
4.98360000 -2.72646000 2.90984000
5.00254000 -2.68922000 2.95487000
4.98682000 -2.68961000 3.03487000
4.98682000 -2.68961000 3.03487000
5.00254000 -2.68922000 2.95487000
5.04341000 -2.65011000 2.92210000
5.01686000 -2.68871000 2.87424000
5.02984000 -2.68819000 2.79300000
5.06938000 -2.64980000 2.76100000
5.04157000 -2.68777000 2.71120000
5.00976000 -2.65134000 3.08513000
4.96963000 -2.68976000 3.11417000
4.97449000 -2.64968000 3.23681000
4.95103000 -2.68983000 3.19287000
4.93104000 -2.68994000 3.27104000
4.93104000 -2.64843000 3.39853000
4.90973000 -2.69024000 3.34877000
4.96963000 -2.68976000 3.11417000
4.93405000 -2.72847000 3.14959000
4.95103000 -2.68983000 3.19287000
4.93104000 -2.68994000 3.27104000
4.89566000 -2.72908000 3.30127000
4.88075000 -2.65091000 3.55616000
4.83785000 -2.69252000 3.57954000
4.86320000 -2.69167000 3.50306000
4.88714000 -2.69087000 3.42612000
3.16653000 -1.00985000 8.51420000
3.08592000 -0.91026100 8.62517000
3.06973000 -0.97157800 8.58949000
3.05317000 -1.03376000 8.55296000
3.03624000 -1.09655000 8.51564000
3.15308000 -1.19910000 8.37999000
3.01895000 -1.15972000 8.47755000
3.00130000 -1.22300000 8.43878000
2.98321000 -1.28609000 8.39905000
3.12687000 -1.32248000 8.29701000
2.96459000 -1.34867000 8.35817000
3.01895000 -1.15972000 8.47755000
3.03624000 -1.09655000 8.51564000
2.93375000 -1.04623000 8.60115000
3.05317000 -1.03376000 8.55296000
3.06973000 -0.97157800 8.58949000
3.08592000 -0.91026100 8.62517000
2.89435000 -1.19895000 8.50841000
3.00130000 -1.22300000 8.43878000
2.81597000 -1.32601000 8.44777000
2.98321000 -1.28609000 8.39905000
2.96459000 -1.34867000 8.35817000
3.10174000 -0.85005600 8.65996000
3.02005000 -0.71408100 8.79451000
3.11718000 -0.79155600 8.69385000
3.13224000 -0.73536000 8.72683000
3.14691000 -0.68206100 8.75891000
-4.00764000 -0.34045800 8.59146000
-4.19345000 -0.23187300 8.62245000
-4.23101000 -0.34826400 8.43099000
-4.77859000 -0.35832200 8.00081000
-4.82988000 -0.23158200 8.14432000
-5.00063000 -0.22897800 7.99914000
-7.38367000 -0.22635100 -0.94263400
-7.31918000 -0.21100400 -1.17083000
-7.30752000 -0.22993200 -1.16632000
-7.29488000 -0.24855900 -1.16143000
-7.35498000 -0.26259300 -0.94050900
-7.28124000 -0.26685900 -1.15616000
-7.26658000 -0.28480300 -1.15052000
-7.25087000 -0.30236000 -1.14449000
-7.31586000 -0.30581700 -0.92908900
-7.23422000 -0.31959400 -1.13814000
-7.21675000 -0.33656100 -1.13151000
-7.26658000 -0.28480300 -1.15052000
-7.28124000 -0.26685900 -1.15616000
-7.22977000 -0.26777000 -1.30292000
-7.29488000 -0.24855900 -1.16143000
-7.30752000 -0.22993200 -1.16632000
-7.25707000 -0.23054000 -1.30959000
-7.31918000 -0.21100400 -1.17083000
-7.19661000 -0.30309800 -1.30091000
-7.25087000 -0.30236000 -1.14449000
-7.23422000 -0.31959400 -1.13814000
-7.21675000 -0.33656100 -1.13151000
1.35767000 -0.31389800 -5.79297000
1.47624000 -0.41744800 -5.62896000
1.18884000 -0.42518800 -5.69254000
4.54698000 -0.39370800 -4.10651000
4.66303000 -0.37826800 -4.03293000
4.64408000 -0.40867100 -4.01301000
4.50647000 -0.46177200 -4.06497000
4.62360000 -0.44359000 -3.99161000
4.60183000 -0.48322000 -3.96906000
4.45326000 -0.54709200 -4.02705000
4.57902000 -0.52775600 -3.94569000
4.55541000 -0.57738100 -3.92184000
4.53114000 -0.63145100 -3.89756000
4.41486000 -0.65420700 -3.97051000
4.50637000 -0.68931500 -3.87283000
4.48124000 -0.75031900 -3.84770000
4.48124000 -0.75031900 -3.84770000
4.50637000 -0.68931500 -3.87283000
4.59129000 -0.72347400 -3.77906000
4.53114000 -0.63145100 -3.89756000
4.64910000 -0.60131500 -3.82611000
4.55541000 -0.57738100 -3.92184000
4.57902000 -0.52775600 -3.94569000
4.74026000 -0.50715500 -3.83264000
4.45591000 -0.81381700 -3.82219000
4.52952000 -0.99049900 -3.63766000
4.43021000 -0.87914500 -3.79614000
4.40399000 -0.94564700 -3.76940000
4.37706000 -1.01266000 -3.74182000
4.45591000 -0.81381700 -3.82219000
4.31860000 -0.75360700 -3.97101000
4.43021000 -0.87914500 -3.79614000
4.40399000 -0.94564700 -3.76940000
4.23241000 -0.99056600 -3.86880000
4.29114000 -1.21212000 -3.65293000
4.48318000 -1.11388000 -3.58095000
4.32064000 -1.14606000 -3.68362000
4.34928000 -1.07952000 -3.71324000
4.96649000 -2.64417000 0.65679500
4.94389000 -2.68124000 0.70862700
4.92263000 -2.68210000 0.62545200
4.92251000 -2.64466000 0.49463000
4.89987000 -2.68282000 0.54262400
4.87560000 -2.68320000 0.46012400
4.88366000 -2.64414000 0.36915000
4.84978000 -2.68308000 0.37793200
4.82238000 -2.68228000 0.29603000
4.84058000 -2.64282000 0.24271900
4.79345000 -2.68092000 0.21443900
4.76304000 -2.67917000 0.13318000
5.00738000 -2.64185000 0.82484900
4.96371000 -2.68040000 0.79216900
4.98209000 -2.67972000 0.87597400
5.04259000 -2.64054000 0.99571300
4.99909000 -2.67929000 0.95993400
5.01473000 -2.67924000 1.04395000
4.94389000 -2.68124000 0.70862700
4.96371000 -2.68040000 0.79216900
4.92687000 -2.71840000 0.75636400
4.98209000 -2.67972000 0.87597400
4.96309000 -2.71821000 0.92518300
4.99909000 -2.67929000 0.95993400
5.01473000 -2.67924000 1.04395000
4.99356000 -2.71877000 1.09191000
4.88353000 -2.72112000 0.58984000
4.92263000 -2.68210000 0.62545200
4.89987000 -2.68282000 0.54262400
4.84780000 -2.72165000 0.46685500
4.87560000 -2.68320000 0.46012400
5.02905000 -2.67968000 1.12791000
5.04209000 -2.68054000 1.21179000
5.01919000 -2.71964000 1.25477000
5.05392000 -2.68174000 1.29557000
5.06458000 -2.68321000 1.37922000
5.06458000 -2.68321000 1.37922000
5.05392000 -2.68174000 1.29557000
5.08340000 -2.64396000 1.25207000
5.04209000 -2.68054000 1.21179000
5.02905000 -2.67968000 1.12791000
5.11508000 -2.64781000 1.50559000
5.07414000 -2.68486000 1.46272000
5.08243000 -2.68656000 1.54609000
5.12885000 -2.65140000 1.67142000
5.08930000 -2.68816000 1.62940000
5.09459000 -2.68950000 1.71268000
5.07414000 -2.68486000 1.46272000
5.04155000 -2.72155000 1.42709000
5.08243000 -2.68656000 1.54609000
5.05700000 -2.72513000 1.58880000
5.08930000 -2.68816000 1.62940000
5.09459000 -2.68950000 1.71268000
5.06503000 -2.72714000 1.71262000
5.13599000 -2.65357000 1.83488000
5.09815000 -2.69046000 1.79598000
5.09998000 -2.69102000 1.87930000
5.13666000 -2.65399000 1.96389000
5.10010000 -2.69122000 1.96266000
5.13338000 -2.65409000 2.08448000
5.09852000 -2.69104000 2.04607000
5.09815000 -2.69046000 1.79598000
5.06997000 -2.72814000 1.83430000
5.09998000 -2.69102000 1.87930000
5.10010000 -2.69122000 1.96266000
5.07068000 -2.72852000 1.96162000
5.09852000 -2.69104000 2.04607000
5.06843000 -2.72802000 2.08232000
5.09524000 -2.69050000 2.12953000
5.12366000 -2.65273000 2.24657000
5.09052000 -2.68975000 2.21301000
5.08458000 -2.68895000 2.29646000
5.10139000 -2.64876000 2.51717000
5.07767000 -2.68824000 2.37984000
5.09524000 -2.69050000 2.12953000
5.09052000 -2.68975000 2.21301000
5.05964000 -2.72667000 2.24904000
5.08458000 -2.68895000 2.29646000
5.05209000 -2.68755000 2.62889000
5.06154000 -2.68755000 2.54615000
5.07003000 -2.68778000 2.46310000
3.29882000 -0.56204600 8.77885000
3.19981000 -0.50832100 8.87448000
3.18783000 -0.54493900 8.84821000
3.17489000 -0.58640300 8.81996000
3.28024000 -0.68192100 8.69299000
3.16119000 -0.63226200 8.79007000
3.14691000 -0.68206100 8.75891000
3.13224000 -0.73536000 8.72683000
3.11718000 -0.79155600 8.69385000
3.10174000 -0.85005600 8.65996000
3.31717000 -0.49148600 8.83168000
3.21064000 -0.47699400 8.89841000
3.34026000 -0.43977700 8.87102000
3.22049000 -0.44994400 8.92034000
3.22951000 -0.42616000 8.94062000
3.37278000 -0.36373500 8.93645000
3.23787000 -0.40461500 8.95961000
3.19981000 -0.50832100 8.87448000
3.21064000 -0.47699400 8.89841000
3.10278000 -0.45917000 8.96682000
3.22049000 -0.44994400 8.92034000
3.22951000 -0.42616000 8.94062000
3.23787000 -0.40461500 8.95961000
3.08577000 -0.36395000 9.07573000
3.08324000 -0.52616200 8.91380000
3.18783000 -0.54493900 8.84821000
3.05257000 -0.60595900 8.86165000
3.17489000 -0.58640300 8.81996000
3.16119000 -0.63226200 8.79007000
3.24571000 -0.38430400 8.97764000
3.25313000 -0.36513300 8.99489000
3.26023000 -0.34702000 9.01155000
3.26712000 -0.32987100 9.02777000
-7.40227000 -0.06678150 -1.03355000
-7.34126000 -0.06192140 -1.17822000
-7.34886000 -0.07576560 -1.18155000
-7.40665000 -0.08363140 -1.03549000
-7.35297000 -0.09295790 -1.18342000
-7.40777000 -0.10272000 -1.03614000
-7.35381000 -0.11229900 -1.18393000
-7.40585000 -0.12282700 -1.03562000
-7.35160000 -0.13257300 -1.18321000
-7.34656000 -0.15258600 -1.18134000
-7.40136000 -0.15113300 -1.02506000
-7.33917000 -0.17232900 -1.17852000
-7.32988000 -0.19180300 -1.17496000
-7.41028000 -0.18580500 -0.94427000
-7.35160000 -0.13257300 -1.18321000
-7.35381000 -0.11229900 -1.18393000
-7.29703000 -0.12230800 -1.32960000
-7.35297000 -0.09295790 -1.18342000
-7.29646000 -0.10271200 -1.32924000
-7.34886000 -0.07576560 -1.18155000
-7.29262000 -0.08515480 -1.32744000
-7.34126000 -0.06192140 -1.17822000
-7.28527000 -0.07081890 -1.32410000
-7.28930000 -0.16290400 -1.32656000
-7.34656000 -0.15258600 -1.18134000
-7.27745000 -0.19120700 -1.32355000
-7.33917000 -0.17232900 -1.17852000
-7.32988000 -0.19180300 -1.17496000
-6.95641000 -0.19786900 -2.04247000
-6.84823000 -0.18991800 -2.24467000
-6.83859000 -0.21221900 -2.25457000
4.64435000 -0.20733400 -4.28769000
4.81516000 -0.17724400 -4.19361000
4.80433000 -0.19151700 -4.18230000
4.79332000 -0.20565100 -4.17074000
4.78218000 -0.21967200 -4.15899000
4.77094000 -0.23361900 -4.14709000
4.75964000 -0.24752500 -4.13512000
4.61808000 -0.29522600 -4.17690000
4.74811000 -0.26176000 -4.12287000
4.73615000 -0.27669200 -4.11017000
4.72359000 -0.29269000 -4.09685000
4.72359000 -0.29269000 -4.09685000
4.73615000 -0.27669200 -4.11017000
4.82925000 -0.29192000 -4.01082000
4.74811000 -0.26176000 -4.12287000
4.75964000 -0.24752500 -4.13512000
4.77094000 -0.23361900 -4.14709000
4.94096000 -0.18630400 -4.07734000
4.71024000 -0.31012400 -4.08272000
4.79190000 -0.34074000 -3.97419000
4.69587000 -0.32971800 -4.06752000
4.68021000 -0.35219100 -4.05101000
4.76327000 -0.39337800 -3.93296000
4.66303000 -0.37826800 -4.03293000
4.71024000 -0.31012400 -4.08272000
4.69587000 -0.32971800 -4.06752000
4.58019000 -0.34104200 -4.14434000
4.68021000 -0.35219100 -4.05101000
4.60183000 -0.48322000 -3.96906000
4.72794000 -0.44404800 -3.90618000
4.62360000 -0.44359000 -3.99161000
4.64408000 -0.40867100 -4.01301000
3.39354000 -0.31118600 8.98639000
3.29358000 -0.26862500 9.09011000
3.28708000 -0.28313100 9.07490000
3.28052000 -0.29807800 9.05945000
3.27387000 -0.31360800 9.04374000
3.26712000 -0.32987100 9.02777000
3.26023000 -0.34702000 9.01155000
3.25313000 -0.36513300 8.99489000
3.24571000 -0.38430400 8.97764000
3.43640000 -0.22224300 9.07652000
3.30003000 -0.25440900 9.10505000
3.30634000 -0.24036100 9.11956000
3.31243000 -0.22635900 9.13348000
3.31822000 -0.21228000 9.14665000
3.29358000 -0.26862500 9.09011000
3.30003000 -0.25440900 9.10505000
3.12125000 -0.23553100 9.21472000
3.30634000 -0.24036100 9.11956000
3.31243000 -0.22635900 9.13348000
3.31822000 -0.21228000 9.14665000
3.14610000 -0.20883100 9.23262000
3.09891000 -0.31727700 9.12269000
3.28708000 -0.28313100 9.07490000
3.28052000 -0.29807800 9.05945000
3.27387000 -0.31360800 9.04374000
3.32362000 -0.19800300 9.15888000
3.32867000 -0.18360300 9.17032000
3.21336000 -0.16658300 9.24028000
3.33343000 -0.16915400 9.18110000
3.33795000 -0.15473600 9.19135000
-4.12760000 0.03642760 8.76670000
-4.03572000 0.03551330 8.80365000
-4.15348000 0.04062720 8.73246000
-4.35826000 0.04708490 8.61953000
-4.27010000 0.04623950 8.65907000
-4.38539000 0.05187270 8.58328000
-4.50861000 0.05358740 8.51624000
-4.49914000 0.05704930 8.50487000
-4.61114000 0.06129070 8.42363000
-4.67014000 0.05943290 8.39800000
-4.72143000 0.06486820 8.33969000
-4.83003000 0.06804580 8.25319000
-4.88159000 0.06581350 8.23009000
-4.93695000 0.07109460 8.16427000
-5.04223000 0.07428160 8.07305000
-5.09683000 0.07276760 8.04452000
-5.14586000 0.07763280 7.97960000
-5.24783000 0.08117830 7.88399000
-5.29468000 0.08028920 7.86013000
-5.34815000 0.08494220 7.78627000
-5.44681000 0.08895360 7.68653000
-5.50632000 0.08964160 7.64768000
-5.54384000 0.09288000 7.58467000
-5.63928000 0.09639170 7.48063000
-5.69939000 0.09778850 7.43820000
-5.73314000 0.09915760 7.37433000
-5.82547000 0.10085000 7.26571000
-5.86262000 0.10222300 7.24741000
-5.91618000 0.10199600 7.15521000
-6.00519000 0.10312500 7.04330000
-6.14927000 0.10906000 6.88770000
-6.09244000 0.10476900 6.93044000
-6.17783000 0.10745900 6.81708000
-6.26140000 0.11083300 6.70265000
-6.34316000 0.11453600 6.58658000
-6.44270000 0.12243800 6.47151000
-6.42314000 0.11820500 6.46830000
-6.29068000 0.07368690 6.79646000
-6.41456000 0.07913520 6.62274000
-6.41891000 0.06136960 6.62327000
-6.50136000 0.12148400 6.34724000
-6.57782000 0.12442900 6.22360000
-6.71543000 0.13309600 6.02615000
-6.65250000 0.12708800 6.09760000
-6.72538000 0.12951300 5.96946000
-6.79646000 0.13176300 5.83938000
-6.86581000 0.13390400 5.70726000
-6.99042000 0.14213400 5.50000000
-6.93350000 0.13601400 5.57301000
-6.99961000 0.13816100 5.43655000
-7.07601000 0.14262100 5.39145000
-6.97967000 0.14232400 5.55973000
-7.24821000 0.15140200 4.96012000
-7.06420000 0.14041800 5.29777000
-7.12681000 0.14257600 5.15750000
-7.23520000 0.15016200 4.94777000
-7.18700000 0.14442000 5.01656000
-7.24431000 0.14573700 4.87578000
-7.29829000 0.14631900 4.73597000
-7.34899000 0.14619900 4.59640000
-7.44054000 0.15084200 4.38532000
-7.39649000 0.14542100 4.45635000
-7.44084000 0.14401800 4.31507000
-7.48210000 0.14202800 4.17185000
-7.52042000 0.13947100 4.02675000
-7.55572000 0.14484700 3.95927000
-7.55590000 0.13637000 3.87984000
-7.58869000 0.13274100 3.73119000
-7.50967000 0.09944340 4.39893000
-7.57454000 0.07358200 4.19638000
-7.50901000 0.07277220 4.40944000
-7.63943000 0.13680100 3.57438000
-7.61890000 0.12860300 3.58089000
-7.64641000 0.12396000 3.42937000
-7.67110000 0.11881900 3.27709000
-7.70115000 0.12544200 3.19462000
-7.69285000 0.11317900 3.12449000
-7.74071000 0.13132300 3.36324000
-7.78473000 0.12712000 3.05946000
-7.79779000 0.11793800 3.05722000
-7.71154000 0.10704400 2.97201000
-7.73807000 0.11397000 2.88922000
-7.72747000 0.10059400 2.81909000
-7.74092000 0.09400630 2.66519000
-7.77397000 0.10758900 2.59249000
-7.75221000 0.08745870 2.50974000
-7.76162000 0.08112780 2.35220000
-7.79389000 0.09596060 2.27781000
-7.76885000 0.07494030 2.19360000
-7.77359000 0.06882170 2.03499000
-7.80394000 0.08399510 1.95716000
-7.77554000 0.06269370 1.87744000
-7.77438000 0.05648490 1.72198000
-7.80013000 0.06910600 1.57849000
-7.77024000 0.05012050 1.56822000
-7.76324000 0.04352940 1.41576000
-7.75350000 0.03663770 1.26420000
-7.77504000 0.05133070 1.18210000
-7.74116000 0.02937480 1.11315000
-7.72602000 0.02168770 0.96235100
-7.74528000 0.03667480 0.88799900
-7.70793000 0.01352320 0.81157100
-7.68670000 0.00483459 0.66055900
-7.70217000 0.01950200 0.58055000
-7.66217000 -0.00443564 0.50907900
-7.63453000 -0.01403200 0.35758500
-7.66197000 0.00581989 0.35364100
-7.60398000 -0.02370410 0.20655100
-7.61094000 -0.00949007 0.10673500
-7.57073000 -0.03319310 0.05643000
-7.53497000 -0.04225570 -0.09229940
-7.54177000 -0.02645890 -0.17835500
-7.49682000 -0.05083980 -0.24011200
-7.45639000 -0.05889840 -0.38746600
-7.48312000 -0.03772680 -0.39599700
-7.41379000 -0.06638470 -0.53482900
-7.41571000 -0.04903500 -0.62775300
-7.36912000 -0.07324900 -0.68267100
-7.32218000 -0.07965530 -0.83037200
-7.32367000 -0.06147450 -0.91821100
-7.27272000 -0.08577210 -0.97732000
-7.22052000 -0.09175890 -1.12290000
-7.23603000 -0.07878100 -1.13044000
-7.25170000 -0.06693250 -1.13798000
-7.34411000 -0.04825400 -0.92815000
-7.26759000 -0.05709180 -1.14548000
-7.35913000 -0.04099910 -0.93936800
-7.28373000 -0.05013420 -1.15294000
-7.30017000 -0.04694260 -1.16031000
-7.44119000 -0.02823810 -0.75040500
-7.31591000 -0.04770910 -1.16723000
-7.39417000 -0.03676740 -0.94581000
-7.32994000 -0.05263670 -1.17333000
-7.40183000 -0.04176420 -0.97080500
-7.28373000 -0.05013420 -1.15294000
-7.26759000 -0.05709180 -1.14548000
-7.21238000 -0.06314920 -1.29010000
-7.25170000 -0.06693250 -1.13798000
-7.19333000 -0.07579950 -1.27659000
-7.23603000 -0.07878100 -1.13044000
-7.22052000 -0.09175890 -1.12290000
-7.16536000 -0.09778420 -1.26651000
-7.10682000 -0.10406200 -1.40870000
-7.10143000 -0.08586370 -1.49681000
-7.04451000 -0.11079900 -1.55001000
-6.97801000 -0.11821800 -1.69098000
-7.15304000 -0.06510210 -1.52757000
-7.30017000 -0.04694260 -1.16031000
-7.22281000 -0.06007470 -1.40550000
-7.31591000 -0.04770910 -1.16723000
-7.23906000 -0.06556670 -1.40569000
-7.32994000 -0.05263670 -1.17333000
-6.96828000 -0.10147300 -1.77706000
-6.90693000 -0.12652500 -1.83218000
-6.83223000 -0.13530200 -1.97271000
-6.81761000 -0.11943300 -2.06302000
-6.75490000 -0.14412700 -2.11166000
-6.67592000 -0.15257800 -2.24814000
-6.66054000 -0.13669400 -2.33522000
-6.59627000 -0.16023500 -2.38126000
-6.51518000 -0.16737500 -2.51154000
-6.49347000 -0.15149600 -2.60334000
-6.43187000 -0.17429400 -2.63953000
-6.34557000 -0.18127100 -2.76574000
-6.32259000 -0.16554300 -2.85190000
-6.25549000 -0.18859500 -2.89072000
-6.16203000 -0.19608800 -3.01433000
-6.18781000 -0.17627800 -3.03181000
-6.06560000 -0.20357100 -3.13640000
-6.02967000 -0.18832800 -3.23022000
-5.96658000 -0.21086900 -3.25681000
-5.86537000 -0.21780600 -3.37537000
-5.83134000 -0.20147700 -3.46210000
-5.76202000 -0.22449800 -3.49187000
-5.65656000 -0.23107000 -3.60605000
-5.62283000 -0.21427700 -3.68735000
-5.54903000 -0.23764200 -3.71766000
-5.43948000 -0.24433500 -3.82645000
-5.40190000 -0.22807300 -3.90731000
-5.32818000 -0.25091300 -3.93249000
-5.21539000 -0.25713900 -4.03585000
-5.17861000 -0.24180100 -4.11134000
-5.10140000 -0.26277500 -4.13660000
-4.98647000 -0.26758700 -4.23479000
-4.95038000 -0.25271700 -4.30629000
-4.87021000 -0.27144600 -4.33068000
-4.75223000 -0.27421500 -4.42453000
-4.77234000 -0.25817400 -4.44869000
-4.63214000 -0.27576500 -4.51660000
-4.59223000 -0.26115800 -4.58630000
-4.50955000 -0.27596700 -4.60713000
-4.38469000 -0.27527600 -4.69572000
-4.34440000 -0.26129200 -4.76196000
-4.25781000 -0.27415700 -4.78192000
-4.12913000 -0.27307100 -4.86532000
-4.07054000 -0.25999800 -4.93799000
-3.99891000 -0.27248100 -4.94548000
-3.86713000 -0.27205800 -5.02252000
-3.81253000 -0.25845700 -5.08985000
-3.73378000 -0.27148800 -5.09656000
-3.59885000 -0.27044800 -5.16770000
-3.61678000 -0.25656400 -5.19460000
-3.46233000 -0.26862100 -5.23605000
-3.40338000 -0.25360500 -5.29959000
-3.32424000 -0.26607600 -5.30172000
-3.18460000 -0.26289100 -5.36477000
-3.12580000 -0.24729800 -5.42449000
-3.04342000 -0.25914500 -5.42530000
-2.90074000 -0.25490800 -5.48339000
-2.84083000 -0.23891200 -5.54019000
-2.75673000 -0.25040600 -5.53862000
-2.61158000 -0.24585800 -5.59059000
-2.55382000 -0.23022600 -5.64274000
-2.46547000 -0.24148800 -5.63889000
-2.31860000 -0.23751800 -5.68309000
-2.24522000 -0.22285100 -5.73524000
-2.17116000 -0.23360500 -5.72361000
-2.02334000 -0.22941000 -5.76082000
-1.95109000 -0.21555300 -5.80850000
-1.87534000 -0.22459200 -5.79512000
-1.72737000 -0.21880900 -5.82689000
-1.73909000 -0.20742700 -5.85585000
-1.57946000 -0.21224200 -5.85619000
-1.51620000 -0.19750300 -5.89932000
-1.43168000 -0.20507100 -5.88306000
-1.28406000 -0.19748200 -5.90753000
-1.12050000 -0.17720700 -5.96280000
-1.13666000 -0.18964500 -5.92965000
-0.98903600 -0.18160300 -5.94913000
-0.84074100 -0.17339000 -5.96569000
-0.76120600 -0.16176000 -5.99229000
-0.69133200 -0.16503900 -5.97904000
-0.45216700 -0.14506000 -6.06314000
-0.61271300 -0.14834500 -6.03994000
-0.14551500 -0.12729400 -6.05210000
-0.54036400 -0.15658500 -5.98889000
-0.46664500 -0.14623800 -6.01109000
-0.38817100 -0.14812200 -5.99520000
-0.23508500 -0.13973700 -5.99790000
-0.16128100 -0.13034300 -6.01641000
-0.08144020 -0.13152300 -5.99695000
0.07243090 -0.12357000 -5.99228000
0.28903100 -0.10715600 -5.99952000
0.22642300 -0.11577200 -5.98441000
0.38043300 -0.10802600 -5.97385000
0.53435400 -0.10021900 -5.96111000
0.68808200 -0.09224940 -5.94670000
0.80374800 -0.08134480 -5.95158000
0.84162600 -0.08397700 -5.93038000
0.99499600 -0.07525680 -5.91190000
1.10748000 -0.06535940 -5.91393000
1.14820000 -0.06595080 -5.89101000
1.30125000 -0.05591730 -5.86747000
1.39321000 -0.04872360 -5.87027000
1.45330000 -0.04564740 -5.84123000
1.60353000 -0.03563620 -5.81223000
1.64004000 -0.03564730 -5.82832000
1.75108000 -0.02636590 -5.78043000
1.89512000 -0.01833790 -5.74577000
1.89843000 -0.02155080 -5.76122000
2.03640000 -0.01127430 -5.70850000
2.11231000 -0.01261170 -5.70304000
2.17569000 -0.00490847 -5.66883000
2.31374000 0.00103647 -5.62702000
2.39375000 -0.00231441 -5.61600000
2.45130000 0.00682717 -5.58328000
2.58886000 0.01244270 -5.53739000
2.65985000 0.00666968 -5.52579000
2.72688000 0.01785570 -5.48913000
2.86585000 0.02304060 -5.43826000
2.94368000 0.01557990 -5.42044000
3.00624000 0.02797610 -5.38455000
3.14727000 0.03259700 -5.32781000
3.22369000 0.02325760 -5.30658000
3.28816000 0.03684630 -5.26783000
3.42812000 0.04066180 -5.20442000
3.43102000 0.02786550 -5.21307000
3.56638000 0.04398560 -5.13736000
3.56912000 0.03077920 -5.14567000
3.70230000 0.04709070 -5.06727000
3.70495000 0.03359670 -5.07527000
3.83526000 0.05025200 -4.99473000
3.83788000 0.03657140 -5.00249000
3.96463000 0.05374270 -4.92031000
4.03601000 0.04114720 -4.88786000
4.08977000 0.05784570 -4.84463000
4.21145000 0.06216280 -4.76753000
4.21459000 0.04830090 -4.77527000
4.33040000 0.06631410 -4.68891000
4.33381000 0.05249400 -4.69676000
4.44737000 0.06990790 -4.60862000
4.73914000 -0.01283840 -4.41103000
4.90831000 0.01507540 -4.28389000
4.90531000 -0.00256199 -4.28242000
4.90086000 -0.02006420 -4.27907000
4.78499000 -0.04688170 -4.35647000
4.89522000 -0.03733180 -4.27416000
4.88862000 -0.05427000 -4.26801000
4.88132000 -0.07078070 -4.26095000
4.70326000 -0.08330200 -4.39209000
4.87336000 -0.08689910 -4.25308000
4.86481000 -0.10265800 -4.24449000
4.67876000 -0.11567100 -4.37905000
4.85571000 -0.11809600 -4.23526000
4.85571000 -0.11809600 -4.23526000
4.86481000 -0.10265800 -4.24449000
4.97937000 -0.10715600 -4.14491000
4.87336000 -0.08689910 -4.25308000
4.99621000 -0.07626440 -4.16119000
4.88132000 -0.07078070 -4.26095000
4.88862000 -0.05427000 -4.26801000
5.05575000 -0.04025700 -4.13913000
5.00277000 -0.13652100 -4.09136000
4.84613000 -0.13324600 -4.22551000
4.83614000 -0.14813600 -4.21527000
4.82579000 -0.16279400 -4.20462000
4.81516000 -0.17724400 -4.19361000
4.84613000 -0.13324600 -4.22551000
4.66213000 -0.15525400 -4.34568000
4.83614000 -0.14813600 -4.21527000
4.82579000 -0.16279400 -4.20462000
4.78218000 -0.21967200 -4.15899000
4.79332000 -0.20565100 -4.17074000
4.80433000 -0.19151700 -4.18230000
3.56929000 -0.06595980 9.15141000
3.35441000 -0.09841560 9.22927000
3.35047000 -0.11222500 9.22006000
3.49763000 -0.15392300 9.11403000
3.34643000 -0.12623600 9.21074000
3.34227000 -0.14041800 9.20120000
3.33795000 -0.15473600 9.19135000
3.33343000 -0.16915400 9.18110000
3.32867000 -0.18360300 9.17032000
3.44817000 -0.19019200 9.10498000
3.32362000 -0.19800300 9.15888000
3.35829000 -0.08484270 9.23844000
3.36188000 -0.07129750 9.24705000
3.82923000 -0.06942680 9.01392000
3.85957000 -0.04402670 9.01130000
3.73875000 -0.04362160 9.07664000
3.61620000 -0.04316500 9.14002000
