-1.09203000 9.44330000 0.20677800
-1.10762000 9.34257000 0.19980100
-1.12297000 9.13869000 0.18623700
-1.56238000 9.11791000 0.18623700
-0.66043000 9.36101000 0.20571300
-0.68280400 9.25586000 0.19578600
-0.70403400 9.11037000 0.18866600
-0.71810500 8.91316000 0.17746700
-1.13005000 8.90808000 0.17583000
-0.28739800 9.18594000 0.19752700
-0.29924700 9.07300000 0.18975800
-0.30931600 8.92792000 0.18085800
-0.30999200 8.71222000 0.16916500
-0.71540200 8.67961000 0.16304500
0.07893040 9.10447000 0.19542300
0.08136010 8.98310000 0.18754900
0.08750560 8.77503000 0.17482900
0.09805560 8.53601000 0.16164200
-0.29727200 8.46700000 0.15067600
0.44852000 9.05612000 0.19543600
0.46309800 8.86432000 0.18326200
0.47515500 8.62994000 0.16856700
0.49269500 8.35370000 0.15410600
0.11837600 8.25408000 0.14490700
0.82077300 8.95727000 0.19203200
0.83546700 8.73123000 0.17657000
0.85074700 8.45971000 0.16096600
0.87542000 8.14078000 0.14714200
0.52346200 8.03337000 0.13764400
1.18440000 8.82329000 0.18638000
1.19617000 8.56124000 0.17360800
1.21589000 8.25062000 0.15346900
1.24811000 7.92375000 0.13725500
0.91343600 7.81331000 0.12932900
1.54261000 8.65046000 0.17829800
1.55245000 8.35061000 0.16086200
1.57585000 8.02893000 0.14402400
1.61635000 7.70894000 0.12925100
1.29664000 7.59872000 0.11903900
1.89237000 8.42936000 0.17006100
1.90133000 8.12472000 0.15065000
1.93152000 7.81433000 0.13869700
1.98589000 7.51258000 0.12343000
1.67791000 7.39784000 0.11233500
2.22506000 8.21266000 0.15918600
2.24234000 7.91243000 0.14268500
2.28701000 7.62246000 0.12664000
2.36023000 7.34491000 0.12295000
2.06383000 7.22196000 0.11039900
2.54004000 7.99903000 0.15423600
2.57596000 7.72205000 0.14084000
2.64483000 7.46386000 0.12761400
2.74722000 7.22682000 0.12033800
2.45873000 7.08400000 0.11013900
3.02283000 7.37782000 0.13261600
3.15370000 7.18652000 0.12263800
2.87014000 7.00389000 0.10986600
3.27776000 7.56963000 0.14590800
3.41998000 7.40587000 0.13813800
3.56871000 7.22722000 0.13045900
3.29815000 6.99785000 0.11653100
3.47543000 7.82625000 0.15654900
3.64165000 7.66228000 0.15465200
3.81050000 7.47679000 0.14753200
3.97751000 7.28452000 0.14329600
3.72569000 7.03748000 0.12271600
3.82720000 7.92438000 0.17124300
4.01754000 7.73049000 0.16421400
4.20474000 7.52539000 0.15975800
4.38518000 7.31414000 0.15323500
4.14890000 7.08490000 0.13576000
4.17680000 7.94916000 0.17815500
4.38023000 7.72614000 0.17126900
4.57637000 7.50612000 0.16665700
4.52416000 7.90218000 0.18478200
4.73192000 7.66531000 0.17910400
4.61554000 8.02087000 0.19456500
4.85119000 7.79026000 0.19069300
5.04809000 7.53156000 0.17992200
4.92362000 7.87141000 0.19625400
5.13258000 7.60752000 0.18997900
5.30653000 7.32830000 0.17759700
5.20326000 7.67248000 0.19570900
5.38619000 7.38449000 0.18417100
5.53712000 7.10099000 0.17429700
5.46115000 7.43375000 0.19533200
5.61179000 7.14164000 0.18170200
5.72643000 6.87269000 0.17521900
5.68481000 7.17781000 0.20116500
5.79948000 6.90713000 0.19027800
5.87380000 6.69681000 0.19156400
5.85582000 6.93408000 0.23970200
5.92072000 6.72888000 0.23690800
5.98789000 6.57715000 0.24105300
5.91323000 6.73576000 0.31105700
5.97096000 6.57081000 0.30309300
6.12741000 6.48811000 0.31411100
5.94839000 6.56269000 0.36515900
6.10406000 6.47564000 0.38784400
6.31528000 6.37155000 0.39943400
6.07564000 6.46058000 0.45960300
6.28043000 6.35373000 0.47901400
6.57209000 6.19269000 0.47991000
6.24993000 6.33320000 0.55976300
6.54092000 6.16780000 0.56272500
6.88114000 5.91379000 0.55299400
6.54092000 6.16780000 0.56272500
6.50028000 6.13701000 0.64991900
6.84977000 5.87847000 0.63691300
6.88114000 5.91379000 0.55299400
6.45676000 6.10233000 0.73754200
6.19822000 6.31299000 0.64730800
6.14100000 6.28846000 0.73211100
6.08006000 6.26105000 0.81843400
5.91633000 6.40544000 0.70040900
5.83794000 6.38314000 0.78964200
5.77598000 6.35387000 0.87760300
6.01607000 6.23116000 0.90495200
5.71909000 6.31614000 0.95414200
5.95193000 6.18489000 0.98062100
5.64598000 6.26865000 1.00053000
5.86820000 6.11678000 1.00145000
5.59194000 6.18932000 1.00727000
5.82255000 6.01089000 0.99973400
5.45788000 6.10558000 1.00233000
5.53590000 6.39192000 0.99617400
5.45744000 6.34237000 1.01316000
5.45241000 6.55050000 1.01679000
5.35343000 6.49058000 1.02002000
5.34879000 6.76388000 1.02641000
5.23487000 6.70377000 1.02681000
5.10978000 6.64372000 1.00578000
5.07926000 6.94953000 1.03190000
4.94477000 6.88796000 0.98518200
4.81971000 6.82935000 0.87931800
4.98795000 6.58154000 0.92602600
4.81971000 6.82935000 0.87931800
4.65626000 6.74388000 0.81347100
4.82485000 6.49479000 0.81777100
4.98795000 6.58154000 0.92602600
4.44661000 6.63888000 0.79933500
4.62909000 6.37805000 0.79277300
4.81515000 6.09883000 0.79450100
4.42385000 6.24373000 0.78353600
4.65740000 5.97171000 0.78069000
4.92981000 5.70530000 0.79320200
5.07468000 5.86013000 0.89893700
4.48424000 5.82566000 0.76829500
4.79871000 5.57096000 0.76346200
4.29526000 5.66628000 0.75656300
4.62083000 5.40811000 0.75166500
4.09438000 5.50124000 0.74718200
4.41523000 5.24428000 0.74047800
3.89243000 5.33891000 0.73291600
4.19051000 5.08161000 0.72820000
3.72902000 5.20779000 0.72743300
4.00081000 4.95145000 0.71988500
3.64182000 5.13804000 0.75703100
3.90751000 4.88997000 0.74788400
3.56797000 5.07916000 0.74284300
3.82360000 4.83521000 0.74603900
3.49916000 5.02286000 0.69696600
3.73876000 4.78165000 0.69013100
3.42410000 4.96537000 0.63690000
3.65059000 4.72765000 0.62889700
3.33540000 4.89964000 0.57461400
3.54714000 4.66599000 0.56192000
3.15896000 4.78865000 0.48489900
3.39592000 4.58058000 0.48504200
3.64669000 4.33207000 0.49190200
3.17198000 4.44920000 0.42195000
3.44116000 4.21169000 0.42349600
3.70005000 3.95032000 0.42453500
3.21559000 4.07431000 0.38471300
3.49612000 3.80922000 0.38315400
3.75146000 3.55468000 0.40985400
3.28621000 3.65469000 0.35737600
3.54617000 3.39633000 0.37244800
3.75656000 3.14133000 0.45306700
3.32601000 3.21901000 0.34902200
3.55361000 2.96637000 0.35802600
3.75122000 2.70119000 0.38473900
3.33978000 2.78528000 0.33349600
3.54324000 2.52568000 0.33838100
3.73553000 2.26591000 0.33747100
3.31965000 2.35471000 0.31898300
3.48405000 2.09982000 0.31479900
3.61347000 1.84061000 0.34095400
3.27709000 1.96787000 0.32541400
3.39643000 1.72035000 0.34624200
3.48414000 1.46009000 0.34077200
3.20022000 1.61028000 0.29390700
3.28504000 1.36517000 0.28563100
3.34179000 1.10992000 0.27396300
3.05542000 1.24983000 0.27042900
3.12910000 1.02063000 0.26940300
3.16961000 0.78286000 0.32321900
3.38185000 0.85257900 0.32997500
3.22087000 0.52025200 0.35542700
3.40113000 0.57991500 0.36540600
3.29194000 0.25894400 0.34643600
3.45303000 0.31728100 0.34926900
3.02782000 0.43283800 0.26324400
3.12171000 0.18367700 0.26175000
3.18624000 -0.08362080 0.29473900
2.87102000 0.05380260 0.23421900
2.96465000 -0.20696000 0.23637600
3.03937000 -0.48509400 0.26271200
2.70538000 -0.35745400 0.22014800
2.79732000 -0.63613400 0.23996200
2.88159000 -0.91532000 0.30557500
2.56664000 -0.78972000 0.21427500
2.66268000 -1.06658000 0.27078000
2.76896000 -1.33665000 0.31031700
2.98432000 -1.18858000 0.33156000
2.89960000 -1.58449000 0.22961900
2.55220000 -1.48170000 0.26142500
2.68033000 -1.73231000 0.18981000
2.81793000 -1.99171000 0.18527500
3.04286000 -1.83249000 0.19426600
2.95790000 -2.23849000 0.18657500
3.19321000 -2.06960000 0.19057600
3.10587000 -2.46949000 0.18865300
2.71434000 -2.39876000 0.20120400
2.84847000 -2.63898000 0.21983600
2.98748000 -2.86293000 0.23321800
2.58386000 -2.79896000 0.17647900
2.70519000 -3.03111000 0.20965000
2.83114000 -3.24005000 0.23528400
2.41639000 -3.18337000 0.16772200
2.50944000 -3.38871000 0.18388500
2.62665000 -3.58045000 0.22850200
2.16718000 -3.49171000 0.22162900
2.26574000 -3.66283000 0.24595100
2.37983000 -3.82570000 0.23266000
1.89275000 -3.70353000 0.27339200
2.01229000 -3.89050000 0.23694700
2.13703000 -4.06444000 0.23397200
1.56977000 -3.71760000 0.16612400
1.83406000 -3.50426000 0.20454400
1.45228000 -3.52447000 0.16087500
1.16740000 -3.59498000 0.16660500
1.27565000 -3.76283000 0.18128700
0.88963400 -3.68815000 0.14879200
1.00415000 -3.83107000 0.13570800
1.04809000 -4.04124000 0.23768800
0.71092000 -4.01142000 0.12391100
0.76782800 -4.22052000 0.13605900
0.83241400 -4.45492000 0.17385500
0.45821200 -4.39278000 0.13414900
0.51046900 -4.62440000 0.18886100
0.54261300 -4.81165000 0.26242600
0.89153100 -4.67842000 0.25463000
0.55880200 -4.94957000 0.33311900
0.92081600 -4.83831000 0.33127400
1.21012000 -4.69513000 0.31113500
0.56959800 -5.07388000 0.40177200
0.17562200 -5.01891000 0.33063700
0.18133900 -5.13312000 0.38802600
0.18821200 -5.25114000 0.40802200
-0.22242100 -5.15450000 0.38232200
-0.22577400 -5.25801000 0.39992700
-0.23104900 -5.36319000 0.37111000
0.18757500 -5.38113000 0.37274700
-0.23386800 -5.48124000 0.34520200
0.18900400 -5.53597000 0.38333600
-0.24041600 -5.65582000 0.33415800
0.18465200 -5.69288000 0.41012600
-0.25224000 -5.85743000 0.33110500
0.18104000 -5.85183000 0.35645400
-0.26740200 -6.06169000 0.32736300
0.16251200 -6.03539000 0.33939400
0.55372100 -6.05465000 0.35494700
0.12974500 -6.26072000 0.33305400
0.51223600 -6.27195000 0.34039500
0.86055600 -6.30064000 0.34630700
0.45421100 -6.53489000 0.33570500
0.79890600 -6.56300000 0.34092800
1.12766000 -6.59191000 0.34912600
0.74354400 -6.81499000 0.34072000
1.08877000 -6.82527000 0.34642300
1.42601000 -6.83460000 0.35388100
1.06276000 -7.03147000 0.34781400
1.41047000 -7.01717000 0.35441400
1.05756000 -7.21402000 0.36015700
1.41465000 -7.17377000 0.37151200
1.75579000 -7.13339000 0.37003100
1.41465000 -7.17377000 0.37151200
1.42176000 -7.30450000 0.44382900
1.76271000 -7.25158000 0.43921700
1.75579000 -7.13339000 0.37003100
2.08443000 -7.20469000 0.43142100
2.07762000 -7.09094000 0.38225700
1.77456000 -7.36116000 0.51795300
2.09807000 -7.31596000 0.51375600
2.38938000 -7.28756000 0.49509900
2.69457000 -7.23799000 0.44664900
2.12055000 -7.45783000 0.56411600
2.41703000 -7.43026000 0.55956800
2.73082000 -7.33258000 0.51541900
2.14413000 -7.61192000 0.56344000
1.79200000 -7.50620000 0.55795700
1.81002000 -7.65669000 0.55550100
1.82522000 -7.80567000 0.53464800
2.15981000 -7.75740000 0.54456200
1.83885000 -7.91815000 0.45017000
2.16764000 -7.88585000 0.49139600
1.85042000 -7.99409000 0.34224000
2.17493000 -7.96543000 0.39037800
2.43319000 -7.96472000 0.42369100
2.62331000 -7.97251000 0.44485600
2.18123000 -8.03352000 0.28587800
2.42876000 -8.03446000 0.31086300
2.61875000 -8.05488000 0.34270800
2.77276000 -8.05873000 0.36945900
2.78950000 -7.94344000 0.45539300
2.43611000 -8.09804000 0.21146900
2.63602000 -8.12146000 0.24492500
2.79500000 -8.13228000 0.28938600
2.93517000 -8.07577000 0.25338300
2.67424000 -8.18270000 0.17177600
2.83582000 -8.18969000 0.20716800
2.96541000 -8.11283000 0.17589500
3.07418000 -7.97819000 0.13630600
3.04416000 -7.94995000 0.21522300
2.86948000 -8.22883000 0.14172400
2.99664000 -8.13562000 0.10427900
3.10319000 -7.99960000 0.06487240
3.10319000 -7.99960000 0.06487240
2.99664000 -8.13562000 0.10427900
3.02451000 -8.15207000 0.03653540
3.12765000 -8.01771000 -0.00054569
3.23924000 -7.89048000 -0.02174970
3.21236000 -7.87048000 0.04785200
3.21236000 -7.87048000 0.04785200
3.18301000 -7.84810000 0.11900000
3.15261000 -7.81049000 0.20803900
3.34438000 -7.74811000 0.03092250
3.30822000 -7.72268000 0.10483800
3.27342000 -7.69780000 0.18644500
3.24175000 -7.65645000 0.27778300
3.48678000 -7.58583000 0.09123450
3.44642000 -7.55941000 0.17102200
3.40200000 -7.52928000 0.25897000
3.35008000 -7.49297000 0.35165900
3.18870000 -7.62642000 0.37179800
3.67083000 -7.39748000 0.15682100
3.62719000 -7.36718000 0.24061100
3.57756000 -7.33019000 0.33265100
3.52209000 -7.28418000 0.42842000
3.29984000 -7.44888000 0.44169900
3.88351000 -7.19234000 0.22637100
3.83558000 -7.15515000 0.31721600
4.14109000 -6.99772000 0.22204500
3.92342000 -7.22264000 0.14295800
4.18048000 -7.02677000 0.13873600
4.43249000 -6.79891000 0.14221800
4.21843000 -7.05428000 0.05595940
4.46711000 -6.82279000 0.06094860
4.25145000 -7.07804000 -0.02363370
4.49891000 -6.84496000 -0.01813780
4.49891000 -6.84496000 -0.01813780
4.25145000 -7.07804000 -0.02363370
4.27868000 -7.09709000 -0.10314900
4.52861000 -6.86599000 -0.09522320
4.29576000 -7.10625000 -0.18376800
4.54376000 -6.87355000 -0.17560900
4.26823000 -7.06684000 -0.24621100
4.50983000 -6.83662000 -0.23408900
4.73810000 -6.58023000 -0.21834200
4.45289000 -6.77922000 -0.25092700
4.67966000 -6.53297000 -0.24119600
4.87623000 -6.27620000 -0.23423200
4.61425000 -6.48129000 -0.24994000
4.80670000 -6.23183000 -0.24284600
4.96134000 -5.98924000 -0.23390700
4.73572000 -6.18509000 -0.24790000
4.88874000 -5.94657000 -0.23914300
5.01209000 -5.73411000 -0.23264700
4.81528000 -5.90358000 -0.24388500
4.94322000 -5.69066000 -0.23745400
4.73900000 -5.85604000 -0.24714600
4.87143000 -5.64121000 -0.24050700
4.64179000 -5.79238000 -0.25155100
4.79258000 -5.58867000 -0.24343100
4.93587000 -5.39669000 -0.23849300
4.67090000 -5.49987000 -0.25099200
4.84341000 -5.32135000 -0.24292400
4.50731000 -5.36510000 -0.26206200
4.69279000 -5.18342000 -0.25604600
4.29970000 -5.17141000 -0.26564800
4.50024000 -4.99688000 -0.25869700
4.05992000 -4.93808000 -0.26844100
4.10660000 -5.35274000 -0.27295000
3.85947000 -5.11949000 -0.27645800
3.60254000 -4.87100000 -0.28151200
3.66715000 -5.30697000 -0.28430600
3.40423000 -5.05669000 -0.28676100
3.13277000 -4.80215000 -0.29002200
3.21199000 -5.24774000 -0.29477800
2.93645000 -4.99338000 -0.29783100
2.65063000 -4.73937000 -0.29771400
2.74417000 -5.18753000 -0.30287200
2.45525000 -4.93812000 -0.30280700
2.15612000 -4.69635000 -0.30156000
2.26318000 -5.14160000 -0.31016100
1.96092000 -4.90642000 -0.30810800
1.65332000 -4.68436000 -0.30684800
1.77004000 -5.12663000 -0.31411100
1.46045000 -4.91585000 -0.31492900
1.14953000 -4.71363000 -0.31817700
1.34607000 -4.47162000 -0.30901800
0.84287300 -4.51139000 -0.31489000
1.04167000 -4.26102000 -0.31187600
0.53948100 -4.30980000 -0.31311000
0.74284300 -4.05204000 -0.30500300
0.24206600 -4.10926000 -0.30988800
0.45032600 -3.84337000 -0.30296300
-0.05022960 -3.90856000 -0.30762700
0.16429200 -3.63570000 -0.29824700
-0.33743300 -3.70802000 -0.30471700
-0.11948100 -3.42884000 -0.29350400
-0.62108800 -3.50776000 -0.29877900
-0.55040800 -3.99584000 -0.31087600
-0.83709100 -3.80126000 -0.30748400
-1.11979000 -3.60553000 -0.30653600
-1.04903000 -4.10293000 -0.31425400
-1.33365000 -3.91365000 -0.31195400
-1.61372000 -3.71806000 -0.31396800
-1.54445000 -4.22575000 -0.31995700
-1.82572000 -4.03318000 -0.31602100
-2.10078000 -3.82995000 -0.30838100
-2.03283000 -4.35601000 -0.32403700
-2.30868000 -4.15525000 -0.31994400
-2.57729000 -3.93699000 -0.31691700
-2.51250000 -4.48360000 -0.32800000
-2.78248000 -4.26766000 -0.32264700
-3.04513000 -4.02912000 -0.31790500
-2.98531000 -4.59774000 -0.33011800
-3.24931000 -4.35673000 -0.32989700
-3.18644000 -4.92525000 -0.34364300
-3.45346000 -4.68087000 -0.33747100
-3.38720000 -5.24876000 -0.34478600
-3.65698000 -5.00029000 -0.33935500
-3.92071000 -4.73441000 -0.33799100
-3.85816000 -5.32212000 -0.33703000
-4.12541000 -5.05671000 -0.33929000
-4.38801000 -4.77900000 -0.32640200
-4.32808000 -5.38108000 -0.33573000
-4.59592000 -5.10186000 -0.32980600
-4.85515000 -4.81454000 -0.32518000
-4.80227000 -5.41866000 -0.33602900
-5.06885000 -5.12956000 -0.33044200
-5.32105000 -4.82648000 -0.32516700
-5.26797000 -5.40171000 -0.33471700
-5.51795000 -5.09229000 -0.32924700
-5.76364000 -4.77597000 -0.32076300
-5.69310000 -5.30099000 -0.33105300
-5.93049000 -4.97653000 -0.32512800
-6.17243000 -4.65784000 -0.31717700
-6.07863000 -5.12675000 -0.32541400
-6.31437000 -4.81066000 -0.31787900
-6.57053000 -4.53521000 -0.31264300
-6.43839000 -4.92833000 -0.31798200
-6.67675000 -4.65844000 -0.31304500
-6.93533000 -4.43255000 -0.30651000
-6.83613000 -4.29618000 -0.30739300
-7.21199000 -4.23059000 -0.30370400
-7.10669000 -4.07901000 -0.30071500
-7.48583000 -3.99971000 -0.29502400
-7.38413000 -3.86132000 -0.29419300
-7.78167000 -3.77481000 -0.28811200
-7.65777000 -3.62647000 -0.28728100
-8.04246000 -3.51396000 -0.27961500
-7.92180000 -3.38754000 -0.27779600
-8.27456000 -3.24620000 -0.26838900
-8.17862000 -3.16083000 -0.26868800
-8.50323000 -3.00505000 -0.25985300
-8.41779000 -2.93525000 -0.25990500
-8.73868000 -2.81450000 -0.25008300
-8.59118000 -3.07812000 -0.25946400
-8.80623000 -2.86469000 -0.25000500
-9.00310000 -2.68354000 -0.23954600
-8.87403000 -2.91301000 -0.24868000
-9.07595000 -2.72732000 -0.23987100
-9.27542000 -2.54398000 -0.23160700
-9.19087000 -2.50148000 -0.23262100
-9.43760000 -2.32729000 -0.22196700
-9.36020000 -2.30652000 -0.22573500
-9.46605000 -2.04388000 -0.21378100
-9.38860000 -2.02812000 -0.21896500
-9.42374000 -1.70333000 -0.20420600
-9.34373000 -1.69202000 -0.20931200
-9.39626000 -1.33895000 -0.19712500
-9.50207000 -1.71534000 -0.19746300
-9.47759000 -1.34942000 -0.19204500
-9.57689000 -1.72906000 -0.18237800
-9.55600000 -1.36175000 -0.17858400
-9.62833000 -1.74629000 -0.13414900
-9.62202000 -1.37574000 -0.14019100
-9.61977000 -0.96921400 -0.14130800
-9.62202000 -1.37574000 -0.14019100
-9.62393000 -1.39336000 -0.06307940
-9.64214000 -0.97946500 -0.07194040
-9.61977000 -0.96921400 -0.14130800
-9.64760000 -0.53772700 -0.07813790
-9.60522000 -0.53334900 -0.14098300
-9.61711000 -0.99014500 0.00643137
-9.63172000 -0.54557500 0.00153313
-9.60511000 -0.08742760 0.01474670
-9.60053000 -0.55428000 0.07995690
-9.57487000 -0.09400190 0.09244280
-9.48337000 0.34856700 0.11536200
-9.53462000 -0.10212200 0.17154200
-9.44351000 0.34173300 0.19626700
-9.29604000 0.71646700 0.23722000
-9.39429000 0.33452200 0.28051200
-9.24286000 0.71545400 0.32453100
-9.09542000 0.99708300 0.32685600
-9.18616000 0.71607800 0.41473900
-9.02742000 1.00420000 0.42649700
-8.95154000 1.21274000 0.40508500
-8.95226000 1.01192000 0.52842500
-8.88849000 1.21493000 0.50892300
-8.97940000 1.42293000 0.54914800
-8.82309000 1.22275000 0.61109700
-8.91558000 1.42319000 0.64748900
-9.01929000 1.73017000 0.65190700
-8.82917000 1.44199000 0.73064200
-8.93402000 1.73325000 0.74024400
-9.01522000 2.13033000 0.73760700
-9.10436000 2.11767000 0.64774900
-9.04076000 2.58368000 0.75101500
-9.13992000 2.57199000 0.65692200
-9.00724000 3.04544000 0.77201100
-9.12281000 3.03741000 0.69228800
-8.89405000 2.59851000 0.78154800
-8.86063000 3.05269000 0.79493000
-8.74317000 2.61310000 0.78413300
-8.70824000 3.05985000 0.79820400
-8.63473000 3.51187000 0.81516000
-8.55762000 3.06616000 0.75645900
-8.47892000 3.51162000 0.76852900
-8.39477000 3.98624000 0.77874100
-8.34944000 3.51340000 0.66890100
-8.26130000 3.97926000 0.68081600
-8.18348000 4.44093000 0.66914800
-8.32900000 4.48157000 0.77432400
-7.92372000 4.80491000 0.68749400
-8.05482000 4.87520000 0.77883200
-7.92372000 4.80491000 0.68749400
-7.60385000 5.10367000 0.68370000
-7.70317000 5.17854000 0.77629900
-8.05482000 4.87520000 0.77883200
-7.30854000 5.38989000 0.68627300
-7.40234000 5.47420000 0.76878900
-7.49191000 5.55514000 0.85725600
-7.10500000 5.75006000 0.77208900
-7.19494000 5.83779000 0.86836500
-7.29645000 5.94152000 0.90232800
-6.88572000 6.09255000 0.88873700
-6.98122000 6.20192000 0.92110200
-7.07616000 6.31305000 0.91460600
-6.64130000 6.42173000 0.93341900
-6.72580000 6.53176000 0.92869000
-6.80560000 6.63547000 0.88941300
-6.38762000 6.68540000 0.94346200
-6.46940000 6.78454000 0.90957700
-6.53466000 6.85587000 0.81451000
-6.20549000 6.88856000 0.92060800
-6.26297000 6.95030000 0.82676200
-6.04146000 7.00032000 0.92684500
-6.08979000 7.05585000 0.83067300
-6.13803000 7.10811000 0.72043000
-5.98915000 7.24277000 0.86077700
-6.03034000 7.29497000 0.75278200
-6.06976000 7.34543000 0.64344900
-5.89780000 7.54172000 0.75165200
-5.93548000 7.58764000 0.65085500
-5.96856000 7.62669000 0.55313700
-5.73591000 7.88787000 0.63412000
-5.76880000 7.92514000 0.53871500
-5.79565000 7.95753000 0.44527200
-5.48517000 8.23948000 0.52754100
-5.51245000 8.27369000 0.44088000
-5.53345000 8.30246000 0.35438800
-5.19631000 8.56323000 0.44236100
-5.21359000 8.59184000 0.35750600
-5.21758000 8.60567000 0.27127400
-4.88532000 8.84039000 0.36201500
-4.88583000 8.85368000 0.27871900
-4.85082000 8.81965000 0.21697800
-4.79406000 8.75590000 0.19700800
-4.58422000 9.07848000 0.28077100
-4.53987000 9.04002000 0.22355200
-4.47900000 8.98236000 0.20541400
-4.47900000 8.98236000 0.20541400
-4.25757000 9.25428000 0.23072400
-4.18665000 9.20908000 0.21328800
-4.18665000 9.20908000 0.21328800
-4.04453000 9.46030000 0.23879200
-3.96179000 9.42513000 0.22290200
-3.96179000 9.42513000 0.22290200
-3.92152000 9.62645000 0.24605500
-3.83273000 9.58742000 0.22890500
-3.83273000 9.58742000 0.22890500
-3.84483000 9.75789000 0.26123100
-3.75339000 9.70509000 0.23720700
-3.75339000 9.70509000 0.23720700
-3.69628000 9.80540000 0.24932900
-3.59797000 9.76407000 0.23706400
-3.98764000 9.64781000 0.29312800
-3.89996000 9.78749000 0.31750200
-3.81444000 9.90320000 0.35645400
-3.90437000 9.77133000 0.39526300
-3.81426000 9.89212000 0.43941200
-3.68740000 9.97257000 0.47446600
-3.69335000 9.99022000 0.37095400
-3.53003000 9.96736000 0.47751900
-3.54018000 10.00000000 0.39237800
-3.35532000 9.92019000 0.47203700
-3.37074000 9.96400000 0.38250400
-3.39539000 9.94568000 0.29379000
-3.39925000 9.85326000 0.24860200
-3.15033000 9.92125000 0.38445300
-3.14491000 9.92898000 0.29585600
-3.16750000 9.84418000 0.24832900
-3.21557000 9.74121000 0.22868400
-3.44135000 9.74608000 0.23082800
-2.85366000 9.91570000 0.31485100
-2.85063000 9.85139000 0.25607200
-2.88611000 9.75758000 0.23405000
-2.45386000 9.91896000 0.34428000
-2.44961000 9.87436000 0.26837600
-2.46571000 9.79132000 0.23887000
-2.00208000 9.91787000 0.36840700
-2.00446000 9.90630000 0.28583900
-2.00806000 9.82977000 0.24767900
-2.00806000 9.82977000 0.24767900
-1.51934000 9.91366000 0.29785700
-1.52188000 9.83936000 0.24942000
-1.52188000 9.83936000 0.24942000
-1.52742000 9.74990000 0.23276400
-1.02241000 9.80038000 0.24958900
-1.03901000 9.71790000 0.23362100
-1.05597000 9.62868000 0.22311000
-0.58476100 9.62046000 0.23385500
-0.61270800 9.53667000 0.21966700
-0.63677100 9.44984000 0.21079300
-0.24604200 9.42956000 0.22350000
-0.26167200 9.35112000 0.21153400
-0.27278100 9.27259000 0.20490700
0.06849730 9.34352000 0.21661400
0.07386330 9.27131000 0.20887000
0.07690360 9.19044000 0.20117800
0.40447500 9.34569000 0.21571700
0.41967600 9.25952000 0.20780500
0.43433200 9.16694000 0.20249100
0.76786600 9.34826000 0.21486000
0.78473100 9.24605000 0.20972800
0.80172500 9.12393000 0.20097100
1.16187000 9.30775000 0.21675700
1.16799000 9.19901000 0.20875300
1.17604000 9.03693000 0.19867100
1.55320000 9.23163000 0.21553500
1.54736000 9.08654000 0.20529700
1.54290000 8.89152000 0.19146000
1.92828000 9.10578000 0.20958500
1.91129000 8.93723000 0.19947600
1.89742000 8.71382000 0.18439200
2.28631000 8.95773000 0.20716800
2.25627000 8.75780000 0.19444800
2.23517000 8.50197000 0.17722000
2.61918000 8.79206000 0.20355600
2.58007000 8.55840000 0.18345600
2.54921000 8.28581000 0.17019100
2.91884000 8.57998000 0.19021300
2.86218000 8.32445000 0.17680400
3.22774000 8.55494000 0.19508500
3.14980000 8.30859000 0.17953300
3.49770000 8.48247000 0.19637100
3.39849000 8.22868000 0.17840200
3.62197000 8.10130000 0.17663500
3.73621000 8.34832000 0.18942000
3.96375000 8.16212000 0.18600300
3.58318000 8.69915000 0.20952000
3.83047000 8.55761000 0.20460900
4.06926000 8.34785000 0.19728100
4.30070000 8.12994000 0.19160300
3.90969000 8.72942000 0.21829000
4.14745000 8.48659000 0.20894800
4.37880000 8.24679000 0.20219200
4.19736000 8.57156000 0.21826400
4.44496000 8.34892000 0.21053300
4.69229000 8.11851000 0.20284100
4.49950000 8.43272000 0.21919900
4.75316000 8.20035000 0.21256000
4.99012000 7.94437000 0.20437500
4.80629000 8.27574000 0.22387700
5.04814000 8.01334000 0.20916900
5.27331000 7.73388000 0.20481600
5.10143000 8.07846000 0.22990500
5.33843000 7.79387000 0.22008300
5.53477000 7.48040000 0.20983200
5.39025000 7.84361000 0.26303600
5.59286000 7.51913000 0.25221400
5.74319000 7.20584000 0.24899100
5.60141000 7.52904000 0.33118300
5.75033000 7.21007000 0.32835100
5.85546000 6.93895000 0.32012600
5.72589000 7.20000000 0.40876200
5.82911000 6.93704000 0.39975800
5.88677000 6.73189000 0.38507700
5.79236000 6.93126000 0.47776600
5.85297000 6.72354000 0.45510700
5.92139000 6.55147000 0.43303300
5.81661000 6.71066000 0.52889200
5.88108000 6.53816000 0.50768800
6.02992000 6.44334000 0.53692200
5.88108000 6.53816000 0.50768800
5.83870000 6.52707000 0.58643700
5.98060000 6.42520000 0.61659300
6.02992000 6.44334000 0.53692200
6.24993000 6.33320000 0.55976300
5.78974000 6.51379000 0.67204600
5.77712000 6.69786000 0.60560100
5.73631000 6.68145000 0.69166500
5.67792000 6.65817000 0.78513400
5.72695000 6.49229000 0.76430600
5.61701000 6.62975000 0.88411200
5.66695000 6.46541000 0.85812700
5.54507000 6.59273000 0.97111100
5.60658000 6.43360000 0.94307300
5.54225000 6.84997000 0.90613400
5.46221000 6.81578000 0.99544600
5.43062000 7.10370000 0.92398600
5.33853000 7.06663000 1.01199000
5.21127000 7.01002000 1.03281000
5.15270000 7.34816000 1.01875000
5.01152000 7.28087000 1.03876000
4.86351000 7.20780000 1.03124000
4.75721000 7.54540000 1.04208000
4.60583000 7.45853000 1.01531000
4.47892000 7.39164000 0.91152600
4.72839000 7.14473000 0.94535900
4.35578000 7.32281000 0.82921800
4.61017000 7.08312000 0.83875400
4.35578000 7.32281000 0.82921800
4.20210000 7.22551000 0.81972000
4.44478000 6.99192000 0.81444500
4.61017000 7.08312000 0.83875400
3.96547000 7.09801000 0.80841700
4.23696000 6.88490000 0.80367400
3.69497000 6.96192000 0.79953000
3.97083000 6.74362000 0.79451400
4.20093000 6.49948000 0.78849900
3.66954000 6.57845000 0.78516000
3.94379000 6.33791000 0.77919600
4.21170000 6.08983000 0.77310300
3.70656000 6.17248000 0.77131000
4.00307000 5.92647000 0.76230600
3.51713000 6.02124000 0.78304200
3.80554000 5.76405000 0.75234000
3.37279000 5.88738000 0.75779700
3.63202000 5.61196000 0.74233600
3.24062000 5.75162000 0.74416800
3.47521000 5.46821000 0.73326700
3.13973000 5.63670000 0.74502500
3.38737000 5.38089000 0.75808300
3.07176000 5.55004000 0.76250100
3.32095000 5.31201000 0.75293800
3.01209000 5.46807000 0.72241800
3.25827000 5.24581000 0.70747700
2.95251000 5.37786000 0.65670100
3.19280000 5.17738000 0.64583900
2.88236000 5.27159000 0.58751500
3.10813000 5.09331000 0.57857600
2.96590000 4.96621000 0.50232200
2.72693000 4.84546000 0.48538000
2.92582000 4.66912000 0.42309300
2.92137000 4.33183000 0.39019600
2.67566000 4.20378000 0.37481200
2.99763000 3.92107000 0.36554900
2.45919000 4.06303000 0.36256000
2.79683000 3.75281000 0.35284200
3.07351000 3.47808000 0.34833300
2.61748000 3.56701000 0.34485100
2.87919000 3.29942000 0.36842000
3.11699000 3.03850000 0.35467400
2.70192000 3.11529000 0.35379000
2.92031000 2.86036000 0.35827300
3.12923000 2.60998000 0.34314900
2.75046000 2.69099000 0.35775300
2.93771000 2.44635000 0.34919100
3.12047000 2.20323000 0.31012200
2.77314000 2.29482000 0.30808200
2.93009000 2.05939000 0.34492900
3.07904000 1.84071000 0.30033800
2.73038000 1.90595000 0.30731500
2.86548000 1.69502000 0.28270700
2.96894000 1.47519000 0.27639300
2.59605000 1.50339000 0.26932500
2.69038000 1.30329000 0.26516700
2.77561000 1.09648000 0.26266000
2.36828000 1.09528000 0.25599400
2.45192000 0.90916200 0.25413700
2.54407000 0.71962500 0.24866700
2.85703000 0.88801000 0.25933400
2.65015000 0.51389900 0.24447000
2.93884000 0.66926500 0.26164600
2.76328000 0.29258200 0.24002600
2.35387000 0.34797000 0.25255100
2.48309000 0.13713800 0.22993100
2.60074000 -0.09948480 0.22307100
2.21897000 -0.02008670 0.23762300
2.34206000 -0.25364300 0.21552200
2.45968000 -0.51227500 0.20881800
2.09643000 -0.40000500 0.20590800
2.22379000 -0.66454900 0.19893100
2.33849000 -0.94200700 0.20098400
1.99339000 -0.81431500 0.19221300
2.11302000 -1.09157000 0.19229100
2.21426000 -1.35983000 0.24882300
2.43915000 -1.21437000 0.26236100
2.33214000 -1.61700000 0.19504600
1.98961000 -1.50463000 0.21028600
2.10415000 -1.76585000 0.17594700
2.21863000 -2.03082000 0.17134700
2.45522000 -1.88421000 0.18015600
2.33581000 -2.29248000 0.18788700
2.58341000 -2.14735000 0.17646600
2.45767000 -2.55206000 0.17983100
2.07094000 -2.42287000 0.16994400
2.18618000 -2.68730000 0.21011700
2.30817000 -2.94561000 0.16485100
1.88977000 -2.78856000 0.19677400
2.00982000 -3.05649000 0.18757500
2.10634000 -3.27055000 0.15712000
1.66704000 -3.11802000 0.20190600
1.74471000 -3.31357000 0.15445700
1.32254000 -3.13374000 0.13783900
1.39248000 -3.34277000 0.14354300
0.99877200 -3.17273000 0.17949400
1.07746000 -3.39505000 0.17538800
0.69143100 -3.24019000 0.19425300
0.79205900 -3.48641000 0.17980600
0.38509000 -3.30526000 0.16741000
0.48965500 -3.57613000 0.17169800
0.60208000 -3.81940000 0.14889600
0.17576500 -3.63400000 0.14803800
0.28307100 -3.89859000 0.11559600
0.38444000 -4.15391000 0.11521900
-0.03285840 -3.95936000 0.10226500
0.05078830 -4.24473000 0.10616300
0.10891800 -4.50865000 0.13616300
-0.28152500 -4.29635000 0.10894300
-0.24206600 -4.57095000 0.13550100
-0.22603300 -4.79266000 0.20545300
0.14896100 -4.73754000 0.20016500
-0.22220100 -4.94227000 0.27150800
0.16708600 -4.89449000 0.26731100
-0.22151200 -5.05673000 0.33157300
-0.61096700 -4.97681000 0.28417600
-0.61717800 -5.07200000 0.33696500
-0.62437600 -5.15849000 0.38164700
-0.99474400 -5.06649000 0.34246100
-1.00792000 -5.15041000 0.38019100
-1.02296000 -5.23923000 0.38169900
-0.63328800 -5.24948000 0.39284600
-1.03743000 -5.32324000 0.35232200
-0.64231800 -5.33546000 0.36353500
-1.06713000 -5.48146000 0.32727200
-0.65518100 -5.45653000 0.33007900
-1.11247000 -5.71694000 0.31830700
-0.67950300 -5.66492000 0.32584300
-1.15770000 -5.99504000 0.31500700
-0.70747700 -5.90566000 0.32060700
-1.17992000 -6.25495000 0.31594300
-0.72273000 -6.11944000 0.31822900
-1.17933000 -6.46762000 0.31344800
-0.73056500 -6.31555000 0.31916500
-0.28491600 -6.26473000 0.32629800
-0.73069400 -6.48708000 0.32332200
-0.31482500 -6.45949000 0.32644100
0.08307510 -6.50254000 0.33178100
-0.36140400 -6.63516000 0.33618500
0.01201820 -6.72316000 0.33257300
0.39157300 -6.77814000 0.33557500
-0.05338690 -6.90600000 0.34059000
0.33143000 -6.99199000 0.33722500
0.70700900 -7.03162000 0.34009600
0.29521900 -7.16965000 0.39013100
0.68292000 -7.22419000 0.36813400
0.68292000 -7.22419000 0.36813400
0.29521900 -7.16965000 0.39013100
0.27582100 -7.30947000 0.47957200
0.67274700 -7.37136000 0.47153000
1.05645000 -7.35620000 0.44880600
1.05756000 -7.21402000 0.36015700
0.66491300 -7.49969000 0.53142600
1.05820000 -7.48527000 0.52321500
1.42818000 -7.42901000 0.52056400
1.06128000 -7.62559000 0.54421100
1.43698000 -7.57511000 0.54992800
1.06571000 -7.76838000 0.53349200
1.44870000 -7.72314000 0.54230100
1.07274000 -7.90311000 0.48632800
1.46167000 -7.86394000 0.50499900
1.08165000 -7.98637000 0.37785300
1.47445000 -7.96673000 0.40596900
1.09194000 -8.05219000 0.26933800
1.48502000 -8.03433000 0.30152100
1.10206000 -8.10928000 0.16880100
1.49497000 -8.08973000 0.20472500
1.86242000 -8.05217000 0.24289800
1.50459000 -8.13914000 0.11727200
1.87242000 -8.10110000 0.15530100
2.18630000 -8.09109000 0.18849800
1.88110000 -8.14085000 0.07826780
2.19064000 -8.13490000 0.11059400
2.45447000 -8.14339000 0.13188900
2.20026000 -8.16942000 0.04433100
2.47080000 -8.18473000 0.07145970
2.70167000 -8.22727000 0.11052900
2.70167000 -8.22727000 0.11052900
2.47080000 -8.18473000 0.07145970
2.48502000 -8.21608000 0.01604590
2.72079000 -8.26775000 0.05605040
2.90293000 -8.26396000 0.07530550
2.86948000 -8.22883000 0.14172400
2.74782000 -8.30573000 0.00103941
2.93684000 -8.29050000 0.00908187
3.04838000 -8.16634000 -0.02809010
2.96157000 -8.30178000 -0.05263330
3.07015000 -8.18003000 -0.08935060
3.17083000 -8.04841000 -0.12458700
3.14942000 -8.03329000 -0.06224790
3.28595000 -7.92350000 -0.15905600
3.26473000 -7.90904000 -0.09081870
3.42818000 -7.79647000 -0.19096600
3.40382000 -7.78487000 -0.11541400
3.37386000 -7.76701000 -0.04194030
3.34438000 -7.74811000 0.03092250
3.58505000 -7.64323000 -0.13981400
3.55482000 -7.62759000 -0.06283250
3.52370000 -7.60809000 0.01433090
3.52370000 -7.60809000 0.01433090
3.77566000 -7.46970000 -0.08359480
3.74397000 -7.44841000 -0.00446948
3.74397000 -7.44841000 -0.00446948
3.71158000 -7.42558000 0.07470780
3.99380000 -7.27602000 -0.01896930
3.95910000 -7.24975000 0.06197500
3.99380000 -7.27602000 -0.01896930
4.02168000 -7.29602000 -0.09958880
3.80210000 -7.48419000 -0.16424000
4.04067000 -7.30578000 -0.18115700
3.79777000 -7.46514000 -0.24304100
4.02149000 -7.27029000 -0.24669200
3.75605000 -7.40001000 -0.27375500
3.97603000 -7.20348000 -0.26807800
4.21615000 -7.00242000 -0.26212700
3.92751000 -7.13300000 -0.27579500
4.16094000 -6.93694000 -0.26879200
4.39286000 -6.71774000 -0.26010000
4.10575000 -6.86927000 -0.27305400
4.32861000 -6.65340000 -0.26401100
4.54620000 -6.42539000 -0.25460400
4.26262000 -6.58989000 -0.26701200
4.47583000 -6.36878000 -0.25851500
4.66661000 -6.13741000 -0.25048600
4.39728000 -6.30409000 -0.26163300
4.59053000 -6.08650000 -0.25331800
4.29454000 -6.21721000 -0.26416700
4.48763000 -6.01195000 -0.25698200
4.14487000 -6.09109000 -0.26894800
4.32687000 -5.89002000 -0.26242600
4.50130000 -5.69163000 -0.26230900
4.14391000 -5.74031000 -0.27362600
4.32335000 -5.54709000 -0.27001400
3.92045000 -5.54180000 -0.28338300
3.96443000 -5.93764000 -0.28072000
3.73811000 -5.73551000 -0.28963200
3.48057000 -5.49885000 -0.29064600
3.55595000 -5.92975000 -0.29264700
3.29543000 -5.69172000 -0.29627200
3.02307000 -5.44073000 -0.30072800
3.11252000 -5.88587000 -0.29831200
2.83664000 -5.63579000 -0.30856300
2.55436000 -5.38559000 -0.30945900
2.65419000 -5.83525000 -0.31366900
2.36997000 -5.58995000 -0.31390300
2.07624000 -5.35033000 -0.31580000
2.19197000 -5.80095000 -0.31843700
1.89495000 -5.56784000 -0.31980100
1.58614000 -5.35745000 -0.32355600
1.72482000 -5.79861000 -0.32720700
1.41091000 -5.59892000 -0.32558300
1.09826000 -5.40886000 -0.32757100
1.27435000 -5.15679000 -0.32130900
0.77885800 -5.22122000 -0.32654500
0.95931300 -4.96313000 -0.32215300
0.46327900 -5.03461000 -0.32642800
0.64958100 -4.76902000 -0.32277700
0.15135200 -4.84823000 -0.32833800
0.34231800 -4.57543000 -0.31867100
-0.15744500 -4.66218000 -0.32685600
0.03900400 -4.38204000 -0.31726800
-0.46009600 -4.47597000 -0.32586900
-0.25830700 -4.18915000 -0.31459100
-0.75822600 -4.28953000 -0.32121800
-0.65588300 -4.76776000 -0.33130000
-0.95985900 -4.58955000 -0.32681700
-1.25664000 -4.40981000 -0.32497300
-1.15562000 -4.89495000 -0.33213100
-1.45766000 -4.72185000 -0.33080600
-1.75158000 -4.54444000 -0.32784400
-1.64964000 -5.04119000 -0.34177200
-1.95121000 -4.86885000 -0.33401500
-2.23667000 -4.68406000 -0.33057200
-2.14119000 -5.19475000 -0.34231800
-2.43576000 -5.01521000 -0.33670500
-2.71403000 -4.81633000 -0.33378200
-2.62697000 -5.34395000 -0.35177600
-2.91289000 -5.14585000 -0.34370800
-2.81623000 -5.66892000 -0.35106200
-3.11033000 -5.47258000 -0.34872300
-2.99795000 -5.98923000 -0.35242600
-3.30099000 -5.79364000 -0.34919100
-3.58555000 -5.57053000 -0.34882700
-3.48400000 -6.11686000 -0.35447900
-3.77390000 -5.89880000 -0.35201000
-4.05415000 -5.64898000 -0.34161600
-3.95343000 -6.22447000 -0.35171100
-4.24352000 -5.97613000 -0.34643600
-4.52679000 -5.69988000 -0.34025200
-4.40971000 -6.27906000 -0.35150400
-4.71106000 -5.99832000 -0.34500700
-4.99594000 -5.70054000 -0.33971900
-4.85857000 -6.22764000 -0.34763200
-5.15802000 -5.92529000 -0.34234400
-5.43916000 -5.61466000 -0.33713400
-5.30075000 -6.11213000 -0.34379900
-5.58876000 -5.78709000 -0.33884900
-5.84808000 -5.46010000 -0.33144300
-5.71975000 -5.92815000 -0.34179800
-5.98065000 -5.58248000 -0.33184600
-6.21070000 -5.24374000 -0.32473900
-6.08854000 -5.67314000 -0.33182000
-6.30560000 -5.31275000 -0.32421900
-6.51457000 -4.99148000 -0.31722900
-6.38961000 -5.36927000 -0.32433600
-6.58149000 -5.04610000 -0.31612500
-6.80289000 -4.80748000 -0.31174600
-6.75885000 -4.75008000 -0.31283700
-7.04705000 -4.60376000 -0.30839400
-6.99707000 -4.52385000 -0.30793900
-7.32354000 -4.41627000 -0.30189800
-7.27475000 -4.33117000 -0.30237800
-7.61595000 -4.18876000 -0.29519300
-7.56112000 -4.10820000 -0.29527100
-7.91856000 -3.93592000 -0.28430600
-7.85388000 -3.86068000 -0.28808600
-8.20011000 -3.66819000 -0.27644500
-8.12616000 -3.59810000 -0.27593800
-8.44499000 -3.39193000 -0.26677800
-8.36602000 -3.32642000 -0.27080600
-8.66990000 -3.13747000 -0.25696900
-8.51999000 -3.45497000 -0.26541400
-8.74283000 -3.18817000 -0.25316200
-8.94340000 -2.95720000 -0.24328800
-8.81460000 -3.23663000 -0.24372900
-9.01295000 -2.99971000 -0.23237400
-9.20413000 -2.80569000 -0.22463000
-9.14092000 -2.76733000 -0.23319200
-9.39856000 -2.62427000 -0.21508100
-9.33919000 -2.58386000 -0.22722900
-9.59271000 -2.40655000 -0.20214000
-9.51211000 -2.36541000 -0.21630200
-9.61579000 -2.07755000 -0.18981000
-9.54446000 -2.06404000 -0.20640100
-9.66077000 -2.43910000 -0.15893900
-9.67553000 -2.09590000 -0.14642700
-9.66077000 -2.43910000 -0.15893900
-9.68603000 -2.45797000 -0.08741470
-9.68294000 -2.12533000 -0.07430510
-9.67553000 -2.09590000 -0.14642700
-9.62480000 -1.77082000 -0.06194900
-9.62833000 -1.74629000 -0.13414900
-9.65819000 -2.16002000 -0.00317021
-9.59707000 -1.80142000 0.00973151
-9.59285000 -1.41259000 0.01139460
-9.56106000 -1.83506000 0.08330900
-9.55481000 -1.43145000 0.08820720
-9.58122000 -1.00147000 0.08347790
-9.51081000 -1.45604000 0.16752700
-9.53805000 -1.01367000 0.16259000
-9.55912000 -0.56358300 0.15887400
-9.49297000 -1.02676000 0.24249500
-9.51530000 -0.57305400 0.23831100
-9.48908000 -0.11129500 0.25477300
-9.46345000 -0.58311100 0.32276400
-9.43711000 -0.12093600 0.33948500
-9.34184000 0.32605100 0.36718600
-9.37474000 -0.13172000 0.43351300
-9.27763000 0.31489000 0.46448800
-9.11745000 0.70941300 0.51562700
-9.20932000 0.30305400 0.56428400
-9.04332000 0.69947300 0.61309800
-8.87473000 1.01340000 0.62723400
-8.94379000 0.67721700 0.68720800
-8.78533000 1.00400000 0.70215000
-8.75133000 1.23471000 0.69840800
-8.67240000 0.98937800 0.72631600
-8.64749000 1.24148000 0.73960700
-8.70856000 1.45371000 0.75726400
-8.68439000 1.77615000 0.77414200
-8.80987000 1.75426000 0.76910100
-8.74084000 2.17495000 0.77996300
-8.88528000 2.15155000 0.77332300
-8.54453000 1.80304000 0.76368300
-8.59062000 2.19757000 0.75691400
-8.59592000 2.62678000 0.74959900
-8.46554000 2.21803000 0.66748500
-8.47029000 2.63997000 0.66149600
-8.43094000 3.06931000 0.66276900
-8.34143000 2.65327000 0.58729400
-8.29159000 3.07219000 0.59631100
-8.20230000 3.51068000 0.60748500
-8.20230000 3.51068000 0.60748500
-8.29159000 3.07219000 0.59631100
-8.12542000 3.07331000 0.58147400
-8.02549000 3.50766000 0.60072900
-7.88364000 3.93782000 0.62090600
-8.09327000 3.96554000 0.62511600
-8.09327000 3.96554000 0.62511600
-7.77378000 4.32786000 0.63510700
-7.99139000 4.39179000 0.64046000
-7.99139000 4.39179000 0.64046000
-7.56316000 4.64034000 0.65079000
-7.75475000 4.71627000 0.65752000
-7.75475000 4.71627000 0.65752000
-7.31378000 4.89287000 0.68881900
-7.46994000 5.00741000 0.66758900
-7.75475000 4.71627000 0.65752000
-7.46994000 5.00741000 0.66758900
-7.06689000 5.14108000 0.66492600
-7.19626000 5.27309000 0.67222800
-7.19626000 5.27309000 0.67222800
-6.78954000 5.38971000 0.67073300
-6.90642000 5.53990000 0.68146500
-6.90642000 5.53990000 0.68146500
-7.01479000 5.65933000 0.69278200
-6.60624000 5.76569000 0.69054700
-6.70944000 5.90052000 0.71611700
-6.79963000 6.00375000 0.79395600
-6.39073000 6.11705000 0.73088900
-6.47219000 6.21994000 0.82515100
-6.55606000 6.31344000 0.90658900
-6.15522000 6.36003000 0.84856400
-6.22805000 6.47167000 0.92937800
-6.30910000 6.57856000 0.95092000
-5.94057000 6.57116000 0.95146600
-6.03608000 6.68946000 0.96466600
-6.11991000 6.79520000 0.96024900
-5.85464000 6.80358000 0.97373500
-5.95597000 6.91007000 0.97029200
-5.73379000 7.00814000 0.97941300
-5.83572000 7.09879000 0.97611300
-5.93131000 7.17810000 0.95175200
-5.70592000 7.36613000 0.97571000
-5.79520000 7.43883000 0.94156500
-5.85478000 7.49230000 0.85300700
-5.59345000 7.75415000 0.92848200
-5.65085000 7.80406000 0.83362200
-5.69837000 7.84865000 0.73212400
-5.37966000 8.12001000 0.81256100
-5.42114000 8.16398000 0.71029600
-5.45541000 8.20357000 0.61808700
-5.11749000 8.45175000 0.70502100
-5.14911000 8.49323000 0.61140900
-5.17490000 8.53013000 0.52664500
-4.83383000 8.74321000 0.61152600
-4.85600000 8.77929000 0.52572200
-4.87372000 8.81289000 0.44402400
-4.56070000 9.00114000 0.52557900
-4.57732000 9.03681000 0.44440100
-4.58770000 9.06544000 0.36310600
-4.31331000 9.23966000 0.43877500
-4.32146000 9.27136000 0.35939000
-4.31457000 9.28886000 0.27869300
-4.12130000 9.46791000 0.36092300
-4.11120000 9.48574000 0.28203200
-3.99418000 9.62979000 0.37099300
-4.11174000 9.43326000 0.43900900
-3.98484000 9.59963000 0.44770100
-3.89311000 9.74235000 0.46989300
-3.97139000 9.56710000 0.52108400
-3.87916000 9.70926000 0.53917000
-3.78279000 9.81883000 0.59636300
-3.79904000 9.85781000 0.52038200
-3.65880000 9.85865000 0.63868000
-3.67435000 9.92520000 0.56224500
-3.50803000 9.85027000 0.64695700
-3.51905000 9.91312000 0.56029600
-3.33459000 9.79943000 0.65163400
-3.34306000 9.86363000 0.55936000
-3.10618000 9.74003000 0.67044800
-3.11758000 9.80812000 0.57214500
-3.13352000 9.86910000 0.47781800
-2.80981000 9.77703000 0.59159500
-2.82108000 9.83720000 0.49955500
-2.83512000 9.88720000 0.40869700
-2.43789000 9.82669000 0.52203200
-2.44460000 9.88365000 0.43324000
-1.99973000 9.82653000 0.53945500
-2.00013000 9.87979000 0.45198900
-1.52422000 9.82245000 0.54823900
-1.52090000 9.87042000 0.46577400
-1.51957000 9.91491000 0.38475200
-1.01659000 9.81967000 0.47637600
-1.00970000 9.86113000 0.39117000
-1.01031000 9.86177000 0.30562600
-1.02241000 9.80038000 0.24958900
-0.55298100 9.70331000 0.42509400
-0.54317100 9.73074000 0.33966700
-0.55643700 9.69840000 0.26355600
-0.55643700 9.69840000 0.26355600
-0.21543100 9.56446000 0.36645800
-0.21265100 9.56592000 0.28646200
-0.21265100 9.56592000 0.28646200
-0.22833300 9.50515000 0.24128700
0.05536170 9.50429000 0.31785300
0.06016900 9.47998000 0.25890500
0.06771780 9.41474000 0.23082800
0.34330500 9.57254000 0.27719900
0.36582100 9.50527000 0.23864900
0.38703800 9.42552000 0.22279800
0.72039100 9.59614000 0.25687800
0.73638500 9.51856000 0.23472500
0.75227500 9.43356000 0.22483800
1.14777000 9.56858000 0.24191000
1.15272000 9.48385000 0.23120400
1.15774000 9.39605000 0.22390300
1.56925000 9.48262000 0.23385500
1.56334000 9.40127000 0.22618900
1.55956000 9.31377000 0.21974500
1.96493000 9.37316000 0.23114000
1.95272000 9.29022000 0.22355200
1.93940000 9.19921000 0.21874500
2.34033000 9.26599000 0.22559200
2.32404000 9.18366000 0.21973200
2.30868000 9.10191000 0.21404100
2.69828000 9.15507000 0.22625400
2.67839000 9.06835000 0.22131700
2.65851000 8.98022000 0.21280700
3.04768000 9.06303000 0.22605900
3.02480000 8.97398000 0.21782200
2.97931000 8.80535000 0.20627200
3.36600000 8.94839000 0.21969300
3.30763000 8.77998000 0.20741500
3.65935000 8.90741000 0.22450000
3.40052000 9.06331000 0.22882700
3.70685000 9.02077000 0.23168500
3.95845000 8.82828000 0.22251200
3.74394000 9.11407000 0.23949400
4.00127000 8.91364000 0.23393300
4.24583000 8.65395000 0.22600700
4.04288000 8.99654000 0.24332700
4.29240000 8.73316000 0.23573900
4.54928000 8.51039000 0.22863200
4.33643000 8.80965000 0.24878400
4.59432000 8.58398000 0.24315800
4.85376000 8.34428000 0.24443100
4.63185000 8.65063000 0.28048600
4.88830000 8.39972000 0.28887900
5.14185000 8.13224000 0.27701700
4.88464000 8.41913000 0.36548400
5.14161000 8.14877000 0.35764900
5.39710000 7.85899000 0.34321400
5.11211000 8.13972000 0.43833400
5.36821000 7.84797000 0.42439200
5.58012000 7.52279000 0.41420600
5.32842000 7.83035000 0.50481700
5.54472000 7.50867000 0.49633300
5.69574000 7.19179000 0.48896600
5.50063000 7.49030000 0.57944700
5.65827000 7.17916000 0.56937800
5.75378000 6.92638000 0.55581300
5.65827000 7.17916000 0.56937800
5.61430000 7.16607000 0.64904900
5.71024000 6.91589000 0.63343100
5.75378000 6.92638000 0.55581300
5.81661000 6.71066000 0.52889200
5.55848000 7.14802000 0.73721700
5.66289000 6.90138000 0.71600000
5.50172000 7.12969000 0.82603500
5.60897000 6.87915000 0.81013200
5.40028000 7.44762000 0.74900100
5.33772000 7.42423000 0.84141800
5.26033000 7.39487000 0.94092900
5.11411000 7.73229000 0.85389100
5.03190000 7.69480000 0.95827400
4.90921000 7.63057000 1.03097000
4.76692000 7.98061000 0.97817900
4.63378000 7.89876000 1.04089000
4.48096000 7.79922000 1.04766000
4.34311000 8.15982000 1.04449000
4.20340000 8.05413000 1.05333000
4.07285000 7.94757000 1.00836000
4.33521000 7.70041000 1.00507000
3.96936000 7.86949000 0.90423800
4.22085000 7.62912000 0.89729900
3.85469000 7.77580000 0.84260000
4.10137000 7.54814000 0.83227100
3.85469000 7.77580000 0.84260000
3.70255000 7.65493000 0.83273900
3.94513000 7.44376000 0.82404700
4.10137000 7.54814000 0.83227100
3.49947000 7.52086000 0.82409900
3.71498000 7.31278000 0.81531600
3.22291000 7.40807000 0.86659800
3.44089000 7.18489000 0.80848200
2.90828000 7.30980000 0.85164300
3.14181000 7.06288000 0.80133600
3.39704000 6.81715000 0.79304600
2.86474000 6.94540000 0.79326700
3.09429000 6.66389000 0.83118000
3.39054000 6.40913000 0.82042200
2.90218000 6.53306000 0.83509100
3.21696000 6.27433000 0.82558000
2.77085000 6.42199000 0.80479200
3.08639000 6.15845000 0.77867600
2.66004000 6.29725000 0.76233200
2.97186000 6.03139000 0.75344500
2.55641000 6.15352000 0.75048200
2.87065000 5.90378000 0.74607800
2.48418000 6.02699000 0.76694400
2.79787000 5.79395000 0.77079000
2.42839000 5.91123000 0.75921300
2.73883000 5.69237000 0.74227100
2.37499000 5.78919000 0.68927400
2.68161000 5.58825000 0.67516400
2.32263000 5.64630000 0.59841600
2.62408000 5.45433000 0.59224500
2.26949000 5.43759000 0.50893600
1.99788000 5.82386000 0.60892700
1.94770000 5.61874000 0.51369100
1.91338000 5.37686000 0.45202800
1.59892000 5.83542000 0.53445300
1.53284000 5.57348000 0.45821200
1.19167000 6.06172000 0.56818200
1.12173000 5.80398000 0.47740300
1.06539000 5.46699000 0.47049000
0.70486500 5.96636000 0.52104500
0.66795300 5.59831000 0.49975000
0.64837300 5.21041000 0.46266900
1.03168000 5.11964000 0.47214000
0.63536700 4.87096000 0.44603800
0.99124900 4.80839000 0.46137000
0.59475200 4.59132000 0.52320200
0.93978500 4.53341000 0.55745000
1.32364000 4.43041000 0.49598200
0.88174700 4.23964000 0.53693500
1.24241000 4.16583000 0.48291100
1.58496000 4.05270000 0.36544500
1.69019000 4.29401000 0.43138200
1.89117000 3.86996000 0.34179800
1.99122000 4.12516000 0.36408000
2.19251000 3.63114000 0.33870600
2.31468000 3.86424000 0.34930800
2.46277000 3.37071000 0.36222300
2.06877000 3.39022000 0.32693400
2.32627000 3.16358000 0.32622000
2.54778000 2.93306000 0.36592500
2.17957000 2.94384000 0.30981000
2.40267000 2.74313000 0.30860200
2.59548000 2.52600000 0.31195400
2.22959000 2.52275000 0.29299800
2.41362000 2.32495000 0.29021700
2.57977000 2.11684000 0.30055900
2.20178000 2.08943000 0.27838100
2.35697000 1.90074000 0.27752300
2.48810000 1.70496000 0.27375500
2.09806000 1.65603000 0.26544000
2.19818000 1.45439000 0.26168500
2.28967000 1.27259000 0.25776100
1.96960000 1.83881000 0.27075400
1.76377000 1.62789000 0.26264700
1.81979000 2.01399000 0.27395000
1.64199000 1.81090000 0.26699900
1.47812000 1.64783000 0.26293300
1.57619000 1.44424000 0.25765800
1.57619000 1.44424000 0.25765800
1.47812000 1.64783000 0.26293300
1.33936000 1.52421000 0.26567400
1.41810000 1.30860000 0.25963200
1.45179000 1.04118000 0.26121800
1.63137000 1.17732000 0.25373400
1.22724000 1.42714000 0.31841100
1.28834000 1.20882000 0.33852400
1.33075000 0.95937800 0.36075400
1.20442000 1.14113000 0.46550100
1.22963000 0.89596100 0.47623300
1.22963000 0.89596100 0.47623300
1.21479000 0.63756300 0.43999700
1.31364000 0.67759300 0.35957200
1.33075000 0.95937800 0.36075400
1.20039000 0.39475600 0.41194500
1.28705000 0.40381200 0.32471300
1.11307000 0.15110500 0.37502000
