1.01445000 -2.35964000 -0.23110500
-3.06973000 1.39600000 -0.18208500
2.25891000 0.44031000 -0.25683200
1.28352000 -2.16175000 -0.23045000
1.75199000 3.79219000 -0.13993400
5.54852000 -1.23288000 -0.20939100
5.35610000 -1.14834000 -0.21827500
1.74289000 5.84996000 -0.30922400
1.67187000 3.79811000 -0.14691900
2.14731000 4.19887000 -0.28505700
0.68086300 3.64567000 -0.35193800
5.54572000 -1.07526000 -0.21595000
5.63957000 -1.16749000 -0.21693700
-1.90562000 -4.34310000 -0.07044340
-4.69708000 1.66874000 -0.11931500
-8.36209000 1.60728000 -0.27870800
-8.28249000 1.64147000 -0.28392900
-4.63218000 0.73203900 -0.14264200
-4.36604000 -5.35160000 -0.04316820
-4.92995000 0.72482200 -0.15329800
1.74041000 3.36791000 -0.15454600
-8.36209000 1.60728000 -0.27870800
6.65198000 -6.42713000 0.19728900
1.93786000 7.20332000 0.10534800
1.86913000 7.31741000 0.10532300
-3.26295000 -2.65008000 -0.22765400
-3.43589000 -2.66521000 -0.22379300
-3.24080000 -2.54870000 -0.22084900
7.28980000 -1.58693000 0.21725000
7.36792000 -1.53124000 0.22202300
-5.52712000 4.93841000 0.00481876
1.00843000 -2.01991000 -0.23044600
0.36738200 -7.17708000 0.06392790
1.85452000 -2.27162000 -0.03633600
1.89035000 -2.18220000 -0.04400610
1.84220000 -2.17315000 -0.04893670
5.86959000 5.56640000 0.18822200
7.70223000 -1.46445000 -0.17549000
7.85122000 -1.55343000 -0.17356800
-1.07637000 -9.37072000 0.36896700
-0.98712100 -9.35583000 0.37149600
7.53270000 -3.77404000 0.22579600
-7.59244000 2.90228000 -0.34148800
0.00182256 -4.73091000 -0.19187000
0.00183716 -4.56316000 -0.18938200
0.48245200 -9.40888000 0.37480700
0.53270500 -9.33758000 0.38286500
8.31330000 -2.41442000 -0.14232000
7.88455000 2.90376000 -0.01453640
-1.43585000 -6.83731000 -0.13030200
8.33623000 -2.67811000 -0.14996700
-2.84832000 -0.83735300 -0.13483700
-2.71184000 -0.80068800 -0.13932900
8.61870000 0.53487100 -0.07035420
-7.57857000 -0.06687670 0.12114600
-6.23716000 -6.73714000 -0.09163130
-6.77083000 0.79510600 -0.28384100
-6.80365000 0.62863200 -0.28980100
-6.89638000 0.78484800 -0.28727600
-3.50392000 2.32741000 -0.28541600
-0.60952200 3.08535000 -0.30685700
-6.01258000 2.78590000 -0.16499000
-3.78571000 5.62395000 -0.37274000
-2.25599000 -9.00916000 -0.06730970
-1.35650000 -9.18623000 -0.05377340
-1.57691000 -9.15972000 -0.06248140
-5.02638000 -1.14390000 -0.26831400
1.50732000 2.33829000 -0.12480900
1.54764000 2.38965000 -0.16320600
-6.07935000 -3.41602000 -0.21611100
1.35539000 1.81581000 -0.28347300
-1.65912000 2.38764000 -0.11514900
5.17354000 4.50093000 -0.27636100
1.09436000 6.83609000 -0.34405200
-6.65269000 -2.13418000 -0.24164700
-6.80051000 -2.30429000 -0.23972600
-7.65241000 1.07190000 0.12008100
6.68220000 -5.60763000 0.35056700
-2.75752000 -3.26308000 -0.06420440
-4.02075000 -1.88257000 -0.24484500
-0.81717900 6.82769000 -0.00266941
-1.09358000 0.38590900 -0.25524300
-1.50190000 3.43742000 -0.17436300
6.65275000 2.29049000 -0.11321500
-2.03443000 -5.21963000 -0.05896100
-3.81585000 -8.63468000 0.25596600
-3.65881000 -8.49762000 0.32305800
-4.52473000 -3.48007000 -0.20539700
8.22644000 1.03120000 0.28490500
8.35534000 0.90866800 0.29036600
-3.98191000 3.68457000 -0.31617700
-3.71953000 -8.68285000 0.26728100
-3.62763000 -8.73839000 0.22734600
-0.12455700 -8.88931000 0.29654400
-8.65533000 0.01045930 -0.24275300
4.92049000 2.62291000 -0.11041500
-0.21525500 -8.73294000 0.29207300
1.59109000 1.11105000 -0.27451500
-8.58534000 -2.53247000 -0.02774360
-3.67423000 3.77194000 -0.31654100
0.48156700 8.00108000 -0.22865600
-6.37796000 -2.80194000 -0.23805700
-1.93413000 -2.79448000 -0.22055500
-6.46823000 -2.94679000 -0.22745900
-6.51169000 -2.84960000 -0.23235500
-5.59850000 5.91579000 -0.13018000
-2.44069000 -2.03046000 -0.10124800
-7.84868000 -0.10515600 0.13296900
2.32069000 -6.93442000 -0.00507497
2.59216000 -6.65651000 -0.01085670
7.64810000 -0.75697700 -0.01154150
2.49406000 -7.29529000 0.00316998
2.33276000 -7.48837000 0.00717723
2.54178000 -7.40912000 0.00911813
2.48974000 -7.05385000 -0.00253790
3.56446000 -7.54759000 -0.11872100
8.48530000 -1.83509000 0.33392800
1.37640000 -0.68970400 -0.09461880
8.44604000 -1.76326000 0.32821300
8.51737000 -1.77053000 0.33016500
-2.81645000 7.54845000 -0.38262700
5.36007000 -1.25257000 -0.21353300
8.03855000 2.51161000 0.06026790
8.08813000 2.42989000 -0.01340430
2.62374000 -7.28079000 0.00417762
2.60346000 -7.13655000 -0.00651154
-8.13069000 -0.63354900 -0.26050900
-8.26398000 -0.64517200 -0.27212900
-8.27503000 1.55834000 0.13478700
-2.36314000 -3.07876000 -0.04810690
2.41665000 -6.69351000 -0.01188550
7.14030000 3.62297000 0.23304900
7.05378000 3.49645000 0.22693700
7.16908000 3.50974000 0.23911800
7.22945000 3.40969000 0.23728900
1.89305000 -1.94360000 -0.22318000
1.91563000 -1.81143000 -0.22626000
2.04226000 -1.78154000 -0.23385100
0.00335908 -4.95353000 -0.18121200
2.90557000 -0.98296500 -0.11360000
-0.36065900 -4.13913000 -0.05754700
7.68002000 -0.14050300 0.21902800
6.26744000 0.75453100 -0.23730800
1.28127000 2.60298000 -0.11775700
-1.33827000 4.15755000 -0.32956700
-1.29329000 4.04401000 -0.31556300
8.29964000 -0.31108100 0.27683900
8.11572000 -0.37917400 0.25506700
8.21079000 -0.43100800 0.26660800
8.09526000 -0.41965900 0.24509400
7.06252000 -3.65933000 -0.14756300
7.09753000 -3.41002000 -0.15126100
-5.96328000 -4.47903000 -0.17870100
3.07758000 7.44085000 -0.21829700
-5.19449000 1.86150000 -0.14681700
2.39848000 -0.06686380 -0.08368090
-3.77923000 3.46483000 -0.20806400
-3.57284000 -2.88767000 -0.22360500
-4.73910000 0.31511900 -0.10175200
8.08813000 2.42989000 -0.01340430
8.10141000 2.34626000 0.06057670
-5.81019000 -0.32091100 -0.27670000
1.57024000 -4.31797000 -0.20779500
5.90662000 1.39480000 -0.10073100
-2.43875000 -8.25388000 0.27632200
-3.94887000 -4.81374000 -0.05110290
-4.15087000 -4.31200000 -0.02315030
-4.05080000 -4.23231000 -0.02745030
-4.12489000 -4.34026000 -0.02835730
2.68729000 0.79072600 -0.11186500
0.25706600 -1.96685000 -0.23137100
0.73014000 -5.57394000 -0.17944700
-3.41177000 -0.94907000 -0.10584500
-5.33555000 -3.28105000 -0.10240900
0.87405900 -5.58020000 -0.17118800
0.78302400 -5.67371000 -0.17410800
-7.70365000 1.85536000 0.09313560
-7.53148000 -0.39775300 0.05267650
-3.87044000 -5.54905000 -0.17223700
-0.62887100 -4.96062000 -0.05998430
-0.41807000 -4.78012000 -0.06337020
6.51834000 3.55571000 -0.25115100
6.32687000 3.56166000 -0.25282000
-0.60185900 -2.51930000 -0.02983500
-1.78590000 -2.03334000 -0.10377500
1.01157000 6.10231000 -0.15871600
-0.62056800 -7.75049000 -0.10481400
-0.30594800 -7.42747000 0.04815650
4.04772000 1.51660000 -0.15076200
-4.14042000 4.78088000 -0.35721000
-4.15947000 4.63576000 -0.35650700
-1.44911000 -0.08269390 -0.25446600
-4.54175000 4.11113000 -0.34166900
-1.41787000 0.06607340 -0.25235200
-0.99755800 -2.79344000 -0.04316690
3.82759000 6.90856000 0.11925100
3.99882000 6.98821000 -0.32329300
7.24407000 -4.88722000 -0.11839400
-1.09189000 -0.18348000 -0.24913000
0.23030600 7.40113000 0.07168950
-7.83000000 -4.78801000 -0.02189270
5.16876000 -0.31869100 -0.02779870
-3.67424000 -2.91044000 -0.21493900
6.61714000 -3.00517000 -0.01706120
0.23152700 -3.76372000 -0.21600600
5.34828000 -0.70778800 0.14460700
3.48980000 -3.33968000 -0.20156100
3.31944000 -3.36911000 -0.20330100
6.50452000 -3.08696000 -0.02183070
-0.62760300 -0.88229300 -0.23609200
3.34813000 -3.83827000 -0.20036800
5.45709000 0.60887900 -0.24152700
5.59546000 0.59058000 -0.23703700
7.11811000 -3.16123000 0.22024900
5.54096000 -7.56835000 0.17561500
3.74828000 3.50428000 -0.29783800
3.75065000 3.62007000 -0.29698600
-2.21641000 -3.68145000 -0.08581030
-0.65440900 4.86557000 -0.32824800
-2.63556000 1.77382000 -0.29491300
5.52747000 0.48043500 -0.24244000
4.77926000 -5.89632000 -0.14379400
2.35473000 7.30726000 0.12719300
7.85103000 -1.45334000 -0.16935800
8.00558000 -1.40619000 -0.17074100
3.39989000 -2.40360000 -0.04532630
7.63045000 -5.00955000 -0.08699720
-8.44424000 0.57081700 -0.26718400
4.83918000 -1.26737000 -0.01952990
-0.45236400 -5.27743000 -0.16836700
2.74530000 4.39256000 -0.15220300
4.96918000 -7.91126000 0.32657800
-6.96401000 4.24994000 0.06794340
0.98148800 0.12913400 -0.26728100
-3.03221000 -2.77506000 -0.22668100
6.31109000 1.73168000 -0.24799800
6.74859000 4.68481000 -0.26608900
-5.94099000 5.49789000 0.05599050
-4.27141000 -0.65786100 -0.26702900
-8.15707000 -0.93669700 0.04320930
-3.07357000 -2.10304000 -0.24289600
7.47693000 2.74635000 -0.22301200
0.96180400 -1.54882000 -0.23821600
-6.60499000 -5.63670000 0.24316300
-2.98485000 -2.20050000 -0.23679600
-2.79634000 -8.64624000 -0.06121760
-2.79507000 -8.73629000 -0.05293510
-3.59113000 5.27913000 -0.35325300
-3.54262000 5.17725000 -0.34715200
-3.52905000 5.02114000 -0.34574400
-0.25555600 -4.38766000 -0.05870010
-0.23532900 -4.13685000 -0.06666870
-7.19343000 -1.50323000 -0.24698100
-7.07205000 -1.60556000 -0.24379000
-7.17247000 -1.61850000 -0.24149900
-6.13248000 -2.55213000 -0.08097420
0.47874500 -0.88926100 -0.23995800
0.41703200 -0.97982900 -0.23733600
-6.48170000 -2.49097000 -0.11458900
-2.62325000 2.36611000 -0.28379900
-2.72685000 2.26080000 -0.27855700
0.79846400 1.01445000 -0.11780000
6.41149000 -6.65634000 0.26741600
6.40676000 -6.61319000 0.33147600
6.38522000 -6.58673000 0.36054300
-3.50842000 5.33724000 -0.35533500
-0.62612000 -4.75409000 -0.17974800
-0.54327300 -4.88592000 -0.17266000
-2.85396000 1.12487000 -0.27623300
3.41676000 -3.39212000 -0.05591080
3.53942000 -5.64966000 -0.15807500
2.94777000 7.39110000 -0.26937100
-1.67420000 6.97390000 -0.37598100
6.70057000 -3.36346000 -0.16035900
-0.84717300 1.89407000 -0.15080700
6.22193000 5.37826000 -0.17123300
6.21043000 5.36723000 -0.12099300
-3.19011000 2.74620000 -0.29588500
7.89541000 1.84992000 -0.20835300
7.83585000 1.79170000 -0.21261700
7.75186000 1.90113000 -0.21312100
7.90457000 1.67980000 -0.20814800
-2.09452000 2.62055000 -0.16710600
-5.26046000 0.44832200 -0.27836500
-4.99447000 0.33717400 -0.29689000
-5.08154000 0.23819400 -0.28318700
2.62771000 -0.45127800 -0.24744800
-6.14959000 -6.82255000 -0.09382880
7.25674000 0.29479500 -0.21099800
-0.14850500 -4.11644000 -0.07328780
-5.22157000 5.59899000 0.04533120
-4.70628000 -6.12156000 -0.16172000
2.47979000 -0.77694100 -0.24000700
2.50984000 -0.66935700 -0.24546200
-0.39200600 4.09715000 0.09652570
-5.24959000 0.84985900 -0.28661600
7.39402000 -4.96182000 0.36932500
7.29331000 -5.10897000 0.36618700
7.27337000 -4.96755000 0.35883900
6.81627000 0.19119400 -0.21649200
-0.19696300 -9.02187000 -0.06466680
-5.52548000 0.54229400 -0.28192000
-3.32982000 0.91148200 -0.13837900
5.34165000 -1.98903000 0.00011130
6.67305000 0.91922500 -0.09020930
-5.19274000 -3.92757000 -0.08284970
7.77235000 -4.50181000 0.35321600
-2.75383000 2.11130000 -0.29382000
-2.87264000 1.92231000 -0.29894700
-6.36713000 -6.78213000 0.24490300
6.46104000 -0.57767300 -0.20694600
6.60765000 -0.53159300 -0.20384500
3.69837000 -2.68624000 -0.20449800
1.79646000 1.73983000 -0.16718600
2.05494000 1.66289000 -0.15998300
0.52651700 -4.46760000 -0.19785500
-3.06728000 2.10552000 -0.29070800
-3.80264000 -8.44785000 0.32634200
6.52848000 -6.61644000 0.11083000
6.43757000 -6.67569000 0.15420500
6.53837000 -6.63758000 0.03833070
-1.73904000 -8.79683000 0.32829200
2.12354000 4.65470000 -0.28357000
3.69583000 -4.89816000 -0.18061900
-8.70754000 -1.42522000 -0.17504400
4.49068000 0.80419000 -0.10196000
-0.92102600 7.95246000 -0.38894900
-2.17323000 1.60616000 -0.17790900
-2.30534000 1.57186000 -0.16821100
-7.27447000 3.98512000 -0.35906700
3.14033000 -7.53960000 -0.11823500
-4.41159000 -5.29758000 -0.05351430
-3.90673000 -8.65323000 -0.00922431
0.35594300 -6.07843000 -0.17006000
0.80212400 2.48215000 -0.29857600
-2.67644000 -9.14469000 0.12330000
-2.73185000 -9.10301000 0.18035100
-7.24959000 -2.55331000 -0.22980000
-4.33882000 -1.69600000 -0.13430500
-4.19264000 -1.91880000 -0.12815000
0.14072900 -8.76133000 -0.06313680
-8.41570000 -2.80172000 -0.17306600
3.43144000 -7.54138000 -0.11763200
3.35982000 -7.65038000 -0.11180200
0.15017100 -8.92057000 -0.05276180
0.15017100 -8.92057000 -0.05276180
-2.95068000 4.91612000 -0.23292600
3.51267000 -3.87316000 -0.19967400
5.60404000 -5.04971000 0.01485300
2.71873000 -3.93590000 -0.20289900
2.89701000 -3.88784000 -0.20447700
2.88707000 -3.99230000 -0.20831500
-2.74841000 2.93584000 -0.18065800
3.29013000 -3.96526000 -0.20049400
3.40959000 -4.01924000 -0.19165700
3.28645000 -4.11564000 -0.20104200
-2.15823000 -4.11012000 -0.20081500
0.61457200 -3.92805000 -0.06251870
8.12675000 -3.66982000 0.33883900
-6.42944000 4.93210000 -0.38450400
8.17288000 -3.67479000 0.29626000
-7.87732000 -2.71739000 -0.21823200
-2.09133000 -4.23987000 -0.20080500
-2.01384000 -4.37903000 -0.19282000
1.10414000 -6.22896000 0.05069190
0.16206000 -0.25626300 0.25092100
2.63134000 -4.04448000 -0.19999700
-4.26318000 -1.91936000 -0.23826500
-1.24625000 7.04222000 0.03453460
0.03178090 -2.35417000 -0.22605000
0.03178090 -2.35417000 -0.22605000
1.78607000 -0.46255800 -0.09144900
3.00572000 -3.94500000 -0.20449700
-3.00667000 -4.02169000 -0.04857210
3.21605000 -5.44275000 -0.16301400
5.98352000 2.59527000 -0.13460700
-2.21987000 -5.64390000 0.01649540
7.55974000 3.48640000 -0.21910400
7.53324000 3.39066000 -0.22466700
1.20885000 -4.01774000 -0.04036700
-1.63460000 4.88643000 -0.36923000
-3.84291000 -4.76630000 -0.04446300
3.71400000 3.04351000 -0.16808400
7.59008000 3.51549000 -0.20080400
5.65154000 5.35014000 0.15833300
-4.63141000 6.12173000 -0.36913700
-1.38075000 1.17346000 -0.27186500
-1.56199000 1.03224000 -0.26996400
-1.72687000 1.10890000 -0.27063000
-1.59603000 1.16550000 -0.27660300
-1.48665000 1.18999000 -0.26995200
0.13490200 -4.27756000 -0.20467100
-8.40835000 -1.19228000 0.16000000
-6.44237000 0.47753400 -0.28196200
5.72577000 5.87250000 -0.15442200
5.68480000 5.91413000 -0.22870600
2.40150000 1.78671000 -0.12612100
-3.55635000 -8.82572000 -0.02555490
-0.36246500 6.66599000 -0.21302100
-1.31415000 -6.02015000 -0.13736000
0.51420500 2.17095000 -0.14850500
2.44146000 -8.99411000 -0.06015710
2.86142000 -6.96519000 -0.12818700
-3.45393000 4.59166000 -0.33295000
0.77537700 3.16994000 -0.34573400
7.05463000 -5.96015000 -0.07877740
-1.01643000 -1.35477000 -0.23290100
0.79044600 7.81113000 -0.36201400
-3.17355000 -8.78747000 -0.04467740
0.00104192 -4.39819000 -0.20212700
0.00104192 -4.39819000 -0.20212700
0.96820100 -4.06106000 -0.22099600
0.99611700 -3.95690000 -0.21736400
0.79773100 -3.82091000 -0.22229300
2.07663000 5.53408000 -0.14766000
8.03475000 2.25949000 -0.20115000
-4.21604000 -2.92737000 -0.21679100
1.56175000 -6.91026000 -0.12815600
-5.86514000 0.68778400 -0.29059800
-7.66794000 -4.81717000 -0.15228300
-7.78655000 -4.67969000 -0.14652400
7.40873000 2.81474000 0.23652300
3.44191000 -4.52950000 -0.19394100
-6.74201000 -3.39916000 -0.10883700
-2.28502000 6.84615000 -0.37844500
0.58093200 -2.62681000 -0.22513900
7.30982000 -3.56760000 -0.14497300
-6.93273000 -3.67600000 -0.09837870
4.77486000 -0.73729700 -0.23532800
5.45375000 5.96773000 0.16399400
-0.50694800 0.92595400 -0.13571700
1.41578000 0.92233300 -0.15468900
8.68198000 -0.04097190 0.02783610
3.26366000 2.02074000 -0.27984800
0.52056700 6.55198000 -0.07347590
-0.17683800 -3.53167000 -0.08494510
-0.23414000 -3.40495000 -0.08550570
-0.60281600 -1.85194000 -0.22501900
-1.17729000 0.57221900 -0.26231300
-2.44279000 6.86650000 -0.37141600
-2.49045000 6.79116000 -0.36888100
-0.42884100 4.57910000 -0.32533300
2.02720000 -3.05286000 -0.05632760
-1.00111000 -7.26251000 -0.12175700
-7.52103000 -0.66082000 -0.25267000
-0.98338700 -3.37943000 -0.08707210
1.75092000 -6.70536000 -0.14117100
1.67609000 -6.81815000 -0.13096900
-6.91357000 -5.43074000 0.25218300
-7.69045000 2.95696000 -0.34998200
0.10457000 2.48525000 -0.30376900
1.78558000 0.56557800 -0.12718100
1.74917000 0.57327500 -0.14570700
1.84450000 -3.44483000 -0.07548590
-8.61572000 -1.88920000 -0.18012600
6.24507000 -1.73951000 -0.19263400
4.13924000 4.52947000 -0.34222400
4.06381000 -8.39322000 0.38137200
3.99355000 -8.30132000 0.37585000
-5.06281000 -7.55742000 -0.08760710
-5.21248000 -7.42450000 -0.08809420
5.32579000 -7.59515000 0.36988000
2.67654000 -9.13944000 0.18691100
0.54687400 -9.22333000 0.36781400
6.00392000 -1.48380000 -0.20287800
-3.67822000 -3.02123000 -0.21221400
-5.90852000 -6.16542000 -0.14859800
1.91524000 -4.34811000 -0.19290800
-7.80080000 1.19402000 -0.28991100
-6.34051000 4.59388000 0.04919190
-3.15026000 -0.02281790 -0.27199000
-6.56560000 4.57726000 0.05828200
-3.57330000 -3.09644000 -0.22003600
-3.48366000 0.13961700 -0.12466900
3.84498000 -2.17575000 -0.21266800
-1.91884000 -0.62258900 -0.09493020
-7.01723000 -1.96334000 -0.06112980
3.18060000 -8.14857000 0.13795400
1.20782000 2.15711000 -0.29614000
4.82413000 -7.09890000 0.32952200
5.00351000 -7.11049000 0.33580000
1.17904000 -7.51072000 -0.11542300
1.07565000 -7.55860000 -0.11647600
-6.79167000 -6.37930000 -0.09061120
1.04873000 -7.45205000 -0.12067700
3.00661000 -8.87225000 0.38356700
2.90858000 -8.89097000 0.39063300
-1.97916000 4.65070000 -0.18798300
3.10392000 -6.43538000 -0.01330860
2.92257000 -6.36747000 -0.01061140
-0.55751400 2.88328000 -0.14416100
-0.67196700 2.97110000 -0.17418100
3.38519000 -5.10549000 -0.17308600
4.42514000 4.48176000 -0.34252800
4.28460000 4.45416000 -0.33847600
-4.95172000 -6.00349000 -0.16344600
3.50326000 -4.38034000 -0.02241240
2.36858000 -7.58537000 0.01481360
3.70332000 3.04280000 -0.28878300
5.32333000 0.62671600 -0.23837600
7.73011000 2.88088000 0.25508400
-0.75948800 5.19276000 -0.35941500
-0.13625600 -8.52433000 0.11478900
6.94126000 4.36100000 0.15972400
1.47144000 -1.63340000 -0.09233080
-2.60008000 5.00763000 -0.37816400
2.88223000 -0.90003300 -0.10283700
-2.71370000 -3.49615000 -0.09361450
-4.23013000 -7.76037000 0.28864800
2.18468000 -6.50352000 -0.13843900
6.84502000 -4.99826000 0.33170300
-0.98797100 -2.87004000 -0.21462200
0.52545200 -9.46964000 0.30709000
-6.92777000 2.51369000 -0.32473900
3.71685000 -1.77014000 -0.07101390
3.75662000 -1.65028000 -0.06454750
3.17755000 -1.85458000 -0.09138870
3.48886000 5.30015000 -0.14806900
-4.37729000 4.98337000 -0.04258540
-4.54523000 4.95845000 -0.02504260
3.47188000 5.16915000 -0.13265700
-5.38418000 1.55127000 -0.29297600
-4.73558000 1.26766000 -0.12844500
-1.09101000 1.84438000 -0.28454100
-1.24601000 1.55103000 -0.28354900
7.01432000 0.79288200 0.11464800
3.65161000 -0.66735600 -0.10630100
2.39447000 1.27032000 -0.10063400
-5.94613000 0.65104200 -0.28613400
-1.08985000 -8.73128000 -0.06097290
1.79994000 -2.01501000 -0.22595600
3.28600000 -1.61082000 -0.04838250
-0.83474600 1.02356000 -0.26829500
-0.68545500 2.39408000 -0.29834000
-7.78114000 2.96352000 -0.33924400
-2.46405000 0.09170430 -0.11373500
0.21608500 6.24863000 -0.34917200
0.92136300 4.63990000 -0.13263000
-7.88169000 2.96483000 -0.33253000
-0.10925200 -0.14363000 -0.25611500
-1.32149000 -7.71190000 0.04883600
-1.51465000 -7.68195000 0.04277010
-4.27309000 -3.05682000 -0.08788140
-0.29138500 -0.34580800 -0.06275100
-0.32426200 -0.36261100 -0.03726740
-3.74027000 -1.09240000 -0.25661200
-1.43199000 -7.97693000 0.25413800
-2.65446000 -7.00136000 -0.11739200
-5.03564000 -7.98796000 -0.03722130
-5.77928000 1.89440000 -0.18905900
-2.28365000 7.11598000 0.03728150
0.20569200 -5.08524000 -0.18488800
6.55130000 -1.20543000 -0.05786490
-0.42057200 7.81035000 -0.39288900
-0.48419700 7.72483000 -0.39460000
5.75021000 5.85885000 -0.18574300
-0.30436000 -3.62951000 -0.20799700
-0.64450300 7.39567000 -0.37548200
-0.72184800 -3.18661000 -0.21849100
2.32495000 6.27356000 -0.10894300
-5.73104000 5.83060000 -0.29319200
-5.87043000 5.69508000 -0.31021300
-2.07850000 3.22505000 -0.30136300
-4.93727000 -0.65821100 0.09780180
-2.02002000 -8.27062000 -0.07762420
-7.96536000 -4.49471000 -0.10447700
6.63121000 -2.81925000 -0.03239600
0.69087300 -3.13554000 -0.05788260
-4.75448000 1.32218000 -0.29202800
-5.40729000 -6.52721000 0.01125190
0.97936000 -0.08738350 -0.08480700
-1.99585000 6.76100000 0.02223110
-4.96827000 1.22142000 -0.29581700
-1.00238000 -5.64344000 0.03453990
3.99873000 -3.85702000 0.00588620
3.15150000 -4.47949000 -0.02698420
-0.82420400 2.80066000 -0.29231100
2.98855000 -3.38635000 -0.21123800
2.84256000 -3.18184000 -0.20992000
4.62489000 1.78385000 -0.26818900
-0.68561300 -5.15433000 -0.05747660
5.23794000 -4.89029000 -0.15712500
5.35379000 -4.97994000 -0.15827400
5.37427000 -4.76713000 -0.15888900
2.29051000 -8.52693000 0.35214100
2.22258000 -8.43288000 0.33666100
8.50096000 -0.89777100 -0.15583300
0.81837400 -0.60082600 0.03130200
-5.53098000 -7.32238000 0.29063800
2.10223000 -4.41272000 -0.06134970
-1.80186000 0.29998500 -0.25926100
-1.51878000 0.42057000 -0.26175300
2.60340000 1.38565000 -0.26953400
-0.35092100 -0.37362500 0.13096700
6.91808000 -4.06806000 0.19320600
7.09454000 -4.08578000 0.25052900
1.61038000 6.35839000 0.05043610
-7.58358000 1.36021000 -0.28595500
4.25498000 1.09994000 -0.13265800
-6.45610000 -2.10259000 -0.12655000
-6.46690000 -2.00418000 -0.12118300
-2.78377000 3.47940000 -0.12644000
-0.64430400 -9.21278000 0.36069900
-0.51211500 -9.18464000 0.36046100
-5.80076000 -0.82318600 -0.12626600
-7.21071000 -5.83209000 -0.10689400
-0.40849800 -9.29259000 0.36796600
-0.26628800 -9.23942000 0.37075800
2.14140000 -8.48124000 0.33868800
7.09299000 -5.77582000 0.23397700
-1.06693000 6.64975000 -0.35974800
5.60977000 4.87851000 -0.27575600
5.78468000 4.95147000 -0.27811500
-0.24346000 -2.79321000 -0.04584130
3.98104000 -7.03801000 0.26942900
-6.22737000 0.32695300 -0.17390400
4.46323000 -2.13762000 0.06862680
3.78875000 -8.70997000 -0.03067380
-3.49889000 -0.15625500 -0.15320000
8.22290000 -0.21710600 0.26916600
5.37191000 -1.21935000 -0.01992270
-1.48128000 0.48860200 -0.14186400
-6.79663000 -2.81544000 -0.22822500
5.05429000 -5.90559000 0.03443060
4.39809000 -0.88358100 -0.04783000
4.35185000 -0.78272000 -0.06336090
6.15473000 0.12199500 -0.09369900
3.37240000 -4.61895000 -0.19740400
1.34152000 7.86510000 -0.29228700
-4.16899000 1.83811000 -0.08156990
-0.19892300 -0.30042000 -0.09258380
4.19823000 -3.47287000 -0.18621400
4.30171000 -3.42867000 -0.19295800
4.63423000 -3.27947000 -0.19022600
3.84694000 0.67820700 -0.13338300
4.75164000 0.62487000 -0.25418100
4.81715000 0.74666200 -0.24694900
-4.16878000 4.48140000 -0.34417700
-3.13808000 -0.37627400 -0.15304900
3.77805000 2.88691000 -0.15377600
-4.31019000 4.43405000 -0.34007500
1.92758000 3.01789000 -0.30125200
3.22734000 -2.40504000 -0.22051000
5.87647000 2.06987000 -0.25907800
4.05460000 -3.43963000 -0.19192500
-4.75517000 -1.08567000 -0.26435500
-0.67821500 4.69808000 -0.15912100
3.56412000 -6.18477000 -0.01208550
6.90330000 -5.82663000 0.36692500
6.94465000 -5.55429000 0.35350500
2.69049000 -5.84218000 -0.16151200
5.49144000 -5.01603000 -0.01570750
3.12447000 2.04700000 -0.27764100
-2.76314000 -1.60914000 -0.24196100
-1.00242000 -4.20539000 -0.18838400
6.82171000 -5.91682000 0.36426400
-1.84560000 0.70915500 -0.26308600
-2.06063000 0.55221400 -0.26701800
-2.60183000 -1.53182000 -0.24488300
-2.54154000 -1.39743000 -0.24917200
0.31320100 -3.04019000 -0.21712000
2.99431000 -8.58528000 -0.07862100
-0.95909100 -4.25687000 -0.19278500
0.41989800 -3.03513000 -0.21252300
-6.15525000 -3.32325000 -0.22403400
-3.70784000 -2.45706000 -0.08440100
-3.64814000 -2.49509000 -0.10677900
-5.25143000 -5.66026000 -0.06139310
5.69487000 1.46038000 -0.25229500
5.65979000 -2.21547000 -0.20059800
2.45082000 -1.43348000 -0.09132820
-7.20103000 -0.98670200 -0.25120600
-2.39991000 -8.96434000 -0.04544270
-2.83091000 -2.75058000 -0.22325200
-6.33740000 -6.76300000 0.27787100
1.24763000 0.87574900 -0.15318800
1.96457000 -0.76521800 -0.24693200
4.05169000 4.91639000 -0.15036200
-1.11671000 -3.57388000 -0.20908700
3.34221000 1.64171000 -0.12927100
4.30566000 -0.79018700 -0.22750700
4.44940000 -0.85599800 -0.22775100
-3.77187000 -8.46759000 -0.05280410
-3.03840000 4.36134000 -0.32486200
4.36126000 4.09746000 -0.12338800
2.19675000 -0.81946300 -0.11155800
-5.34248000 5.92293000 0.05820840
7.87862000 1.62794000 0.25133000
-1.43017000 7.94054000 -0.35501900
2.85295000 0.15159200 -0.25005000
6.47320000 5.05612000 -0.06540810
6.47320000 5.05612000 -0.06540810
-0.58705300 2.78409000 -0.16730500
-5.26889000 2.08620000 -0.30488200
5.54362000 1.22454000 -0.24999600
-5.44486000 2.46344000 -0.31082700
5.01069000 -0.75260600 -0.22575800
-0.96267600 -9.51458000 0.00228328
-0.62449800 -8.66229000 0.31383600
-0.54178400 -8.59830000 0.31116500
1.80837000 1.83868000 -0.27912300
0.54221700 -7.41015000 -0.11034600
1.31007000 -0.10712000 -0.07142280
-3.04289000 -7.64210000 0.02323560
1.50305000 -8.84089000 -0.08020360
7.82016000 1.07670000 -0.20500600
1.74170000 1.89190000 -0.28751300
-0.33002100 -1.35606000 0.27292500
-8.59017000 -0.95996800 -0.22045200
4.66938000 -4.75584000 -0.16701600
-0.21788200 -1.25656000 0.11233100
-0.19845400 -1.25210000 0.15115000
0.46665800 -4.57407000 -0.18988300
4.06324000 6.91973000 0.10629500
-0.93995400 -7.10358000 -0.01422600
7.89554000 1.42085000 -0.20341900
4.96146000 5.42754000 0.13655100
-5.79703000 -0.75367700 -0.13015400
-2.78127000 -3.19451000 -0.21122200
-2.71329000 -3.02825000 -0.21517300
4.80487000 5.47413000 0.13028900
-3.82558000 -4.75803000 -0.20261700
8.65718000 0.14959100 -0.12728500
8.67056000 0.14625200 -0.08211050
-2.71302000 -3.16971000 -0.21663200
-2.55914000 -3.02464000 -0.21774400
2.70940000 -1.06040000 -0.24047800
-2.65876000 -9.14556000 -0.01877700
-2.57386000 -9.18243000 -0.01906540
-2.57635000 -9.19494000 0.00011057
2.47215000 2.50252000 -0.16284000
-2.94368000 -6.47901000 -0.13222400
0.08246480 -7.19892000 -0.11032800
0.72551800 -4.67363000 -0.05749380
0.95909000 -4.68560000 -0.05910630
2.87238000 7.42575000 -0.07454150
-6.06123000 -6.31929000 0.25487100
-2.12067000 -8.63610000 0.31804700
-4.72836000 -7.66412000 0.30137100
2.05762000 0.33932500 -0.25376300
5.17771000 0.18517000 -0.23854100
7.30948000 -2.84620000 -0.15204900
2.76334000 -2.68099000 -0.22288700
2.70577000 -2.97552000 -0.21432900
0.90688800 -7.63148000 0.00827773
4.87172000 6.52524000 -0.27252800
-5.71187000 -2.71303000 -0.07220360
6.65198000 -6.42713000 0.19728900
6.86834000 -6.01360000 0.33657000
-0.48655200 2.10341000 -0.29406100
-0.60350500 2.13316000 -0.29842200
3.62337000 4.87572000 -0.27533800
-2.22927000 -7.38134000 0.01542220
-5.91401000 5.61329000 -0.34061600
-5.97607000 5.58800000 -0.32182100
6.52475000 -6.65350000 -0.03040810
5.10702000 -0.23054700 -0.23565200
5.21817000 -0.16502400 -0.23822400
1.12989000 -6.11539000 0.08641520
-0.12548800 -8.90318000 -0.07339840
-0.20198800 -9.53026000 0.13590000
8.37293000 -1.86781000 -0.15037500
-5.14849000 -7.80279000 0.29615500
-8.30185000 -3.64600000 -0.10540500
-8.28681000 -3.63458000 -0.13226100
5.54006000 5.64259000 0.16758200
3.17103000 1.62611000 -0.12218500
-7.16471000 -2.43178000 0.11352900
-2.00878000 6.76811000 -0.37001000
4.25553000 1.88219000 -0.09547280
3.68846000 0.70902500 -0.09900850
3.77173000 0.51008400 -0.11695000
1.00350000 -1.74836000 -0.06916760
5.57420000 -2.16437000 -0.01595650
1.01743000 3.47955000 -0.08896820
2.74014000 3.51705000 -0.30953100
-6.96515000 -5.99880000 -0.12212400
5.50135000 -3.21651000 -0.17364300
3.33519000 -8.78861000 0.36659600
-2.84745000 0.02697480 -0.11463700
3.61281000 -6.84304000 0.01465480
1.62149000 -5.34753000 -0.19143700
-0.38704400 -2.67039000 -0.21931300
-3.36926000 2.43413000 -0.18588700
3.15321000 -2.31651000 -0.21651500
2.79364000 4.94810000 -0.13028600
3.18782000 3.39878000 -0.30604200
2.77683000 2.99748000 -0.30673200
5.59826000 2.05587000 -0.25641300
7.34241000 -0.74127000 -0.03941040
-7.84868000 -0.10515600 0.13296900
-7.75154000 -0.12765400 0.13695700
3.61845000 -2.15829000 -0.08988170
-3.25433000 -5.65135000 -0.16720800
3.68033000 -2.33469000 -0.08087680
3.71717000 -2.56712000 -0.04277190
-0.50610600 -7.09572000 -0.12590700
3.71492000 -2.36586000 -0.05703800
8.56166000 -0.03876340 -0.16276700
7.01049000 0.51710300 -0.22209700
-3.27185000 -6.00227000 -0.15951800
6.80259000 -4.89844000 0.31950800
-0.40788100 -7.30198000 -0.10373600
6.74286000 4.52280000 0.22276800
-2.66571000 -1.04123000 -0.25258400
0.97900700 -1.02531000 -0.06010930
-2.08477000 7.52797000 0.05607380
-2.09383000 7.62844000 0.05192950
-2.10678000 7.67657000 0.04364800
4.58022000 1.34235000 -0.00625427
2.46723000 -2.06496000 -0.09814300
-2.92091000 6.88291000 0.04716310
-1.40802000 -0.76318800 -0.23866700
3.73879000 2.35504000 -0.28149500
-1.70205000 -0.99965200 -0.23600500
-1.78840000 1.48088000 -0.13500100
5.73515000 -6.76884000 0.34186100
5.87720000 -6.89021000 0.36201700
8.72018000 -0.67453300 -0.07466880
-1.91662000 1.48838000 -0.13331400
2.61154000 5.74556000 -0.28040600
2.54152000 5.89375000 -0.28045000
2.70802000 5.75487000 -0.27721500
2.83019000 5.78150000 -0.28206700
8.68800000 -0.43652800 0.09858270
-2.93516000 -2.19700000 -0.10700300
-3.05148000 -2.19950000 -0.10336100
-8.18536000 -2.23937000 -0.21408100
1.22445000 -3.30387000 -0.22272300
-8.51224000 -2.01412000 -0.18712200
-8.53027000 -1.82538000 -0.19079700
6.51561000 -2.11833000 -0.19307100
-5.28472000 1.95666000 -0.28484800
6.65899000 1.37563000 -0.09167380
-8.01155000 2.66380000 -0.31119000
-5.43017000 -3.84234000 -0.09504920
-8.39172000 1.88455000 -0.20201500
5.02794000 0.82743300 -0.09121540
5.10316000 0.87245800 -0.09260440
-6.38631000 1.25703000 -0.16274800
5.76640000 0.09517970 -0.22819100
-0.28558500 -0.65657700 0.03888960
-2.94078000 -2.13651000 -0.08862040
-2.74503000 1.65753000 -0.28768000
-6.59734000 -2.99752000 -0.23152100
-0.68102700 -9.36307000 0.36945400
-8.30055000 -1.77749000 0.17114800
8.60425000 0.64202500 -0.09877870
3.55408000 -8.75220000 -0.04451050
-0.78192000 0.90489200 -0.26421900
-0.37006200 -2.79897000 -0.21837300
-2.20008000 -3.55776000 -0.20548700
-1.27054000 3.64357000 -0.05171350
0.22324000 7.07353000 0.03925660
4.16544000 6.73800000 0.12495700
4.04887000 6.85950000 0.12037700
2.59762000 -4.18873000 -0.19743700
-6.14169000 -1.30750000 -0.13202400
-1.42273000 4.36812000 -0.34870400
-5.53056000 5.99734000 -0.23853800
-8.57341000 -1.42671000 0.17342300
-3.86378000 -3.27474000 -0.21661700
-3.77626000 -3.32695000 -0.21069400
0.86999600 -4.28610000 -0.04988440
-1.59446000 -2.81989000 -0.05377420
-6.95662000 -2.13831000 -0.03842780
-3.94090000 -3.37144000 -0.20991600
5.25840000 6.19688000 0.02160980
1.75796000 -0.31467400 -0.24750900
-4.24501000 4.32233000 -0.34117200
4.15543000 -8.54018000 -0.00037340
4.08480000 -8.57543000 0.05815020
8.02668000 2.27932000 0.25266000
-2.95671000 -3.28890000 -0.06680740
0.95729600 -1.07337000 -0.05595950
0.97900700 -1.02531000 -0.06010930
-2.54370000 7.68159000 -0.32817600
-2.52187000 7.68423000 -0.27266300
2.19250000 5.72709000 -0.29437900
0.45798500 -2.60473000 -0.22430400
-7.18777000 2.55678000 -0.32618700
-0.74165400 -8.74046000 0.32621200
-7.59323000 -4.83734000 -0.15353900
-7.66794000 -4.81717000 -0.15228300
-7.74067000 -4.64864000 -0.14938000
-8.26966000 -0.01249820 0.14704800
1.94278000 -1.04715000 -0.24222700
1.84130000 -1.02339000 -0.23846900
-3.92071000 -8.57997000 0.27377900
2.52466000 4.03461000 -0.28174900
2.77660000 3.75368000 -0.28027200
-6.47241000 0.69602800 -0.28770500
-1.52091000 -8.08040000 0.26137100
2.31600000 -8.39456000 0.33320100
-1.23051000 -4.34945000 -0.02417950
-1.68950000 4.90364000 -0.37177700
-1.79396000 0.73757600 -0.15708800
8.01757000 -4.34809000 -0.03539420
6.08250000 -7.07901000 0.15327600
4.43077000 -1.68345000 -0.09122130
-2.69672000 5.84341000 -0.36713700
-7.13894000 -4.23088000 -0.17589100
1.36893000 -6.47394000 0.01087170
-6.55680000 -4.57366000 0.16770700
6.82612000 -6.01791000 0.36515300
-5.86746000 -2.80023000 -0.21834900
-4.55210000 6.60913000 -0.35710900
-1.01274000 3.31493000 -0.29246000
2.83903000 4.28548000 -0.28146600
-6.10256000 -3.09811000 -0.21463400
-6.05415000 -2.82651000 -0.22154100
-6.08093000 -2.99239000 -0.21552200
-2.44757000 -0.40527500 -0.11216900
0.39824400 -5.84550000 -0.16656400
0.30542300 -5.95935000 -0.17238800
7.69881000 -4.49694000 -0.10448800
5.86912000 -7.12285000 0.36457700
-0.58178300 5.91218000 -0.20374600
-5.47340000 -3.21737000 -0.09723010
2.11480000 6.57238000 0.07632250
-2.16431000 -0.71244200 -0.13327100
-7.37373000 -2.96349000 0.15614400
-5.68441000 -5.87223000 0.17511800
2.57336000 -4.41888000 -0.02418520
-0.59277100 -1.26882000 0.32335300
-2.25377000 -6.32127000 0.01665340
-2.90208000 3.77823000 -0.30972200
5.05023000 -2.02226000 -0.21101200
-0.31510800 -0.49251900 0.02777440
0.16308800 5.33934000 -0.34993000
-4.18426000 5.55330000 -0.35992600
-7.47904000 1.08476000 -0.28810700
-4.29192000 3.85587000 -0.32878600
-4.39325000 5.91824000 -0.38842700
3.03066000 0.62912900 -0.13404100
-0.33380600 1.11180000 -0.27855800
-0.38000700 1.31070000 -0.28530800
-0.22853500 1.14667000 -0.27695100
-0.33380600 1.11180000 -0.27855800
-0.93351800 -0.15857600 -0.25419700
5.66604000 5.89667000 -0.26529000
-3.53034000 6.44238000 0.01607420
-3.00613000 7.22948000 0.05465710
0.55794600 1.61742000 -0.28521700
-5.57621000 -0.34012400 -0.15317700
-4.10897000 6.43636000 0.04026100
0.26917300 0.36957700 -0.26631500
-3.15381000 -8.89636000 0.31067200
2.33162000 4.60998000 -0.17586100
-6.50789000 4.89495000 -0.37192400
1.24876000 1.71847000 -0.15604200
0.51955800 -0.73126400 -0.25263900
0.52918900 -0.87116600 0.50604900
-2.84030000 -7.55435000 -0.10928800
-7.23420000 -0.41491600 -0.26698700
-2.68701000 -5.25603000 -0.18002200
3.95702000 -6.54385000 -0.13448300
-0.95053600 7.99358000 -0.36023900
6.07560000 5.52439000 -0.18417400
2.32445000 2.31762000 -0.15828900
-7.02100000 0.37437800 -0.27634800
-7.09278000 0.48322800 -0.28535900
-7.69258000 -2.82241000 -0.21727600
6.39083000 1.51620000 -0.11811100
-5.68523000 -0.76977100 -0.26800100
-4.15127000 -0.90721900 -0.26074500
7.70567000 2.04496000 -0.21123200
7.92122000 2.26438000 -0.20971100
3.25804000 -7.67802000 0.06545630
4.17717000 -2.59798000 -0.20303900
6.83480000 -1.37801000 -0.05510070
3.28604000 -7.78154000 0.09669740
-5.69561000 1.23232000 -0.29732800
-5.68846000 1.08518000 -0.30048100
3.53470000 2.85522000 -0.29385100
3.73382000 2.83396000 -0.29290000
-4.90639000 -6.96902000 0.24320200
-8.04078000 -1.95380000 0.16287300
-2.26646000 -7.46464000 0.01593760
-1.29932000 -0.68171800 -0.24310800
-1.43981000 -0.61565900 -0.24559900
5.13588000 3.87752000 -0.11930600
-5.36981000 -6.31924000 -0.01111970
-8.36933000 -2.60494000 -0.18045700
-8.38527000 -2.79605000 -0.17449100
-8.38527000 -2.79605000 -0.17449100
-7.88169000 2.96483000 -0.33253000
6.89589000 -5.71612000 -0.12801000
2.18851000 -0.36835800 -0.24650400
2.39251000 -0.51397200 -0.24412600
3.46240000 -5.56702000 -0.16603900
-5.99375000 -7.11862000 0.27440200
5.94900000 5.63920000 -0.02310040
7.82951000 0.98127500 0.24610200
5.55694000 4.00780000 -0.28552000
0.20841400 -1.27710000 0.20678800
-5.46200000 -2.28379000 -0.08258520
0.23819900 -3.13377000 -0.07239250
0.84335000 -3.76131000 -0.22575700
0.96239800 -3.79813000 -0.22105700
8.47160000 -0.26904200 0.29246400
8.30476000 -0.46805900 0.27406800
-8.44160000 0.65541000 0.14846400
0.10963500 -8.05306000 -0.08831920
7.34292000 2.41596000 0.05464640
-7.52310000 0.59199500 -0.27503700
6.85972000 -0.45090300 -0.07546420
8.04072000 0.08498590 -0.19531400
1.46052000 -6.86088000 -0.13247800
-5.69596000 5.42690000 -0.35682000
7.04244000 -1.16642000 -0.19016600
7.42926000 -0.72068700 -0.04430460
3.18391000 -1.41379000 -0.23460700
-3.29078000 1.00671000 -0.17469700
-3.17147000 0.85136400 -0.17575000
2.49192000 -3.04078000 -0.08210050
0.69139900 -3.60693000 -0.06828610
-0.75106100 -3.76479000 -0.03976140
5.03158000 6.25638000 -0.30423300
2.08649000 -8.09776000 -0.09618550
-3.78331000 7.11893000 -0.18922700
5.44084000 4.85374000 0.00771756
-1.28461000 -9.47088000 -0.00731462
-2.31666000 -2.36019000 -0.06246980
1.05494000 -1.12041000 -0.24049300
-0.60897000 0.94201800 -0.13232200
-2.36778000 -2.27959000 -0.05993190
-2.19959000 -7.76836000 0.04150520
2.29629000 -6.88743000 -0.13441800
0.47611500 -1.32448000 0.34523800
-5.43491000 -1.35940000 -0.07112990
-5.86748000 0.53479200 -0.27907300
3.71496000 -8.68079000 0.25972900
-1.67745000 0.38168200 -0.26333800
-1.95772000 0.30979700 -0.25876100
5.43111000 4.98712000 -0.28256600
-3.17009000 -0.99266300 -0.26403600
3.55089000 -8.39610000 0.35897900
-0.99083700 -1.79330000 -0.24156000
2.58831000 -3.87044000 -0.20503000
2.55461000 -4.07973000 -0.19474200
-0.10248600 6.83641000 -0.19006400
8.65033000 -1.34042000 0.23122600
-0.92200300 -7.68254000 -0.10339300
2.30473000 7.59560000 -0.31890300
-7.38324000 -1.43987000 -0.23773400
-3.22658000 -2.35195000 -0.22525800
2.29591000 5.48830000 -0.17624700
4.17985000 3.72365000 -0.30793700
6.63593000 0.23386200 -0.07232380
0.97556300 -9.13664000 0.37543400
-1.17370000 -4.87336000 -0.05865650
-4.92062000 0.59547200 -0.29651000
8.56935000 -1.94529000 0.31114500
7.58222000 -1.60248000 0.24584600
7.68994000 -1.63238000 0.25469400
7.68538000 -1.70865000 0.26353200
-1.27641000 -4.80314000 -0.06253290
0.19234100 0.21084300 -0.26133100
6.72766000 1.02998000 -0.22997700
-5.26759000 -7.88199000 0.00611614
-5.93073000 -1.37580000 -0.25943000
5.11423000 -7.59581000 0.36825100
-6.07479000 -5.88189000 -0.15335500
-0.91149500 -3.26549000 -0.04397080
2.83738000 -8.93994000 0.38734500
-7.67995000 0.36168900 0.14924100
-7.84640000 0.31911500 0.12452100
-6.79048000 -2.43731000 -0.24233400
8.26697000 -2.84264000 0.34718600
-0.37385100 -0.12042000 -0.25941700
2.90555000 -8.82544000 0.38181900
0.88565400 -4.91626000 -0.18877500
7.63563000 2.75183000 -0.22041200
4.06016000 1.97175000 -0.09617630
-5.58924000 -6.61220000 0.06499170
8.67033000 -0.09582840 -0.13777400
6.63375000 1.49648000 -0.10585800
-2.64834000 0.85183000 -0.27151900
0.30035500 5.83919000 -0.36454900
2.91175000 -2.71779000 -0.22019000
-0.04168240 -6.26607000 0.20658900
-5.86537000 -0.04867140 -0.28171100
4.30914000 1.28677000 -0.26095800
1.50152000 4.38551000 -0.15258800
-1.18104000 6.08256000 -0.20426300
4.76348000 6.60739000 -0.19414300
7.12054000 -0.07658360 -0.20370900
-4.00435000 4.56100000 -0.34472000
6.41421000 -6.74602000 0.19112900
0.25065700 -5.14729000 -0.18829600
-6.91491000 -5.58287000 0.26906200
2.81088000 -8.20425000 0.30804700
-6.86761000 0.96019300 -0.29127200
1.29819000 -7.44702000 -0.12111600
-8.57056000 1.30216000 -0.19739100
1.28749000 -7.55290000 -0.12282900
-5.12792000 -6.10430000 -0.16159800
5.01442000 5.24621000 0.11366900
3.73519000 -3.73228000 -0.01588920
-8.53340000 -0.55146100 0.16568900
-0.37193500 -1.29177000 -0.23960600
-0.49295100 -1.31966000 -0.23654100
5.18343000 2.19750000 -0.26835900
-3.53793000 6.56225000 0.02662180
3.80924000 -4.31629000 -0.04186070
1.98733000 -8.48013000 0.33657200
-6.54142000 -2.13899000 -0.24380300
3.63784000 0.41962300 -0.25591800
7.29394000 -5.24244000 -0.10601500
0.39024400 -2.53161000 -0.22707500
0.21247700 -2.69948000 -0.21776800
1.80671000 7.56066000 -0.34277900
-2.69371000 6.38448000 -0.34996100
4.13272000 6.43352000 0.11013600
-0.74968000 -2.55780000 -0.21419700
3.82455000 3.53921000 -0.30454300
3.82687000 -1.36409000 -0.09971490
6.21043000 5.36723000 -0.12099300
0.10567900 -7.93842000 -0.09089140
3.05284000 -0.70780400 -0.11824800
-4.39984000 5.23129000 -0.00441477
5.45582000 -3.11220000 -0.04645430
5.45436000 -3.14269000 -0.05279050
-6.84202000 4.40984000 -0.36621700
2.77917000 2.17182000 -0.28338100
4.01788000 -8.61481000 0.00128808
3.88533000 -8.67290000 -0.00214231
7.94291000 -4.16343000 0.33922200
-1.51068000 1.61126000 -0.16030400
7.64236000 3.46079000 -0.16617200
-1.03640000 0.92841100 -0.14505500
-1.14204000 0.97194800 -0.11903700
-1.36890000 -4.56404000 -0.06436170
3.32329000 0.83967600 -0.26766200
8.35658000 -2.55908000 -0.14092200
6.62933000 4.85527000 -0.03706280
6.53418000 4.96820000 -0.05424650
5.36793000 -7.71041000 0.17572200
6.45893000 -1.68239000 -0.06608910
-3.81807000 0.68545900 -0.13546700
0.97848000 -2.60476000 -0.23090200
7.19375000 -1.49293000 0.13444100
-0.88265300 -3.96369000 -0.06793670
-6.26322000 -6.42828000 0.27790300
-6.24221000 -6.55657000 0.27459600
-0.36122000 -0.38499400 0.10638700
0.97102600 -6.21133000 -0.01353210
7.34545000 -0.94150600 -0.18974500
8.47555000 -3.03724000 0.02206550
-6.58525000 -1.71133000 -0.23983000
-1.21031000 -6.12020000 -0.14640400
2.84358000 1.19221000 -0.11442000
-3.44778000 -0.38793600 -0.27080500
-0.21102200 -2.93695000 -0.21778000
-0.90437800 -0.55089500 -0.02836390
-8.46352000 -3.09054000 -0.07895030
6.84941000 1.83596000 -0.09818560
-3.64731000 7.19697000 -0.35139500
6.75882000 -5.05702000 0.33125900
-5.99269000 -6.97288000 -0.08326220
-5.94116000 -1.74337000 -0.13683200
-0.28505300 -2.69101000 -0.21848300
-1.04352000 0.96960300 -0.12361100
-1.73444000 1.51507000 -0.28532900
-1.27938000 1.04715000 -0.13250800
-1.71375000 1.40821000 -0.27567700
8.30612000 0.29495500 -0.17616500
2.01973000 5.97099000 -0.16736100
-6.44671000 -4.89248000 0.19154700
6.35131000 -2.43425000 -0.18925200
-2.65399000 6.97720000 0.04457870
-3.33579000 4.68800000 -0.33720600
0.78764400 3.59648000 -0.17414200
5.13285000 -5.41304000 -0.15575600
-4.93722000 -1.15107000 -0.27153300
0.90215100 2.82792000 -0.17363400
7.80459000 -0.49455800 0.07421200
-1.85265000 3.74134000 -0.31000700
2.95407000 7.41534000 -0.20225500
-0.83730000 7.97164000 -0.39004800
-0.71177800 2.65993000 -0.16260800
2.15609000 4.39567000 -0.16175200
-6.14288000 -2.98090000 -0.10673800
-6.14259000 -2.85239000 -0.11394400
-4.89532000 6.20001000 -0.37659800
3.66430000 -3.31122000 -0.19937200
0.07359460 -6.96016000 -0.12416200
3.17634000 1.59053000 -0.12486500
-0.49125400 7.84698000 0.07271560
-6.39738000 -1.29679000 -0.08319720
1.06842000 -4.40238000 -0.06458330
1.11002000 -4.46985000 -0.06433310
5.27197000 5.28508000 0.13033100
5.29792000 5.24735000 0.11536300
-2.57616000 6.21665000 -0.15608300
-2.51228000 6.27871000 -0.11457400
0.75378500 2.91759000 -0.14265500
-3.65566000 -4.38482000 -0.05365970
-3.49430000 -0.89774900 -0.11823600
6.31381000 -3.75389000 -0.03208060
-1.48543000 -4.16020000 -0.03469730
-3.91096000 2.98277000 -0.19556600
4.13439000 -0.68758600 -0.11031000
6.43661000 -1.45981000 -0.19776200
-1.32631000 1.56250000 -0.15568100
7.05622000 -1.28541000 -0.18575900
4.25054000 6.91421000 -0.28264100
0.54864700 -2.14319000 -0.05727610
-2.56246000 6.41669000 -0.04263700
2.04843000 3.43447000 -0.28209600
5.06935000 -4.17675000 -0.17247100
7.94214000 1.76482000 -0.20279800
-3.90028000 -1.00091000 -0.11034900
3.88264000 3.90917000 -0.32505400
-2.42845000 -0.96922200 -0.09260280
-2.47275000 -1.01641000 -0.12415900
-6.41726000 4.46563000 0.05116140
3.87407000 3.79063000 -0.31386700
4.20015000 4.04397000 -0.32980400
5.52556000 -0.89927100 0.01913410
-0.84780200 -8.78319000 0.32791700
-1.95143000 -1.61092000 -0.07809300
-1.93574000 -1.43175000 -0.07916560
-0.52255400 -7.91970000 -0.09312390
-1.96700000 -9.34364000 -0.01523890
0.28974500 1.62352000 -0.17005200
6.35247000 -1.74366000 -0.07071040
-6.72197000 -4.46393000 -0.18244200
2.12698000 5.28420000 -0.28302000
5.37141000 5.14746000 0.05064230
-3.51738000 6.15118000 -0.36784800
-2.75830000 -8.84838000 -0.04821160
7.56511000 -4.86672000 0.35553600
2.39222000 -1.51227000 -0.23598700
-5.04401000 3.10922000 -0.17329900
-8.73093000 -1.61346000 -0.15044100
2.85927000 -1.71735000 -0.23266400
2.78005000 -1.74814000 -0.22863500
2.83611000 -1.82915000 -0.23172100
1.95706000 6.74897000 0.08262390
3.70348000 -3.68295000 -0.02908530
-1.04922000 -4.11173000 -0.19694600
-3.62081000 0.16185200 -0.16283500
1.38355000 -5.44133000 -0.17897300
7.31789000 2.45269000 0.06184050
-8.48486000 1.11087000 -0.25037300
1.58782000 0.29276800 -0.25402400
-0.61589600 -7.63910000 -0.10318600
2.25169000 6.28231000 -0.31592100
5.08359000 0.77024800 -0.10343300
2.94641000 0.95762400 -0.26270800
-1.92549000 2.77590000 -0.29017400
6.77379000 -4.29400000 0.27905100
1.00994000 7.05067000 0.06141810
-0.90189700 -0.80929300 0.06002730
5.22364000 -6.55571000 -0.11574900
2.87612000 0.44401900 -0.25638100
2.70628000 0.40239100 -0.25368400
0.62129200 1.42383000 -0.29873700
2.31522000 0.19783500 -0.25538900
-2.18626000 4.16403000 -0.13465800
7.80168000 1.78239000 0.24925600
3.28541000 1.85471000 -0.26985700
3.41941000 1.78277000 -0.27783900
4.87564000 6.42603000 0.12329800
6.99778000 -5.64007000 -0.11682700
6.91329000 -5.59331000 -0.13333200
-3.40256000 2.83976000 -0.16710900
-2.50457000 -7.93524000 0.04436220
-1.03882000 -3.27393000 -0.04049160
5.75021000 5.85885000 -0.18574300
8.56077000 0.72975000 0.03775780
7.47758000 -0.69211800 -0.18762700
7.35644000 -0.60334900 -0.19902100
-6.13366000 -2.58260000 -0.08360890
-6.13366000 -2.58260000 -0.08360890
-4.12580000 6.54856000 -0.38437600
-2.69531000 3.35927000 -0.30085700
6.75072000 3.08306000 0.18386000
-7.09039000 -1.48669000 -0.14396800
3.89118000 -6.19564000 -0.01297460
4.00720000 -6.39423000 -0.00380405
-1.74697000 3.23802000 -0.30049200
5.71896000 5.81499000 0.04095670
7.35162000 -1.14998000 -0.19425100
2.98702000 7.42013000 0.02388810
-1.64752000 4.57163000 -0.34670700
1.98535000 -7.53771000 -0.10240800
5.36365000 -7.47597000 0.37434400
-5.14381000 6.28890000 -0.20343300
6.76573000 4.71485000 -0.24839600
0.54017900 6.70266000 0.01436300
0.48340200 6.24438000 -0.20876600
-0.31069000 -3.90716000 -0.20859100
-4.69098000 2.44173000 -0.30586200
5.29792000 5.24735000 0.11536300
-1.66101000 -6.55289000 -0.12989000
2.28315000 -6.74082000 -0.00538721
-5.88771000 1.39247000 -0.18724300
3.76045000 -4.07604000 -0.01901180
3.72848000 -4.12007000 -0.01115480
3.43000000 -1.16122000 -0.23279500
3.58266000 -3.41406000 -0.20599900
-8.26054000 -1.21169000 -0.23089000
6.55423000 0.46067400 -0.09701240
0.47092400 -7.21516000 -0.10713500
-7.02087000 -6.15407000 -0.05669020
-4.16452000 6.61174000 -0.38171900
-8.48486000 1.11087000 -0.25037300
7.23523000 3.08161000 -0.23365700
5.52850000 -4.10829000 -0.03380310
0.95036600 5.90031000 -0.19269900
4.07856000 -8.43932000 0.36538700
0.46458300 6.60844000 -0.06605890
0.01407070 -0.63758400 0.19892500
-6.14192000 -3.23539000 -0.09986060
-6.14149000 -3.18628000 -0.07696820
-1.92233000 -9.29261000 0.27173400
-1.37653000 -9.36885000 0.31959800
6.21884000 0.92320600 -0.24596400
-3.54773000 3.14578000 -0.18713600
0.98507600 -6.17857000 -0.01049130
-0.92494000 -0.72776000 -0.23730200
-1.35709000 2.80239000 -0.14908300
-0.79992500 -0.80718500 -0.24155200
-1.99619000 -1.86241000 -0.09734000
6.17669000 -1.37243000 -0.20143200
3.23116000 4.54745000 -0.26887800
-4.35504000 -6.96043000 -0.13507600
6.84078000 2.85134000 0.18590500
-2.20219000 -2.64998000 -0.07798700
-4.57187000 2.53572000 -0.30220300
0.73933700 -3.67119000 -0.05695170
-0.03932440 6.86524000 -0.17004900
-5.43804000 -7.35945000 0.29491800
-3.35466000 -5.18733000 -0.18035400
-5.20361000 -7.90654000 -0.03912510
0.67565500 -3.98306000 -0.03880390
4.23799000 -8.37463000 0.32714100
4.22901000 -8.40304000 0.27879800
2.77160000 3.11015000 -0.30071600
0.61722000 7.91474000 0.05103510
-0.73199200 1.07697000 -0.27746500
-2.95228000 2.89089000 -0.17187900
3.37538000 -7.63448000 0.13025400
-0.59212700 1.65995000 -0.17530600
1.56874000 -8.90815000 -0.07671710
3.78611000 -1.54507000 -0.07585770
3.81477000 -3.22740000 -0.19415100
5.61622000 5.95759000 -0.25681400
-1.52846000 -2.70004000 -0.09095850
-3.44736000 0.02290670 -0.27409700
6.41776000 -6.74821000 -0.05149720
4.47589000 -3.63313000 -0.18696700
0.00837570 -1.41175000 -0.23974800
6.44325000 5.14858000 -0.19561600
5.70676000 -6.80562000 -0.10557000
6.92089000 4.45143000 -0.24792000
1.70325000 -9.29565000 0.37341400
3.00536000 6.37573000 -0.10863500
3.00046000 6.29880000 -0.12117500
-0.08206060 -0.29217200 0.35868500
2.98922000 6.14126000 -0.14298800
-1.46458000 -4.56048000 -0.06131210
1.77829000 7.77905000 -0.15803900
1.71047000 7.79982000 -0.16012700
6.16858000 1.12235000 -0.11342500
-7.96129000 -4.11620000 -0.15664300
0.01640420 -5.52101000 -0.17451500
-1.94601000 -2.01744000 -0.22808500
-3.25935000 2.55565000 -0.28651900
1.23411000 -8.50024000 -0.08695720
3.17116000 -3.16714000 -0.06731000
8.50403000 -2.36601000 0.33091100
-0.82576700 -4.14489000 -0.05838000
5.99100000 2.07113000 -0.13028300
