0.99120800 -0.12400100 -0.23637700
0.98823600 -0.28901300 -0.24693400
0.99030600 -0.20729700 -0.25259500
-6.39338000 -6.97161000 -0.94674900
-6.20813000 -7.13016000 -0.96242600
-6.38019000 -7.07271000 -0.91010100
0.57410500 -1.47826000 -0.40143500
0.60781500 -1.49311000 -0.43508700
0.58066900 -1.44643000 -0.40705100
0.57231900 -1.49706000 -0.39460500
0.99030600 -0.20729700 -0.25259500
0.98823600 -0.28901300 -0.24693400
1.01378000 -0.12048200 -0.28492300
0.99120800 -0.12400100 -0.23637700
-0.94703900 -9.02971000 -0.01371870
-0.94990400 -8.98140000 -0.01062400
-1.01832000 -8.97329000 0.05705480
-0.41451800 -3.71970000 -0.66861600
-0.41950400 -3.68628000 -0.66784600
-0.42304900 -3.66828000 -0.66711700
-1.19527000 -8.37068000 -0.50794800
-1.16639000 -8.40035000 -0.42246300
-1.17817000 -8.39165000 -0.46715600
-0.80187600 -1.47261000 -0.40017400
-0.88912100 -1.46969000 -0.29890100
-0.88912100 -1.46969000 -0.29890100
-0.84773400 -1.44819000 -0.27239600
-0.74721100 -1.39957000 -0.42954100
-0.67103100 -1.43096000 -0.45958000
-0.71219900 -1.33904000 -0.43770800
-0.51101300 -3.60091000 -0.68482100
-0.16265600 8.43282000 1.54979000
-0.22615900 8.49150000 1.18799000
-0.40721600 8.43673000 1.53552000
0.47123500 -1.72292000 -0.30766300
0.42627300 -1.63669000 -0.22359900
0.38940800 6.99994000 1.05506000
-0.72847300 -5.03280000 -0.60927200
-0.74979800 -4.94516000 -0.66982400
-0.77040900 -4.99226000 -0.61770500
0.44303200 4.43575000 0.38590800
0.42115600 4.39155000 0.33443900
0.44259500 4.41802000 0.37950000
0.10457400 0.63665600 0.38108300
0.00848148 0.57923600 0.39576800
0.09930150 0.60792900 0.42044700
-0.42050800 -1.93517000 -0.57026900
-0.43494000 -1.95350000 -0.57357500
-0.31830000 -1.99098000 -0.58189900
-0.37344300 -1.84027000 -0.53805700
0.35261900 6.00449000 0.49326500
0.36230700 5.97688000 0.51876500
0.38660700 5.93316000 0.55291700
-0.20984900 0.90133600 -0.20082200
-0.29507700 0.79887200 -0.18699900
-0.46330000 -4.21421000 -0.32709000
-0.30283900 -4.15510000 -0.37505500
-0.43718900 -4.14896000 -0.35377200
0.94247500 -0.84234000 -0.18649900
0.91436300 -0.85829000 -0.21392500
1.06444000 -0.84759800 -0.21818200
0.97237300 -0.81464800 -0.15834600
-0.40249500 -3.93518000 -0.55809000
-0.40120400 -3.89746000 -0.58917700
-0.40202700 -3.87969000 -0.60182800
-0.48652600 -3.94498000 -0.56493700
-0.31116400 0.29390600 0.64394900
-0.40120400 -3.89746000 -0.58917700
-0.40249500 -3.93518000 -0.55809000
-0.31373400 -4.00925000 -0.51046400
-0.40202700 -3.87969000 -0.60182800
-1.14254000 -7.35324000 -0.60664500
-1.08997000 -6.75921000 -0.58978000
-0.99164800 -6.73619000 -0.71848700
-0.97046900 -6.65939000 -0.66147200
-1.28584000 -8.17305000 -0.65698400
-1.38730000 -8.22709000 -0.56632400
-1.25633000 -8.23607000 -0.60862500
0.19181600 -1.68005000 -0.44546500
0.20222200 -1.64154000 -0.39419600
0.27234800 -1.65288000 -0.39311700
-0.63274700 -0.80089800 0.73068600
-0.62206100 -0.81719400 0.71568600
-0.61267700 -0.83508800 0.70285400
0.40201100 7.29302000 1.22439000
0.40958400 7.20882000 1.17572000
0.41933500 7.27802000 1.21622000
-0.96840100 -1.50904000 -0.36066000
-0.93376600 -1.49497000 -0.33041700
-0.99435800 -1.49808000 -0.35557200
-1.01415000 -1.43785000 -0.22155200
-1.20980000 4.31726000 -0.04966150
-1.18819000 4.19234000 -0.06288340
-1.38181000 0.63329600 -0.01260280
-1.20332000 0.71463100 -0.03918230
-1.21052000 0.75530900 -0.12107500
-1.12566000 0.74160600 -0.04901820
0.35261900 6.00449000 0.49326500
0.27753300 5.99456000 0.52938700
0.36230700 5.97688000 0.51876500
-0.33915000 0.24986500 0.37735300
-0.30078500 0.26247000 0.36807700
-0.34206100 0.21263700 0.36225100
0.37256600 2.26413000 0.04702350
0.44248600 2.37958000 0.06902990
0.40086700 2.36704000 0.09111060
-0.84792200 -9.12648000 0.08568810
-0.94288500 -9.10173000 0.01770730
-0.93885800 -9.12786000 0.06488720
-0.93885800 -9.12786000 0.06488720
-0.94288500 -9.10173000 0.01770730
-1.05620000 -9.08434000 0.08291200
-0.40318000 -1.53500000 -0.48308000
-0.03490550 1.49458000 -0.01431380
-0.05511730 1.37349000 -0.06225160
0.01059620 1.44554000 0.00975848
-0.05101530 1.45712000 -0.03721100
-0.05372220 1.43839000 -0.04466090
0.13536600 0.69949500 0.01576090
0.12092900 0.69500000 0.03092530
0.11789100 0.69983600 0.06406250
-0.96022000 -8.93390000 0.00339392
-0.94990400 -8.98140000 -0.01062400
-0.89031300 -8.84313000 -0.06564000
-0.75258700 -4.93020000 -0.68300400
-0.83345500 -4.96056000 -0.60353500
-0.74979800 -4.94516000 -0.66982400
-0.24107200 -0.78071300 0.20747400
-0.33815000 -0.41164900 0.28463700
0.29802200 3.89315000 0.16371400
0.31684100 3.81174000 0.16145800
0.34589200 3.85098000 0.17089400
0.47716200 6.98608000 1.02403000
0.49931900 6.94580000 0.99824900
0.49603000 6.98350000 1.01203000
0.45315800 6.94346000 1.03514000
-0.68086600 8.44905000 0.45814300
-0.94076900 -6.56363000 -0.73588200
-0.92840400 -6.52018000 -0.75466900
-0.92450800 -6.50363000 -0.75788900
-0.94076900 -6.56363000 -0.73588200
-0.92840400 -6.52018000 -0.75466900
-0.90154600 -6.51938000 -0.77494400
-0.92450800 -6.50363000 -0.75788900
0.34799300 5.91836000 0.56420100
0.38660700 5.93316000 0.55291700
-0.84200200 0.81673400 -0.07254450
-0.90630500 0.75960800 -0.03629750
-0.81183900 0.82178200 -0.07490500
-0.85018900 0.86287300 -0.11713500
-0.84200200 0.81673400 -0.07254450
-0.78182100 -1.39211000 -0.36966100
0.36715700 3.32277000 0.10696100
0.34973700 3.26280000 0.08306500
-9.12425000 -0.41365300 -0.24858800
-9.03817000 -0.50051500 -0.28481000
-0.88784300 -4.83327000 -0.75486200
-0.58366400 -8.58554000 -0.19729800
-0.58295900 -8.54491000 -0.26478900
-0.66073200 -8.53469000 -0.24925600
-0.01849090 0.95067300 -0.19641000
-0.52722700 0.35910800 0.75410800
-0.62816700 0.32522900 0.72965700
2.82483000 -8.77645000 -1.21873000
2.71248000 -8.78188000 -1.21424000
2.80881000 -8.74677000 -1.22093000
-0.97536200 -5.72847000 -0.32405700
-0.86042100 -5.68496000 -0.36174100
-0.85671800 -5.53497000 -0.37194100
-0.76489100 -5.58267000 -0.42462000
-0.86042100 -5.68496000 -0.36174100
0.37769400 3.42430000 0.11534700
0.42465500 3.49147000 0.11167100
0.32760800 3.51142000 0.10646600
0.37769400 3.42430000 0.11534700
-0.34555200 7.98584000 0.37088300
-0.35270200 -1.79341000 -0.52602000
-0.28834500 -1.76276000 -0.53123400
-0.34874700 -1.78097000 -0.52544400
-0.34016200 -1.71281000 -0.51715000
0.44713000 0.89058000 -0.15408200
0.60052600 0.91177700 -0.11069600
-0.40846800 -3.78701000 -0.65464000
-0.49770400 -3.76661000 -0.66450700
0.60681900 0.82212800 -0.10760100
0.55298300 0.81813400 -0.13057000
0.56260200 0.81083300 -0.12898300
0.58796900 0.79028000 -0.12977100
0.96845500 -0.00209443 -0.21660600
0.99868500 -0.00553108 -0.27653500
0.40965200 7.13899000 1.13673000
0.45581100 7.31572000 1.22492000
0.40958400 7.20882000 1.17572000
0.15152600 0.72670500 -0.05017260
-0.27766300 -1.21623000 0.22262200
-0.36241900 -1.20708000 0.25050300
-0.27831500 -1.17011000 0.19489400
-0.27537600 -1.19243000 0.20270600
0.18028900 0.70919200 0.04412420
0.47716200 6.98608000 1.02403000
0.49603000 6.98350000 1.01203000
0.53053300 7.01934000 1.01376000
0.42460500 4.48704000 0.39149300
-0.14679600 1.44579000 -0.13020800
-0.05511730 1.37349000 -0.06225160
-0.05372220 1.43839000 -0.04466090
-0.05101530 1.45712000 -0.03721100
-0.03490550 1.49458000 -0.01431380
0.02679290 1.59894000 0.04032270
-0.95270100 -9.19286000 -1.25428000
-0.93679300 -9.16704000 0.08861290
-1.92029000 7.83852000 0.39651200
0.24289600 4.20524000 0.26947500
0.15900200 4.09429000 0.25319000
0.33411700 3.71616000 0.18628900
0.26268900 3.76036000 0.15742500
2.65836000 -8.80185000 -1.21604000
2.55009000 -8.89414000 -1.21226000
2.58630000 -8.82850000 -1.22418000
-0.91178900 0.13301300 0.90484400
-0.88687000 0.14988100 0.96254200
0.96543100 -0.32585400 -0.19070300
0.40709500 2.89257000 0.07845610
0.42561800 2.98082000 0.03789530
0.42561800 2.98082000 0.03789530
-1.75595000 7.79131000 0.38554000
0.39150300 2.78182000 0.13525100
0.11690800 0.70421000 0.16473800
-0.93450100 -1.54746000 -0.41371100
-0.93376600 -1.49497000 -0.33041700
0.34964900 6.50425000 0.57074300
0.44265000 6.44430000 0.54879900
0.34964900 6.50425000 0.57074300
0.39893000 4.25109000 0.29686000
0.42115600 4.39155000 0.33443900
0.39960100 4.36538000 0.31574700
-0.75258700 -4.93020000 -0.68300400
-0.84888700 -4.79354000 -0.75820300
-0.40852600 -4.02853000 -0.50094900
-0.40852600 -4.02853000 -0.50094900
-0.16595700 0.32087200 0.59206000
-0.17755500 0.34755800 0.49009800
-0.32565100 0.28690800 0.42160900
-0.23560800 -1.19809000 0.18261600
-0.27766300 -1.21623000 0.22262200
-0.27537600 -1.19243000 0.20270600
-0.27831500 -1.17011000 0.19489400
-0.91224700 -6.45291000 -0.75247400
-1.18980000 -9.11905000 0.11980100
-0.93605700 -9.19302000 0.08499260
-0.93679300 -9.16704000 0.08861290
-0.93605700 -9.19302000 0.08499260
0.56238600 -1.58160000 -0.35686400
0.62661200 -1.54287000 -0.47539900
0.56238600 -1.58160000 -0.35686400
0.51211700 -1.53777000 -0.27083800
0.28642100 4.12840000 0.22874100
-0.14447600 -1.25726000 0.13692600
-0.85360300 -5.41913000 -0.40290600
0.11945300 0.68726100 0.00864242
0.12092900 0.69500000 0.03092530
0.13536600 0.69949500 0.01576090
0.11789100 0.69983600 0.06406250
0.38091600 0.91707800 -0.16132300
0.35163300 0.90035300 -0.17305300
0.41765200 0.88234600 -0.16595600
-0.42161100 -1.22211000 0.39756300
-0.41749300 -1.22518000 0.38069500
-0.43811500 -1.20318000 0.43171000
-0.86573900 8.23557000 0.42511700
-0.55422500 8.00440000 0.38099400
-0.86573900 8.23557000 0.42511700
-0.58955500 -2.21267000 -0.54192500
0.48573600 0.86430100 -0.14643900
-0.34201700 0.15582100 0.35790000
-0.34263800 0.07481840 0.35049300
-0.46354000 0.13486300 0.37893900
0.31170800 6.17509000 0.50305300
0.18152600 6.08907000 0.48325700
0.34530700 6.03963000 0.48129000
-0.04279900 1.26202000 -0.12183700
-0.00469214 1.18983000 -0.13532800
0.47829500 7.22282000 1.14394000
-6.01426000 6.08681000 0.34612200
-6.13843000 5.97934000 0.33936600
-6.30081000 6.04633000 0.36200200
-6.17628000 5.94593000 0.34046400
-5.90900000 5.87830000 0.31054700
-6.17628000 5.94593000 0.34046400
-6.13843000 5.97934000 0.33936600
-0.86898400 0.20616100 0.90359400
-0.84625100 0.22603700 0.89778300
-0.88178800 0.23785700 0.81487200
-0.83555900 0.23346300 0.89638400
-0.17035600 -1.30567000 0.21469000
-0.17035600 -1.30567000 0.21469000
2.91251000 -8.70580000 -1.22664000
2.67293000 -8.69319000 -1.21808000
2.91251000 -8.70580000 -1.22664000
2.80881000 -8.74677000 -1.22093000
-0.33623600 0.91027900 -0.20659100
-1.08384000 -9.29071000 -1.24445000
-0.89387100 0.17230500 0.90682700
-0.91569500 0.19259000 0.85111900
-0.89387100 0.17230500 0.90682700
-0.80618800 -1.37211000 -0.16128900
-0.86543000 -1.40984000 -0.12737500
-0.05877830 1.17597000 -0.18241600
-0.04504120 1.20256000 -0.16236400
-1.12189000 3.81533000 -0.10554800
-0.52163300 -2.31512000 -0.54327100
0.39181800 3.34465000 0.10972700
0.35179500 4.30908000 0.30722200
0.49869100 6.90544000 0.97417200
-0.42304900 -3.66828000 -0.66711700
-0.35212300 -3.63726000 -0.63748500
-0.43472500 -3.60309000 -0.67114500
-5.84519000 6.23208000 0.35821200
-5.92453000 6.16421000 0.35221300
-0.28727900 -1.41149000 -0.44689500
-0.43737400 -1.52212000 -0.48638100
-0.43737400 -1.52212000 -0.48638100
0.42561800 2.98082000 0.03789530
0.64826800 0.74061000 -0.13876000
0.62390200 0.71168800 -0.15830500
0.17026600 0.71872100 -0.02151880
-0.42628700 -1.22317000 0.32339200
0.42472300 5.86983000 0.57055600
-1.34381000 7.90764000 0.38833400
-1.78925000 8.05327000 0.42463400
-0.87935600 -9.24510000 -1.24337000
-0.72962400 -2.03847000 -0.56190700
-0.60453100 -2.10716000 -0.56574300
-0.31940400 8.40070000 0.43955800
2.71248000 -8.78188000 -1.21424000
2.65836000 -8.80185000 -1.21604000
0.45228500 4.54054000 0.40698700
0.44303200 4.43575000 0.38590800
0.50201400 4.36674000 0.42849200
-0.15948200 8.45449000 0.44659200
0.19454400 8.24229000 0.39844200
-1.08940000 -9.10322000 -1.27287000
-1.08757000 -9.15574000 -1.26525000
-0.34263800 0.07481840 0.35049300
-0.33815000 -0.41164900 0.28463700
-1.30628000 -7.50233000 -0.52780600
-1.24241000 -7.46447000 -0.60277700
-0.94987700 -6.51560000 -0.70879500
-0.95928300 -6.64231000 -0.69717200
0.37474700 7.16180000 1.16020000
0.40965200 7.13899000 1.13673000
-0.66054900 -0.88255700 0.64732800
-0.58070700 -0.92850200 0.65882700
-0.61267700 -0.83508800 0.70285400
-1.04285000 -1.46396000 -0.35757300
-1.04285000 -1.46396000 -0.35757300
-1.04474000 -1.51641000 -0.42119200
-0.99435800 -1.49808000 -0.35557200
-0.33547500 -1.65430000 -0.49740200
-0.43494000 -1.95350000 -0.57357500
-0.84773400 -1.44819000 -0.27239600
0.17026600 0.71872100 -0.02151880
-0.63274700 -0.80089800 0.73068600
-0.65775700 -0.76864500 0.76605100
-0.57218100 -0.81260200 0.74955300
-0.65775700 -0.76864500 0.76605100
-0.49827100 -2.46424000 -0.46577600
0.36386400 3.23436000 0.07552900
0.36386400 3.23436000 0.07552900
-0.26770700 0.29870300 0.55832600
-1.56188000 8.16542000 0.43614000
-1.56188000 8.16542000 0.43614000
-5.92453000 6.16421000 0.35221300
-6.01426000 6.08681000 0.34612200
-0.93767400 -9.14565000 0.08168610
8.64014000 0.55908300 -0.44672400
8.45193000 0.39023500 -0.47246200
8.40954000 0.70544000 -0.44454700
6.82321000 -5.80352000 -0.94988200
7.01580000 -5.24502000 -0.92882700
7.27609000 -5.04807000 -0.90911200
1.17915000 8.26487000 0.38586700
0.44259500 4.41802000 0.37950000
0.44379300 4.29677000 0.37121800
-0.33623600 0.91027900 -0.20659100
3.54822000 7.34357000 0.23246400
4.23377000 7.15453000 0.20963800
4.13657000 7.01333000 0.18798800
-9.12859000 -0.30511900 -0.25424600
-9.21885000 -0.28594700 -0.22895400
-9.12425000 -0.41365300 -0.24858800
-9.23848000 -0.37372600 -0.20205200
-0.88401300 -6.20943000 -0.30968700
-0.88568600 -6.18527000 -0.22315400
-1.16319000 -6.17918000 -0.32175400
-1.18569000 4.17800000 -0.06445470
-4.13632000 -0.50144000 -0.46838700
-4.23736000 -0.46343400 -0.46004800
-3.92228000 -0.46965500 -0.47035600
-3.83061000 -8.56311000 -1.17226000
-3.58777000 -8.66917000 -1.18291000
-3.60523000 -8.70954000 -1.17523000
0.35043100 5.82300000 0.52981800
0.46103500 5.81574000 0.56093200
0.41886100 5.74652000 0.48806300
0.51909100 5.74299000 0.55214100
0.49963200 5.76722000 0.54887500
-8.83874000 -0.43116300 -0.32304000
-8.94841000 -0.28877900 -0.29318500
-8.59558000 -0.30444600 -0.33162000
0.61579800 -1.36581000 -0.40140400
-8.76338000 -3.33048000 -0.54035000
-8.81288000 -3.23022000 -0.52200300
-8.80065000 -3.21780000 -0.52735200
0.50350600 -1.70713000 -0.29719600
-1.28584000 -8.17305000 -0.65698400
-1.25633000 -8.23607000 -0.60862500
-1.19656000 -8.15860000 -0.75456400
2.87403000 -8.97678000 -0.04203380
2.51507000 -9.08882000 0.02391230
2.56261000 -9.08525000 -0.16152900
-4.23736000 -0.46343400 -0.46004800
-4.08743000 -0.41237500 -0.46785900
-3.92228000 -0.46965500 -0.47035600
7.62353000 -4.14161000 -0.85139900
7.39352000 -4.19506000 -0.86753100
7.68050000 -4.01232000 -0.84591900
7.68050000 -4.01232000 -0.84591900
7.75152000 -4.07666000 -0.84481500
7.62353000 -4.14161000 -0.85139900
4.13657000 7.01333000 0.18798800
3.38654000 7.05053000 0.19113500
3.54822000 7.34357000 0.23246400
-7.07762000 5.02184000 0.27240500
-7.56583000 4.62716000 0.25897500
-6.98482000 5.35665000 0.31717100
-0.95372200 -9.46090000 0.21248400
-0.94717900 -9.41835000 0.23119400
-1.24144000 -9.45411000 0.21202200
-0.93767400 -9.14565000 0.08168610
-0.96022000 -8.93390000 0.00339392
-0.51053200 8.50505000 1.05756000
-0.25944000 8.52006000 0.94653800
0.92711700 4.76540000 0.88246400
0.94981900 4.72847000 0.84352100
1.61374000 4.58221000 0.84331400
1.02622000 -0.43583300 -0.33018200
-7.35685000 -0.35115900 -0.41084500
-7.42756000 -0.44156400 -0.41684300
-7.62361000 -0.34040900 -0.40065000
4.93746000 -7.58065000 -1.10136000
5.09021000 -7.45146000 -1.09272000
5.16142000 -7.51042000 -1.07026000
-1.06150000 -6.19393000 -1.13170000
-1.06410000 -6.45727000 -1.15262000
-1.18590000 -6.14519000 -1.11233000
-7.92614000 -5.11138000 -0.74066400
-7.75607000 -5.36945000 -0.76484200
-7.99322000 -5.12096000 -0.68427000
-7.92614000 -5.11138000 -0.74066400
-7.81441000 -5.11503000 -0.77483400
-7.75607000 -5.36945000 -0.76484200
1.62581000 -1.64610000 -0.53710600
1.86924000 -1.49924000 -0.53796700
1.65351000 -1.54991000 -0.52838100
-0.41950400 -3.68628000 -0.66784600
6.49523000 5.29224000 0.00235948
6.65124000 4.82427000 -0.05873570
6.20353000 5.34142000 -0.00542234
-8.49423000 2.70005000 0.07016740
-8.59417000 2.43374000 0.04725000
-8.61193000 2.67170000 0.09009290
-0.54264100 -2.46230000 -0.49358500
-0.54934300 -2.60031000 -0.46167300
-0.50859000 -2.50674000 -0.44508700
-4.65008000 -0.45162900 -0.45973400
-4.54788000 -0.45636200 -0.45142700
-4.60179000 -0.63969400 -0.47909500
-1.87402000 -9.12694000 -1.25744000
-1.93714000 -9.16332000 -1.24655000
-2.38553000 -9.06673000 -1.23104000
-2.44788000 -9.00342000 -1.23303000
-2.16117000 -8.98093000 -1.25072000
-1.87402000 -9.12694000 -1.25744000
-6.20813000 -7.13016000 -0.96242600
-6.39338000 -6.97161000 -0.94674900
-6.19578000 -7.03591000 -0.99949900
-0.65942600 -4.58995000 -0.59453100
-0.64074500 -4.56729000 -0.52448900
-0.67311600 -4.59471000 -0.61953700
-0.76197500 -1.39445000 -0.41713500
-0.48884200 -3.35689000 -0.63632400
-0.47916000 -3.21228000 -0.61117100
-0.50850700 -3.23761000 -0.63423500
-0.03575870 1.22223000 -0.14346800
-0.51110600 -3.07692000 -0.58936400
-0.54256400 -3.05704000 -0.60166000
-0.50850700 -3.23761000 -0.63423500
-0.48884200 -3.35689000 -0.63632400
-0.55446700 -3.31914000 -0.66855200
-0.90014000 -2.08153000 -0.68796900
-0.88861000 -1.87710000 -0.68292000
-0.79712600 -2.10673000 -0.70908800
5.08560000 -7.39023000 -1.09383000
5.09021000 -7.45146000 -1.09272000
4.93746000 -7.58065000 -1.10136000
-4.96325000 0.48912800 0.28684200
-5.00341000 0.69215900 0.34250900
-5.02426000 0.52613800 0.26901200
-0.64618400 -1.20608000 0.25819300
1.10954000 2.67604000 -0.06295220
1.28310000 2.83053000 -0.06072690
1.12967000 2.91330000 -0.05328920
0.08209270 7.59300000 1.50155000
0.45097400 4.66091000 0.61843600
0.39816900 4.62014000 0.52402700
0.45142000 4.62831000 0.49885600
0.31447900 4.41711000 0.33814200
0.35179500 4.30908000 0.30722200
-1.35873000 6.37641000 0.18103200
-1.50523000 6.05853000 0.15172700
-1.54309000 6.29608000 0.18710600
0.31170800 6.17509000 0.50305300
0.42217800 6.19083000 0.51378500
0.30948400 6.27090000 0.52183100
0.34530700 6.03963000 0.48129000
-0.94349200 -4.70790000 -0.72474100
-0.81729900 -4.77636000 -0.74694000
-0.86106900 -4.70669000 -0.73239800
0.98339800 -9.21537000 -1.23720000
1.10865000 -9.19518000 -1.22886000
1.03430000 -9.26229000 -1.21948000
-1.39898000 0.33760600 -0.10366400
1.02851000 3.22627000 0.02453300
1.15727000 3.25013000 0.09259120
0.91770000 3.39119000 0.12238500
-5.19207000 -7.86526000 -1.05014000
-5.36082000 -7.80542000 -0.99419600
-5.31556000 -7.78386000 -1.03400000
-5.52631000 -7.59122000 -1.01830000
-5.26305000 -7.80086000 -1.04633000
-5.38260000 -7.73335000 -1.01508000
6.12090000 5.14515000 -0.03398080
6.20353000 5.34142000 -0.00542234
6.65124000 4.82427000 -0.05873570
7.19944000 3.64686000 -0.18367700
7.39145000 3.76105000 -0.16226800
7.61860000 3.34866000 -0.20064900
0.41737400 5.99194000 0.48487100
-1.19837000 3.68832000 -0.11635600
-1.12189000 3.81533000 -0.10554800
-0.30931500 8.52102000 0.48998800
-0.54410400 8.52310000 0.49234700
-0.30461300 8.54104000 0.53543800
-0.95190500 -9.38912000 -1.13064000
-1.08137000 -9.37252000 -1.16669000
-1.08268000 -9.34663000 -1.20921000
-9.00361000 1.04819000 -0.13238500
-9.05769000 0.70303400 -0.16186600
-9.06096000 1.10460000 -0.11363000
-9.05769000 0.70303400 -0.16186600
-9.00361000 1.04819000 -0.13238500
-8.91640000 1.13425000 -0.13287400
1.01439000 -0.66309400 -0.19779600
0.97069000 -0.55425800 -0.21257200
0.98753600 -0.66627600 -0.17578700
-7.79067000 -5.48607000 -0.19646900
-7.95196000 -5.24191000 -0.00283382
-8.00005000 -5.15851000 -0.22935500
2.35264000 3.56530000 0.13786800
2.45795000 3.69688000 0.23446900
2.27866000 3.75755000 0.23579500
0.19306600 -1.83955000 -0.55156400
0.00761700 -1.95686000 -0.57152700
0.12238700 -2.02055000 -0.57481300
8.22270000 -2.41906000 -0.71715800
8.25504000 -2.25877000 -0.70533900
8.44773000 -2.45868000 -0.71148800
0.00469934 -1.57978000 -0.45523300
0.04173590 -1.55922000 -0.38771800
-1.11462000 -9.49914000 -0.06821900
-0.98869700 -9.49985000 -0.03793180
-0.96584500 -9.49713000 0.13331100
-1.04287000 -9.46806000 -0.46940000
-1.00886000 -9.49628000 -0.17832500
-1.06193000 -9.48218000 -0.33770700
-8.06744000 -4.68764000 -0.72768200
-7.99422000 -4.88248000 -0.73888000
-8.13426000 -4.76740000 -0.69782100
-1.41267000 0.27032500 -0.11761600
-1.46445000 0.27382900 -0.13682900
-1.50661000 0.08976770 -0.16878800
0.83751200 -0.91852800 -0.28171000
0.77030700 -1.05750000 -0.33153900
0.84796600 -0.91839400 -0.32213200
0.50054400 5.65512000 0.56396800
-1.04928000 -5.66324000 -1.04175000
-1.02544000 -5.77043000 -1.04451000
-1.05306000 -5.77534000 -1.05809000
0.92254300 0.50447400 -0.09039810
0.86620700 0.47835400 -0.09747780
0.89951700 0.43633000 -0.07548360
0.79163800 0.57709400 -0.14207000
4.33612000 -8.00191000 -1.13901000
4.40362000 -7.96010000 -1.14740000
4.47835000 -8.02273000 -1.12236000
4.83420000 6.74189000 0.15862600
4.81386000 6.58865000 0.13774800
4.51540000 6.78020000 0.15818700
4.22652000 6.70146000 0.14527300
4.51540000 6.78020000 0.15818700
4.81386000 6.58865000 0.13774800
-0.86786600 -5.74109000 -0.35493400
-0.87285800 -5.78109000 -0.35753600
-0.78375400 -9.02008000 -0.04127250
0.04806080 0.82184800 -0.16895200
0.16075600 0.77122500 -0.12600000
0.20010100 0.81052900 -0.15789500
-1.14533000 -8.39562000 -0.49921800
-1.17817000 -8.39165000 -0.46715600
-1.16639000 -8.40035000 -0.42246300
-1.19527000 -8.37068000 -0.50794800
-0.70484100 -4.29857000 -0.32816800
-0.60021900 -4.49046000 -0.40828700
-0.55321200 -4.39713000 -0.33787700
0.01056280 7.44165000 1.30322000
0.29541800 7.42531000 1.26482000
0.22632300 7.45565000 1.33598000
-0.75762500 -9.51237000 0.13950600
-0.96584500 -9.49713000 0.13331100
-0.98869700 -9.49985000 -0.03793180
-0.72343200 1.39074000 -0.37359200
-0.82358600 1.65343000 -0.34498100
-0.74438600 1.59911000 -0.35009200
6.81215000 -5.54851000 -0.94586500
6.89292000 -5.18379000 -0.93040600
7.01580000 -5.24502000 -0.92882700
6.81215000 -5.54851000 -0.94586500
-7.23030000 -6.09085000 -0.83189600
-7.37786000 -6.00893000 -0.75151200
-7.31663000 -5.98370000 -0.81584900
-7.23030000 -6.09085000 -0.83189600
-7.31663000 -5.98370000 -0.81584900
-7.15387000 -6.05686000 -0.86995100
-1.31734000 -1.20672000 -0.07158430
-1.41521000 -1.24727000 -0.15916500
-1.38850000 -1.27636000 -0.17419800
-1.43467000 -1.21206000 -0.15463600
-1.11046000 -5.58773000 -1.05152000
-1.04928000 -5.66324000 -1.04175000
-1.05306000 -5.77534000 -1.05809000
0.49032000 5.50939000 0.49487200
0.49371400 5.43274000 0.42833100
0.55640200 5.50199000 0.54917000
-7.73702000 1.19583000 0.42769400
-7.68948000 1.04353000 0.31075200
-7.66414000 1.21686000 0.35613200
0.49961800 4.95884000 0.93247100
0.43915200 4.92642000 0.93339600
0.48810600 4.86872000 0.90740700
-1.25160000 -8.76472000 -1.24875000
-1.09929000 -8.77595000 -1.25971000
-1.09646000 -8.88107000 -1.26497000
-3.54374000 -8.61112000 -1.19977000
-3.58777000 -8.66917000 -1.18291000
-3.83061000 -8.56311000 -1.17226000
-1.97830000 -8.06409000 -0.54790300
-2.08570000 -8.04753000 -0.58425400
-2.16535000 -8.09111000 -0.48127500
-4.55594000 -8.21536000 -1.10624000
-4.75444000 -8.11055000 -1.08081000
-4.59988000 -8.07413000 -1.09326000
0.32553700 3.30867000 0.08958860
-8.32196000 -4.42203000 -0.66200200
-8.20703000 -4.64757000 -0.68683900
-8.27821000 -4.60446000 -0.65382400
-8.32196000 -4.42203000 -0.66200200
-8.21244000 -4.60047000 -0.69000500
-8.20703000 -4.64757000 -0.68683900
-0.48900800 -2.92393000 -0.56544500
-0.51950700 -2.70397000 -0.45365200
-0.55569900 -2.70340000 -0.51227300
8.04733000 2.25126000 -0.30279500
8.23569000 1.58302000 -0.36607300
7.90050000 1.36731000 -0.40159000
8.04733000 2.25126000 -0.30279500
8.41804000 1.40093000 -0.37640400
8.23569000 1.58302000 -0.36607300
-0.40846800 -3.78701000 -0.65464000
-0.28536900 -3.88013000 -0.59423400
0.40618100 6.60677000 0.65852900
0.45109500 6.68838000 0.79772600
0.37763400 6.61834000 0.67395500
-6.64516000 -0.43993700 -0.43675000
-6.72562000 -0.37446800 -0.43584000
-6.53723000 -0.38112700 -0.43631200
4.40362000 -7.96010000 -1.14740000
4.33612000 -8.00191000 -1.13901000
4.19738000 -8.00942000 -1.16515000
-1.05128000 -3.94081000 -0.91862000
-0.97251200 -3.81801000 -0.89671500
-0.97792000 -3.94394000 -0.91241400
-1.53409000 -1.14019000 -0.21477100
-1.47353000 -1.08969000 -0.17001700
-1.51065000 -0.92346900 -0.19235400
-3.92700000 7.47120000 0.42832500
-3.74392000 7.36974000 0.43101100
-4.43125000 7.21153000 0.41532800
-4.45125000 7.32711000 0.43517900
-3.92700000 7.47120000 0.42832500
-4.43125000 7.21153000 0.41532800
-0.02296660 7.99281000 1.86020000
-0.07857640 7.90190000 1.79109000
-0.00704428 7.87219000 1.76715000
-0.00704428 7.87219000 1.76715000
0.03094940 7.92989000 1.81018000
-0.02296660 7.99281000 1.86020000
-0.95951100 -0.40735600 0.90952300
-0.82820100 -0.45937800 0.93842000
-0.86683200 -0.36292200 0.95325500
-0.09035610 8.34925000 1.92422000
-0.26915200 8.35703000 1.93745000
-0.07790540 8.31631000 1.97943000
-0.96840100 -1.50904000 -0.36066000
0.49371400 5.43274000 0.42833100
0.49032000 5.50939000 0.49487200
0.43548400 5.45465000 0.40902600
0.32893900 3.30994000 0.09028610
-0.83027700 -4.39101000 -0.97853600
-1.00527000 -4.56959000 -0.98067200
-0.99873900 -4.40899000 -0.97407900
0.06083240 0.57493200 0.47069800
-0.72530900 0.48122300 0.47818400
-0.76019200 0.46340200 0.51099400
-0.75144200 0.43121700 0.53246300
-0.76931100 0.57845300 0.42196100
-0.58070700 -0.92850200 0.65882700
-0.53175800 -0.87210100 0.72995600
-5.02743000 -0.43702900 -0.46683100
-5.23138000 -0.43015800 -0.46344000
-5.04379000 -0.31174700 -0.46049300
-9.07263000 -2.24646000 -0.39045900
-9.04229000 -2.11551000 -0.40250300
-8.98750000 -2.48176000 -0.43524000
-1.00357000 -7.02653000 -0.63373400
-0.99082000 -6.91212000 -0.66976600
-1.00286000 -7.00064000 -0.57448000
-1.00357000 -7.02653000 -0.63373400
-0.97566700 -6.90328000 -0.69565600
-0.99082000 -6.91212000 -0.66976600
-8.88837000 -2.27470000 -0.43799400
-9.04229000 -2.11551000 -0.40250300
-8.97747000 -2.13583000 -0.44220900
0.45173700 4.72549000 0.72121200
0.46513700 4.77299000 0.77578600
0.28306100 4.69410000 0.55661600
0.39979300 4.43709000 0.33835700
0.39960100 4.36538000 0.31574700
0.54082000 4.72499000 0.77324800
0.46513700 4.77299000 0.77578600
0.45173700 4.72549000 0.72121200
-1.09795000 -8.62152000 -0.14774800
-1.05006000 -8.73022000 -0.06285660
-1.03959000 -8.69847000 -0.09621410
0.37122400 4.00325000 0.18886500
-6.90190000 -6.47490000 -0.87406000
-7.02658000 -6.40122000 -0.83116600
-6.98976000 -6.37366000 -0.85855900
-8.76338000 -3.33048000 -0.54035000
-8.80065000 -3.21780000 -0.52735200
-8.72914000 -3.26161000 -0.55789600
-1.13787000 -1.36082000 -0.24694600
-4.08501000 -7.81667000 -0.02482150
-4.20428000 -7.62717000 -0.06883900
-4.25297000 -7.68354000 -0.03835680
0.40089300 -0.06086340 0.67553700
0.58853200 -0.23083400 0.65206100
0.55874500 -0.08840750 0.67914400
2.43157000 7.98861000 0.33318400
2.68386000 7.73801000 0.28990500
2.25022000 7.89193000 0.31785400
2.25022000 7.89193000 0.31785400
2.68386000 7.73801000 0.28990500
1.84417000 7.54243000 0.26837000
-0.66577100 -1.06690000 -0.60970500
-0.82471900 -1.14997000 -0.59979900
-0.81034600 -1.00589000 -0.58203000
-1.36909000 -0.56576200 -0.54056500
-1.36417000 -0.42738400 -0.52173100
-1.22784000 -0.41903200 -0.54112300
0.39082500 7.83740000 0.33232700
0.19454400 8.24229000 0.39844200
8.15183000 -2.29994000 -0.71528500
8.25504000 -2.25877000 -0.70533900
8.22270000 -2.41906000 -0.71715800
-0.69252500 0.54754500 -0.43324300
-0.76407700 0.66988700 -0.42057000
-0.69111100 0.73786700 -0.41601400
-1.10100000 -1.77350000 -0.52171100
-1.07446000 -1.69144000 -0.50528900
-1.27486000 -1.63726000 -0.49205600
-0.51612700 -2.59166000 -0.43919600
0.25567800 2.10171000 0.01194260
0.29724800 2.19865000 0.15088400
-8.16814000 3.45205000 0.13376200
-8.15422000 3.32374000 0.11122200
-8.26184000 3.25608000 0.12112300
-0.03137450 8.05290000 1.82819000
-0.12244500 8.00589000 1.87218000
-0.93112800 -2.69648000 -0.78068800
-0.92681100 -2.60917000 -0.75585300
-0.73834900 -2.52516000 -0.77063700
-0.93112800 -2.69648000 -0.78068800
-0.93534600 -2.84298000 -0.78244000
-1.01597000 -2.66915000 -0.76115900
0.48031800 2.58486000 0.09944020
0.44921600 2.39798000 0.07314360
-0.59234100 -0.09330490 -0.49128800
-0.71973600 -0.04288590 -0.49558800
-0.71028900 0.10424100 -0.47593100
0.06496000 1.27553000 -0.02369350
0.92495100 -9.16745000 -1.24220000
1.10865000 -9.19518000 -1.22886000
0.98339800 -9.21537000 -1.23720000
-8.59438000 1.89613000 -0.07553870
-8.79134000 1.90021000 -0.04045370
-8.74601000 2.03244000 -0.03014340
-1.00886000 -9.49628000 -0.17832500
-1.04287000 -9.46806000 -0.46940000
-0.85123100 -9.50453000 -0.26023900
-0.75825900 -9.51158000 -0.19046700
-0.55365800 -9.52436000 0.02149590
0.34678000 0.75642300 -0.12339000
0.29065600 0.80998100 -0.16156300
0.04466390 1.03589000 -0.18065300
-0.08026380 1.13694000 -0.19919800
-0.55321200 -4.39713000 -0.33787700
-0.60021900 -4.49046000 -0.40828700
-0.48723000 -4.50524000 -0.37778400
0.41715500 3.35525000 0.10512700
0.17538900 -9.27733000 -1.21339000
-0.04414130 -9.33015000 -1.21994000
0.00102747 -9.27639000 -1.21274000
0.00102747 -9.27639000 -1.21274000
0.11503000 -9.16499000 -1.21484000
0.17538900 -9.27733000 -1.21339000
3.29247000 -8.53876000 -1.17960000
3.13415000 -8.67186000 -1.18403000
3.12962000 -8.60947000 -1.19497000
-7.35685000 -0.35115900 -0.41084500
-7.62361000 -0.34040900 -0.40065000
-7.47647000 -0.15532200 -0.38672000
-8.11376000 -0.32282600 -0.37050000
-8.20358000 -0.10788600 -0.34405200
-7.95714000 -0.21108900 -0.34691100
1.35140000 3.05854000 -0.02531370
1.19262000 3.05052000 -0.02728000
-0.92884200 -8.57212000 -0.22315500
-1.07132000 -8.50167000 -0.30136900
-1.14227000 -8.50432000 -0.27424900
-9.20161000 -0.89869700 -0.28467400
-9.13449000 -0.92543400 -0.31464500
-9.13630000 -1.07015000 -0.33839800
-2.81161000 -8.96891000 -1.21350000
-3.34198000 -8.75731000 -1.19151000
-3.04367000 -8.84581000 -1.20960000
0.42758700 7.35074000 1.26135000
0.40201100 7.29302000 1.22439000
0.41933500 7.27802000 1.21622000
0.34619000 7.37339000 1.23174000
-8.23363000 -0.31759600 -0.36859900
-0.63230900 -0.97449500 0.61530900
-0.53265400 -1.09400000 0.58868900
-0.56693000 -0.99257500 0.63924100
5.53734000 -6.96134000 -1.04819000
5.64101000 -6.93578000 -1.04443000
5.55102000 -7.03406000 -1.04963000
5.64101000 -6.93578000 -1.04443000
5.67580000 -7.01616000 -1.03710000
5.55102000 -7.03406000 -1.04963000
-0.79103400 -5.04097000 -0.58415200
-0.78836700 -5.16364000 -0.51336100
-0.67732200 -5.11371000 -0.54419900
-0.80892300 -5.11184000 -0.52783200
-0.79103400 -5.04097000 -0.58415200
-0.84870600 -5.10584000 -0.51251300
0.20623100 4.85033000 0.91277000
0.47615000 4.80250000 0.85087100
0.98361800 0.34760800 -0.14713500
0.94765400 0.32505700 -0.09742560
0.94993700 0.17689900 -0.17286500
-1.56799000 7.10038000 0.86368900
-1.56358000 6.82815000 0.72855100
-1.47269000 6.95091000 0.71258800
-1.02584000 -5.07560000 -0.98748200
-1.02214000 -4.98448000 -0.98714400
-0.80556000 -5.01700000 -0.98687000
0.53061500 -1.67956000 -0.30434700
0.66723600 -1.74929000 -0.40468400
0.55315200 -1.63620000 -0.33123900
-1.02831000 -7.15958000 -0.66792400
-1.05778000 -7.19542000 -0.63275000
-1.14254000 -7.35324000 -0.60664500
-1.02849000 -7.13515000 -0.62590100
-0.80266300 -2.22384000 -0.70071500
-0.91006700 -2.26825000 -0.70402800
-1.15959000 -8.42521000 -0.37977700
-1.14667000 -8.47919000 -0.29992000
-0.07022440 8.27775000 2.00529000
-0.20345500 8.29177000 2.01796000
-0.06060410 8.20375000 2.01031000
8.43277000 -1.17733000 -0.60962700
8.24564000 -1.25255000 -0.62951900
8.47007000 -0.84136900 -0.58104800
-0.79502200 0.69834100 0.21296500
-0.81552600 0.68235100 0.26917000
-0.78241500 0.64878100 0.32332100
-0.71361500 0.70929600 0.13947400
-0.79502200 0.69834100 0.21296500
-0.78241500 0.64878100 0.32332100
0.55380100 -1.42045000 -0.38393000
0.61579800 -1.36581000 -0.40140400
-1.46070000 -7.84060000 -0.77445800
-1.37136000 -7.87599000 -0.77390300
-1.39336000 -7.81393000 -0.79555100
-0.31940400 8.40070000 0.43955800
-0.27555000 -4.26000000 -0.32843800
-0.49874400 -4.29044000 -0.30952900
-1.50523000 6.05853000 0.15172700
-1.81759000 5.97312000 0.15138100
-1.54309000 6.29608000 0.18710600
-8.79134000 1.90021000 -0.04045370
-8.86089000 1.86046000 -0.03667590
-8.74601000 2.03244000 -0.03014340
-0.86500900 -5.90791000 -0.22333000
-0.83386300 -5.98921000 -0.15775900
-0.65451600 -5.93769000 -0.21032900
-0.16265600 8.43282000 1.54979000
0.04246170 8.49845000 1.12968000
-0.22615900 8.49150000 1.18799000
-0.25944000 8.52006000 0.94653800
3.21758000 -1.81952000 -0.72843800
3.11133000 -1.66635000 -0.72445000
3.19279000 -1.49888000 -0.70111700
-0.28639400 -1.08352000 0.18600300
-0.36233200 -1.14163000 0.20091100
-0.31231400 8.49281000 0.46712200
0.07142900 3.48496000 0.34569900
0.09862370 3.58083000 0.18382100
-0.13090800 3.67014000 0.40820300
-0.49364000 -2.99666000 -0.58654100
-0.50774700 -2.94899000 -0.60810100
-0.51110600 -3.07692000 -0.58936400
-1.30426000 -7.53596000 -0.63431900
-9.12179000 -1.31647000 -0.35575300
-9.17501000 -1.13725000 -0.32960300
-9.13070000 -1.16016000 -0.34158400
0.26749300 -6.29035000 -0.73434400
0.43189200 -6.44920000 -0.78284800
0.52333500 -6.32361000 -0.75954300
-1.09646000 -8.88107000 -1.26497000
-1.09929000 -8.77595000 -1.25971000
-0.90823300 -8.77354000 -1.26269000
-1.01726000 -9.14072000 -1.27260000
-7.58318000 4.38462000 0.21892600
-7.82136000 4.04026000 0.19569100
-7.69693000 4.25799000 0.21481700
-0.92681100 -2.60917000 -0.75585300
-0.19121200 -2.50537000 -0.52524900
-0.21506400 -2.61516000 -0.54971700
-0.05624330 -2.59907000 -0.57322700
-1.31883000 -8.01100000 -0.70166300
-1.31957000 -8.09581000 -0.65311800
-1.29425000 -8.11589000 -0.66879200
-1.29425000 -8.11589000 -0.66879200
-1.27663000 -8.00084000 -0.78863000
-9.11591000 -2.06969000 -0.36499100
-9.06242000 -1.96406000 -0.38970800
-9.04709000 -2.06994000 -0.39524800
-8.96746000 -1.91316000 -0.40009400
-9.04709000 -2.06994000 -0.39524800
-9.06242000 -1.96406000 -0.38970800
-5.96223000 -7.31531000 -0.96455100
-5.82011000 -7.43979000 -0.99779600
-5.88645000 -7.41494000 -0.97823700
-6.72562000 -0.37446800 -0.43584000
-6.61536000 -0.32966600 -0.43408400
-6.53723000 -0.38112700 -0.43631200
0.03415320 7.69100000 1.62348000
0.17066000 7.76322000 1.56731000
0.01864470 7.74594000 1.62906000
-8.61420000 -3.75539000 -0.58838600
-8.55185000 -3.90452000 -0.59676300
-8.64823000 -3.80603000 -0.54430800
-0.68118600 8.53220000 0.53579800
-0.29249500 8.54205000 0.65358800
-0.08331610 -1.49405000 -0.42679000
-0.06159080 -1.63152000 -0.47722400
-7.55059000 -5.64123000 -0.76466500
-7.42629000 -5.71658000 -0.80213800
-7.52029000 -5.70046000 -0.78231000
-7.51582000 -5.79923000 -0.73542400
-7.59899000 -5.65400000 -0.71177100
-7.52029000 -5.70046000 -0.78231000
-3.02953000 0.49491800 -0.40971200
-2.85111000 0.50614800 -0.39694000
-2.85807000 0.36424000 -0.42176800
-0.06159080 -1.63152000 -0.47722400
-0.16642100 -1.61112000 -0.46065700
-7.81162000 -0.33429000 -0.38366300
-7.98884000 -0.32842900 -0.36970200
-0.81034600 -1.00589000 -0.58203000
-0.82471900 -1.14997000 -0.59979900
-0.92366300 -1.28140000 -0.62422400
-9.22196000 -0.07962700 -0.21982000
-9.19500000 0.07029730 -0.21591000
-9.12216000 0.03287960 -0.24221200
-1.54795000 -0.75956900 -0.20007000
-1.46315000 -0.84221500 -0.13576200
-1.55714000 -0.67410400 -0.20025200
-1.62438000 -0.78096700 -0.25968600
-1.54795000 -0.75956900 -0.20007000
-1.55714000 -0.67410400 -0.20025200
-1.07036000 -6.90120000 -1.19055000
-0.89886200 -6.76355000 -1.17005000
-1.07188000 -6.98851000 -1.21115000
1.53530000 -9.03322000 -1.21147000
1.64249000 -9.08709000 -1.20563000
1.40545000 -9.13173000 -1.20016000
-7.13615000 -6.16349000 -0.88184800
-7.14738000 -6.20759000 -0.86235800
-6.76436000 -6.61606000 -0.89600300
-6.64688000 -6.73350000 -0.91842300
-6.81076000 -6.64073000 -0.85906200
-6.76436000 -6.61606000 -0.89600300
-6.62393000 -6.66884000 -0.94124600
-6.64688000 -6.73350000 -0.91842300
-1.06340000 6.17776000 0.72829800
-0.80993100 6.23731000 0.66200000
-0.86986200 6.30734000 0.74383600
-0.53265400 -1.09400000 0.58868900
-0.46973400 -1.11306000 0.61880000
-0.56693000 -0.99257500 0.63924100
-1.54045000 -0.10282400 -0.18511800
-1.58424000 -0.14128500 -0.21109100
-1.57598000 -0.26088300 -0.17001200
-1.57598000 -0.26088300 -0.17001200
-1.48073000 -0.11102500 -0.09737520
-1.54045000 -0.10282400 -0.18511800
0.47444400 -9.26566000 -1.20733000
0.60515600 -9.25752000 -1.23256000
0.50764400 -9.30914000 -1.19944000
-0.55903500 -0.70716000 -0.56325200
-0.77510500 -0.66123800 -0.55076100
0.16947800 3.62727000 0.14207900
0.75339100 0.63184000 -0.13801400
0.68558600 0.61736000 -0.15369300
0.92254300 0.39942000 -0.07223340
0.90806900 0.30097000 -0.04103240
0.94765400 0.32505700 -0.09742560
0.96067900 0.46481200 -0.09992050
0.92254300 0.39942000 -0.07223340
-0.87970100 -6.20480000 -0.43335600
-1.03053000 -6.19034000 -0.56441400
-0.87340700 -6.21843000 -0.56904000
-9.11507000 0.16657800 -0.22425100
-0.77040900 -4.99226000 -0.61770500
-0.34201700 0.15582100 0.35790000
-1.30643000 5.51602000 0.08931240
-1.40007000 5.43315000 0.07934530
-1.43352000 5.63597000 0.09924870
-1.73557000 5.44881000 0.08890250
-1.43352000 5.63597000 0.09924870
-1.40007000 5.43315000 0.07934530
0.28394100 -0.21337300 0.78445200
0.04442940 -0.17082700 0.89580900
0.22703400 -0.30370400 0.85459700
-2.12667000 -5.95334000 -1.06959000
-1.99748000 -5.74544000 -1.06976000
-1.93770000 -5.93482000 -1.10239000
-1.37338000 -7.71446000 -0.77465700
-1.40985000 -7.69161000 -0.74339100
-1.40026000 -7.78235000 -0.79077600
0.22203500 -6.68300000 -1.13230000
0.36805100 -6.60756000 -1.11710000
0.33327000 -6.92704000 -1.14260000
0.42472300 5.86983000 0.57055600
0.53111800 5.81638000 0.56767200
-0.62206100 -0.81719400 0.71568600
0.48105700 6.77104000 0.89362200
0.45109500 6.68838000 0.79772600
0.52775000 6.71100000 0.78640900
0.38996200 6.74283000 0.85238100
0.48105700 6.77104000 0.89362200
3.73002000 -8.40223000 -1.16640000
3.73485000 -8.32976000 -1.16685000
3.84994000 -8.27203000 -1.16363000
3.54559000 -8.47495000 -1.17870000
3.38062000 -8.50185000 -1.18089000
3.44234000 -8.47896000 -1.20160000
3.44234000 -8.47896000 -1.20160000
3.38062000 -8.50185000 -1.18089000
3.37708000 -8.43218000 -1.20444000
-0.64665500 -2.13617000 -0.55977500
-0.69780100 -2.15667000 -0.54652500
-0.62339300 -2.16647000 -0.55654800
-0.58955500 -2.21267000 -0.54192500
-1.40923000 -7.64475000 -0.69688900
-1.58767000 -7.66188000 -0.63297200
6.04568000 3.67005000 0.32977100
6.01501000 3.78144000 0.27944000
5.97235000 3.66849000 0.22888500
-1.06036000 -3.31564000 -0.83859800
-0.94889100 -3.22010000 -0.83098400
-0.95755100 -3.46112000 -0.84944100
-0.94889100 -3.22010000 -0.83098400
-0.88484600 -3.30561000 -0.83306700
-0.95755100 -3.46112000 -0.84944100
-1.65005000 -9.06173000 -1.27170000
-1.05589000 -5.92909000 -1.08463000
-1.05731000 -5.99038000 -1.09354000
-1.23331000 -6.04855000 -1.08793000
-4.25548000 -8.36161000 -1.12707000
-4.13137000 -8.42093000 -1.13852000
-4.28840000 -8.44799000 -1.05342000
-4.27014000 -8.31158000 -1.14774000
-4.13137000 -8.42093000 -1.13852000
-4.25548000 -8.36161000 -1.12707000
-0.48465600 -2.85081000 -0.49096100
-0.51950700 -2.70397000 -0.45365200
-0.48900800 -2.92393000 -0.56544500
-0.96042500 -3.52727000 -0.86513300
-0.96664900 -3.67887000 -0.88352900
-1.12156000 -3.54952000 -0.86857200
-9.13009000 -0.81514700 -0.29413300
-9.18542000 -0.77397400 -0.27926600
-9.12950000 -0.68491500 -0.28485600
-0.95860600 -9.48323000 0.18949400
-0.95860600 -9.48323000 0.18949400
-1.06063000 -9.48692000 0.16873700
-0.81450100 -0.39079900 0.98603600
-0.86683200 -0.36292200 0.95325500
-0.82820100 -0.45937800 0.93842000
-0.87961200 -0.31272900 0.95231800
-0.83905000 -0.25260500 0.99234800
-8.37666000 3.00492000 0.10111700
-8.40801000 2.92963000 0.08595000
-8.45867000 2.99394000 0.11168200
-1.03347000 -5.27573000 -0.99722400
-1.02930000 -5.16695000 -0.98847100
-0.90142000 -5.25032000 -1.00131000
1.00026000 -0.74796300 -0.14123500
0.95268600 -0.74707000 -0.09906050
0.99201100 -0.78438000 -0.14180500
0.90171500 -0.89432100 -0.35450400
0.99711900 -0.87677600 -0.27768000
-0.80809900 0.06512960 -0.47072200
-0.71028900 0.10424100 -0.47593100
-0.71973600 -0.04288590 -0.49558800
-1.07010000 -0.24397000 -0.50085300
-0.83343200 -4.60643000 -0.70873000
-0.96730400 -4.60122000 -0.72054800
-0.80784000 -4.67201000 -0.72327800
-1.06547000 -8.57469000 -0.18179100
-1.12595000 -8.53699000 -0.21655000
-1.10947000 -8.57985000 -0.17239800
-1.04240000 3.38982000 -0.15938800
-1.02509000 3.29850000 -0.16089000
-1.18161000 3.33396000 -0.16129300
-0.89003800 3.37468000 -0.15748500
-1.02509000 3.29850000 -0.16089000
-1.04240000 3.38982000 -0.15938800
-1.07699000 3.57427000 -0.12959800
-0.88509800 3.55197000 -0.14630300
-1.06101000 3.48845000 -0.14967000
-1.07699000 3.57427000 -0.12959800
-1.06101000 3.48845000 -0.14967000
-1.21304000 3.49631000 -0.13888700
-0.86513700 -1.57984000 -0.64772600
-0.99438600 -1.77096000 -0.67370100
-0.85196100 -1.43500000 -0.62427300
-0.94281300 -3.04091000 -0.81210500
-0.84778400 -3.08679000 -0.82418400
-1.07410000 -3.02263000 -0.80789800
-0.94281300 -3.04091000 -0.81210500
-1.27195000 -8.33264000 -0.53108900
-0.29445800 -2.75151000 -0.44537300
-0.23511300 -2.48142000 -0.47196900
-0.39413300 -2.75197000 -0.39439500
-0.07790540 8.31631000 1.97943000
0.13433900 8.30359000 1.98733000
-0.09035610 8.34925000 1.92422000
-0.82850200 -4.94784000 -1.00351000
-1.01812000 -4.87993000 -0.99295500
-1.01170000 -4.72298000 -0.98619200
-1.02214000 -4.98448000 -0.98714400
-1.02584000 -5.07560000 -0.98748200
-1.13840000 -4.98202000 -0.97878000
1.13830000 -9.09005000 -1.23981000
1.20808000 -9.17612000 -1.22505000
1.20808000 -9.17612000 -1.22505000
1.19224000 -9.24191000 -1.21269000
-0.41219400 -4.05990000 -0.46979500
-0.44849100 -4.07764000 -0.40529800
-0.23903400 2.93389000 0.86770600
-0.08106800 3.08242000 0.71244500
-0.18701800 3.15895000 0.89378900
0.56164400 4.93175000 0.91224100
0.49961800 4.95884000 0.93247100
0.48810600 4.86872000 0.90740700
-0.78182100 -1.39211000 -0.36966100
-0.76765000 -1.28138000 -0.31329800
-0.99225800 -2.24351000 -0.28249500
-1.22664000 -2.17449000 -0.30781700
-1.12615000 -2.37050000 -0.29174800
-1.76189000 6.14644000 0.58293400
-1.51380000 6.12613000 0.56860000
-1.60081000 6.31632000 0.59034200
-0.99615800 -6.12456000 -0.17816100
-0.88345900 -6.13885000 -0.18124100
-0.86877300 -5.95286000 -0.18256800
-0.93460300 -5.97553000 -0.17964700
-0.87346700 -6.01134000 -0.16634800
-0.87117800 -5.80278000 -0.33985900
-0.94411200 -5.81575000 -0.29141700
-0.86605100 -5.81783000 -0.30025700
-8.25074000 1.28772000 -0.15956300
-7.94335000 1.28370000 -0.16943800
-8.00735000 1.12664000 -0.18097200
-0.78067200 -5.41789000 -0.39063300
-0.84438400 -5.31907000 -0.44193600
-0.85360300 -5.41913000 -0.40290600
-0.84438400 -5.31907000 -0.44193600
-0.98565200 -5.33627000 -0.43267600
-0.92836900 -5.25503000 -0.43005300
-1.24241000 -7.46447000 -0.60277700
-0.68549000 -4.49638000 -0.44646300
-0.62537800 -4.53960000 -0.46825300
-0.62537800 -4.53960000 -0.46825300
-1.08443000 -7.53542000 -1.25183000
-1.08109000 -7.40337000 -1.24166000
-0.94549400 -7.47826000 -1.24808000
-0.93503400 -7.18309000 -1.22901000
-1.60883000 -8.02059000 -1.23157000
-1.45379000 -7.90904000 -1.23302000
-1.38615000 -8.09601000 -1.23794000
4.01452000 -4.30751000 -0.14013800
4.00702000 -4.34347000 -0.22312400
4.18624000 -4.11973000 -0.14397400
-1.34692000 3.96113000 -0.08421140
-1.34637000 4.27929000 -0.05094800
-1.20980000 4.31726000 -0.04966150
-8.94841000 -0.28877900 -0.29318500
-8.59558000 -0.30444600 -0.33162000
-0.48232600 -2.52543000 -0.42011600
-0.50859000 -2.50674000 -0.44508700
-0.51612700 -2.59166000 -0.43919600
2.10431000 -8.98060000 -1.22250000
2.34727000 -8.90104000 -1.21239000
2.10838000 -9.08899000 -1.18779000
2.10431000 -8.98060000 -1.22250000
2.14429000 -8.91995000 -1.23302000
2.34727000 -8.90104000 -1.21239000
-0.98551200 -6.76620000 -1.18727000
-1.06761000 -6.76134000 -1.18297000
-1.16076000 -6.77729000 -1.19553000
-1.06761000 -6.76134000 -1.18297000
-1.07036000 -6.90120000 -1.19055000
-5.63201000 1.91009000 -0.18436500
-5.67857000 1.74332000 -0.19972100
-5.79325000 1.89149000 -0.19589000
5.64136000 -6.90517000 -1.05642000
5.75726000 -6.81203000 -1.05309000
5.75295000 -6.88595000 -1.04467000
5.75726000 -6.81203000 -1.05309000
-8.98235000 0.77598400 -0.16926600
-7.03933000 -6.32681000 -0.86642300
-7.00126000 -6.25042000 -0.89165700
-0.69802500 0.96607200 -0.39298300
-0.78383400 1.19859000 -0.37093600
-0.71320700 1.23831000 -0.36659600
-3.27327000 -0.65701500 -0.50245900
-3.40229000 -0.47556900 -0.49231100
-3.15436000 -0.47680700 -0.48725800
-0.69111100 0.73786700 -0.41601400
-0.56581400 0.48105500 -0.44150500
-0.69252500 0.54754500 -0.43324300
-0.99657200 -8.48108000 -1.27109000
-1.10046000 -8.48804000 -1.25326000
-1.09929000 -8.36578000 -1.25331000
-0.45827500 -3.51341000 -0.64909800
-0.48177800 -3.44515000 -0.62426900
-0.52462200 -3.44522000 -0.66341800
-0.48177800 -3.44515000 -0.62426900
-0.45827500 -3.51341000 -0.64909800
-0.37152800 -3.52816000 -0.60120300
-0.72343200 1.39074000 -0.37359200
-0.74438600 1.59911000 -0.35009200
-0.66441000 1.44016000 -0.37266700
-0.71724500 1.30043000 -0.36785700
-0.77893700 1.31108000 -0.38619000
-7.78711000 -2.59076000 -0.58543300
-7.70249000 -2.45194000 -0.57596700
-7.66988000 -2.78449000 -0.60397700
0.06970150 0.79111100 -0.14633800
0.04806080 0.82184800 -0.16895200
5.40478000 6.13134000 0.08136260
5.14938000 6.47357000 0.12540600
5.65879000 5.89157000 0.05536560
5.65879000 5.89157000 0.05536560
5.65743000 5.56909000 0.01077900
5.40478000 6.13134000 0.08136260
3.29247000 -8.53876000 -1.17960000
3.12962000 -8.60947000 -1.19497000
3.06958000 -8.58264000 -1.18820000
-0.82174500 -8.06696000 -1.21885000
-1.09634000 -8.16640000 -1.23837000
-1.09371000 -8.01660000 -1.22895000
-1.21521000 -8.17593000 -1.22052000
-1.19211000 -8.06391000 -1.21174000
-1.09634000 -8.16640000 -1.23837000
-5.60391000 -0.41613800 -0.46035000
-5.64100000 -0.27418100 -0.44167500
-5.46771000 -0.42089000 -0.46893400
-5.32407000 -0.62302600 -0.49060900
-5.60391000 -0.41613800 -0.46035000
-5.46771000 -0.42089000 -0.46893400
-0.95068200 -1.94934000 -0.67091200
-0.88861000 -1.87710000 -0.68292000
-0.90014000 -2.08153000 -0.68796900
-0.91006700 -2.26825000 -0.70402800
-8.36106000 2.81820000 0.05884880
-8.59417000 2.43374000 0.04725000
-8.49423000 2.70005000 0.07016740
-8.60203000 2.33648000 0.01300450
-8.67519000 2.22833000 -0.00311631
-8.61723000 2.37276000 0.03699690
-0.97466700 -8.89441000 0.00361015
-1.00509000 -8.82558000 -0.01520350
-1.00509000 -8.82558000 -0.01520350
-1.08471000 -8.84393000 0.01188110
-0.97466700 -8.89441000 0.00361015
-0.10995800 7.48009000 1.37767000
0.18023100 7.48741000 1.38768000
0.12283900 7.54313000 1.45850000
0.18023100 7.48741000 1.38768000
0.33226200 7.54119000 1.45686000
0.12283900 7.54313000 1.45850000
-5.72094000 -7.51048000 -0.99247800
-5.77292000 -7.53863000 -0.95613300
-6.11605000 -7.19127000 -0.94923400
-6.07900000 -7.27415000 -0.92759900
-6.06158000 -7.15636000 -0.96100600
-5.96223000 -7.31531000 -0.96455100
-6.11605000 -7.19127000 -0.94923400
-9.13630000 -1.07015000 -0.33839800
-9.13449000 -0.92543400 -0.31464500
-8.96503000 -0.94581300 -0.36001400
-9.13070000 -1.16016000 -0.34158400
-9.04203000 -1.20080000 -0.37662700
-9.12179000 -1.31647000 -0.35575300
-6.21827000 -7.21570000 -0.91758800
-0.71095900 -1.01013000 -0.60083700
-0.80313000 -0.92439100 -0.59538100
-0.93928300 -0.92451800 -0.57246100
-0.80313000 -0.92439100 -0.59538100
-5.05112000 -7.94558000 -1.05121000
-4.93247000 -8.05023000 -1.04358000
-5.19207000 -7.86526000 -1.05014000
-5.06257000 -7.88370000 -1.08004000
-5.05112000 -7.94558000 -1.05121000
