-8.96089000 -0.44708000 3.41740000
-8.80644000 -0.44283500 3.80693000
-8.62639000 -0.43828200 4.18486000
-8.67239000 -0.45290600 3.74788000
-8.49282000 -0.44848800 4.11933000
-8.29045000 -0.44597200 4.47806000
-8.42128000 -0.43544600 4.54937000
-8.07584000 -0.44364600 4.82899000
-8.20348000 -0.43396600 4.90551000
-8.20348000 -0.43396600 4.90551000
-8.07584000 -0.44364600 4.82899000
-7.84761000 -0.44098300 5.17161000
-7.97211000 -0.43193800 5.25354000
-7.60862000 -0.43893200 5.50609000
-7.73111000 -0.43111600 5.59418000
-7.35333000 -0.43946700 5.82706000
-7.47160000 -0.42984800 5.92057000
-7.08207000 -0.43812900 6.13537000
-7.19712000 -0.42937100 6.23465000
-6.79805000 -0.43749900 6.43051000
-6.91194000 -0.42788400 6.53855000
-6.50074000 -0.43690900 6.70988000
-6.61332000 -0.42590700 6.82784000
-6.18983000 -0.43535300 6.97488000
-6.29457000 -0.42461600 7.09577000
-5.86356000 -0.43282300 7.22396000
-5.96626000 -0.42356000 7.35355000
-5.52980000 -0.42996100 7.46581000
-5.62846000 -0.42117800 7.60018000
-5.19217000 -0.42975200 7.70192000
-5.28578000 -0.41967700 7.83936000
-4.84722000 -0.42882500 7.92666000
-4.93729000 -0.41852800 8.06941000
-4.49413000 -0.42721600 8.13913000
-4.57790000 -0.41688700 8.28427000
-4.13098000 -0.42624800 8.33713000
-4.20964000 -0.41622900 8.48727000
-3.75909000 -0.42705000 8.52203000
-3.83108000 -0.41663100 8.67343000
-3.38014000 -0.42623300 8.69179000
-3.44627000 -0.41607000 8.84772000
-2.99530000 -0.42345400 8.84456000
-3.05429000 -0.41384000 9.00228000
-2.60713000 -0.41964000 8.97898000
-2.65794000 -0.40965000 9.13755000
-2.21524000 -0.41655300 9.09488000
-2.25635000 -0.40602200 9.24848000
-1.81696000 -0.41428200 9.18342000
-1.85029000 -0.40573400 9.33645000
-1.41566000 -0.41439000 9.25631000
-1.44171000 -0.40612000 9.41068000
-1.01099000 -0.41527800 9.31709000
-1.03072000 -0.40702000 9.47329000
-0.60300200 -0.41759000 9.36607000
-0.61588400 -0.40919400 9.51708000
-0.19451600 -0.41717400 9.39571000
-0.20032400 -0.41011100 9.54065000
0.21250300 -0.41939800 9.39181000
0.21309300 -0.41248100 9.53882000
0.61741800 -0.42303900 9.36365000
0.62460900 -0.41583100 9.51456000
1.02088000 -0.42666100 9.33021000
1.03391000 -0.41706800 9.48150000
1.42186000 -0.42883100 9.28842000
1.44064000 -0.41997700 9.44169000
1.81715000 -0.42988800 9.22281000
1.84220000 -0.42087400 9.37892000
2.20687000 -0.43078200 9.13612000
2.23735000 -0.42197100 9.28951000
2.59106000 -0.43151000 9.03623000
2.62616000 -0.42185600 9.18162000
2.97024000 -0.43441700 8.92609000
3.01011000 -0.42490100 9.06533000
3.34343000 -0.43732300 8.80266000
3.38891000 -0.42874900 8.93900000
3.71100000 -0.44073500 8.66697000
3.76128000 -0.43212100 8.79943000
3.80576000 -0.42230100 8.91540000
4.12797000 -0.43513800 8.64510000
4.17699000 -0.42656400 8.75821000
4.48679000 -0.43731200 8.47449000
4.54050000 -0.42926300 8.58575000
4.83211000 -0.43820800 8.28179000
4.89284000 -0.42854000 8.39349000
4.94784000 -0.41735100 8.49415000
5.23174000 -0.42932600 8.18147000
5.29316000 -0.41771600 8.28188000
5.34792000 -0.39465900 8.37162000
5.62461000 -0.41868100 8.05259000
5.68472000 -0.39623600 8.14129000
5.72678000 -0.34048800 8.20427000
6.00478000 -0.39914800 7.89531000
6.04898000 -0.34246600 7.95555000
6.05624000 -0.24749900 7.96822000
6.36031000 -0.34572600 7.70089000
6.36932000 -0.25176800 7.71409000
6.35673000 -0.14944300 7.70183000
6.67084000 -0.26087700 7.45173000
6.65734000 -0.15862800 7.43855000
6.63468000 -0.05659540 7.41554000
6.94508000 -0.16614500 7.16469000
6.92295000 -0.06314680 7.14280000
6.89127000 0.03305000 7.11137000
7.19843000 -0.05921210 6.86064000
7.16550000 0.03563380 6.82965000
7.10697000 0.09515560 6.77418000
6.83484000 0.09631920 7.05501000
7.46412000 -0.04857900 6.56944000
7.43047000 0.04187330 6.53928000
7.37024000 0.09557350 6.48546000
7.71924000 -0.03767260 6.26826000
7.68322000 0.04767440 6.23774000
7.62069000 0.09482290 6.18565000
7.96056000 -0.03140550 5.95628000
7.92433000 0.05246390 5.92742000
7.85872000 0.09332260 5.87692000
8.18979000 -0.03611600 5.63671000
8.15250000 0.04582550 5.60934000
8.08664000 0.08739800 5.56249000
8.41007000 -0.04360970 5.31097000
8.37388000 0.03992360 5.28694000
8.30935000 0.08511680 5.24408000
8.62020000 -0.04688010 4.97673000
8.58762000 0.03879080 4.95727000
8.52715000 0.08771760 4.92035000
8.81838000 -0.04790260 4.63213000
8.78631000 0.03716250 4.61386000
8.72898000 0.08788070 4.58172000
9.00312000 -0.05366810 4.27881000
8.97007000 0.03133640 4.26083000
8.91484000 0.08666260 4.23252000
9.17194000 -0.06693700 3.91734000
9.13892000 0.01813770 3.90066000
9.08615000 0.07939190 3.87625000
9.32528000 -0.09058090 3.55043000
9.29439000 -0.00312432 3.53644000
9.24521000 0.06536420 3.51623000
9.46390000 -0.11697700 3.17907000
9.43445000 -0.02801080 3.16790000
9.38836000 0.04717700 3.15150000
9.58648000 -0.13127400 2.80321000
9.55699000 -0.04332890 2.79466000
9.51286000 0.03552650 2.78176000
9.68298000 -0.12615400 2.42055000
9.65428000 -0.03970220 2.41466000
9.60990000 0.03744150 2.40507000
9.75967000 -0.11321500 2.03617000
9.73348000 -0.02627440 2.03219000
9.68931000 0.04908470 2.02498000
9.82540000 -0.10782500 1.65236000
9.80194000 -0.02004760 1.64905000
9.76021000 0.05547100 1.64274000
9.88392000 -0.11413400 1.26865000
9.85993000 -0.02679800 1.26527000
9.81898000 0.04925700 1.25936000
9.93240000 -0.12235700 0.88313800
9.90630000 -0.03667610 0.88050900
9.86339000 0.03906930 0.87614100
9.93395000 -0.03717530 0.49321300
9.89027000 0.03823030 0.49154400
9.86339000 0.03906930 0.87614100
9.89027000 0.03823030 0.49154400
9.93839000 -0.02924320 0.10469200
9.89766000 0.04827910 0.10547600
9.89766000 0.04827910 0.10547600
9.93182000 -0.02275060 -0.28378700
9.89001000 0.05628570 -0.28101400
9.89001000 0.05628570 -0.28101400
9.91276000 -0.02666090 -0.67180200
9.86923000 0.05537300 -0.66718300
9.86923000 0.05537300 -0.66718300
9.87775000 -0.03169580 -1.05800000
9.83670000 0.05352250 -1.05217000
9.83670000 0.05352250 -1.05217000
9.82429000 -0.02422430 -1.44053000
9.78386000 0.05788640 -1.43365000
9.78386000 0.05788640 -1.43365000
9.75333000 -0.01024430 -1.81950000
9.71030000 0.06440890 -1.81132000
9.71030000 0.06440890 -1.81132000
9.67430000 -0.00030277 -2.19775000
9.63131000 0.07035610 -2.18883000
9.63131000 0.07035610 -2.18883000
9.58874000 -0.00358520 -2.57571000
9.54358000 0.06850230 -2.56550000
9.54358000 0.06850230 -2.56550000
9.48146000 -0.01702660 -2.94945000
9.43610000 0.05780370 -2.93745000
9.43610000 0.05780370 -2.93745000
9.35790000 -0.02310840 -3.31813000
9.31670000 0.05422240 -3.30464000
9.31670000 0.05422240 -3.30464000
9.22495000 -0.01668030 -3.68536000
9.18769000 0.06022480 -3.67103000
9.18769000 0.06022480 -3.67103000
9.07645000 -0.00418578 -4.05188000
9.03903000 0.07138630 -4.03605000
9.03903000 0.07138630 -4.03605000
8.90666000 0.00207946 -4.41275000
8.86673000 0.07740500 -4.39434000
8.79587000 0.11181500 -4.36061000
8.97009000 0.10784900 -4.00734000
8.72367000 0.00232703 -4.76676000
8.68271000 0.07801250 -4.74574000
8.61149000 0.11310100 -4.70790000
8.52599000 0.00179512 -5.11193000
8.48748000 0.07571220 -5.08953000
8.42076000 0.11394700 -5.05036000
8.32258000 0.00479668 -5.45185000
8.28597000 0.07877520 -5.42781000
8.22174000 0.11765600 -5.38651000
8.10587000 -0.00446130 -5.78376000
8.07233000 0.07440760 -5.75907000
8.01201000 0.11954800 -5.71618000
7.87313000 -0.02497150 -6.10295000
7.84533000 0.06004870 -6.08045000
7.79033000 0.11530900 -6.03744000
7.84533000 0.06004870 -6.08045000
7.87313000 -0.02497150 -6.10295000
7.62646000 -0.04457110 -6.40910000
7.60474000 0.04566460 -6.38989000
7.55716000 0.11260400 -6.34917000
7.79033000 0.11530900 -6.03744000
7.36895000 -0.06073950 -6.70212000
7.35076000 0.03286750 -6.68434000
7.31032000 0.10881100 -6.64653000
7.10209000 -0.07427800 -6.98133000
7.08518000 0.02106050 -6.96349000
7.04831000 0.10172500 -6.92647000
6.82631000 -0.07584440 -7.24645000
6.80971000 0.01897850 -7.22803000
6.77406000 0.09858740 -7.18983000
6.54298000 -0.06556820 -7.49961000
6.52699000 0.02701710 -7.48053000
6.49210000 0.10257500 -7.44052000
6.25323000 -0.05683090 -7.74237000
6.23787000 0.03594480 -7.72310000
6.20444000 0.10972600 -7.68215000
5.95585000 -0.05628680 -7.97361000
5.94061000 0.03595670 -7.95402000
5.90938000 0.11166600 -7.91352000
5.65131000 -0.06374200 -8.19439000
5.63768000 0.02913360 -8.17636000
5.60906000 0.10850400 -8.13709000
5.32755000 0.02557050 -8.38861000
5.30144000 0.11037100 -8.35023000
5.60906000 0.10850400 -8.13709000
5.30144000 0.11037100 -8.35023000
5.25139000 0.14893200 -8.27503000
4.98227000 0.11483700 -8.54488000
4.93486000 0.15356900 -8.46648000
4.87840000 0.15927600 -8.37328000
4.60835000 0.15732800 -8.63996000
4.55627000 0.16328400 -8.54473000
4.50107000 0.15417000 -8.44408000
4.23068000 0.16705800 -8.70472000
4.17940000 0.15922600 -8.60252000
3.90273000 0.16849100 -8.85605000
3.85455000 0.16153000 -8.75205000
3.57226000 0.17051300 -8.99662000
3.52870000 0.16318700 -8.89332000
3.48129000 0.15134900 -8.78064000
3.19792000 0.16597400 -9.01733000
3.15525000 0.15391800 -8.90486000
3.10375000 0.13832100 -8.76998000
2.82360000 0.15707400 -9.01002000
2.77804000 0.14135800 -8.87465000
2.71599000 0.12287900 -8.69185000
2.44698000 0.14336400 -8.96071000
2.39288000 0.12486500 -8.78184000
2.32985000 0.10667800 -8.57713000
2.06755000 0.12711300 -8.86481000
2.01421000 0.10836500 -8.66355000
1.95690000 0.09007720 -8.44712000
1.69715000 0.10947700 -8.74194000
1.64900000 0.08990680 -8.52678000
1.37807000 0.10880800 -8.80956000
1.33900000 0.08787820 -8.59606000
1.05565000 0.10692400 -8.86561000
1.02601000 0.08662960 -8.65451000
0.73103600 0.10405400 -8.91106000
1.08415000 0.12664100 -9.06394000
0.75109800 0.12237600 -9.10734000
0.41737000 0.12085000 -9.14389000
0.76880100 0.13818400 -9.27682000
0.42836500 0.13525300 -9.30881000
0.08922660 0.13026900 -9.33711000
0.08439530 0.11641800 -9.16974000
-0.24969200 0.12508300 -9.34801000
-0.24797100 0.10816700 -9.17491000
-0.58831600 0.12032600 -9.33751000
-0.58035500 0.10216700 -9.16027000
-0.92679700 0.11791200 -9.30722000
-0.91273500 0.10037800 -9.13083000
-1.26489000 0.11797800 -9.27160000
-1.24453000 0.10123000 -9.09380000
-1.60170000 0.11530400 -9.22811000
-1.57533000 0.09983840 -9.05008000
-1.93629000 0.11120700 -9.16781000
-1.90449000 0.09637380 -8.99506000
-2.26793000 0.10782900 -9.09452000
-2.22958000 0.09239200 -8.92257000
-2.59351000 0.10456600 -9.00438000
-2.54845000 0.08609780 -8.83249000
-2.91291000 0.10059900 -8.89461000
-2.86268000 0.08285920 -8.72875000
-3.22982000 0.09724560 -8.77437000
-3.17479000 0.08102580 -8.61519000
-3.54479000 0.09889290 -8.64871000
-3.48393000 0.08246920 -8.49206000
-3.85392000 0.09775490 -8.51138000
-3.78833000 0.08172570 -8.35702000
-4.15990000 0.08834330 -8.36686000
-4.08944000 0.07369460 -8.21344000
-4.46398000 0.08329980 -8.21649000
-4.38849000 0.06932910 -8.06318000
-4.76124000 0.08006870 -8.05213000
-4.68439000 0.06708520 -7.90593000
-5.05463000 0.07769950 -7.88042000
-4.97730000 0.06560630 -7.74283000
-5.34637000 0.07713330 -7.70502000
-5.26833000 0.06586420 -7.57519000
-5.63552000 0.07724210 -7.52388000
-5.55709000 0.06616330 -7.40170000
-5.91642000 0.07598600 -7.32739000
-5.83794000 0.06587300 -7.21297000
-6.18793000 0.07557940 -7.11684000
-6.10845000 0.06525210 -7.00794000
-6.44439000 0.07463140 -6.88472000
-6.36570000 0.06472180 -6.78304000
-6.69050000 0.07182380 -6.63810000
-6.61361000 0.06289320 -6.54487000
-6.93869000 0.07043420 -6.39441000
-6.85968000 0.06156080 -6.30550000
-7.18557000 0.07097060 -6.14796000
-7.10258000 0.06156070 -6.06081000
-7.42187000 0.07303200 -5.88820000
-7.33695000 0.06392160 -5.80510000
-7.64371000 0.07319180 -5.61273000
-7.55603000 0.06522220 -5.53288000
-7.85470000 0.07530720 -5.32627000
-7.76465000 0.06634470 -5.24989000
-8.05729000 0.07671920 -5.03051000
-7.96383000 0.06635210 -4.95765000
-8.24880000 0.07625070 -4.72403000
-8.15647000 0.06668940 -4.65788000
-8.42954000 0.07490120 -4.40869000
-8.33885000 0.06618250 -4.34962000
-8.60118000 0.07287770 -4.08714000
-8.51348000 0.08279370 -4.46375000
-8.68414000 0.08026760 -4.13670000
-8.84333000 0.07958590 -3.80114000
-8.76444000 0.08516250 -4.18504000
-8.92682000 0.08455560 -3.84669000
-9.08325000 0.08293960 -3.50265000
-8.99621000 0.07876210 -3.46027000
-9.22625000 0.08214540 -3.14923000
-9.13577000 0.07796960 -3.11038000
-9.34947000 0.08114820 -2.78600000
-9.25760000 0.07681850 -2.75160000
-9.45931000 0.08239240 -2.41686000
-9.36718000 0.07842070 -2.38669000
-9.55823000 0.08464870 -2.04289000
-9.46570000 0.08144670 -2.01715000
-9.64036000 0.08549700 -1.66074000
-9.64196000 0.07376500 -2.06647000
-9.72377000 0.07511340 -1.67989000
-9.78903000 0.07329480 -1.28754000
-9.78903000 0.07329480 -1.28754000
-9.72377000 0.07511340 -1.67989000
-9.78444000 0.02893020 -1.69449000
-9.84810000 0.02314550 -1.29877000
-9.89350000 0.01142150 -0.89953500
-9.83200000 0.06843520 -0.89095500
-9.88160000 -0.05707410 -1.30682000
-9.92603000 -0.07464840 -0.90574900
-9.95091000 -0.09202290 -0.50273000
-9.95010000 -0.16737300 -0.91138400
-9.97572000 -0.18448400 -0.50693100
-9.98446000 -0.19258200 -0.10149900
-9.99381000 -0.27759200 -0.51084000
-10.00000000 -0.28578000 -0.10440000
-9.99417000 -0.29424700 0.30149800
-9.98288000 -0.37258400 -0.10776700
-9.96913000 -0.37865500 0.29716200
-9.93422000 -0.38724300 0.70048100
-9.89096000 -0.42786300 0.29001500
-9.85066000 -0.43004900 0.68957700
-9.79537000 -0.43042400 1.08801000
-9.74729000 -0.44875200 0.67648200
-9.69217000 -0.44857300 1.07107000
-9.62379000 -0.44814000 1.46732000
-9.57815000 -0.45978500 1.05246000
-9.50984000 -0.45796700 1.44385000
-9.43002000 -0.45903800 1.83703000
-9.54189000 -0.44873500 1.86480000
-9.33363000 -0.45831400 2.23134000
-9.44507000 -0.44831500 2.26381000
-9.22458000 -0.45571000 2.62711000
-9.33679000 -0.44630700 2.66403000
-9.09851000 -0.45243100 3.02252000
-9.09636000 -0.46499000 2.58545000
-8.96836000 -0.46007400 2.97567000
-8.82993000 -0.45634200 3.36545000
-8.79375000 -0.47103400 2.91537000
-8.64976000 -0.46499200 3.29541000
-8.48955000 -0.46197600 3.66820000
-8.43353000 -0.47761900 3.21339000
-8.27422000 -0.47388800 3.57423000
-8.09907000 -0.47128500 3.92684000
-8.31085000 -0.46015800 4.03091000
-7.90824000 -0.46948400 4.27031000
-8.11441000 -0.45798000 4.38262000
-7.70379000 -0.46772200 4.60536000
-7.90446000 -0.45613800 4.72573000
-7.90446000 -0.45613800 4.72573000
-7.70379000 -0.46772200 4.60536000
-7.48384000 -0.46632800 4.93054000
-7.68027000 -0.45386200 5.06091000
-7.24900000 -0.46517000 5.24435000
-7.44141000 -0.45211700 5.38492000
-7.00135000 -0.46311400 5.54753000
-7.18984000 -0.45124700 5.69773000
-6.74048000 -0.46307500 5.83936000
-6.92366000 -0.44954500 5.99825000
-6.46949000 -0.46157500 6.11981000
-6.64610000 -0.44946600 6.28645000
-6.18719000 -0.45947200 6.38749000
-6.35517000 -0.44801100 6.55918000
-5.89160000 -0.45816500 6.64090000
-6.05069000 -0.44759000 6.81758000
-5.58249000 -0.45615700 6.88105000
-5.73237000 -0.44411000 7.06209000
-5.26502000 -0.45446500 7.11364000
-5.40594000 -0.44139400 7.29899000
-4.93903000 -0.45292200 7.33798000
-5.07333000 -0.44084900 7.52923000
-4.60669000 -0.45233300 7.55355000
-4.73421000 -0.44073300 7.74988000
-4.26840000 -0.45321700 7.75876000
-4.38902000 -0.44065200 7.96044000
-3.92211000 -0.45283600 7.94947000
-4.03379000 -0.43995400 8.15520000
-3.56777000 -0.45116100 8.12407000
-3.66947000 -0.43986700 8.33452000
-3.20685000 -0.45060000 8.28135000
-3.29799000 -0.43803900 8.49700000
-2.84181000 -0.44939200 8.42444000
-2.92202000 -0.43630400 8.64484000
-2.47226000 -0.44744300 8.55184000
-2.54273000 -0.43388800 8.77568000
-2.09805000 -0.44504200 8.66062000
-2.15999000 -0.43088800 8.89003000
-1.72036000 -0.44248200 8.75231000
-1.77208000 -0.42812000 8.98220000
-1.33862000 -0.43945100 8.82767000
-1.38016000 -0.42671300 9.05639000
-0.95367700 -0.43963000 8.88848000
-0.98463700 -0.42709700 9.11680000
-0.56623300 -0.43919500 8.93396000
-0.58560200 -0.42780000 9.16389000
-0.17725900 -0.43937800 8.95905000
-0.18621300 -0.42818400 9.19212000
0.21125300 -0.44129200 8.96350000
0.21200200 -0.42983300 9.19387000
0.59906300 -0.44446700 8.94846000
0.60865000 -0.43395800 9.17348000
0.98541800 -0.44740000 8.91359000
1.00433000 -0.43676000 9.13925000
1.36853000 -0.44848500 8.86157000
1.39729000 -0.43752300 9.09050000
1.74626000 -0.44990500 8.79742000
1.78480000 -0.43840200 9.02545000
2.11986000 -0.44823600 8.72292000
2.16712000 -0.43856400 8.94353000
2.48867000 -0.45005900 8.63469000
2.54436000 -0.44013700 8.84909000
2.85034000 -0.45440100 8.52734000
2.91566000 -0.44321700 8.74094000
3.20599000 -0.45862200 8.40596000
3.28122000 -0.44654600 8.62007000
3.55759000 -0.46104000 8.27511000
3.64115000 -0.44963400 8.48705000
3.90302000 -0.46282000 8.13200000
3.99457000 -0.45170400 8.33907000
4.07103000 -0.44294200 8.51365000
4.34044000 -0.45433300 8.17461000
4.42416000 -0.44465300 8.34500000
4.67203000 -0.45636100 7.98936000
4.76253000 -0.44661400 8.15367000
4.98954000 -0.45861300 7.78693000
5.08740000 -0.44867800 7.94517000
5.16483000 -0.43895300 8.07183000
5.40407000 -0.45008400 7.72737000
5.48700000 -0.44071700 7.84951000
5.55829000 -0.43096300 7.95487000
5.79961000 -0.44248200 7.61944000
5.87340000 -0.43300300 7.71894000
5.94193000 -0.42090600 7.81103000
6.17618000 -0.43579200 7.47445000
6.24720000 -0.42421000 7.56203000
6.31268000 -0.40172600 7.64213000
6.53911000 -0.42787400 7.30243000
6.60707000 -0.40530300 7.37869000
6.65867000 -0.35285300 7.43675000
6.88712000 -0.41005500 7.10316000
6.94203000 -0.35927500 7.15983000
6.95721000 -0.26879700 7.17636000
7.21804000 -0.35675000 6.87794000
7.23388000 -0.26471000 6.89364000
7.22135000 -0.16198500 6.88215000
7.49812000 -0.25188100 6.60040000
7.48468000 -0.14937300 6.58812000
7.75537000 -0.23683700 6.29969000
7.74098000 -0.13573500 6.28704000
8.00007000 -0.22813400 5.98904000
7.98361000 -0.12841000 5.97521000
8.23172000 -0.22896200 5.66823000
8.21423000 -0.13080500 5.65509000
8.45304000 -0.23494000 5.34009000
8.43431000 -0.13787200 5.32731000
8.65972000 -0.23648000 5.00119000
8.64304000 -0.14095500 4.99060000
8.85650000 -0.23820100 4.65533000
8.84083000 -0.14204300 4.64542000
9.03938000 -0.24131800 4.30093000
9.02528000 -0.14673700 4.29176000
9.20952000 -0.24955800 3.93887000
9.19584000 -0.15735000 3.93027000
9.36252000 -0.27183700 3.56915000
9.34857000 -0.18122900 3.56166000
9.50031000 -0.29545100 3.19401000
9.48682000 -0.20711600 3.18815000
9.61816000 -0.30473600 2.81222000
9.60849000 -0.21908400 2.80941000
9.71841000 -0.29823800 2.42724000
9.70657000 -0.21233400 2.42526000
9.79346000 -0.28745900 2.04105000
9.78075000 -0.20044000 2.03959000
9.85300000 -0.28311900 1.65622000
9.84300000 -0.19596800 1.65490000
9.91043000 -0.28906400 1.27297000
9.90111000 -0.20210900 1.27117000
9.95742000 -0.29624200 0.88619500
9.94873000 -0.20944500 0.88500600
9.99136000 -0.29845300 0.49459500
9.97892000 -0.21065200 0.49454600
9.96042000 -0.12308000 0.49406000
9.98572000 -0.20721900 0.10283400
9.96449000 -0.11760100 0.10379600
9.98025000 -0.20689400 -0.28852500
9.95882000 -0.11406200 -0.28625100
9.96069000 -0.21551200 -0.67821400
9.93942000 -0.12104800 -0.67521400
9.92109000 -0.22105700 -1.06531000
9.90285000 -0.12714800 -1.06201000
9.86403000 -0.21432800 -1.44812000
9.84741000 -0.11917700 -1.44476000
9.79359000 -0.19822900 -1.82727000
9.77684000 -0.10273500 -1.82400000
9.71487000 -0.18565200 -2.20481000
9.69817000 -0.09031440 -2.20212000
9.62949000 -0.18822500 -2.58280000
9.61547000 -0.09265620 -2.58090000
9.52818000 -0.20084500 -2.95970000
9.50975000 -0.10670000 -2.95600000
9.40183000 -0.20671500 -3.33058000
9.38309000 -0.11343300 -3.32552000
9.25929000 -0.19819600 -3.69790000
9.24508000 -0.10611500 -3.69287000
9.10941000 -0.18545700 -4.06535000
9.09681000 -0.09288010 -4.06040000
8.94359000 -0.18285100 -4.42853000
8.92948000 -0.08799950 -4.42276000
8.76108000 -0.18418900 -4.78518000
8.74614000 -0.08879680 -4.77796000
8.56266000 -0.18061400 -5.13300000
8.54770000 -0.08652210 -5.12442000
8.35192000 -0.18082800 -5.47222000
8.34032000 -0.08455020 -5.46398000
8.13128000 -0.19451800 -5.80411000
8.12145000 -0.09731320 -5.79597000
7.89713000 -0.21388500 -6.12437000
7.88710000 -0.11888000 -6.11510000
7.88710000 -0.11888000 -6.11510000
7.89713000 -0.21388500 -6.12437000
7.64867000 -0.23038400 -6.43059000
7.63950000 -0.13808600 -6.42135000
7.38811000 -0.24627800 -6.72248000
7.38115000 -0.15490400 -6.71461000
7.11683000 -0.25909800 -6.99862000
7.11221000 -0.16856800 -6.99262000
6.83796000 -0.26095500 -7.26061000
6.83455000 -0.16988900 -7.25610000
6.55304000 -0.25475000 -7.51292000
6.55037000 -0.16061100 -7.50897000
6.26309000 -0.24973300 -7.75556000
6.26046000 -0.15368400 -7.75180000
5.96618000 -0.24550700 -7.98682000
5.96336000 -0.15139100 -7.98327000
5.66137000 -0.24613900 -8.20645000
5.65875000 -0.15641000 -8.20384000
5.35003000 -0.25082300 -8.41819000
5.34718000 -0.16285400 -8.41556000
5.33969000 -0.07018160 -8.40555000
5.02731000 -0.16118100 -8.61534000
5.01947000 -0.06708670 -8.60387000
5.00729000 0.02935100 -8.58527000
4.68929000 -0.05630580 -8.78363000
4.67656000 0.03782680 -8.76260000
4.65221000 0.11962800 -8.71973000
4.98227000 0.11483700 -8.54488000
4.34205000 0.04493280 -8.92555000
4.31903000 0.12449500 -8.88118000
4.65221000 0.11962800 -8.71973000
4.31903000 0.12449500 -8.88118000
4.27875000 0.16221800 -8.80106000
3.98388000 0.12609200 -9.03168000
3.94705000 0.16266500 -8.95215000
3.64525000 0.13107000 -9.17078000
3.61241000 0.16601500 -9.09236000
3.30226000 0.13402800 -9.29507000
3.27262000 0.16847900 -9.21582000
3.23661000 0.17258800 -9.12016000
2.92937000 0.17335800 -9.32859000
2.89657000 0.17720700 -9.22949000
2.86150000 0.16964400 -9.12371000
2.55319000 0.17951400 -9.32247000
2.52200000 0.17173800 -9.21492000
2.48822000 0.15930600 -9.09985000
2.17931000 0.17355100 -9.29213000
2.14982000 0.16173900 -9.17754000
2.11365000 0.14605600 -9.03960000
1.80931000 0.16149000 -9.24580000
1.78008000 0.14779200 -9.11573000
1.74154000 0.12936200 -8.94217000
1.44598000 0.14646200 -9.18357000
1.41442000 0.12839600 -9.00995000
1.10879000 0.14328500 -9.23512000
1.46917000 0.15898700 -9.31082000
1.12688000 0.15499200 -9.36270000
0.78246300 0.14983100 -9.40355000
1.14196000 0.16349800 -9.46873000
0.79369000 0.15857000 -9.50826000
0.44601300 0.15586300 -9.54073000
0.43771100 0.14671800 -9.43430000
0.09756820 0.15323700 -9.56694000
0.09343880 0.14338400 -9.46185000
-0.25088700 0.14904400 -9.58044000
-0.25053200 0.13931300 -9.47457000
-0.59809400 0.14536800 -9.57043000
-0.59372000 0.13558700 -9.46289000
-0.94537800 0.14211000 -9.54531000
-0.93690500 0.13188000 -9.43584000
-1.29168000 0.14065200 -9.50959000
-1.27955000 0.13072400 -9.40231000
-1.63631000 0.13720800 -9.46265000
-1.62025000 0.12758300 -9.35555000
-1.97958000 0.13023900 -9.40298000
-1.95964000 0.12169100 -9.29442000
-2.32103000 0.12789600 -9.33266000
-2.29674000 0.11941600 -9.22342000
-2.65722000 0.12659800 -9.24788000
-2.62807000 0.11775200 -9.13703000
-2.98551000 0.12306000 -9.13543000
-2.95189000 0.11367500 -9.02379000
-3.31048000 0.12008600 -9.00821000
-3.27302000 0.11001400 -8.89981000
-3.63297000 0.12151900 -8.87835000
-3.59264000 0.11167300 -8.77319000
-3.94980000 0.11969100 -8.73657000
-3.90505000 0.10978000 -8.63128000
-4.26134000 0.11203400 -8.58545000
-4.21325000 0.10025600 -8.48182000
-4.56785000 0.10329400 -8.42581000
-4.51883000 0.09371740 -8.32686000
-4.86955000 0.09801970 -8.25769000
-4.81846000 0.08970740 -8.16035000
-5.16732000 0.09482210 -8.08174000
-5.11358000 0.08670440 -7.98580000
-5.46139000 0.09367360 -7.89787000
-5.40626000 0.08535550 -7.80558000
-5.74969000 0.09297170 -7.70364000
-5.69517000 0.08567030 -7.61776000
-6.03146000 0.09115510 -7.49674000
-5.97669000 0.08411120 -7.41623000
-6.30678000 0.09029420 -7.28030000
-6.25013000 0.08337990 -7.20251000
-6.56852000 0.08866840 -7.04484000
-6.50908000 0.08216670 -6.96849000
-6.81973000 0.08557330 -6.79518000
-6.75712000 0.07907930 -6.71938000
-7.06842000 0.08398400 -6.54146000
-7.00541000 0.07770840 -6.46991000
-7.31771000 0.08514770 -6.28711000
-7.25355000 0.07856000 -6.21946000
-7.56241000 0.08738570 -6.02576000
-7.49388000 0.08059300 -5.95859000
-7.79353000 0.08769710 -5.74921000
-7.71988000 0.08029300 -5.68220000
-8.01344000 0.08933600 -5.46068000
-7.93533000 0.08355290 -5.39459000
-8.22330000 0.09179130 -5.15987000
-8.14222000 0.08577560 -5.09668000
-8.41520000 0.09116920 -4.84329000
-8.33385000 0.08479360 -4.78495000
-8.59392000 0.08795340 -4.51649000
-8.49136000 0.08957570 -4.89806000
-8.67104000 0.08707380 -4.56717000
-8.84218000 0.08355070 -4.23207000
-8.73834000 0.06401110 -4.61283000
-8.91065000 0.05715910 -4.27472000
-9.07817000 0.05074630 -3.93154000
-9.00760000 0.08176200 -3.89131000
-9.23829000 0.04416130 -3.58040000
-9.16725000 0.07942820 -3.54392000
-9.38122000 0.03492290 -3.21829000
-9.31228000 0.07664860 -3.18673000
-9.50264000 0.02511000 -2.84572000
-9.43561000 0.07208210 -2.81866000
-9.43561000 0.07208210 -2.81866000
-9.50264000 0.02511000 -2.84572000
-9.61093000 0.02606080 -2.46815000
-9.54500000 0.07241200 -2.44527000
-9.54500000 0.07241200 -2.44527000
-9.70559000 0.02902690 -2.08491000
-9.64196000 0.07376500 -2.06647000
-9.65254000 -0.05089460 -2.48493000
-9.74367000 -0.04691200 -2.09786000
-9.81964000 -0.04763310 -1.70468000
-9.76915000 -0.13481300 -2.10845000
-9.84299000 -0.13499100 -1.71294000
-9.90474000 -0.14706100 -1.31367000
-9.86336000 -0.22751000 -1.72100000
-9.92481000 -0.24129500 -1.32043000
-9.97061000 -0.26222700 -0.91674100
-9.92935000 -0.33647800 -1.32543000
-9.96716000 -0.35478100 -0.92033000
-9.98091000 -0.36539500 -0.51374000
-9.90640000 -0.42292200 -0.91957100
-9.91308000 -0.42383300 -0.51492000
-9.91048000 -0.42704300 -0.11174900
-9.81314000 -0.45176600 -0.51512200
-9.80907000 -0.45194100 -0.11617000
-9.78806000 -0.44998000 0.28116400
-9.69482000 -0.46370400 -0.12062900
-9.67407000 -0.46152200 0.27155100
-9.63385000 -0.45919300 0.66215500
-9.54485000 -0.47060300 0.26047300
-9.50595000 -0.47071500 0.64585100
-9.44988000 -0.47087300 1.03138000
-9.34476000 -0.48175500 0.62433800
-9.28648000 -0.48222100 1.00382000
-9.21756000 -0.48009700 1.38398000
-9.38297000 -0.46922700 1.41772000
-9.13814000 -0.47868200 1.76571000
-9.30555000 -0.46807100 1.80607000
-9.04155000 -0.47814000 2.14899000
-9.20959000 -0.46674900 2.19528000
-8.92370000 -0.47723300 2.53232000
-8.82310000 -0.49186900 2.09295000
-8.70774000 -0.49157500 2.47030000
-8.57838000 -0.48522200 2.84489000
-8.46919000 -0.50283500 2.40462000
-8.34045000 -0.49768400 2.76856000
-8.19744000 -0.48999400 3.12417000
-8.09399000 -0.50774000 2.68594000
-7.95318000 -0.50188600 3.02929000
-7.79946000 -0.49953200 3.36589000
-8.04133000 -0.48680300 3.47256000
-7.63160000 -0.49682600 3.69484000
-7.87003000 -0.48425400 3.81405000
-7.44935000 -0.49542700 4.01688000
-7.68372000 -0.48255000 4.14748000
-7.25354000 -0.49225000 4.33000000
-7.48386000 -0.48026700 4.47246000
-7.48386000 -0.48026700 4.47246000
-7.25354000 -0.49225000 4.33000000
-7.04346000 -0.48986800 4.63420000
-7.26853000 -0.47880500 4.78700000
-6.82023000 -0.48930600 4.93016000
-7.03859000 -0.47801000 5.09130000
-6.58403000 -0.48857700 5.21597000
-6.79615000 -0.47687900 5.38518000
-6.33671000 -0.48779600 5.49121000
-6.54198000 -0.47645500 5.66782000
-6.07949000 -0.48574700 5.75673000
-6.27786000 -0.47460300 5.94041000
-5.81165000 -0.48587800 6.01097000
-6.00281000 -0.47225200 6.20150000
-5.53241000 -0.48410900 6.25372000
-5.71517000 -0.47016600 6.44990000
-5.24252000 -0.48188000 6.48730000
-5.41605000 -0.46890600 6.68646000
-4.94443000 -0.47994800 6.71282000
-5.10849000 -0.46619200 6.91519000
-4.63832000 -0.47881800 6.92798000
-4.79211000 -0.46540600 7.13519000
-4.32470000 -0.47786700 7.13098000
-4.46856000 -0.46570900 7.34481000
-4.00548000 -0.47738000 7.32275000
-4.13895000 -0.46582200 7.54363000
-3.67948000 -0.47598600 7.50181000
-3.80226000 -0.46490500 7.72905000
-3.34755000 -0.47444000 7.66565000
-3.45929000 -0.46278300 7.89888000
-3.00949000 -0.47491400 7.81252000
-3.10981000 -0.46244900 8.05112000
-2.66602000 -0.47316000 7.94498000
-2.75579000 -0.46102000 8.18909000
-2.31834000 -0.47135800 8.06219000
-2.39741000 -0.45895800 8.31201000
-1.96506000 -0.46918900 8.16327000
-2.03271000 -0.45729700 8.41592000
-1.60776000 -0.46596300 8.24992000
-1.66482000 -0.45521600 8.50499000
-1.24863000 -0.46460500 8.32321000
-1.29443000 -0.45286000 8.57996000
-0.88616100 -0.46398000 8.38162000
-0.92064000 -0.45212800 8.64048000
-0.52185100 -0.46442100 8.42315000
-0.54499500 -0.45229800 8.68437000
-0.15601500 -0.46509400 8.44595000
-0.16761000 -0.45224200 8.70732000
0.21055900 -0.46796900 8.45154000
0.21067700 -0.45462000 8.71281000
0.57664600 -0.46912400 8.43877000
0.58831800 -0.45659900 8.69972000
0.94179600 -0.46921400 8.40714000
0.96435600 -0.45844600 8.66573000
1.30359000 -0.47101400 8.35911000
1.33683000 -0.45900200 8.61488000
1.66029000 -0.47244700 8.29880000
1.70381000 -0.45930700 8.55235000
2.01271000 -0.47433700 8.22844000
2.06706000 -0.46081500 8.48117000
2.36077000 -0.47610600 8.14444000
2.42557000 -0.46263300 8.39573000
2.70294000 -0.47966200 8.04399000
2.77795000 -0.46697200 8.29193000
3.03933000 -0.48471800 7.93108000
3.12405000 -0.47130700 8.17403000
3.37054000 -0.48832700 7.80710000
3.46560000 -0.47368300 8.04557000
3.69448000 -0.49091900 7.67094000
3.80091000 -0.47556300 7.90596000
4.00910000 -0.49172300 7.52159000
4.12651000 -0.47750700 7.75225000
4.23906000 -0.46519300 7.97300000
4.44140000 -0.47912100 7.58423000
4.56231000 -0.46633100 7.79608000
4.74675000 -0.48164900 7.40373000
4.87434000 -0.46935200 7.60485000
5.04262000 -0.48538800 7.20875000
5.17752000 -0.47349600 7.40175000
5.29909000 -0.46203800 7.57549000
5.47153000 -0.47768300 7.18670000
5.60180000 -0.46498600 7.35653000
5.71378000 -0.45162000 7.50430000
5.89492000 -0.46705200 7.12900000
6.01079000 -0.45512200 7.27012000
6.09944000 -0.44510900 7.37929000
6.29876000 -0.45721800 7.02951000
6.38792000 -0.44800900 7.13107000
6.46602000 -0.43952700 7.21986000
6.66372000 -0.45183000 6.87086000
6.74252000 -0.44360700 6.95347000
6.81701000 -0.43231500 7.03096000
7.01117000 -0.44730800 6.67901000
7.08970000 -0.43487500 6.75426000
7.16269000 -0.41170100 6.82462000
7.35930000 -0.43693100 6.47686000
7.43770000 -0.41168900 6.54689000
7.49073000 -0.34836600 6.59403000
7.70320000 -0.40689900 6.25808000
7.75150000 -0.33498700 6.29729000
7.95266000 -0.40291200 5.95553000
7.99735000 -0.32645100 5.98832000
8.18866000 -0.40233800 5.64081000
8.23094000 -0.32626300 5.66881000
8.41023000 -0.40315500 5.31506000
8.45332000 -0.33024700 5.34112000
8.61622000 -0.40022200 4.97836000
8.65813000 -0.32896600 5.00131000
8.81242000 -0.40229500 4.63509000
8.85370000 -0.33060300 4.65548000
8.99494000 -0.40360900 4.28355000
9.03573000 -0.33186600 4.30144000
9.16119000 -0.40766700 3.92246000
9.20399000 -0.33813200 3.93915000
9.31009000 -0.42040900 3.55237000
9.35602000 -0.35723600 3.56861000
9.43891000 -0.43249600 3.17496000
9.48965000 -0.37692900 3.19147000
9.55155000 -0.43527000 2.79313000
9.60521000 -0.38305100 2.80853000
9.65434000 -0.43309900 2.41168000
9.70823000 -0.37833300 2.42419000
9.73522000 -0.42942100 2.02972000
9.78598000 -0.36972300 2.03871000
9.79686000 -0.42746900 1.64817000
9.84498000 -0.36549400 1.65495000
9.85306000 -0.43304800 1.26640000
9.90116000 -0.37129200 1.27229000
9.89728000 -0.43861200 0.88033500
9.94768000 -0.37832900 0.88536300
9.92263000 -0.43880400 0.49009800
9.97944000 -0.38105200 0.49344300
9.93105000 -0.43945300 0.09956110
9.98756000 -0.38051300 0.10055600
10.00000000 -0.29682700 0.10171200
9.97822000 -0.38447600 -0.29111800
9.99251000 -0.29977900 -0.29041200
9.95162000 -0.39003200 -0.67966200
9.97000000 -0.30808700 -0.68017900
9.90551000 -0.39255000 -1.06536000
9.92741000 -0.31254200 -1.06726000
9.84844000 -0.39175700 -1.44708000
9.86982000 -0.30863500 -1.44987000
9.78255000 -0.38420300 -1.82545000
9.80065000 -0.29510000 -1.82879000
9.70572000 -0.37692200 -2.20094000
9.72251000 -0.28421000 -2.20561000
9.61642000 -0.37609700 -2.57561000
9.63331000 -0.28550800 -2.58196000
9.51608000 -0.38437200 -2.95183000
9.53419000 -0.29628500 -2.95958000
9.39155000 -0.38851100 -3.32405000
9.40873000 -0.30107500 -3.33178000
9.25185000 -0.38140600 -3.69358000
9.26599000 -0.29205900 -3.70006000
9.10269000 -0.37327000 -4.06082000
9.11637000 -0.28027800 -4.06774000
8.93545000 -0.37317200 -4.42173000
8.95090000 -0.27975600 -4.43079000
8.75344000 -0.37548200 -4.77850000
8.76910000 -0.28202700 -4.78829000
8.55633000 -0.37463200 -5.12876000
8.57057000 -0.27938500 -5.13734000
8.33705000 -0.37493900 -5.46430000
8.35574000 -0.28101400 -5.47546000
8.10999000 -0.38260900 -5.79151000
8.13317000 -0.29318700 -5.80668000
7.86956000 -0.38818700 -6.10587000
7.89838000 -0.30753600 -6.12685000
7.89838000 -0.30753600 -6.12685000
7.86956000 -0.38818700 -6.10587000
7.61446000 -0.39027800 -6.40446000
7.64732000 -0.31895200 -6.43097000
7.34581000 -0.39477700 -6.68614000
7.38133000 -0.33131600 -6.71780000
7.06641000 -0.39792700 -6.95049000
7.10672000 -0.34136600 -6.99004000
6.78408000 -0.39721700 -7.20406000
6.82616000 -0.34317200 -7.24875000
6.49812000 -0.39400900 -7.45037000
6.54073000 -0.33971500 -7.49936000
6.20819000 -0.39094200 -7.68735000
6.25029000 -0.33623500 -7.73999000
5.91330000 -0.38538100 -7.91491000
5.95337000 -0.33073800 -7.96935000
5.61549000 -0.38368100 -8.13783000
5.65069000 -0.32795900 -8.18986000
5.30571000 -0.37980200 -8.34503000
5.33912000 -0.32875500 -8.39923000
4.98602000 -0.37748100 -8.53732000
5.01920000 -0.32933600 -8.59727000
5.03085000 -0.25103700 -8.61960000
4.68979000 -0.32177500 -8.77630000
4.70052000 -0.24121900 -8.79958000
4.69730000 -0.15005500 -8.79602000
4.36439000 -0.23022300 -8.96310000
4.36187000 -0.13962400 -8.96080000
4.35442000 -0.04715820 -8.94810000
4.02400000 -0.13413800 -9.11294000
4.01657000 -0.04236330 -9.09910000
4.00514000 0.04835140 -9.07642000
3.67488000 -0.03438000 -9.23792000
3.66410000 0.05487260 -9.21451000
3.64525000 0.13107000 -9.17078000
3.98388000 0.12609200 -9.03168000
3.32961000 -0.02902760 -9.36412000
3.31979000 0.05970930 -9.34045000
3.30226000 0.13402800 -9.29507000
2.98130000 -0.03149160 -9.47943000
2.97346000 0.06061970 -9.45951000
2.95718000 0.13787400 -9.41255000
2.62276000 0.05626610 -9.55812000
2.60818000 0.13551400 -9.51027000
2.95718000 0.13787400 -9.41255000
2.60818000 0.13551400 -9.51027000
2.58303000 0.17435600 -9.42459000
2.25533000 0.14272400 -9.59053000
2.23282000 0.17657000 -9.50253000
2.20659000 0.18098400 -9.39965000
1.88025000 0.18061500 -9.56749000
1.85794000 0.18083400 -9.46611000
1.83440000 0.17274600 -9.35906000
1.50786000 0.17763700 -9.52278000
1.48910000 0.16907000 -9.41955000
1.15645000 0.17074400 -9.56896000
1.52605000 0.18005100 -9.62177000
1.17082000 0.17411100 -9.66645000
0.81541400 0.16978200 -9.70449000
0.80457100 0.16626900 -9.60785000
0.46039800 0.16755800 -9.73536000
0.45345000 0.16376900 -9.64019000
0.10447300 0.16363000 -9.75632000
0.10123600 0.16077500 -9.66391000
-0.25154700 0.15765100 -9.76909000
-0.25101000 0.15646100 -9.67748000
-0.60665200 0.15059200 -9.76354000
-0.60215000 0.15221400 -9.67089000
-0.96112500 0.14594400 -9.74137000
-0.95346600 0.14789800 -9.64668000
-1.31458000 0.14521900 -9.70691000
-1.30354000 0.14643900 -9.61055000
-1.66684000 0.13845300 -9.66105000
-1.65213000 0.14269600 -9.56452000
-2.01626000 0.13061200 -9.60302000
-1.99848000 0.13629700 -9.50641000
-2.36387000 0.12801400 -9.53303000
-2.34342000 0.13350000 -9.43632000
-2.70954000 0.12652600 -9.44902000
-2.68443000 0.13202300 -9.35250000
-3.04795000 0.12103700 -9.33786000
-3.01739000 0.12858100 -9.24066000
-3.38002000 0.11770500 -9.20832000
-3.34619000 0.12609100 -9.11115000
-3.70796000 0.11923600 -9.07437000
-3.67152000 0.12777000 -8.97860000
-4.03186000 0.11702700 -8.93240000
-3.99244000 0.12662100 -8.83743000
-4.34949000 0.10852000 -8.77913000
-4.30721000 0.11906600 -8.68539000
-4.65995000 0.10047600 -8.61376000
-4.61546000 0.10994700 -8.52237000
-4.96544000 0.09445570 -8.44140000
-4.91911000 0.10385600 -8.35210000
-5.26765000 0.08836610 -8.26199000
-5.21943000 0.09996310 -8.17480000
-5.56502000 0.08742420 -8.07288000
-5.51518000 0.09889160 -7.98817000
-5.85155000 0.08588610 -7.86525000
-5.80250000 0.09700750 -7.78727000
-6.13047000 0.08626410 -7.64421000
-6.08305000 0.09490610 -7.57321000
-6.40657000 0.08868280 -7.41890000
-6.35876000 0.09488800 -7.35208000
-6.67323000 0.08724050 -7.18091000
-6.62318000 0.09343530 -7.11549000
-6.93132000 0.08602390 -6.93097000
-6.87789000 0.09140170 -6.86555000
-7.18527000 0.08311930 -6.67451000
-7.12875000 0.08893600 -6.60997000
-7.43745000 0.07856780 -6.41447000
-7.37988000 0.08908740 -6.35300000
-7.68481000 0.06870720 -6.14762000
-7.62714000 0.08807930 -6.08966000
-7.92372000 0.06200980 -5.86980000
-7.86330000 0.08762280 -5.81313000
-8.15085000 0.05638790 -5.57870000
-8.08797000 0.08599950 -5.52374000
-8.36113000 0.05732570 -5.26963000
-8.29882000 0.08805480 -5.21913000
-8.55569000 0.06320920 -4.94585000
-8.55569000 0.06320920 -4.94585000
-8.36113000 0.05732570 -5.26963000
-8.39726000 -0.01456390 -5.30322000
-8.59543000 -0.00365301 -4.97929000
-8.78205000 0.00020794 -4.64620000
-8.73834000 0.06401110 -4.61283000
-8.61756000 -0.08823340 -5.00273000
-8.80672000 -0.08334200 -4.66982000
-8.98397000 -0.09037950 -4.32941000
-8.95659000 -0.00704856 -4.30643000
-8.91065000 0.05715910 -4.27472000
-9.15273000 -0.10328000 -3.98215000
-9.12449000 -0.01791780 -3.96082000
-9.07817000 0.05074630 -3.93154000
-9.31145000 -0.11611900 -3.62661000
-9.28299000 -0.02898610 -3.60673000
-9.23829000 0.04416130 -3.58040000
-9.45368000 -0.12881300 -3.25983000
-9.42391000 -0.04170260 -3.24125000
-9.38122000 0.03492290 -3.21829000
-9.57559000 -0.13808900 -2.88250000
-9.54586000 -0.05154140 -2.86599000
-9.68118000 -0.13885900 -2.49869000
-9.59491000 -0.22720900 -2.89610000
-9.70009000 -0.23116900 -2.51010000
-9.78950000 -0.22802000 -2.11814000
-9.70583000 -0.32403000 -2.51818000
-9.79695000 -0.32421900 -2.12539000
-9.87114000 -0.32393100 -1.72723000
-9.76414000 -0.40832200 -2.12465000
-9.83236000 -0.40775000 -1.72629000
-9.88145000 -0.41488300 -1.32419000
-9.73986000 -0.44982300 -1.71681000
-9.78313000 -0.45261800 -1.31717000
-9.80457000 -0.45394300 -0.91580500
-9.66787000 -0.46795600 -1.30852000
-9.68967000 -0.46799900 -0.91147500
-9.70013000 -0.46549600 -0.51514700
-9.56637000 -0.47663800 -0.90687600
-9.57562000 -0.47491800 -0.51540700
-9.56846000 -0.47354600 -0.12592600
-9.42815000 -0.48497900 -0.51744500
-9.41658000 -0.48464700 -0.13413900
-9.38710000 -0.48224100 0.24558500
-9.21186000 -0.49690400 -0.14908800
-9.17713000 -0.49556800 0.22307500
-9.13204000 -0.49477700 0.59446900
-8.93947000 -0.50822200 0.19451500
-8.89248000 -0.50904900 0.55966200
-8.83305000 -0.50966900 0.92622900
-9.07347000 -0.49533000 0.96729900
-8.76107000 -0.50794800 1.29432000
-9.00236000 -0.49457300 1.34107000
-8.67675000 -0.50326300 1.66395000
-8.91957000 -0.49253500 1.71585000
-8.58125000 -0.50140100 2.03495000
-8.42615000 -0.51718300 1.61197000
-8.33145000 -0.51533300 1.97603000
-8.22103000 -0.51335800 2.33477000
-8.08054000 -0.52570200 1.91099000
-7.97056000 -0.52188700 2.25783000
-7.84533000 -0.51699700 2.59671000
-7.72012000 -0.53057500 2.17295000
-7.59648000 -0.52515200 2.50046000
-7.45978000 -0.51998900 2.82089000
-7.70663000 -0.51213400 2.92845000
-7.31089000 -0.51963700 3.13438000
-7.55521000 -0.51024700 3.25300000
-7.14957000 -0.51815800 3.44153000
-7.39061000 -0.50766000 3.57059000
-6.97517000 -0.51656000 3.74255000
-7.21226000 -0.50605800 3.88115000
-6.78751000 -0.51558400 4.03716000
-7.02042000 -0.50377300 4.18389000
-7.02042000 -0.50377300 4.18389000
-6.78751000 -0.51558400 4.03716000
-6.58822000 -0.51391500 4.32513000
-6.81607000 -0.50089400 4.47949000
-6.37760000 -0.51354400 4.60479000
-6.59941000 -0.50058400 4.76738000
-6.15551000 -0.51314300 4.87503000
-6.37036000 -0.50028000 5.04525000
-5.92261000 -0.51391200 5.13617000
-6.13021000 -0.50095500 5.31378000
-5.67946000 -0.51527300 5.38790000
-5.87970000 -0.50057800 5.57220000
-5.42528000 -0.51479900 5.63025000
-5.61863000 -0.50083900 5.82004000
-5.16192000 -0.51063300 5.86431000
-5.34749000 -0.49688400 6.05836000
-4.88934000 -0.50818200 6.09016000
-5.06631000 -0.49538000 6.28881000
-4.60928000 -0.50337900 6.30406000
-4.77736000 -0.49290900 6.50980000
-4.32368000 -0.50050200 6.50426000
-4.48158000 -0.49090300 6.71808000
-4.03273000 -0.49998400 6.69275000
-4.17895000 -0.48904400 6.91378000
-3.73582000 -0.49904700 6.87103000
-3.87057000 -0.48714200 7.09850000
-3.43292000 -0.49770000 7.03635000
-3.55633000 -0.48692600 7.27063000
-3.12256000 -0.49583400 7.18801000
-3.23535000 -0.48583500 7.42810000
-2.80572000 -0.49516100 7.32554000
-2.90808000 -0.48622900 7.57015000
-2.48348000 -0.49394500 7.44822000
-2.57495000 -0.48358300 7.69753000
-2.15748000 -0.49385500 7.55627000
-2.23788000 -0.48222500 7.80988000
-1.82804000 -0.49266100 7.65149000
-1.89686000 -0.48062200 7.90801000
-1.49410000 -0.49185400 7.73366000
-1.55119000 -0.47876700 7.99217000
-1.15610000 -0.49003900 7.80286000
-1.20236000 -0.47689300 8.06331000
-0.81564400 -0.48956100 7.85704000
-0.85107600 -0.47617400 8.11963000
-0.47397100 -0.48976000 7.89527000
-0.49801400 -0.47691900 8.15932000
-0.13124500 -0.49083400 7.91746000
-0.14375300 -0.47856500 8.18209000
0.21124000 -0.49216100 7.92266000
0.21060800 -0.48084600 8.18745000
0.55340100 -0.49329100 7.91162000
0.56472400 -0.48260500 8.17540000
0.89527900 -0.49492000 7.88485000
0.91842700 -0.48322400 8.14618000
1.23560000 -0.49570200 7.84155000
1.26971000 -0.48430100 8.10055000
1.57211000 -0.49796100 7.78412000
1.61655000 -0.48569300 8.04185000
1.90389000 -0.50136500 7.71577000
1.95870000 -0.48994400 7.97260000
2.23013000 -0.50263000 7.63569000
2.29577000 -0.49076600 7.89043000
2.55149000 -0.50649200 7.54168000
2.62732000 -0.49447500 7.79294000
2.86767000 -0.51228700 7.43627000
2.95386000 -0.49962400 7.68415000
3.17705000 -0.51461300 7.32006000
3.27433000 -0.50369400 7.56463000
3.47868000 -0.51516200 7.19160000
3.58659000 -0.50518300 7.43247000
3.77192000 -0.51591000 7.05102000
3.89025000 -0.50490900 7.28725000
4.05787000 -0.51711000 6.89967000
4.18621000 -0.50540100 7.13067000
4.31472000 -0.49263000 7.35970000
4.47369000 -0.50694800 6.96238000
4.61172000 -0.49411100 7.18584000
4.75217000 -0.50927100 6.78199000
4.89884000 -0.49728800 6.99873000
5.02174000 -0.51240100 6.58951000
5.17608000 -0.50138600 6.79785000
5.32811000 -0.48922100 6.99930000
5.44592000 -0.50307600 6.58705000
5.60571000 -0.49042900 6.78120000
5.75765000 -0.47941000 6.96359000
5.87555000 -0.49268800 6.55612000
6.03479000 -0.47996500 6.73304000
6.17864000 -0.46900900 6.89405000
6.30226000 -0.48065600 6.49353000
6.45134000 -0.47002100 6.64842000
6.57333000 -0.45994700 6.77597000
6.71119000 -0.47228100 6.39001000
6.83784000 -0.46363400 6.51166000
6.92989000 -0.45526700 6.60072000
7.08916000 -0.46616000 6.23600000
7.18549000 -0.45845700 6.32185000
7.27322000 -0.44872500 6.40029000
7.43669000 -0.46002200 6.03992000
7.53139000 -0.44974400 6.11751000
7.62256000 -0.43845000 6.19225000
7.78246000 -0.45117200 5.82827000
7.87343000 -0.43817300 5.89631000
8.02061000 -0.45107200 5.52663000
8.11059000 -0.43696900 5.58792000
8.24536000 -0.45305400 5.21393000
8.33309000 -0.43717500 5.26810000
8.45625000 -0.45549800 4.88865000
8.54178000 -0.43674600 4.93680000
8.65517000 -0.45877600 4.55456000
8.73962000 -0.43931300 4.59791000
8.83765000 -0.46136900 4.21013000
8.92289000 -0.44231800 4.25015000
9.00368000 -0.46382200 3.85551000
9.08867000 -0.44569900 3.89184000
9.15210000 -0.46952100 3.49194000
9.23640000 -0.45269600 3.52439000
9.27716000 -0.47268200 3.12004000
9.36297000 -0.45820100 3.14927000
9.38703000 -0.47392500 2.74578000
9.47362000 -0.45984300 2.77053000
9.48553000 -0.47510900 2.37316000
9.57452000 -0.45974500 2.39341000
9.56407000 -0.47577700 2.00030000
9.65525000 -0.45974600 2.01625000
9.62827000 -0.48026300 1.62371000
9.71906000 -0.46209100 1.63702000
9.68278000 -0.48409600 1.24483000
9.77539000 -0.46699200 1.25659000
9.72170000 -0.48278700 0.86277600
9.81657000 -0.46867800 0.87202500
9.74057000 -0.47996800 0.47917200
9.83844000 -0.46782600 0.48496800
9.74599000 -0.48036700 0.09722700
9.84558000 -0.46727900 0.09840460
9.73295000 -0.47786600 -0.28339800
9.83590000 -0.46628700 -0.28688100
9.92195000 -0.44155100 -0.28968400
9.80695000 -0.46714100 -0.66897400
9.89229000 -0.44327800 -0.67543700
9.75605000 -0.46718100 -1.04777000
9.84339000 -0.44382300 -1.05812000
9.68930000 -0.46989400 -1.42190000
9.78232000 -0.44480000 -1.43676000
9.61468000 -0.46737800 -1.79261000
9.71314000 -0.44176100 -1.81197000
9.54248000 -0.46779300 -2.16289000
9.63983000 -0.43970700 -2.18540000
9.46319000 -0.46689000 -2.53268000
9.55584000 -0.43935300 -2.55808000
9.36153000 -0.46731900 -2.90069000
9.45232000 -0.44254900 -2.93023000
9.23957000 -0.46870000 -3.26546000
9.32817000 -0.44493000 -3.29929000
9.10490000 -0.46950200 -3.63071000
9.19231000 -0.44287800 -3.66806000
8.95483000 -0.47020800 -3.99212000
9.04399000 -0.44053400 -4.03349000
8.78621000 -0.46957900 -4.34603000
8.87469000 -0.43949800 -4.39066000
8.60208000 -0.46926000 -4.69480000
8.69088000 -0.44007900 -4.74367000
8.40358000 -0.46816800 -5.03682000
8.49341000 -0.43874500 -5.09107000
8.18849000 -0.46715300 -5.36821000
8.27554000 -0.43810800 -5.42486000
7.96140000 -0.46498800 -5.68839000
8.04569000 -0.43825700 -5.74710000
7.72446000 -0.46068400 -5.99633000
7.80523000 -0.43653000 -6.05745000
7.80523000 -0.43653000 -6.05745000
7.72446000 -0.46068400 -5.99633000
7.47650000 -0.45270500 -6.29001000
7.55266000 -0.43140800 -6.35332000
7.21588000 -0.44536900 -6.56735000
7.28656000 -0.42858200 -6.63213000
6.93980000 -0.44152000 -6.82437000
7.00689000 -0.42660300 -6.89127000
6.66049000 -0.43632300 -7.07154000
6.72535000 -0.42338700 -7.14122000
6.37605000 -0.43203300 -7.30861000
6.43978000 -0.41940800 -7.38281000
6.08906000 -0.42772000 -7.53724000
6.15116000 -0.41632400 -7.61556000
5.79958000 -0.42311500 -7.76014000
5.85884000 -0.41113200 -7.84086000
5.50603000 -0.42041000 -7.97632000
5.56389000 -0.40859700 -8.06173000
5.20491000 -0.41563800 -8.18119000
5.25876000 -0.40417200 -8.26872000
4.89367000 -0.41163900 -8.37000000
4.94236000 -0.40069300 -8.45823000
4.57440000 -0.41024100 -8.54255000
4.61914000 -0.39783700 -8.63254000
4.65948000 -0.37259300 -8.71448000
4.29140000 -0.39288600 -8.79665000
4.32816000 -0.36441800 -8.87907000
4.35502000 -0.31102200 -8.94007000
3.99485000 -0.36370600 -9.03459000
4.02016000 -0.30888600 -9.09740000
4.02761000 -0.22532900 -9.11803000
3.67954000 -0.30307600 -9.23929000
3.68575000 -0.21741500 -9.25853000
3.68184000 -0.12574100 -9.25199000
3.33953000 -0.21229800 -9.38517000
3.33605000 -0.12036100 -9.37871000
2.98945000 -0.21603500 -9.49692000
2.98656000 -0.12455200 -9.49167000
2.63787000 -0.21634000 -9.59818000
2.63517000 -0.12731000 -9.59314000
2.63029000 -0.03566060 -9.58043000
2.28159000 -0.11453000 -9.68184000
2.27672000 -0.02415810 -9.66789000
2.26894000 0.06634380 -9.64188000
1.92027000 -0.00217615 -9.74091000
1.91253000 0.08644710 -9.71139000
1.89971000 0.15567700 -9.65583000
2.25533000 0.14272400 -9.59053000
1.55483000 0.10116200 -9.77348000
1.54261000 0.16262400 -9.71161000
1.89971000 0.15567700 -9.65583000
1.54261000 0.16262400 -9.71161000
1.19515000 0.10444000 -9.82211000
1.18443000 0.16073600 -9.75692000
1.18443000 0.16073600 -9.75692000
0.83445700 0.10491700 -9.86121000
0.82590200 0.15664600 -9.79398000
0.82590200 0.15664600 -9.79398000
0.47332300 0.10845400 -9.88933000
0.46737300 0.15724200 -9.82331000
0.46737300 0.15724200 -9.82331000
0.11107800 0.10554200 -9.90660000
0.10775600 0.15250000 -9.84147000
0.10775600 0.15250000 -9.84147000
-0.25121400 0.09259380 -9.91387000
-0.25208500 0.14247700 -9.85202000
-0.25208500 0.14247700 -9.85202000
-0.61151800 0.07351940 -9.90191000
-0.61033400 0.12946200 -9.84521000
-0.61033400 0.12946200 -9.84521000
-0.97025700 0.05915310 -9.87913000
-0.96728900 0.12101800 -9.82407000
-0.96728900 0.12101800 -9.82407000
-1.32848000 0.05137000 -9.84799000
-1.32363000 0.11786600 -9.79191000
-1.32363000 0.11786600 -9.79191000
-1.68508000 0.03710160 -9.80118000
