-0.54084700 -6.97646000 -0.15285100
-0.43997000 -7.11237000 -0.15415700
3.08029000 -2.73096000 -0.05020110
2.85564000 -2.68747000 -0.05335910
2.97931000 -2.61986000 -0.05159700
2.73152000 -2.23676000 -0.05492320
2.91487000 -2.00802000 -0.04622140
2.86771000 -2.22736000 -0.04935960
-7.20165000 -3.72837000 0.00929577
-7.09606000 -3.68756000 0.02443230
7.10315000 -1.87373000 0.19245900
-8.65977000 -5.67009000 -0.00775142
-8.63369000 -5.54286000 0.00913737
-8.73041000 -5.49244000 0.00465283
0.21595100 -4.08539000 -0.12084500
0.14618800 -4.33854000 -0.12311200
-3.25253000 2.71201000 0.13118000
-2.56513000 0.02668940 0.10205500
4.54615000 6.36205000 0.00482113
-3.58867000 -9.94185000 -0.07154470
-3.69230000 -9.94861000 -0.07601940
-5.64666000 -3.12088000 0.01676010
-5.40790000 -2.96686000 0.02169010
-5.59534000 -2.99674000 0.02072990
-5.54983000 -3.11662000 0.01833410
4.46805000 -1.84916000 0.12829900
4.50536000 -1.84093000 0.13440800
4.57560000 -1.89572000 0.13799100
6.01559000 5.59289000 0.12686400
-9.10947000 2.84852000 -0.09870940
-9.08556000 2.86255000 -0.12018200
2.72162000 4.76077000 -0.00892948
2.57464000 4.97728000 -0.00376187
2.72079000 4.93000000 -0.00436574
2.84306000 5.08945000 -0.00076227
2.58298000 5.19924000 -0.00577149
2.77293000 5.27479000 -0.00448454
5.06235000 -8.13778000 0.11366800
5.44644000 -8.02041000 0.09839260
-3.06021000 -6.16682000 0.00241551
-3.18174000 -6.04471000 0.01529500
-3.21001000 -6.04449000 0.01378030
4.56497000 -5.62140000 0.09559100
4.49350000 -5.61037000 0.10216400
-5.41113000 -3.25238000 0.01761150
-4.11914000 0.31185900 0.09477920
-0.17417400 6.50355000 0.18177700
-0.16058200 4.23990000 -0.03747020
-0.16201800 3.87460000 -0.04085580
0.57786200 5.18120000 -0.02535300
0.35662500 5.28784000 -0.02606580
0.56286400 5.52189000 -0.02238310
-7.45730000 -6.63601000 -0.10133300
-7.38069000 -6.65614000 -0.06734730
-0.22757300 -4.61576000 0.03704450
-0.16395800 -4.54628000 0.05516080
-3.46390000 5.49682000 0.17040300
-8.10328000 2.98309000 0.16354200
-8.11229000 2.77721000 0.16091900
-8.05484000 2.78199000 0.15218700
-7.39993000 -3.89143000 0.00122756
-2.51458000 -9.92785000 -0.13272500
-2.66641000 -9.92602000 -0.16187900
-2.67770000 -9.89116000 -0.18462800
-2.59556000 -9.92471000 -0.17196700
2.82567000 -5.58937000 0.06598110
-6.51880000 5.23362000 -0.05111190
6.68097000 -6.17383000 -0.04608290
6.16775000 -5.22142000 0.11668700
-5.07413000 0.50874300 0.09066100
0.36139600 0.02559060 0.11277700
5.22742000 3.12128000 0.21493100
-3.37740000 -7.35905000 -0.01430500
-2.15341000 -5.23669000 0.03669800
-6.84094000 5.15927000 -0.03713360
-2.19920000 -2.11741000 0.07144580
4.17914000 -8.66055000 0.08595860
-0.62904300 -4.62490000 0.03914320
6.33633000 -5.47806000 -0.04530080
6.26446000 -5.32623000 -0.04272690
6.46812000 -5.34554000 -0.04000450
6.69252000 -5.66847000 -0.04226160
6.60524000 -5.60451000 -0.04334070
-2.47255000 -1.99185000 0.06782250
-2.44218000 -1.98215000 0.07602930
-2.59488000 -2.01753000 0.06883220
-7.48384000 -4.28203000 0.03900460
-0.56358700 2.25876000 0.14709900
8.69821000 3.93447000 0.09776890
-3.38472000 -8.03519000 -0.19490400
-3.37609000 -7.72994000 -0.19161800
-4.08738000 -8.82771000 -0.21707900
-3.84774000 -8.88797000 -0.21340700
0.12944800 -8.52746000 -0.00471223
0.09017590 -8.48887000 0.00132655
-0.10138200 -8.70429000 0.01402780
0.01046390 -8.70639000 0.01660170
-7.13670000 3.20859000 0.12054800
-2.63843000 -2.03914000 0.07401970
2.93651000 1.51296000 -0.02304640
2.97771000 1.75012000 -0.02072000
3.02400000 1.53591000 -0.02025470
2.98073000 2.02975000 -0.01668090
3.11459000 2.19831000 -0.01451290
7.00930000 -3.45187000 0.17979700
-3.29820000 -4.45557000 0.02627370
-3.19661000 -4.30115000 0.04529090
-3.35157000 -4.40099000 0.03815320
-2.37349000 3.65975000 0.14899000
-2.30782000 -8.08860000 -0.02893670
-2.30542000 -8.14154000 -0.02406600
-2.37636000 -8.17600000 0.00812761
0.13404100 -1.22961000 0.22963200
0.15180100 -1.28269000 0.20576400
0.13069500 -1.25033000 0.24907500
0.12125100 -1.22967000 0.27034000
5.29681000 -1.94306000 -0.01202810
5.48919000 -1.85574000 -0.00682086
5.36264000 -2.07176000 -0.01341400
5.70826000 -2.74780000 -0.01708680
5.61780000 -2.74438000 -0.01987850
5.72310000 -2.61662000 -0.01360210
-0.95136600 -1.81970000 0.08263230
3.97506000 -5.44044000 0.07912790
3.57339000 3.54823000 0.16996700
5.82206000 3.72969000 0.20433900
5.88008000 3.67261000 0.20939700
-6.87089000 4.49952000 0.21791100
-6.90834000 4.33041000 0.21765400
-6.94535000 4.72585000 0.21170400
-6.95559000 4.55616000 0.21650500
2.36184000 4.55237000 0.16970000
-0.89262100 -2.90234000 0.05961570
-0.97155100 -2.99549000 0.05863560
3.19166000 -2.03012000 0.12330000
-0.92596400 -5.22874000 0.02658060
2.49102000 4.92242000 0.18513300
2.39245000 5.12572000 0.16385900
-6.74578000 -1.50051000 0.05758620
-2.08715000 2.44587000 -0.07213870
-1.83075000 2.80612000 -0.06567430
-2.00921000 2.54025000 -0.07133690
-1.88311000 3.01118000 -0.06513970
3.31616000 2.26509000 -0.01224590
3.29380000 2.43903000 -0.01272100
3.46383000 2.53699000 -0.01114700
3.10670000 2.00368000 -0.01446340
3.24074000 2.03511000 -0.01112720
5.91702000 -4.54586000 0.10758900
5.83303000 -4.55313000 0.12675500
5.87566000 -4.58836000 0.10501500
2.35007000 5.23351000 0.16404700
-1.52401000 -3.47821000 0.05213150
-4.57767000 7.75187000 0.22989000
-4.46171000 7.68661000 0.23122600
-1.44746000 -3.40156000 0.06466450
-1.45134000 -3.46551000 0.05474500
2.40472000 5.00998000 0.16685900
7.34429000 -3.54197000 0.12234000
-2.56927000 -0.97187800 0.07233670
-6.82578000 -4.18171000 -0.00122756
-6.92609000 -3.98004000 -0.00092067
-9.01778000 -4.72971000 0.00126715
-1.56532000 3.17146000 0.13404100
0.55646900 0.25784600 0.11146000
5.16572000 0.14047600 0.16004800
4.91727000 -0.00148495 0.14481200
-7.96043000 -6.38862000 -0.21935600
-7.94529000 -6.40923000 -0.21267400
-5.25369000 0.18931100 0.06808980
-5.16661000 0.14468300 0.08312730
-5.20815000 0.22343500 0.09168060
-4.13868000 -4.31628000 0.03257970
-4.08232000 -4.31624000 0.03682670
-4.14011000 -4.09158000 0.04198440
-3.93643000 -4.37868000 0.03503490
-3.98778000 -4.43214000 0.03754940
-3.89534000 -4.52643000 0.02702600
0.74476000 -3.14882000 0.04700350
0.74628500 -3.05452000 0.04799350
0.66103900 -2.94972000 0.04037080
-8.10850000 -6.34885000 -0.20449700
-8.05038000 -6.37425000 -0.16381900
-8.17153000 -6.30895000 -0.18319300
-8.17520000 -6.29260000 -0.21412900
-8.23557000 -6.26729000 -0.20388300
-8.22352000 -6.25523000 -0.22084100
-5.18420000 0.39387700 0.09253200
-2.59457000 -1.37634000 0.08898790
1.12672000 -2.96438000 0.05163660
1.04039000 -2.89052000 0.04852810
0.92482500 -3.03569000 0.05047830
-2.96072000 -7.39917000 -0.01918550
-5.49667000 -6.56929000 0.04690450
-5.52984000 -6.61847000 0.05487370
-8.37093000 -6.13782000 -0.23197800
-8.24652000 -6.23026000 -0.22793900
0.91196500 -2.89759000 0.03900460
-3.95840000 -7.22569000 -0.18990500
-3.91537000 -7.62367000 -0.19570600
0.09997650 -8.16811000 0.03237180
0.07411870 -8.20963000 0.04170720
3.12724000 -1.30331000 0.13312100
2.23109000 -9.87721000 -0.09653150
2.28268000 -9.87105000 -0.06716910
2.19966000 -9.87857000 -0.06803040
4.83149000 3.38126000 0.18754900
-2.10192000 6.10226000 0.17672800
-1.93805000 6.14371000 0.18069800
-2.18244000 6.09499000 0.17826300
-1.11500000 3.32396000 0.13940700
-1.19897000 3.33089000 0.14715800
-1.19684000 3.23423000 0.15123700
6.51364000 -2.41006000 0.15539500
-4.44034000 -0.33217300 0.06898070
-5.77337000 -0.45582900 0.06661470
-5.82044000 -0.45014700 0.05605180
-5.72439000 -0.56551700 0.06929750
-5.58668000 -0.60153200 0.06981230
-9.08823000 1.30177000 -0.04911210
-9.10086000 1.14071000 -0.09104710
-9.06277000 1.17554000 0.00627638
-9.10421000 1.13149000 -0.11441000
-3.61868000 4.46376000 0.16465100
1.85854000 -2.33794000 0.08767130
1.73156000 -2.40445000 0.07369300
-3.16386000 -0.93036900 0.08532510
3.84308000 3.67951000 0.18301500
-3.46496000 4.58354000 0.16119600
-0.03119380 1.97974000 0.13804100
-0.15756300 2.04782000 0.14018900
-0.73267300 -1.76855000 0.10789600
5.99476000 2.40427000 0.20450700
5.96261000 2.39946000 0.19129100
-0.30923500 -9.34819000 0.04084590
-4.04746000 0.07881110 0.10191700
-3.88109000 0.09144300 0.08554280
-4.02658000 4.88290000 0.15120700
-4.04397000 4.97223000 0.15267200
-6.37381000 -5.30335000 -0.00880079
-4.98441000 4.91018000 0.16114600
2.71383000 -6.88399000 0.03068890
6.49377000 3.92939000 0.21487200
6.60112000 3.83665000 0.20268500
6.34454000 3.92399000 0.19781500
-0.46492700 -5.43093000 0.03171850
2.47766000 6.96246000 0.25465900
2.33156000 6.92154000 0.24766900
-4.38469000 -4.34415000 0.01963100
-6.64805000 -0.26497400 0.07990000
-6.75616000 -0.24782800 0.07245550
-6.78182000 -0.30607700 0.07734590
-5.23440000 -1.79091000 0.05502220
-5.23901000 -1.87771000 0.04720150
8.38466000 -5.49412000 0.15948300
6.12581000 -0.04981500 0.18560800
6.20264000 0.01877960 0.18814300
-3.63482000 -6.92772000 -0.00925617
-7.34756000 -4.12296000 -0.00913737
-7.39209000 -4.30106000 -0.00680106
6.88415000 4.81624000 0.03038200
6.95331000 4.87783000 0.03276780
7.16465000 4.72968000 0.03203530
7.05279000 4.49903000 0.02964940
7.22971000 4.51892000 0.02994640
7.22158000 4.08491000 0.02820410
3.03678000 -3.09999000 0.10095700
3.04908000 -3.14724000 0.10239200
-4.38414000 0.12904200 0.09632360
-4.39252000 0.06495160 0.08731490
-1.57054000 -6.57379000 0.00879089
6.15131000 -0.09709570 0.18042100
6.58654000 -0.41025100 0.17146200
6.59286000 -0.55124200 0.17094700
6.54664000 -0.50060500 0.17355100
6.52729000 -0.70585500 0.17493700
-0.46054100 4.65056000 0.15333600
-4.21496000 -1.66280000 0.06335770
1.66018000 -4.72110000 -0.09353190
4.52789000 -5.64042000 0.08414700
4.46308000 -5.66848000 0.08282040
5.66752000 6.48880000 0.06135800
1.59706000 -5.19638000 -0.10101600
4.63324000 -1.68311000 0.13637800
4.66334000 -1.55352000 0.14122800
4.67256000 -1.47690000 0.13209100
-0.24678800 -0.84225200 0.14936600
-5.80947000 -0.38389800 -0.14037700
-5.62693000 -0.25118400 -0.13826800
-5.62004000 -0.36359400 -0.13753600
-5.66116000 -0.50685200 -0.14003100
-5.53175000 -0.53141300 -0.13744700
-5.54207000 -0.78874400 -0.14322800
5.76020000 6.31513000 0.06368440
5.81872000 6.15217000 0.06503080
5.90370000 5.97835000 0.04492460
0.30295900 -3.12174000 0.04504340
5.80420000 6.20030000 0.06554560
-5.26576000 -0.97654100 -0.14182200
-5.11839000 -0.63790400 -0.13617000
-5.11619000 -0.84620200 -0.13990200
-5.54781000 -0.94601000 -0.14579200
-5.58165000 -1.06752000 -0.14529700
-5.59105000 -0.86231900 -0.14276300
5.72844000 6.35276000 0.09427430
5.78055000 6.23825000 0.06937670
4.83668000 7.85346000 0.19685400
-0.66047500 -1.76857000 0.10761900
-7.66144000 4.65795000 0.15614700
-7.78412000 4.63268000 0.13732800
6.16887000 4.04934000 0.20348700
6.38881000 4.05539000 0.23973000
6.34935000 3.96049000 0.20138900
6.48795000 3.88204000 0.20490300
-4.38096000 0.08613680 -0.12407200
-4.47576000 0.11339100 -0.12914100
-4.32339000 0.18853900 -0.12731900
6.09943000 -7.05368000 -0.06063530
6.07915000 -7.08639000 -0.07045580
4.58981000 -0.09337350 -0.00648427
4.73270000 0.33500400 -0.00268280
4.65269000 -0.03775730 -0.00675156
-4.61857000 -1.07497000 -0.13867400
-4.67981000 -0.90777800 -0.13769400
-4.61343000 -0.87458400 -0.13529800
-4.26098000 -3.48634000 0.03704450
4.06229000 -7.02168000 0.05355710
4.13860000 -7.06427000 0.05979390
4.10296000 -7.11045000 0.08703770
-4.59716000 -2.04962000 0.06967370
6.97400000 -2.67712000 0.17539200
1.66232000 -2.77007000 0.08554280
1.63635000 -2.82869000 0.08648330
1.59619000 -2.72473000 0.08478060
-2.54734000 -4.37067000 0.03332220
-2.45360000 -4.42246000 0.02859020
3.03337000 5.19825000 0.17198700
-3.67486000 -2.64804000 0.06028890
6.33416000 5.47491000 0.06651570
6.45359000 5.41290000 0.05413130
6.40099000 5.43505000 0.04201410
6.57475000 5.35235000 0.07523730
6.47544000 5.35777000 0.13752600
6.64784000 5.27572000 0.13501100
6.93623000 3.36815000 0.20879300
2.91449000 3.71237000 0.18136200
-4.32395000 -3.05104000 0.03133240
-7.83312000 2.74074000 0.08458260
7.00606000 -3.65932000 0.13651600
6.96003000 -3.65059000 0.12815100
4.46274000 7.38520000 0.28393200
4.61929000 7.37051000 0.28273400
4.64785000 7.42944000 0.27955600
4.43891000 7.15706000 0.28445600
6.87965000 -3.52506000 0.13088300
-8.16526000 3.60667000 0.18080700
-7.90940000 3.75607000 0.18808300
-7.82823000 4.06406000 0.19397400
-8.05889000 3.41998000 0.17630300
7.03161000 -4.25640000 0.16626500
-0.33519200 0.18547000 0.09856090
-3.06305000 5.04629000 0.15582000
-3.11653000 5.26462000 0.17530300
3.06786000 2.22952000 0.17213500
3.09344000 2.40805000 0.16660100
3.13309000 2.28191000 0.16765100
-3.00133000 5.26868000 0.17750100
-3.06492000 5.16671000 0.16615600
-3.15830000 5.09771000 0.16796700
0.95509800 -1.74703000 0.08910670
3.94909000 -1.25737000 0.12982400
4.04737000 -1.26138000 0.13602100
-2.72965000 1.09920000 0.11378700
1.15088000 -5.09092000 0.05636860
-0.01437430 -2.56251000 0.06716910
-0.00132655 -2.70977000 0.06777300
-3.09529000 5.34655000 0.17221400
5.92363000 5.81089000 0.15802800
-1.74380000 -2.51033000 0.05600230
-1.98223000 -2.56644000 0.05861580
-0.80120800 -1.21654000 0.31372000
-0.79431800 -1.21959000 0.26499400
-5.18018000 -1.59068000 0.06237770
4.12609000 -1.14876000 0.13403100
1.62434000 2.24818000 -0.03425280
1.93498000 2.25762000 -0.03080770
2.45588000 2.48097000 -0.02271970
2.50369000 2.04478000 -0.02483820
2.33467000 2.18583000 -0.02707550
1.52345000 -2.34949000 0.08545370
1.56793000 -2.30805000 0.07820720
8.69555000 -3.65760000 0.02349190
8.71021000 -3.58565000 0.03023350
8.71060000 -3.51719000 0.05593300
3.73678000 4.95365000 0.18397500
3.68747000 4.99473000 0.17773800
-0.94351600 -1.21824000 0.08915620
-0.85339900 -1.25013000 0.21248600
4.21872000 -1.08662000 0.13320000
4.15226000 -1.05739000 0.13006200
4.33574000 -0.89118600 0.14668300
4.27945000 -0.84898400 0.13376400
1.22951000 -1.67363000 0.08328570
-1.25882000 4.67932000 0.15834500
-1.35498000 4.40271000 0.15283100
-1.16803000 4.71615000 0.16082000
-1.10604000 4.85190000 0.16100800
-3.95173000 -1.25212000 0.08566160
-3.90436000 -1.34082000 0.08321640
-3.80520000 -1.27128000 0.08723570
-3.94135000 -1.18195000 0.08661200
-4.32909000 -0.74151300 -0.13207100
-4.40543000 -0.73919700 -0.13174500
-4.11629000 -0.39067000 -0.12700300
-6.30817000 -0.52475100 0.04728070
-6.32629000 -0.75452100 0.04165770
-5.97363000 6.59945000 -0.03998470
-5.97569000 6.57207000 -0.05197310
-3.92859000 5.56843000 0.17308500
-1.02753000 5.00292000 0.16345300
6.52239000 -4.84150000 0.10941100
-4.26383000 -4.95567000 0.00894928
-4.26888000 -4.84030000 0.01168160
3.50482000 2.28001000 -0.01344370
3.63115000 1.96399000 -0.01051340
3.62010000 1.77784000 -0.00926607
3.75559000 4.87079000 0.18130200
3.71661000 4.83825000 0.19080600
-4.41330000 -6.68787000 -0.01563150
-4.34165000 -6.75610000 -0.01423570
-4.02266000 -6.75019000 -0.01052330
-4.11612000 -6.71277000 -0.01202810
2.59567000 0.84897400 0.13798100
3.06495000 1.82277000 -0.01811640
3.15136000 1.86762000 -0.01934390
3.18147000 1.76736000 -0.01675020
3.55736000 1.96213000 -0.01061240
3.44782000 1.73225000 -0.01150340
3.38038000 1.90665000 -0.00966206
2.65384000 2.67713000 -0.01993790
2.24151000 3.06138000 -0.02222470
2.77675000 2.85521000 -0.01865090
2.27420000 3.17832000 -0.02203660
2.46186000 3.17211000 -0.02247220
2.63162000 3.04384000 -0.01995770
-1.14365000 -8.18020000 0.03168880
-0.22553400 -5.15242000 0.03589610
-4.17242000 -0.46228400 -0.12965600
-4.26567000 -0.52208800 -0.12146900
2.52389000 3.26400000 -0.01923500
2.86303000 3.05018000 -0.01864100
2.70879000 3.14914000 -0.01914590
5.04490000 1.02380000 0.17856000
4.87793000 1.03682000 0.15500900
-9.17482000 -4.88052000 -0.22441500
-9.14904000 -4.81756000 -0.23016700
1.95751000 0.23687900 0.13409100
1.99328000 0.10813400 0.12942800
-4.14636000 -5.93560000 0.00472213
-4.18740000 -5.95796000 -0.00522701
-5.08282000 -2.32025000 0.03891550
1.83117000 2.60500000 -0.02883770
1.13980000 2.80588000 -0.03546050
1.23422000 2.73489000 -0.03624260
6.96181000 0.38801700 0.22499900
-7.21604000 -6.32025000 -0.21574300
-7.23893000 -6.21941000 -0.21751500
-7.08263000 -6.10401000 -0.21221900
-7.34577000 -6.33088000 -0.21791100
-7.36281000 -6.39470000 -0.21975200
-3.41240000 7.98428000 0.20015100
-8.62182000 -4.14359000 0.05431940
3.12332000 -9.74970000 -0.14554500
2.99219000 -9.68987000 -0.14860400
3.35632000 -9.69344000 -0.14588100
2.96214000 -9.43375000 -0.14906900
3.35632000 -9.69344000 -0.14588100
2.96938000 -9.61556000 -0.14873200
-0.24079900 -4.55760000 0.04339020
-0.15823600 -4.61060000 0.03968770
0.19399300 -9.80608000 -0.15408800
0.41336000 -9.82554000 -0.14184200
0.45610600 -9.80335000 -0.15394900
-1.61314000 3.04074000 -0.06239750
-1.38567000 3.13873000 -0.05776440
-1.23504000 3.83016000 -0.05216120
-1.31497000 3.55604000 -0.05330960
-6.54350000 -5.02191000 0.01610670
2.98864000 -0.39282800 0.12130000
2.77000000 -9.53649000 -0.14933600
2.67067000 -9.50753000 -0.15166300
2.76147000 -9.38776000 -0.15156400
2.71466000 -9.32676000 -0.14692100
-3.08916000 2.50216000 0.12376500
-3.35127000 2.42411000 0.11752900
7.02489000 0.29327700 0.19972500
6.98445000 0.25849000 0.19143900
5.25709000 2.41924000 0.20656600
5.14184000 2.41970000 0.20245800
5.21850000 2.36809000 0.18775700
-1.19512000 5.41977000 0.18178700
-1.13976000 5.40754000 0.17564900
-4.38339000 -6.27818000 -0.00933537
-4.18706000 -0.03212440 -0.12863600
-4.31068000 0.03600500 -0.12909100
-4.39254000 -0.36332700 -0.13573400
-4.32116000 -0.23330500 -0.13338800
-0.41846800 -6.33631000 0.02568960
-0.55428100 -6.39116000 0.02359090
-4.17462000 -3.15253000 0.05618050
-4.14325000 -3.27451000 0.04203390
-4.18667000 -3.29842000 0.05421050
6.32524000 -1.87789000 0.15485000
2.53559000 2.58759000 -0.01842320
2.83904000 2.52592000 -0.01671060
2.77744000 2.62987000 -0.02018540
1.51265000 4.71691000 0.16827400
1.53095000 4.81613000 0.16506700
0.05588350 3.44944000 0.14681200
-4.21132000 -3.21574000 0.05800200
-7.05265000 -0.41557700 0.05149800
-4.78154000 -0.38519500 -0.13512000
-4.70001000 -0.20254700 -0.12844800
-4.67356000 -0.28438700 -0.12768600
-4.62983000 -0.25487600 -0.13214000
2.62384000 2.48806000 -0.01715610
2.73429000 2.52574000 -0.01626510
5.69843000 -0.78859600 0.16989800
5.64964000 -0.79023900 0.16544300
1.55249000 4.92791000 0.15701800
1.54004000 5.02056000 0.15485000
-6.44061000 -0.48523100 0.08060290
-6.36402000 -0.53107600 0.05274530
-4.61330000 -0.33812200 -0.13789200
4.60796000 2.95282000 0.17555000
4.71103000 2.89040000 0.18375700
4.73766000 2.92854000 0.18946900
4.78147000 2.82551000 0.19374600
1.80408000 -9.72164000 -0.15178100
1.96053000 -9.80008000 -0.14612900
2.35438000 -9.82297000 -0.14316900
2.29709000 -9.87178000 -0.11680600
2.27023000 -9.84295000 -0.13553600
-3.95886000 3.09091000 0.15317700
-7.50856000 -6.02114000 0.02186830
-7.51687000 -5.80590000 0.02858030
-7.64225000 -5.98351000 0.01437430
-7.79587000 -6.06076000 -0.00002970
-7.61217000 -6.12196000 0.00862259
4.79184000 2.98023000 0.21211000
8.50324000 -0.62084600 0.24281900
8.44542000 -0.83333200 0.24482800
8.37893000 -0.97671900 0.24591700
-2.06703000 4.83700000 0.17209500
-2.02406000 4.73695000 0.16826400
-2.06915000 4.73668000 0.17521400
8.70624000 -0.75404600 0.09122530
8.69471000 -0.59784000 0.07146560
8.68242000 1.40196000 0.06027900
8.64393000 1.44530000 0.04874590
8.67968000 1.48230000 0.05401250
8.69894000 1.39296000 0.07328710
8.70365000 1.49522000 0.06528820
-2.09225000 7.00934000 -0.03874720
-2.15351000 6.97234000 -0.04198440
-2.26855000 6.99998000 -0.04120230
-2.27135000 7.11230000 -0.04147950
5.72854000 -4.44252000 0.10075900
5.68137000 -4.41638000 0.09834310
-6.33785000 -1.73288000 0.05407190
-6.31626000 -1.81499000 0.04245960
-7.83499000 0.88481100 0.05734870
-1.06308000 -6.36660000 0.02364040
-0.95202900 -6.38427000 0.03118390
-1.09420000 -6.44648000 0.02224450
-1.03858000 -6.49855000 0.00666246
-0.97908500 -6.46476000 0.02538270
-3.10573000 -1.75581000 0.07697970
-6.27293000 -1.73724000 0.04899330
-4.40065000 -0.03930160 -0.12895300
-4.52476000 -0.00460334 -0.12844800
-4.66632000 -0.10976700 -0.12775500
-2.04669000 -1.74210000 -0.12341900
-2.20581000 -1.47999000 -0.12156800
-2.05607000 -1.49693000 -0.12193400
-1.99108000 -0.30195900 -0.10639200
-2.01486000 -0.39373900 -0.10918300
-4.38589000 6.73316000 0.16954100
-4.24472000 6.70484000 0.16455200
5.27769000 -6.72618000 0.15278100
5.32093000 -6.89106000 0.14946500
-4.69355000 0.05999190 -0.13115100
-4.70567000 -0.02629350 -0.12855700
-4.82529000 0.00793952 -0.12325100
-4.65023000 0.02851100 -0.12615100
2.39172000 -6.94173000 0.03401520
2.34824000 -6.93473000 0.03702470
-0.85600300 -5.71303000 0.04090530
-0.76778700 -5.70161000 0.04768660
-0.68843100 -5.78884000 0.03636140
2.31042000 -1.76234000 0.11524200
2.40013000 -1.68022000 0.11992400
2.37220000 -1.79267000 0.12106300
2.44124000 -1.79466000 0.11716200
-2.97039000 -9.84474000 -0.01407730
-3.20735000 -9.79503000 -0.00046528
-0.75452100 2.05824000 0.12797300
-1.07979000 0.30421600 0.10542100
-8.44706000 -2.77205000 0.07578180
-8.26913000 -2.96497000 0.07677180
-7.62980000 -2.20656000 0.03030280
4.32891000 -3.66859000 0.10581700
4.39778000 -3.65123000 0.11322200
4.26891000 -3.46847000 0.11769700
-4.86655000 0.39622300 -0.12739900
-4.81022000 0.34619100 -0.12278500
-4.71336000 0.14524800 -0.12638900
-4.76142000 0.26373600 -0.12298300
-5.41987000 3.76476000 0.15806800
-5.42130000 3.83672000 0.14152500
-4.06250000 -9.98553000 -0.19284500
-4.13690000 -9.98965000 -0.13572400
-4.14898000 -9.99007000 -0.16635400
8.16654000 2.32788000 0.27699200
8.25997000 2.23800000 0.27321000
8.27868000 2.34295000 0.27407200
8.09777000 2.46470000 0.28104100
7.90519000 2.42734000 0.28261500
8.05703000 2.30857000 0.28289200
-7.91398000 -6.36952000 -0.05999190
-7.98930000 -6.37795000 -0.11155900
-7.93040000 -6.42171000 -0.13920900
-8.11003000 -6.31859000 -0.12722000
2.28880000 -1.54616000 0.10297600
2.16598000 -1.62260000 0.10066000
-1.94837000 -5.48523000 0.02718440
-1.83643000 -5.30658000 0.02337310
-2.87011000 -0.27152700 0.08938390
-1.70785000 1.78729000 0.12932900
-1.61470000 1.76795000 0.13076400
-1.46491000 1.79354000 0.13959500
8.38905000 2.17958000 0.26788400
8.47599000 2.43366000 0.26006400
-1.26678000 5.53785000 0.18941000
-1.29203000 5.59177000 0.18437100
6.39687000 -4.91558000 0.14972200
8.72043000 -5.37655000 0.05323040
8.72370000 -5.43108000 0.03348060
8.65516000 1.36917000 0.20967500
8.62430000 1.50451000 0.22753300
1.80786000 2.72881000 0.16679900
7.01400000 -3.10648000 0.17186800
4.52708000 -0.60705600 0.14003100
4.53186000 -0.69144100 0.15358300
-4.90234000 -5.06819000 0.01818570
-4.83148000 -5.10836000 0.00633577
7.16535000 -3.13708000 0.13322000
-5.23006000 0.79130800 0.10153100
3.67924000 -9.86108000 -0.12752700
3.68221000 -9.88180000 -0.10365900
-5.00076000 -2.16275000 0.05047830
-4.88200000 -2.28021000 0.05097330
4.80683000 -7.76052000 -0.09954090
4.73475000 -8.11230000 -0.10896500
4.57048000 -7.96332000 -0.10732200
4.68217000 -9.00729000 -0.12650800
2.80264000 2.97601000 0.16584900
-3.77872000 -8.70768000 -0.01993790
-4.02651000 -8.65454000 -0.04072710
0.58652400 -6.89769000 0.02091800
0.55244000 -7.10090000 0.01807680
4.37775000 -8.82514000 -0.12762600
4.42235000 -8.41559000 -0.11933000
4.57113000 -8.38112000 -0.11513300
4.50837000 -8.60419000 -0.12215200
1.70686000 4.03043000 0.15574100
-0.33414300 0.07131710 0.13837700
-0.43436700 -0.02327410 0.12716100
-0.13360600 -3.61675000 0.04728070
-0.33646900 -3.63512000 0.04716190
-0.41763600 -3.68410000 0.04887460
5.79303000 2.96458000 0.19435000
0.43950500 -6.96605000 0.01557210
0.31556100 -7.03521000 0.01427530
0.51557400 -7.04994000 0.01966070
0.08827520 -6.88370000 0.01602750
-8.01935000 1.26094000 0.12183500
-8.08355000 1.25507000 0.13834800
-8.05541000 1.09984000 0.13157600
-1.85037000 6.56473000 0.18585600
4.78203000 0.40183700 0.15922600
-0.49023100 -0.06537730 0.12375500
-0.64744700 -0.05057730 0.12337900
-1.45918000 8.08534000 0.08779010
-1.45320000 8.05793000 0.15777100
-1.31668000 8.09281000 0.06255590
7.21668000 4.08023000 0.30537400
-1.52609000 8.09000000 0.04963680
4.39749000 4.79317000 0.22227700
-5.81275000 5.10003000 0.23653200
-3.48261000 -4.81206000 0.03274800
-3.43794000 -4.85196000 0.02634300
-1.12142000 -4.52123000 0.03215410
-1.19843000 8.03667000 0.18441100
-1.23154000 8.05069000 0.16425500
-5.45283000 1.46728000 0.08707730
-5.38501000 1.50391000 0.08668130
-5.41051000 1.64279000 0.08922550
-5.53638000 5.79279000 0.23087000
-5.78611000 5.53583000 0.22911700
-4.37721000 -0.84594500 -0.13432800
-4.54385000 -0.90457000 -0.13652600
-4.52677000 -0.77061800 -0.13308100
-4.63487000 -0.67662100 -0.13217000
7.78055000 2.03299000 0.28073400
7.79616000 1.95389000 0.28132800
7.89321000 2.03344000 0.28432800
7.63281000 2.04394000 0.27897200
-3.49016000 6.65440000 -0.05633890
-3.28294000 7.09114000 -0.05263640
-3.51933000 7.08403000 -0.05495290
-3.06121000 7.35446000 -0.04766680
-9.15578000 -4.01612000 -0.06369430
-9.19255000 -3.99079000 -0.12863600
-0.87795000 -4.40128000 0.05694280
-0.84286600 -4.38671000 0.05815050
-2.11327000 8.09372000 0.07614810
-2.17515000 8.09422000 0.05698240
-2.25736000 8.08654000 0.03241140
3.02769000 1.56716000 0.17222400
3.03820000 1.65532000 0.17631300
3.92455000 -5.35255000 0.09512570
-0.70750800 3.99275000 0.14407900
-9.01986000 -0.22305900 0.05083470
-9.03923000 -0.19860700 0.03174820
-9.06152000 -0.17474900 -0.00275210
-4.31625000 0.91787500 0.12441900
-4.24257000 0.93200200 0.11604400
-5.36496000 0.60653200 0.08476080
-9.19824000 -3.94732000 -0.16017600
5.49173000 -8.25959000 0.06343690
5.52901000 -8.29691000 0.00312829
5.56420000 -8.19886000 0.01877960
5.58874000 -8.26588000 -0.06627810
7.77802000 2.08182000 0.27226000
7.69915000 2.07941000 0.28144700
7.85686000 2.14348000 0.28597100
7.85206000 2.08881000 0.28167500
8.04951000 2.21675000 0.27968500
1.56422000 3.03956000 0.15211800
-5.46386000 0.70583500 0.09060160
-3.38174000 -7.62112000 -0.01652250
0.86631800 -3.47685000 0.06015030
-5.32008000 7.85079000 -0.01926470
-5.34423000 7.83293000 0.01495840
-0.45295800 -6.10258000 0.02186830
-0.46830300 -5.98323000 0.03286680
-0.38735300 -6.05377000 0.02858030
-4.41138000 7.06303000 0.25046100
-4.53831000 6.93657000 0.24962000
-4.06043000 2.23002000 0.12448800
5.53636000 -8.34700000 -0.05096340
5.56879000 -8.31552000 -0.06101150
5.58806000 -8.28006000 -0.08982940
2.99053000 -4.72722000 0.07501950
2.94764000 -4.60566000 0.07446510
2.89279000 -4.69256000 0.08554280
3.11825000 -1.61997000 0.13329900
4.93902000 -4.43747000 0.12602300
3.58632000 1.58206000 0.15917600
3.47732000 1.68283000 0.17053100
-3.03228000 -0.39759000 0.08643380
0.20163600 6.19788000 0.19214200
4.53755000 4.44462000 0.23153300
3.61168000 1.51426000 0.15713700
3.56579000 1.45866000 0.15792900
3.44136000 1.56162000 0.16574000
-4.04499000 -0.08757230 0.09103720
-7.41553000 -5.06631000 -0.21603000
-7.32507000 -4.95406000 -0.21290200
5.41066000 -7.52690000 0.12640900
5.27080000 -7.61269000 0.12473600
5.44223000 -7.66401000 0.11684600
5.20623000 -7.35629000 0.13586300
5.24082000 -7.47856000 0.13161600
5.94430000 -6.83648000 0.14051600
5.76888000 -7.01990000 0.13558600
7.79656000 2.17047000 0.28393200
-3.75671000 -2.02407000 0.07951400
-5.79552000 2.03242000 0.09157170
-5.81264000 1.95090000 0.09406640
-5.70023000 1.94945000 0.09057190
7.40409000 2.06696000 0.21525800
-1.37542000 8.08666000 0.09110650
2.00928000 -9.31019000 0.05608150
1.98843000 -9.14991000 0.05996220
1.85146000 -9.17179000 0.05617060
2.02800000 -9.08107000 0.06004140
3.16589000 5.22459000 0.00435584
3.04065000 5.30058000 -0.00011880
2.37191000 -9.21649000 0.06582280
2.10327000 -9.26728000 0.05571520
-0.38252200 -4.75290000 0.03850960
-1.61994000 -7.35479000 0.00957296
-1.72698000 -7.28335000 -0.00868199
-3.95563000 -2.18612000 0.05257700
-4.12687000 -2.08191000 0.05482420
-3.17421000 3.61402000 0.16431400
-0.14112900 -0.82094800 0.23085000
-0.10851000 -0.87003000 0.30436500
8.71940000 3.49531000 0.09174990
-1.15052000 8.09016000 0.06071450
2.16323000 -9.34319000 0.05654680
2.36193000 -9.39272000 0.05775450
2.32607000 -9.55772000 0.05006250
2.39525000 -9.49026000 0.05077530
3.07873000 5.06764000 -0.00025739
3.17527000 5.03028000 -0.00472213
3.00138000 5.18950000 -0.00146515
2.57259000 -9.13428000 0.07080230
2.44022000 -9.22906000 0.06600090
7.67391000 2.38816000 0.27918000
-7.31704000 -3.07410000 0.00952346
-7.24680000 -3.10993000 0.01394860
4.50837000 -0.52224600 0.14398000
4.55157000 -0.57106100 0.14662400
4.57485000 -0.64080400 0.14918800
3.05436000 4.66958000 -0.00695945
3.02100000 4.95566000 0.00158394
3.07197000 4.90930000 -0.00619718
-3.93857000 -2.09817000 0.05748720
-3.84119000 -2.13130000 0.06737700
-7.60718000 4.53315000 -0.09171030
-7.78931000 4.62876000 -0.08945320
-7.58733000 4.66212000 -0.08491920
-7.89140000 4.65723000 -0.07572240
-7.89795000 4.62506000 -0.08655260
2.62129000 -9.27363000 0.06019980
2.51044000 -9.33844000 0.06100160
6.05717000 5.34189000 0.27160700
7.67403000 -6.11136000 0.12320100
1.08787000 6.27481000 0.20919900
3.51743000 -5.19924000 0.09125490
2.25100000 8.00053000 0.22974100
2.40264000 8.03836000 0.21080300
2.16969000 8.04624000 0.20111100
2.45930000 8.07752000 0.17256100
4.99296000 -0.69755900 0.13775400
-7.92292000 -5.02532000 -0.04575620
-7.99867000 -5.06258000 -0.03254010
-8.03095000 -5.10624000 -0.01731450
-8.04307000 -5.16693000 0.00503892
2.25042000 4.10447000 0.17379800
8.06509000 -5.60654000 0.16863100
7.92561000 -5.75605000 0.15880000
8.22667000 -5.55986000 0.16648200
5.76810000 -5.26321000 0.14360400
-9.07134000 2.54290000 0.03458940
0.07405930 -0.64126900 0.15116800
0.03460920 -0.68710500 0.15819600
2.36737000 7.98886000 0.23232500
2.33034000 7.88746000 0.24512500
-6.47858000 5.22005000 0.17140200
-6.46512000 5.25381000 0.14891000
-6.51235000 5.26782000 0.07244560
-6.50837000 5.23433000 0.13175400
1.29484000 3.77634000 0.15300900
2.37105000 -7.98612000 0.00168294
-2.89243000 -8.33887000 -0.04312290
2.04349000 7.87935000 0.24684800
2.18029000 7.90332000 0.24401600
2.11247000 7.97351000 0.23693800
1.97781000 7.73958000 0.25407400
-3.99695000 -5.75573000 0.01443370
-3.99223000 -5.64544000 0.01594830
-1.22840000 -0.35387300 0.08518650
8.53224000 1.32126000 0.04424150
8.63193000 1.56039000 0.04742920
1.31291000 -9.73858000 -0.15266200
1.14466000 -9.74383000 -0.16082000
1.21424000 -9.68323000 -0.15566200
-0.69613300 -8.07198000 -0.01249340
-0.61920300 -8.12713000 -0.00683076
-0.47915300 -1.51728000 0.30405800
-4.29446000 2.27032000 0.11767700
-4.29334000 2.22351000 0.11141100
-0.70612200 -1.01230000 0.50987100
-5.80648000 6.86530000 0.08441430
4.17573000 0.00695945 0.14085200
4.10457000 -0.14135700 0.14165400
-0.20836800 -7.30343000 0.00517752
-0.14524800 -7.28543000 0.00390046
-5.27872000 -6.95490000 0.04029160
-5.14717000 -7.08588000 0.01200830
-5.85383000 6.67069000 0.13053700
-0.35285300 -1.65913000 0.11335100
4.10004000 -8.83652000 0.08425590
4.22539000 -8.73055000 0.09366060
0.99442000 1.09278000 0.15456300
-7.41416000 -3.84179000 0.01890830
-1.02841000 -2.78519000 0.06720870
-5.94513000 6.53304000 0.10036300
-4.77550000 -2.09826000 0.05238890
4.60360000 -0.69598500 0.15013800
-1.49458000 3.76853000 0.14785100
0.99369700 1.16596000 0.14579200
0.50332800 -6.34263000 0.02483820
-3.79076000 -0.07132700 0.08134540
1.83046000 -7.70991000 0.02127430
1.83358000 -7.66410000 0.03919270
1.76652000 -7.63372000 0.03632180
-2.52713000 -6.29086000 0.02955040
-0.82078000 -8.54016000 -0.01129550
1.66672000 -5.17398000 0.04238040
1.46680000 -5.31286000 0.04364750
-5.81076000 -6.00335000 -0.03210460
-6.03902000 -5.80737000 -0.02944150
2.36280000 6.57378000 -0.00687035
2.17865000 6.45156000 -0.00848400
2.19960000 6.60292000 -0.00677136
1.98608000 6.91468000 -0.00855330
4.80053000 -0.23898700 0.15381100
2.97238000 -6.66315000 0.05918010
-3.55371000 -6.88830000 -0.00431625
-6.16649000 -7.95866000 -0.21512900
-6.20689000 -7.80869000 -0.21488200
-6.24889000 -7.73217000 -0.21029800
-6.30314000 -7.66529000 -0.20454700
3.12925000 -3.26891000 0.08923540
-4.41836000 -2.32363000 0.06000180
-4.39995000 -2.24957000 0.05361650
-4.41469000 -2.37511000 0.05584390
3.10402000 -6.79874000 0.05892270
4.89122000 7.70231000 0.23434400
4.75238000 7.74965000 0.25491600
3.06679000 -3.28256000 0.08453310
3.03926000 -3.32204000 0.08622590
3.04878000 -3.22302000 0.08755250
0.08802770 0.93699200 -0.06692160
-0.04730050 1.01908000 -0.06878270
0.21554500 1.21518000 -0.06363490
-0.18609400 -0.61304600 -0.09095800
-0.10032300 -0.87787100 -0.09132420
-0.27002300 -0.86501100 -0.09566030
-0.80120800 -1.21654000 0.31372000
-0.78403200 -1.17834000 0.32471800
-0.77191500 -1.19272000 0.28055600
-6.18057000 -7.62789000 -0.21296100
-6.02134000 -7.25565000 -0.20845700
-5.86111000 -7.03085000 -0.20650700
0.43959400 -0.79897100 -0.08390940
0.08015740 -0.46090800 -0.08304810
0.14645500 -0.26013300 -0.08305800
0.32806400 -0.14028800 -0.07598970
7.01333000 4.99990000 0.25019400
7.16718000 4.91135000 0.25558900
7.52829000 4.74641000 0.24032400
2.37723000 -2.95587000 0.07234660
2.45042000 -3.05074000 0.07359400
2.58499000 -8.11333000 0.00817711
2.58042000 -8.16341000 0.01851230
-4.14558000 -2.85567000 0.04780540
-4.74555000 4.17868000 0.15813700
-4.88635000 4.20785000 0.16239400
-0.43158500 -6.18531000 0.02935250
8.70357000 -0.55807300 0.08684960
-4.78428000 4.36781000 0.14954400
-4.86892000 4.32712000 0.15249400
-9.13064000 3.29745000 -0.07883090
-9.12018000 3.19376000 -0.07478190
-4.39438000 -1.14592000 0.07627680
-4.29771000 -1.19835000 0.07816760
5.00324000 3.49845000 0.19351800
-4.64394000 1.96337000 0.13094300
-4.69647000 1.90584000 0.13071500
-4.71190000 1.82098000 0.11991400
7.77654000 1.02153000 0.27790300
7.03785000 3.75929000 0.23779900
7.05471000 3.85848000 0.27950700
0.01671060 6.93307000 0.24858000
-0.13665500 6.96167000 0.25337200
1.25738000 -3.25929000 -0.09627410
0.96839300 -3.46264000 -0.10358000
1.13275000 -3.20781000 -0.09832330
0.87659400 -2.46411000 -0.09234390
0.93923900 -2.37022000 -0.09163110
1.11613000 -2.52334000 -0.09076000
-6.41485000 0.58952400 0.07222780
-5.66024000 -6.72183000 -0.20047800
-5.78452000 -6.92224000 -0.20608100
-5.91479000 -6.88193000 -0.20396200
-6.01541000 -7.09023000 -0.20850600
0.36493100 6.71203000 0.17537200
0.12572600 6.72027000 0.17530300
0.22793900 6.58024000 0.17358000
2.27828000 0.61395600 -0.03757910
1.91772000 0.27046800 -0.04667680
-3.13365000 6.95156000 0.24794700
-0.14484200 -5.56546000 0.04315260
-0.25618300 -5.64158000 0.03615350
2.20624000 8.11426000 0.08989870
2.28537000 8.11367000 0.05399270
2.59964000 8.12139000 0.05419070
1.80446000 1.12938000 -0.04011340
1.80792000 1.28674000 -0.04018270
1.57980000 1.57287000 -0.04168740
0.08719610 -1.87643000 0.07842500
-6.22248000 5.86104000 0.11614300
-6.19758000 5.94123000 0.11096500
-2.01004000 1.76468000 -0.08130580
-2.19514000 2.30832000 -0.07545510
-1.84219000 2.02857000 -0.07504920
-4.37252000 -8.47155000 -0.04413260
-4.24116000 -8.57676000 -0.05043870
0.17018500 0.94463400 -0.06726810
0.41144900 0.94165400 -0.06411010
0.29090100 -0.01226570 -0.07729640
0.18475700 -0.05479450 -0.07769240
0.29914800 0.14586100 -0.07362370
-5.14866000 -1.25597000 0.05461640
-5.27320000 -1.12398000 0.05254730
3.11713000 8.12323000 0.03191650
2.94264000 8.10852000 0.02868920
3.09872000 8.09618000 0.01881920
3.48741000 -8.03710000 0.01803720
3.51348000 -8.10910000 0.02449170
6.46634000 0.89113700 0.02048240
6.50100000 0.98612400 0.01941320
6.69222000 0.91912300 0.02393730
6.91593000 0.66789900 0.02461050
0.42188300 6.74916000 0.17997600
0.27585400 6.80384000 0.19748800
0.45554200 6.93169000 0.24332300
0.38700700 6.83573000 0.20785300
-5.85392000 0.42460600 0.08122660
-1.28707000 -7.19459000 0.01362190
-1.29591000 -7.27556000 0.00721684
-1.29591000 -7.27556000 0.00721684
-1.28707000 -7.19459000 0.01362190
-3.05692000 6.79017000 0.18186600
-3.22782000 6.78572000 0.18442100
-3.21402000 6.86145000 0.21261500
0.60172000 -3.73825000 -0.11274700
0.50001100 -3.46501000 -0.11029200
0.71616000 -3.53075000 -0.10713400
0.83687700 -3.24448000 -0.10290700
0.86685300 -3.10616000 -0.09761050
0.95272200 -3.19491000 -0.10093700
4.94511000 -2.14758000 0.13253600
7.49263000 -2.85086000 0.12873500
0.84526200 0.15633500 -0.06676320
0.64978300 0.22793900 -0.06668400
0.82490800 0.36652500 -0.06424870
1.10012000 0.63336000 -0.05723980
1.10292000 0.53655100 -0.05642800
0.93913000 0.42528900 -0.06241730
0.36757400 -3.36997000 -0.11079700
0.52364200 -3.13625000 -0.10601500
0.53066100 -3.29876000 -0.10885700
0.56472500 -2.82093000 -0.10384700
0.72914900 -2.78429000 -0.10054100
0.81482000 -2.89842000 -0.09585830
8.71650000 2.97786000 0.11363800
8.71574000 2.92846000 0.09577910
8.71643000 3.00590000 0.07428700
2.61248000 -9.81011000 0.00995904
2.45515000 -9.78221000 0.01945280
-4.34686000 -2.24011000 0.05134950
4.73185000 -2.38229000 0.13803100
4.72195000 -2.35338000 0.13707100
1.00019000 1.25110000 -0.05155740
1.30964000 1.38012000 -0.04716190
1.11798000 1.10407000 -0.05102280
1.66126000 0.98261900 -0.04394450
1.74586000 0.80691000 -0.04494440
1.56361000 0.91553900 -0.04631050
0.33454900 -6.47149000 0.01901720
-3.35347000 6.76380000 0.17824300
-4.47382000 -2.33903000 0.04604330
-4.42062000 -2.49669000 0.06050660
-4.48638000 -2.43496000 0.05104260
-0.32357000 -2.75083000 0.05978400
-0.58791000 -2.80896000 0.06070460
-0.59092000 -2.75202000 0.06391210
6.14681000 0.76352000 0.01809660
6.68627000 0.66643400 0.02310580
6.69904000 0.54916300 0.02291770
6.57472000 0.54799500 0.01807680
1.58965000 1.08156000 -0.04828060
1.51537000 1.22203000 -0.04394450
1.69984000 1.07969000 -0.04080630
1.69091000 1.20318000 -0.04255860
1.78499000 1.01566000 -0.04374650
3.16996000 2.70189000 0.16177000
3.22308000 2.64958000 0.16867000
3.08326000 2.55804000 0.17162000
0.12269600 -3.01417000 -0.11141100
0.49430900 -2.94868000 -0.10696600
0.37597900 -3.06540000 -0.10825300
0.45500800 -2.82582000 -0.10359000
-2.12085000 -7.26128000 0.00835530
-5.96442000 3.49978000 0.13666500
-2.49814000 0.72411000 0.11397500
-2.33855000 0.98849000 0.11525200
-2.48729000 0.85592300 0.11045000
1.01637000 1.38938000 -0.05067630
1.47365000 1.48063000 -0.04271700
6.37549000 3.38688000 0.21386200
4.45830000 -3.65040000 0.10973800
4.51501000 -3.52580000 0.11064800
4.34219000 -3.47090000 0.11112400
-4.53669000 -2.45833000 0.04389500
3.49030000 -2.68438000 0.11751900
2.09514000 -9.77373000 0.02141290
2.27403000 -9.74965000 0.03001570
2.14376000 -9.68720000 0.03681680
5.99793000 0.80992000 0.18355900
-6.40083000 -6.33937000 0.06068480
-6.76383000 -6.07973000 0.05727940
-7.00786000 -6.07461000 0.04651840
-0.39050100 3.96249000 0.14301000
0.73358400 6.76073000 0.18152000
3.59338000 5.63888000 0.19552800
3.62995000 5.52224000 0.18823200
3.64989000 5.66327000 0.18632100
-7.22710000 -4.93177000 -0.00954326
-7.29001000 -4.93597000 0.01543350
-7.17034000 -4.95867000 -0.01829450
7.38986000 1.60114000 0.20106200
7.42698000 1.56760000 0.20442800
8.71622000 -4.11926000 0.01761150
-8.52184000 2.30608000 -0.13733800
-8.32714000 2.34139000 -0.13562500
-8.18351000 3.19164000 -0.12537900
-8.20542000 2.88231000 -0.12821000
-8.29900000 2.78494000 -0.13110100
1.48101000 0.98612400 -0.04859740
1.27620000 0.97212600 -0.04908240
1.45791000 1.18859000 -0.04615220
1.56406000 0.99008300 -0.05218100
-0.61164000 -0.39483700 0.30370100
-0.67184900 -0.44484100 0.32182800
1.41969000 0.86274400 -0.04818160
1.27967000 0.57890200 -0.05510140
1.28556000 0.86411000 -0.05335910
1.06093000 8.03575000 0.19459700
0.96725500 8.01795000 0.21129800
1.05772000 7.98153000 0.22937500
6.52370000 -4.19397000 -0.02624400
6.97909000 -3.47572000 -0.01145390
6.90121000 -3.62165000 -0.01475050
6.82414000 -3.40719000 -0.01333480
4.65002000 0.20209100 0.15478100
-0.66371200 7.11958000 -0.02001710
-0.57758500 7.15413000 -0.02110600
-0.07187140 7.55418000 -0.00979075
0.01436440 7.39298000 -0.01388920
-0.16626500 7.50977000 -0.00939476
0.62717200 -9.14543000 0.04759750
0.33155900 -9.25842000 0.04500380
-1.55389000 -8.18567000 0.02480850
-1.52196000 -8.15427000 0.01281010
1.62721000 0.42164600 0.13872400
5.39413000 -8.57302000 -0.01447330
1.75938000 -1.72786000 0.09262110
1.81929000 -1.95261000 0.10066000
-7.47362000 0.11513300 0.09814510
-7.37648000 0.08565170 0.08981950
1.71954000 0.36411900 0.13629800
1.78800000 0.24224400 0.14101100
-6.23651000 -0.58984100 0.05079510
-7.53036000 1.70454000 0.09382880
-7.57247000 1.56757000 0.08731490
-4.06249000 7.98965000 0.19223100
-4.18669000 8.01438000 0.17954000
-4.22874000 7.95158000 0.20306200
-3.83625000 7.84391000 0.22254400
-6.54429000 2.21775000 0.11576600
-6.67867000 2.17905000 0.11633100
-6.13706000 6.22346000 -0.02103670
-6.19424000 6.09679000 -0.01591860
-6.15885000 6.17423000 -0.00506862
-6.19424000 6.09679000 -0.01591860
-6.17583000 6.12766000 0.01510690
7.44137000 1.50411000 0.20030900
7.39470000 1.48800000 0.19521100
-6.98354000 0.58875200 0.06719880
-6.68504000 2.11670000 0.10103600
1.16539000 8.01776000 0.21649500
1.18329000 8.04459000 0.19041000
1.18329000 8.04459000 0.19041000
1.06093000 8.03575000 0.19459700
-0.13071500 -4.96006000 0.03730190
4.05385000 -6.53042000 0.06908960
4.37579000 -6.54501000 0.10921300
0.49119100 -9.80427000 -0.00194033
0.48765700 -9.76473000 0.01255280
0.13309100 -9.78543000 0.00613778
-3.64881000 -8.69386000 -0.02452140
-3.59211000 -8.63522000 -0.04457810
-3.78432000 -8.64033000 -0.04684510
7.76773000 -4.91868000 -0.02520450
7.24458000 -5.47082000 -0.03566840
7.51184000 -5.25240000 -0.03163930
7.66693000 -5.22161000 -0.03223320
-3.80967000 -1.37485000 0.08050390
-3.75836000 -1.32653000 0.08098900
5.72531000 -6.04669000 0.16102800
5.49986000 -6.14692000 0.15704800
0.61905500 -9.79934000 -0.00010890
0.57139800 -9.85298000 -0.03937090
0.73541500 -9.84223000 -0.03912340
0.67856100 -9.85858000 -0.05581420
1.35444000 7.99959000 0.22437600
-3.58052000 -1.30670000 0.08288970
-9.17651000 -5.39642000 -0.09920440
-1.40821000 2.92862000 0.14417800
5.39063000 -6.10416000 0.15402900
-4.74335000 -4.45649000 0.01391890
-4.69300000 -4.30322000 0.01285960
5.35010000 4.02915000 0.24063100
5.29611000 4.00642000 0.24018500
5.83411000 0.29922700 0.16744300
-5.91631000 -2.86278000 0.03895510
-2.39978000 -8.21536000 0.01616610
-0.85884400 -9.30171000 0.03882640
-0.93228900 -9.10654000 0.04298430
-0.78576500 -9.02839000 0.04795390
-0.86255600 -8.98742000 0.04456820
-1.09178000 -8.95093000 0.04379600
-1.05417000 -8.83040000 0.03740090
-1.16947000 -8.78680000 0.02029430
-1.28949000 -8.85379000 0.04362770
-3.75651000 -1.64315000 0.07554420
-3.08013000 5.75518000 0.17710500
-3.13866000 5.69023000 0.17531300
-3.02465000 5.62437000 0.18649900
-6.08082000 6.37258000 -0.03289650
-0.73587000 -0.74920500 0.12086500
-7.04287000 0.49183400 0.06477340
-8.87731000 -0.53905600 0.08070190
-8.78473000 -0.56337900 0.08787920
-8.79738000 -0.40449000 0.09326460
-4.47530000 -1.09943000 0.06515950
-1.70474000 -6.17688000 0.03609410
-1.63464000 -6.10682000 0.04451870
4.85030000 -1.70040000 0.13274400
4.84859000 -1.61439000 0.12675500
-6.84094000 0.03985600 0.05811090
-6.73518000 0.10258000 0.06572380
-9.07975000 2.75470000 -0.12158700
-9.11413000 2.79632000 -0.10253100
0.30216700 -4.17934000 0.04394450
5.08078000 -1.35211000 0.15664200
3.89792000 -5.98281000 0.08470140
3.77166000 -5.91919000 0.06830760
-0.39837200 2.05015000 0.14951400
7.95670000 -0.20152700 0.26752800
8.10606000 -0.11099500 0.26782500
-0.18458900 6.08882000 0.17621400
-0.09408620 6.08784000 0.17168000
-5.54321000 3.06883000 -0.09208650
-5.60622000 3.31268000 -0.08736440
-5.23238000 3.10468000 -0.08781980
-4.67675000 3.21217000 -0.08277090
-4.72353000 3.03419000 -0.08512710
-4.74576000 3.20848000 -0.08166220
-1.03104000 -9.06941000 0.04381580
-1.13450000 -9.05173000 0.04882510
-1.11145000 -9.26307000 0.03969760
-4.73544000 -0.77416200 0.06087290
-1.94332000 3.17273000 0.14599000
-1.95913000 3.06970000 0.13476400
-4.74984000 3.43370000 -0.07880120
-4.44898000 3.68050000 -0.07182190
-4.48691000 3.49026000 -0.07925660
-4.52528000 3.14013000 -0.08164240
1.06560000 -4.65423000 0.04610270
-1.35054000 -7.97353000 0.00205913
-1.35272000 -8.00627000 -0.01303780
-1.35575000 -8.05150000 -0.01696800
-2.79835000 -9.90788000 -0.18810300
-2.61984000 -9.82681000 -0.19320100
-2.77633000 -9.92682000 -0.17852000
0.59748300 5.37793000 0.18141100
0.53769900 5.45160000 0.17747100
-3.74225000 3.38184000 -0.07290100
-3.53353000 3.23308000 -0.07376230
-4.02531000 3.03309000 -0.07978120
-4.19355000 3.56629000 -0.07442550
-4.22481000 3.38921000 -0.07487100
-4.45476000 3.40789000 -0.07794980
-5.94608000 6.51229000 -0.08333520
-5.96561000 6.55204000 -0.06244700
-2.89609000 -9.94387000 -0.16325500
-2.73317000 -9.93487000 -0.15299900
-3.86146000 4.00678000 -0.06874310
-4.27853000 3.71314000 -0.07182190
-4.31141000 3.61096000 -0.07615800
-2.95609000 0.33681600 0.09665030
-3.11906000 0.17077900 0.10434200
-2.23781000 3.24486000 0.14174300
-2.24058000 2.88921000 0.12905200
-2.37798000 3.05843000 0.13055700
-2.75328000 -1.42005000 0.08863150
-2.67271000 -1.35938000 0.08707730
-2.65665000 -1.26921000 0.08604770
-1.99121000 -8.07421000 -0.02524410
-4.93418000 -3.84513000 0.00572200
-4.55435000 3.69595000 -0.07432660
-4.38389000 3.80696000 -0.07299010
-2.22741000 1.18896000 0.11809300
-2.23264000 1.12400000 0.12394400
-2.10774000 2.99146000 0.13218000
-5.32279000 4.05648000 0.17535200
-5.37999000 4.04152000 0.15481100
-2.23867000 -6.83150000 0.00719704
-7.45306000 -1.43751000 0.08349360
-4.23320000 3.95402000 -0.07037660
-4.39421000 4.01518000 -0.06812940
-4.12486000 4.16834000 -0.06692160
-4.71651000 3.78064000 -0.07333660
-4.49845000 3.88905000 -0.07127750
-6.05316000 -0.92110300 0.05889300
-6.08677000 -0.98998500 0.07083200
-6.01962000 -1.21231000 0.04970610
2.51420000 3.68512000 -0.01949240
2.53984000 3.79851000 -0.01667100
2.78419000 3.79384000 -0.01591860
-4.71902000 7.22466000 0.24450100
-4.86905000 7.40084000 0.24120500
-4.86090000 7.24370000 0.24406600
-5.01433000 7.45462000 0.23499800
-2.64368000 6.76160000 -0.04978530
-3.13840000 7.00481000 -0.05035950
-3.39259000 6.83572000 -0.05510140
-4.48662000 3.06093000 -0.08122660
-4.43425000 2.99587000 -0.08369160
-4.56718000 2.95016000 -0.08419650
-4.15429000 3.27288000 -0.07797950
-4.09252000 3.12589000 -0.07910810
-4.30067000 3.27823000 -0.07651440
-6.73834000 0.98849000 0.06925790
-6.82428000 0.99133100 0.07537590
-6.70624000 1.27761000 0.07259410
-6.75137000 1.21279000 0.07055480
-3.87676000 2.44519000 0.12717100
-3.55606000 -1.67171000 0.08319660
8.69302000 -0.04986450 0.05471530
8.66214000 -0.12332000 0.05127030
8.66719000 -0.05139900 0.04701340
0.07053500 -1.30683000 0.29737600
2.70883000 -3.52866000 0.07580160
2.69721000 2.81244000 0.15455300
8.67656000 -0.31950100 0.06248660
8.09378000 -5.72853000 0.15765200
8.14267000 -5.55260000 0.16814600
-8.11274000 -2.04955000 0.08093950
-8.07778000 -2.13165000 0.07159420
-7.96234000 -2.18729000 0.02718440
-8.09551000 -2.40428000 0.07216840
-8.11818000 -2.62570000 0.06934700
-5.08422000 -0.71100300 0.06168470
-2.35986000 6.70459000 -0.04636000
-2.56516000 6.79392000 -0.04700350
-4.75053000 -0.88070200 0.06116000
-4.70230000 -0.88951300 0.05991270
-2.16133000 -6.36469000 0.00624668
-8.08284000 -2.27026000 0.06844620
-7.96730000 -2.36877000 0.02864960
2.33937000 4.04355000 0.16113700
-3.58803000 -5.92456000 0.02491740
-4.87266000 1.86263000 0.09889750
1.33068000 -7.51818000 0.04439990
-4.04405000 -1.48230000 0.07695000
-3.91270000 -1.45235000 0.08214730
3.31320000 -9.88745000 -0.09635330
3.18276000 -9.88410000 -0.07921700
3.17309000 -9.86994000 -0.05279480
3.09657000 -9.83892000 -0.01542360
-6.15455000 3.42834000 0.12813100
-6.18258000 3.36303000 0.12286500
-4.93014000 -0.72378300 0.07115870
2.58039000 -4.00156000 -0.08069200
2.59693000 -4.47113000 -0.08563190
2.44732000 -4.23631000 -0.08577050
2.21765000 -4.17153000 -0.09030460
2.30904000 -3.93256000 -0.08503800
-9.12146000 -2.26382000 -0.04113300
-9.07310000 -2.49271000 0.01291900
-9.10417000 -2.47981000 -0.01594830
-9.06822000 -2.67861000 0.01939340
5.50575000 -0.51534600 0.15026700
5.37955000 -0.30317700 0.15109800
