110.43500000 63.79040000 -141.07700000
112.38900000 67.46060000 -142.91600000
105.40200000 66.18260000 -146.95100000
99.79510000 67.58300000 -152.30700000
101.14300000 70.01180000 -153.92200000
90.94120000 69.81360000 -159.99700000
31.37190000 65.86620000 176.64600000
37.95090000 60.81270000 172.37700000
39.02730000 66.71020000 175.68400000
20.06280000 62.65810000 176.29700000
15.89440000 57.69140000 173.73800000
25.99840000 53.92700000 170.24000000
61.16810000 15.92640000 -130.51000000
47.53370000 17.02300000 -138.47300000
52.46250000 20.78680000 -142.38300000
5.89080000 14.58070000 9.62940000
6.36580000 14.60490000 20.65190000
7.23950000 14.53090000 5.78850000
10.04710000 14.55700000 9.85960000
11.86660000 14.66810000 7.41880000
9.49460000 63.36280000 173.35700000
5.78740000 60.48070000 171.41800000
-1.50570000 63.93700000 173.91800000
2.14820000 68.23070000 177.16400000
-5.21590000 66.52270000 175.92400000
108.28000000 11.98900000 69.97670000
104.09900000 14.36180000 86.99060000
-136.40700000 60.15250000 -115.29800000
-139.71100000 57.34500000 -108.42700000
-145.21500000 66.34140000 -109.49700000
-137.38500000 68.95000000 -122.54500000
-18.54150000 8.35950000 59.98770000
-20.56950000 7.16760000 31.75150000
-13.51510000 7.21230000 37.32790000
-23.62300000 7.39990000 38.03470000
148.18800000 66.60830000 -110.30700000
-135.62900000 30.93360000 56.41260000
-133.49700000 32.41590000 66.03620000
-131.14100000 30.08590000 63.77660000
-139.71700000 31.71300000 48.76360000
-108.46700000 33.62410000 -107.39600000
-101.61400000 34.16730000 -115.24700000
-110.72100000 38.30610000 -112.17900000
-99.20440000 27.81040000 -106.41800000
-86.72630000 25.79900000 -113.43600000
-163.70700000 69.78280000 -83.24610000
-165.06000000 69.45740000 -79.80050000
-94.32880000 11.49880000 -92.42860000
-90.20760000 11.00510000 -95.72390000
-91.61260000 10.11410000 -93.11640000
133.39100000 13.05590000 2.00520000
129.89900000 12.21290000 11.13700000
130.33300000 12.06940000 2.29580000
131.72400000 12.47280000 -6.82930000
130.29700000 12.05440000 -6.60390000
128.66000000 11.51740000 -15.27120000
-104.28900000 0.07430000 64.58430000
-110.17300000 0.23330000 54.62740000
106.49200000 72.06700000 153.63900000
99.24930000 71.66380000 157.83900000
-70.16000000 16.09920000 -18.89840000
-74.05440000 16.61600000 -24.64480000
-83.80340000 17.39700000 -21.75940000
-63.19840000 16.26300000 -37.82190000
-57.07710000 15.86590000 -37.12180000
-48.17980000 15.62270000 -39.63080000
36.45950000 29.77240000 140.50100000
45.89200000 29.88090000 137.92100000
50.37850000 33.58700000 141.36800000
-69.83740000 8.24310000 -83.78420000
-64.44200000 8.09510000 -87.97680000
-69.35640000 7.45130000 -82.86520000
-78.60150000 9.71850000 -77.10450000
-78.03970000 8.32520000 -76.11750000
52.27170000 21.97290000 -123.85800000
62.81820000 21.31960000 -115.64100000
56.37460000 20.70810000 -115.20600000
-163.44000000 61.10200000 72.12480000
-164.58600000 56.57070000 61.81790000
-161.58600000 67.79070000 86.46360000
-165.95600000 67.33100000 76.65070000
-162.95900000 65.21940000 79.30560000
100.53600000 0.61910000 61.71160000
105.97100000 1.59790000 50.25380000
95.92840000 0.79300000 67.90240000
-180.97800000 71.69770000 -0.84190000
-183.09800000 73.41710000 3.02540000
-184.37700000 74.41280000 -7.62030000
-183.45200000 74.23200000 -14.69900000
18.65990000 29.34900000 153.74600000
17.60790000 23.84750000 148.52100000
25.42940000 32.28250000 155.08500000
19.37390000 33.81780000 157.37300000
-20.13140000 14.59850000 6.90860000
-16.38340000 14.59670000 4.14850000
-18.53310000 14.72710000 0.15120000
-14.63470000 14.68090000 23.97520000
-10.77590000 14.54960000 20.22540000
-15.73690000 14.78910000 19.48950000
-12.13800000 10.71150000 109.02300000
-3.75620000 10.71960000 110.04900000
-150.23000000 24.48110000 -24.99110000
-154.87100000 28.75040000 -20.28340000
-146.87500000 20.93330000 -21.03230000
-142.62700000 18.72730000 -28.54590000
148.38700000 37.93020000 -72.92230000
152.94900000 45.31980000 -75.59290000
155.35400000 44.19710000 -68.41240000
163.66000000 55.91030000 -68.52500000
165.58600000 62.37330000 -74.07310000
-74.69680000 37.83130000 -148.99400000
-70.19990000 31.80420000 -146.24400000
-76.06840000 31.91670000 -143.21700000
-70.32160000 23.68450000 -137.75400000
75.63980000 31.76050000 -133.32000000
77.34190000 34.17570000 -135.61400000
69.78550000 35.62080000 -141.77100000
63.99440000 30.95480000 -138.49600000
62.41830000 28.79030000 -135.89200000
-130.27800000 34.16530000 -77.98640000
-133.92800000 36.11240000 -75.65900000
-129.70200000 31.50110000 -72.38710000
-141.16200000 43.59520000 -76.64550000
-98.62700000 7.53560000 -40.98780000
-98.47200000 7.68950000 -43.33150000
-104.74400000 8.29970000 -26.24380000
-102.63800000 8.34110000 -34.09630000
-103.61300000 7.65630000 -27.91310000
-73.95660000 0.86380000 -97.35560000
-63.84170000 0.34930000 -105.46700000
-63.51980000 0.75990000 -104.71100000
-78.95230000 8.05090000 -90.15040000
-77.35100000 5.88460000 -92.49810000
28.00250000 34.69340000 148.44700000
25.52850000 40.16230000 154.36300000
39.01010000 40.38680000 151.67000000
8.78500000 44.33950000 159.86600000
15.70470000 44.47150000 159.49900000
15.20780000 38.58630000 154.43200000
-74.97940000 8.77430000 86.58830000
-75.78580000 6.68260000 87.51540000
-78.63350000 7.96440000 84.23010000
-76.02570000 5.49700000 87.78420000
-80.85780000 5.75410000 83.40680000
-185.22500000 74.68390000 18.06570000
-183.02300000 74.42820000 32.60460000
-181.95300000 73.61270000 28.49720000
-182.54800000 74.53540000 40.14640000
138.29300000 66.45840000 -122.39400000
137.26400000 64.31380000 -121.24900000
131.48600000 63.20370000 -126.50800000
118.30100000 66.06970000 -141.80700000
118.89800000 67.30740000 -142.62900000
123.95200000 65.43890000 -136.07900000
-65.66060000 16.07900000 26.15320000
-106.20800000 19.31580000 18.28470000
-92.17950000 18.06630000 18.74170000
-103.67000000 9.28150000 3.64620000
-101.27600000 11.32570000 5.74160000
-99.39810000 11.44590000 12.86270000
-101.85500000 10.69160000 11.15640000
-17.34700000 10.26550000 -116.45300000
-7.08720000 10.86490000 -116.10500000
-4.61960000 11.08150000 -113.73700000
-19.65200000 11.15990000 -112.73300000
-24.74830000 11.03290000 -113.50200000
175.68300000 69.29390000 35.53500000
153.50400000 46.09920000 52.90580000
158.79100000 50.79720000 47.80720000
126.33800000 47.56000000 112.20900000
121.00800000 38.56300000 108.84300000
124.39400000 36.71280000 102.87900000
115.63000000 41.66660000 117.62800000
114.37400000 35.44420000 112.45400000
63.03150000 10.69020000 -114.65600000
-68.88940000 9.64630000 73.74200000
-65.17120000 7.97320000 77.95950000
-70.79760000 8.12100000 73.03770000
-82.51230000 9.97060000 58.59390000
-77.69670000 10.21230000 64.26090000
-79.48060000 9.18640000 63.28670000
127.28200000 71.26620000 135.96300000
130.75600000 72.00500000 133.78800000
125.11800000 72.45700000 139.15600000
136.38700000 71.94860000 127.96200000
-44.21390000 22.00510000 141.39800000
-42.06610000 24.67680000 144.87300000
-36.24100000 24.85250000 146.50800000
-32.79680000 22.22720000 144.50000000
184.79200000 74.10430000 -31.83670000
186.52200000 74.18910000 -16.29200000
-14.21710000 9.85330000 78.97250000
-33.33730000 11.02070000 92.14130000
89.68450000 30.48930000 116.25200000
84.25900000 30.48580000 119.91700000
-124.49100000 72.21150000 140.53800000
-135.61700000 72.04400000 130.13500000
-130.07500000 71.58740000 135.40700000
-143.18000000 71.87890000 122.00000000
-138.06900000 71.47590000 127.39800000
14.64580000 21.25550000 123.94300000
23.14580000 21.35500000 123.00200000
22.39160000 20.67050000 119.11700000
-8.06850000 22.42990000 129.82500000
0.80440000 23.17760000 132.27900000
0.57950000 21.53580000 126.52400000
70.40370000 21.33650000 102.85200000
73.03150000 20.79660000 96.46270000
59.60900000 20.95960000 106.73400000
88.44640000 21.43320000 89.04550000
-63.59760000 69.60870000 167.09900000
-70.47050000 69.67730000 164.40800000
-67.58320000 71.26740000 167.32700000
-183.27900000 68.72290000 4.39210000
-182.69300000 68.29520000 11.66250000
-172.24900000 51.47650000 2.05880000
-167.52900000 44.15140000 -4.05810000
89.72350000 10.72080000 -72.33770000
96.46720000 10.42670000 -63.91040000
79.70510000 9.02250000 81.83460000
77.27710000 9.88510000 82.97200000
83.92430000 10.07500000 76.12780000
74.71430000 10.52420000 83.90980000
81.43720000 10.64360000 77.30100000
134.59900000 14.12030000 -26.21730000
129.90300000 12.52860000 -28.00330000
129.83400000 12.88260000 -34.38960000
131.55300000 12.64150000 -19.02990000
135.71700000 13.97110000 -10.59060000
-79.74090000 47.84670000 -153.85300000
-91.95030000 62.71260000 -157.20200000
-92.89850000 53.26800000 -149.88700000
-100.50700000 60.96090000 -150.10600000
-12.59400000 67.27170000 176.13700000
-20.04270000 67.07140000 175.39200000
-20.19730000 68.98070000 176.90500000
-31.38900000 69.58600000 175.90300000
-38.28830000 67.70210000 172.78400000
-45.86610000 69.73160000 172.92100000
141.91300000 58.09170000 103.77900000
151.44000000 56.21490000 87.40510000
148.24400000 57.54470000 94.16760000
-30.59670000 30.36780000 142.44100000
-21.31240000 31.64050000 145.68900000
-24.19300000 29.29140000 142.08900000
-37.60110000 34.25710000 145.60800000
-86.33630000 45.86710000 -140.69500000
-92.50120000 43.56590000 -134.07300000
-83.71330000 40.03060000 -136.82200000
-95.91090000 50.82010000 -138.15900000
-94.76940000 9.85960000 37.93740000
-97.34590000 9.99450000 30.99960000
-89.67800000 10.85170000 45.75460000
-85.15180000 10.68370000 53.70250000
-89.51760000 10.23620000 47.69670000
-143.59400000 18.80010000 -23.04480000
-144.24200000 18.21340000 -9.10840000
-146.59000000 19.98060000 -12.34390000
-139.81500000 15.92590000 -13.81330000
-136.70700000 15.02740000 -21.28940000
74.75230000 22.78600000 -113.72700000
83.84590000 27.15920000 -119.50400000
74.37340000 27.45350000 -126.63500000
75.92150000 24.81600000 -119.33600000
-104.78100000 7.48480000 -13.89100000
-102.01000000 8.25060000 -25.03230000
-103.41800000 8.22410000 -17.39530000
-99.30260000 11.27890000 -27.71690000
21.68610000 19.28320000 -108.91500000
18.63880000 18.47170000 -98.90930000
31.19790000 18.96750000 -101.48400000
7.11470000 19.16090000 -109.65400000
3.73070000 19.66720000 -118.60100000
-10.62570000 20.14700000 -121.61400000
49.32650000 71.72010000 -180.79100000
46.10680000 72.67630000 -183.88700000
45.15670000 70.83840000 -180.77500000
-55.76160000 9.87770000 91.63740000
-46.82730000 9.76880000 96.10760000
41.37930000 4.76310000 107.61800000
44.19360000 1.43280000 107.28100000
37.63800000 1.40170000 109.79600000
33.66370000 0.11480000 112.19900000
33.34950000 0.81360000 111.54200000
-145.50100000 72.77150000 119.03400000
-152.43000000 72.62540000 110.48000000
-138.14700000 72.49340000 127.38900000
-105.14400000 7.05420000 50.30400000
-109.52900000 7.17390000 40.41100000
-106.51000000 8.14660000 46.23820000
-104.00100000 8.99600000 49.86610000
-102.70200000 7.95910000 53.96570000
-113.17600000 63.74080000 139.25900000
-133.90700000 67.45090000 123.94700000
-167.39800000 54.13050000 48.69170000
-171.46100000 59.06690000 46.01220000
-97.43030000 18.48190000 -110.99500000
-103.95500000 18.70160000 -104.92100000
-104.16200000 21.75720000 -110.28700000
-89.48610000 14.91040000 -109.52100000
-93.52410000 16.68700000 -110.47700000
-35.62200000 72.86520000 -187.42500000
-53.44410000 72.70690000 -180.79500000
-68.57370000 73.04640000 -178.75600000
-75.66220000 72.47820000 -176.16800000
-158.00800000 56.50180000 62.75550000
-152.54100000 51.66900000 66.69600000
-165.08600000 62.12290000 55.46310000
32.93010000 15.15750000 29.29650000
31.45130000 15.11820000 35.26890000
36.44080000 15.27660000 34.71690000
32.73450000 15.56280000 47.15600000
27.35930000 15.32200000 47.22690000
114.72300000 0.54410000 41.57760000
117.43500000 0.16790000 31.12490000
119.64700000 0.59660000 25.87230000
-81.03300000 11.00250000 -84.41230000
-85.54880000 11.28960000 -78.78570000
-86.06640000 11.68060000 -75.78020000
-88.98320000 11.11110000 -75.64600000
138.07000000 46.02090000 -101.57600000
130.22400000 35.61350000 -99.84490000
124.32600000 36.88510000 -109.03000000
115.48900000 33.80210000 -115.35600000
2.73660000 9.53540000 -130.56400000
-8.58550000 10.40670000 -130.90500000
2.83180000 10.51370000 -131.38000000
14.09540000 9.67160000 -129.87200000
100.50000000 10.39550000 -44.43590000
101.85500000 10.98590000 -45.18230000
95.04350000 10.52430000 -56.39910000
95.50630000 10.00160000 -53.56390000
-91.50730000 10.36960000 -61.99830000
-89.01450000 8.34570000 -62.46870000
-91.93240000 7.73070000 -56.57240000
-112.04700000 -0.43240000 47.94530000
-107.95000000 -0.47400000 56.12950000
-146.23500000 31.09610000 59.82820000
-150.44100000 38.51000000 64.42050000
-151.69700000 36.87300000 58.25580000
-142.71100000 29.81380000 65.00500000
-144.62500000 35.86780000 72.28610000
96.08140000 9.41020000 -86.62980000
103.84400000 10.23020000 -77.82230000
104.80500000 11.15170000 -78.63300000
111.75600000 10.36220000 -65.31370000
101.42800000 10.70870000 -12.04470000
101.16900000 10.32100000 -16.98360000
100.00800000 10.00480000 -24.36340000
97.91100000 10.50050000 -31.46100000
17.96440000 7.08500000 30.25710000
25.77340000 7.28890000 29.95580000
15.98690000 7.20710000 35.62450000
35.55730000 8.02090000 42.73110000
-56.32220000 9.27030000 -42.08960000
-66.66870000 10.17240000 -47.01190000
-61.21830000 10.03730000 -50.56110000
-86.52450000 11.77490000 -51.16820000
-31.20370000 60.34480000 173.66500000
-38.62810000 62.81030000 173.85100000
-41.51640000 57.82730000 170.02200000
-55.22120000 57.09350000 165.84300000
116.10900000 20.36270000 -26.03200000
112.40600000 19.92180000 -18.84410000
99.22480000 19.62660000 -46.56920000
107.49900000 20.15200000 -50.40620000
97.57590000 19.72460000 -53.16250000
123.33200000 72.99840000 -142.42600000
123.93600000 73.15520000 -143.02900000
111.33600000 73.24940000 -153.57100000
104.59800000 73.35700000 -158.17700000
-132.59400000 25.17020000 36.46760000
-137.11200000 28.67440000 43.20840000
-131.09300000 24.34690000 35.38450000
-128.91900000 24.42350000 43.67860000
36.62390000 51.06100000 -166.96700000
33.24620000 69.07660000 -181.72300000
-122.45300000 11.70300000 -46.00280000
-118.19200000 12.00710000 -58.18320000
-118.70900000 10.49680000 -52.47850000
-116.71500000 10.57120000 -57.14880000
-77.80210000 0.66240000 -98.98480000
21.95610000 10.70300000 108.59100000
13.11480000 10.83570000 108.91300000
21.61290000 10.88630000 107.50500000
33.99620000 10.90800000 103.70700000
29.19570000 10.59530000 103.45400000
-71.97960000 -0.00760000 93.34010000
-75.07730000 0.73530000 90.05260000
-69.64820000 1.25250000 93.92630000
-74.93710000 1.27300000 89.88300000
98.22470000 72.73600000 -163.25900000
101.89600000 71.94210000 -161.27700000
91.35550000 71.82020000 -167.67300000
123.35100000 10.42860000 31.04140000
125.30000000 11.70170000 28.31560000
122.14300000 10.90430000 36.47880000
-5.03600000 23.93770000 -155.45000000
1.94980000 29.43820000 -160.74000000
4.63900000 21.60080000 -152.97500000
-5.11800000 21.41000000 -152.77400000
12.46410000 4.30950000 114.64600000
16.72820000 6.13170000 113.66200000
-7.41880000 -0.43690000 118.01600000
-0.62120000 -0.00390000 117.24200000
1.75620000 -0.40130000 118.08200000
-132.73100000 25.88660000 -41.37050000
-132.72900000 24.72500000 -31.13970000
-129.29400000 23.66000000 -34.43750000
-135.65600000 28.19180000 -46.09880000
-142.08200000 31.79060000 -42.51940000
173.75900000 68.52610000 -50.22090000
175.59200000 70.74180000 -50.45970000
172.29600000 69.45660000 -58.01800000
178.24500000 72.28470000 -46.75930000
179.97100000 73.38860000 -47.00510000
6.04250000 71.53300000 185.89500000
17.55120000 71.49880000 184.93500000
13.75660000 71.85980000 185.67200000
-86.64940000 72.92400000 -165.50900000
-77.24960000 73.12680000 -171.26600000
-95.21920000 72.22470000 -158.72400000
171.08100000 74.56220000 72.51480000
170.27100000 74.33730000 72.02780000
172.75700000 73.99610000 64.12880000
-64.14480000 41.51300000 144.14900000
-48.96000000 44.28260000 152.30100000
-55.48300000 6.61920000 87.19800000
-171.37600000 73.72600000 70.38840000
-167.17100000 73.71510000 80.37770000
-165.54600000 72.78870000 79.43090000
-156.88300000 72.75090000 95.50000000
-153.13200000 70.98400000 97.11530000
-161.87600000 72.44770000 85.72690000
-128.45100000 10.72470000 12.64080000
-129.07600000 10.77650000 5.32200000
-128.28000000 9.59990000 5.38680000
-50.58990000 0.87900000 105.12400000
-50.98940000 -0.19790000 106.08800000
-33.95890000 1.03950000 111.28100000
-29.62570000 4.45950000 111.74700000
-161.32000000 35.04960000 -3.12470000
-160.34300000 34.75960000 -15.50470000
-157.76900000 30.58110000 -2.59300000
-166.47600000 43.83140000 -16.97750000
-163.54700000 39.29950000 -16.27530000
64.89590000 52.58980000 -164.81800000
75.29070000 52.54180000 -160.33100000
77.75680000 49.06520000 -156.64000000
81.75200000 40.80300000 -148.10300000
48.50080000 72.35620000 180.01400000
48.53460000 73.29510000 179.97300000
33.00910000 73.21350000 183.37100000
76.84450000 20.33670000 -97.36950000
88.25050000 20.06220000 -79.35090000
82.31000000 19.26280000 -65.95430000
90.22940000 19.95610000 -69.98170000
30.83200000 7.15710000 97.43070000
22.79920000 7.54060000 98.88820000
28.59450000 7.57440000 97.39630000
41.81680000 7.79190000 92.57000000
5.51150000 8.83780000 -130.06400000
13.96810000 8.48160000 -129.29800000
88.23910000 66.15230000 152.07700000
89.05120000 68.74620000 154.00300000
82.87990000 70.99930000 159.44900000
83.58630000 72.79220000 161.30500000
94.03630000 72.80010000 155.68300000
-160.14700000 40.68700000 40.70610000
-158.80600000 42.56330000 50.23650000
-154.73600000 41.26360000 59.10470000
96.75220000 10.48650000 30.18420000
97.93030000 9.79470000 27.93810000
95.74100000 9.71690000 34.47960000
93.01670000 7.99120000 42.86090000
96.88510000 7.76880000 34.41850000
66.39330000 9.64080000 -81.26670000
61.93240000 11.04850000 -83.46250000
62.29050000 10.37080000 -83.95280000
67.56270000 11.05740000 -78.79660000
-36.53160000 72.71950000 183.07800000
-114.70400000 28.07540000 -88.06360000
-118.69200000 28.75340000 -83.90700000
-114.51100000 26.29920000 -82.79050000
-110.49700000 25.54120000 -86.43430000
-105.94200000 26.23900000 -94.54660000
-111.26600000 28.88000000 -94.59810000
183.39400000 71.57270000 38.72580000
180.61600000 70.46370000 42.44530000
177.27900000 69.68790000 50.07060000
-180.15700000 69.54190000 -35.23620000
-178.19500000 66.92170000 -34.54130000
-179.76600000 66.57300000 -23.82840000
-180.51900000 68.46700000 -27.76170000
169.58800000 57.38310000 45.41550000
-55.43570000 21.28170000 -118.49400000
-59.90860000 20.59120000 -110.65400000
-41.59200000 20.78440000 -121.07800000
128.03800000 69.74110000 131.56200000
118.04300000 62.54140000 133.12300000
-53.40970000 70.89330000 171.95800000
-35.25100000 71.06180000 176.63600000
-42.56270000 71.37710000 175.44300000
26.27130000 9.62520000 68.37080000
33.75710000 10.07090000 69.22230000
24.94080000 10.67020000 81.35510000
39.97330000 11.53900000 86.72380000
41.70650000 10.87160000 74.10960000
53.69360000 11.44190000 74.58320000
-27.64900000 7.39090000 -116.92500000
-17.11250000 1.14600000 -120.58000000
-102.65000000 0.51210000 -70.32430000
12.87510000 10.54820000 -111.48000000
24.91380000 9.73550000 -107.77700000
141.35500000 67.26220000 -119.90600000
142.84400000 65.38530000 -115.77200000
-94.94770000 61.53970000 150.68900000
-102.60500000 66.44310000 149.11900000
106.25000000 32.92230000 -110.88600000
111.77200000 36.45900000 -110.81400000
119.27600000 40.11790000 -107.74600000
126.62800000 46.94270000 -108.01000000
49.00280000 65.08020000 -178.26700000
45.92010000 68.46690000 -182.26100000
53.09050000 66.94230000 -178.51400000
32.97290000 72.28610000 183.44600000
25.31690000 72.27880000 184.61300000
17.62670000 72.31720000 185.52200000
-166.25900000 73.51770000 -89.58200000
-162.66300000 74.63530000 -96.23410000
-110.69400000 10.74540000 -1.15170000
-109.61000000 10.37200000 -7.07780000
-108.25900000 9.49560000 -8.81820000
-107.65500000 9.20940000 -12.71500000
-106.65300000 9.31200000 -20.69090000
-106.31400000 7.75000000 -14.32550000
121.13200000 26.59910000 70.83580000
119.98100000 25.04500000 66.06570000
129.10400000 28.02830000 61.08880000
126.19900000 26.19140000 59.15090000
87.47040000 10.19510000 50.71900000
85.32670000 7.73090000 56.57150000
83.96770000 10.01920000 56.33790000
79.42520000 10.78520000 61.43410000
83.44190000 7.29180000 -66.83310000
72.78570000 7.34230000 -77.41760000
67.23500000 7.30660000 -82.36630000
-48.03760000 7.80510000 -95.34240000
-37.37080000 8.51710000 -99.35560000
-43.76260000 8.48120000 -96.74090000
-49.64660000 10.69780000 -92.42040000
137.40300000 15.81330000 23.17530000
131.81400000 13.66210000 25.92770000
86.60920000 10.81720000 -97.96960000
86.04230000 9.88490000 -97.29800000
77.17700000 10.02230000 -104.79900000
72.95460000 10.87210000 -108.83900000
72.47040000 9.89470000 -108.09800000
67.66160000 9.91430000 -111.24800000
-121.43100000 10.55240000 -45.41710000
-125.14100000 10.69170000 -33.55420000
-125.07100000 11.27950000 -36.19290000
-134.80900000 13.69420000 -12.89770000
-132.82700000 13.69820000 -25.61610000
-131.66900000 12.76630000 -17.43760000
147.44700000 68.08680000 106.52500000
152.45500000 65.09580000 95.69570000
146.39600000 62.14100000 101.64000000
121.33700000 20.63800000 3.55920000
109.01800000 19.73890000 5.05980000
116.68100000 20.21090000 -3.04500000
61.13730000 34.71810000 147.01100000
56.30780000 30.32670000 145.01200000
68.99700000 39.24870000 147.20400000
75.66510000 40.65600000 145.05100000
-125.87600000 23.06680000 -40.08430000
-123.39500000 23.65790000 -52.43400000
-127.14800000 24.62870000 -49.61860000
-120.80400000 23.83120000 -59.69430000
-113.98500000 22.04150000 -60.12740000
1.90450000 -0.53560000 119.50600000
-2.70700000 -0.24070000 120.57300000
-9.69890000 0.10450000 116.65900000
-96.54670000 71.24560000 159.80100000
-106.29500000 71.52460000 154.08100000
-102.67900000 70.90340000 155.48300000
-111.31600000 70.40440000 148.39600000
-123.91600000 70.93820000 140.02100000
-128.51000000 26.61590000 -87.70720000
-118.43700000 20.17950000 -90.35430000
-120.02500000 18.35140000 -83.71040000
-122.96600000 21.45860000 -86.55360000
-126.37300000 11.30630000 29.50470000
-125.07900000 11.20550000 34.22900000
-128.98700000 12.51490000 32.52650000
-130.35300000 12.36320000 22.63360000
-130.10900000 12.46660000 27.63710000
-135.96000000 58.10480000 112.20500000
-133.83500000 49.75950000 106.64300000
-145.08500000 59.24270000 101.64200000
-142.99900000 59.16690000 104.42400000
-143.22500000 63.56700000 108.72300000
39.98500000 21.41690000 118.97300000
48.62880000 20.71070000 109.59500000
50.40430000 20.54330000 106.70200000
97.26260000 6.66650000 -68.06270000
93.55090000 8.30130000 -72.06920000
96.12470000 9.32500000 -67.08280000
75.93180000 17.77910000 35.57670000
71.34460000 16.93030000 24.15670000
64.74340000 16.81110000 33.64750000
116.10000000 20.37330000 15.66240000
106.98800000 19.61420000 12.06750000
104.60400000 19.64820000 24.39500000
0.27900000 14.64220000 25.80050000
3.38030000 14.58550000 23.39450000
0.81430000 14.77960000 23.81560000
-6.90010000 14.71090000 28.38050000
-13.54590000 14.69190000 28.57520000
-11.72390000 15.82320000 68.06510000
-16.53820000 15.21400000 56.60910000
-20.90880000 15.15820000 52.87790000
-22.98250000 15.45770000 56.89580000
-39.72090000 11.09840000 -82.62030000
-31.89850000 10.93270000 -84.00480000
-32.38410000 10.48460000 -77.35120000
-40.40720000 11.78500000 -92.38020000
34.16850000 14.79080000 5.88020000
44.82990000 15.20650000 8.79950000
37.34350000 14.85300000 4.89290000
54.11170000 15.34870000 4.95590000
52.33020000 15.35930000 -1.34660000
42.17040000 14.96430000 5.02110000
105.68300000 7.71360000 -3.40630000
104.48100000 7.39810000 1.74620000
105.77300000 9.55170000 15.99280000
12.69190000 -0.29590000 -123.41300000
23.71280000 -0.19790000 -122.50100000
20.77100000 -0.23920000 -121.92800000
67.44240000 19.80140000 128.06300000
57.33510000 17.18430000 128.50800000
28.83850000 11.69430000 -96.66840000
17.02970000 11.60920000 -97.43960000
31.19260000 11.01250000 -84.38190000
39.37850000 11.34150000 -86.51250000
41.01180000 10.75390000 -76.03200000
38.95710000 9.10560000 -55.19650000
32.09610000 8.06930000 -42.82400000
28.17930000 8.35630000 -50.29320000
34.87640000 7.64340000 -29.23550000
19.70550000 6.95020000 -19.38920000
22.69280000 7.20690000 -27.88230000
172.02300000 52.55760000 -27.19530000
174.18400000 56.83770000 -31.95110000
179.22800000 63.81280000 -25.76130000
177.74800000 59.88460000 -9.39850000
176.41300000 58.48580000 -20.86000000
6.54860000 22.39380000 -136.63500000
-20.67060000 21.59120000 -131.61600000
-30.25340000 20.96970000 -126.00500000
-20.48200000 20.87530000 -127.88100000
-139.94900000 26.47690000 -1.73750000
-141.24600000 27.43590000 -9.72330000
-145.25600000 29.77360000 -2.41490000
-149.30500000 33.06990000 -9.68550000
19.24970000 70.30850000 -190.91300000
7.49870000 70.61180000 -192.14200000
-8.23820000 26.27670000 138.97100000
-17.48850000 26.18430000 137.91200000
-14.71880000 29.28590000 143.40600000
-8.12900000 23.69610000 133.61000000
-5.12000000 24.48820000 135.64900000
-134.65200000 33.91650000 -89.23570000
-142.20300000 38.72380000 -83.18490000
-148.47100000 42.04140000 -75.79220000
-146.96600000 34.54040000 -66.83360000
10.16830000 37.09880000 160.85200000
10.94990000 44.84130000 166.10900000
3.96800000 40.34390000 163.36200000
-51.70780000 16.40580000 -53.25080000
-34.97580000 15.68640000 -51.43880000
-19.43480000 16.94970000 -77.33920000
-23.93290000 16.63490000 -72.41280000
95.25190000 23.47150000 -99.19450000
90.83110000 24.32010000 -106.36000000
102.35100000 22.62190000 -87.33040000
110.03900000 23.49120000 -81.74620000
100.66200000 23.28770000 -92.81110000
53.78710000 24.81820000 140.39300000
43.92050000 22.33380000 141.09700000
55.29190000 22.18910000 136.85100000
36.07340000 25.05020000 146.24800000
30.00940000 25.05580000 147.64600000
5.33090000 7.32040000 101.41700000
7.06540000 8.36740000 100.45700000
12.82710000 8.44670000 99.86790000
167.01900000 72.35590000 -81.12520000
164.06000000 65.39350000 -72.06050000
166.77700000 69.14430000 -72.80030000
161.51800000 68.48900000 -83.43580000
-111.32400000 59.30010000 -140.38800000
96.20400000 60.29030000 142.31400000
101.11400000 56.56340000 135.84100000
103.14100000 45.85550000 124.92400000
109.86000000 49.09710000 122.38600000
118.49700000 50.99410000 116.14900000
175.71800000 64.83390000 -23.97040000
171.14000000 58.18580000 -24.04340000
177.23900000 66.25490000 -16.51990000
169.05100000 54.06400000 -2.19400000
174.87300000 62.49850000 -8.91390000
168.56800000 53.38960000 -9.60970000
-154.45000000 68.92510000 -89.34160000
-157.53900000 70.78710000 -86.66050000
-158.01500000 69.24880000 -83.12050000
-168.16300000 72.49700000 -67.47730000
-164.55900000 73.15700000 -77.65490000
25.47470000 6.80030000 6.06330000
16.12680000 6.51220000 9.26400000
49.58120000 7.80830000 5.14840000
43.21410000 7.47160000 -2.08070000
49.49770000 9.28020000 115.09900000
-32.54860000 1.12680000 -117.41500000
-40.05490000 1.04610000 -115.21400000
-49.71510000 1.13730000 -111.41200000
-49.94140000 0.46580000 -112.21300000
-92.22000000 9.37380000 67.68720000
-98.04470000 9.62070000 58.80290000
-91.22200000 19.32470000 113.47000000
-91.93990000 15.78810000 105.92000000
-84.48720000 22.98690000 123.63800000
54.31300000 8.36570000 -23.05640000
49.28920000 8.49890000 -34.83410000
66.17640000 9.56680000 -30.21380000
-120.40100000 1.02490000 -33.62720000
-117.65500000 0.61440000 -40.13010000
96.24720000 67.63100000 -159.36000000
93.45170000 69.04300000 -162.69400000
85.65560000 67.21760000 -165.02600000
82.66200000 68.79930000 -168.19900000
-1.67650000 15.01210000 -41.40280000
0.63550000 14.89970000 -36.49920000
8.73380000 15.09980000 -42.52190000
-6.13690000 14.78470000 -27.91110000
119.49500000 -0.06500000 -26.80400000
119.55300000 -0.05540000 -20.98770000
-23.48510000 67.10810000 -185.47800000
-15.70770000 67.03740000 -186.28500000
-104.46000000 18.04480000 99.09320000
-111.18500000 18.97590000 93.80820000
-101.69200000 19.08340000 104.07300000
-59.58100000 11.17410000 -117.94400000
-73.84830000 11.31850000 -109.90400000
-65.52850000 12.22570000 -118.04200000
-73.33190000 10.57420000 -108.82200000
-77.43100000 9.61520000 -105.07200000
-23.16240000 14.63870000 18.53330000
-20.75360000 14.80120000 11.69900000
-23.77150000 14.64220000 12.79370000
-27.47980000 14.68420000 20.47890000
161.51700000 36.45360000 16.11410000
158.40700000 35.61580000 30.26360000
157.51700000 32.26290000 19.91390000
159.35600000 38.86430000 37.29940000
163.77700000 46.61250000 41.11270000
157.82400000 40.90380000 47.79130000
-79.88620000 23.24500000 -111.49000000
-71.73640000 22.74910000 -115.65100000
-71.20280000 23.91010000 -119.86200000
107.60200000 34.59740000 107.28300000
119.14900000 35.03090000 95.15980000
118.80000000 37.63990000 99.76440000
144.70000000 72.80610000 118.88500000
141.84300000 71.98100000 121.97300000
142.04900000 72.85720000 122.04700000
136.59800000 72.90850000 128.03100000
107.88300000 10.28670000 -14.28830000
104.43600000 8.36110000 -23.63790000
104.80000000 7.84390000 -18.39010000
90.28960000 17.39300000 109.17600000
68.36440000 17.71320000 124.24300000
83.23260000 17.41980000 114.58700000
26.37810000 65.68100000 -183.80400000
26.53720000 67.26870000 -185.14300000
37.98710000 67.07080000 -182.77300000
18.68490000 64.34650000 -183.75700000
22.35820000 62.81770000 -182.31400000
14.70820000 60.25410000 -181.38400000
76.47230000 11.70160000 -67.06050000
82.07210000 11.58320000 -50.31160000
83.72040000 11.72710000 -54.36640000
-122.91100000 0.71510000 17.46090000
-117.02400000 8.39470000 49.58930000
-16.56840000 8.08160000 113.01800000
-12.15480000 5.93140000 114.47300000
-20.93860000 6.88400000 112.92900000
-18.75120000 5.82240000 113.64400000
158.63800000 69.59950000 82.93240000
152.68900000 65.61830000 87.82580000
154.07100000 61.55670000 79.43370000
153.76200000 64.24670000 83.92040000
-150.94500000 69.62610000 -105.17400000
-155.05300000 69.77070000 -99.02470000
-141.18100000 67.23770000 -115.79800000
-134.22900000 67.11250000 -124.25000000
26.54370000 18.47620000 -146.46400000
17.01390000 18.54520000 -147.88700000
17.64930000 21.71270000 -152.01700000
16.01510000 14.86010000 -141.57600000
-152.08100000 75.45390000 -107.76800000
-162.98600000 75.84460000 -92.48700000
-118.41800000 57.54830000 -124.63900000
-125.42700000 57.86240000 -117.62600000
-120.72400000 53.66870000 -118.52700000
-125.96300000 55.04430000 -114.21900000
-128.33800000 52.19060000 -108.30200000
15.75050000 0.17970000 -124.84400000
29.37140000 0.10640000 -122.16800000
105.97700000 43.22720000 127.50800000
106.54800000 56.31710000 137.74300000
98.08970000 38.70540000 129.50200000
143.86800000 64.94420000 100.71200000
124.19000000 52.59430000 111.79300000
119.68200000 54.06290000 117.85100000
127.90900000 55.64060000 110.73000000
138.45000000 35.24270000 63.53210000
136.02100000 32.65320000 61.88060000
140.31800000 31.09020000 45.54870000
142.96100000 34.62040000 50.71520000
-2.20140000 6.40630000 16.34180000
18.06830000 6.68800000 15.37450000
7.52900000 6.52610000 19.23170000
5.96440000 6.31830000 11.67610000
-14.98330000 6.67860000 -15.92190000
-7.35880000 6.57080000 -16.28010000
-25.27440000 6.85880000 -14.65980000
-30.29130000 6.93240000 -7.66370000
-32.44980000 7.14390000 -17.26450000
-150.87500000 43.33280000 -52.99790000
-152.93700000 41.62570000 -40.88800000
-148.74100000 38.13530000 -44.41080000
-159.52800000 54.45970000 -52.72960000
-163.90600000 57.76240000 -46.17810000
-157.77200000 49.41580000 -46.46740000
-112.92100000 22.25910000 64.82410000
-105.53700000 22.19410000 76.64450000
-93.63120000 19.73630000 66.16140000
-97.44850000 20.33710000 70.87050000
-86.60540000 19.23520000 65.02130000
-77.42590000 30.70830000 124.64900000
-88.57960000 32.29860000 119.44100000
-78.07040000 27.40640000 118.51600000
172.51000000 73.09060000 73.47840000
172.45200000 72.56820000 73.52190000
175.38300000 72.20540000 65.92870000
167.21700000 72.50540000 84.49900000
75.31910000 18.31700000 -54.01120000
72.18930000 17.96380000 -52.42120000
78.80830000 18.10370000 -45.21700000
80.74110000 18.83960000 -58.60770000
87.06160000 19.41180000 -61.41490000
-11.08800000 6.51610000 18.24500000
-7.81410000 6.37450000 12.61820000
-18.80710000 6.54690000 9.63390000
-13.21370000 6.37080000 -0.23930000
-10.70540000 6.33320000 5.89040000
48.48680000 56.43900000 -167.98300000
56.45580000 71.16990000 -177.56700000
51.63020000 67.84310000 -175.73300000
59.20130000 69.00900000 -174.25700000
-23.61200000 14.63810000 -6.09120000
-25.65570000 14.64180000 -10.29560000
-25.18860000 14.58810000 -5.43240000
-43.45640000 14.95150000 -19.67840000
-40.97180000 14.74060000 -13.69560000
-36.64820000 14.68210000 -17.57880000
29.96930000 8.21750000 -115.50200000
30.37560000 5.27920000 -116.54900000
3.71920000 7.53370000 103.82200000
-2.19640000 7.53250000 103.92100000
9.91090000 8.59300000 104.14500000
-119.28700000 3.12190000 -2.60560000
-118.56200000 5.72690000 -4.49570000
-117.17300000 7.13640000 11.02230000
-118.51300000 4.50760000 6.42650000
184.32700000 73.70560000 12.98100000
183.23400000 72.89030000 8.53000000
183.74700000 72.94150000 0.22870000
185.55800000 73.85550000 -7.90990000
-64.58110000 0.00500000 98.38690000
-74.92080000 -0.78960000 93.45950000
-75.54520000 -0.67990000 94.25830000
-82.60690000 -0.65610000 88.35370000
96.37170000 47.33910000 -137.53700000
94.81790000 44.50080000 -135.88600000
-92.11230000 8.79310000 -75.78610000
-102.93300000 8.25620000 -60.27550000
-98.54550000 9.77020000 -65.55200000
-109.94800000 7.82260000 -45.68560000
-108.60700000 5.68350000 -50.48840000
-109.74000000 9.80330000 -42.83070000
-112.33500000 7.70800000 -39.27830000
-51.92750000 28.74640000 145.77500000
-65.37170000 34.49720000 145.80000000
-27.22450000 18.41730000 -146.15600000
-32.83450000 16.13900000 -141.18100000
-36.67520000 19.35910000 -145.61500000
-27.66900000 21.53850000 -150.30300000
-21.20400000 20.36880000 -149.93400000
-88.42000000 50.95500000 146.87400000
-84.67210000 40.46390000 140.82000000
-76.66020000 42.15710000 146.61000000
-94.76480000 44.98900000 138.07200000
-103.45200000 46.38230000 132.99500000
-97.69350000 38.92330000 130.93800000
-46.63080000 14.95040000 -12.63320000
-49.61240000 15.01260000 -14.72970000
-65.25310000 15.92170000 -23.41300000
-65.37760000 16.20260000 -30.98440000
-44.15370000 0.47790000 113.70100000
-33.00660000 0.67110000 117.38200000
-48.47470000 0.42450000 111.94000000
-130.01900000 38.17110000 -86.59690000
-128.17700000 39.78160000 -92.16640000
-138.88200000 40.94710000 -76.32110000
-133.84700000 40.44990000 -84.46900000
123.29700000 1.05480000 -10.42510000
122.53900000 0.95200000 -18.94720000
-21.45900000 0.52640000 119.79700000
-14.42980000 0.61610000 120.91000000
62.95130000 28.07490000 128.01100000
48.11420000 23.61930000 124.47900000
77.16470000 13.18930000 108.10100000
85.85840000 14.34050000 105.04200000
84.19310000 11.38230000 96.13890000
83.01510000 12.77900000 102.35700000
7.37100000 72.61590000 -191.25200000
11.22260000 72.63280000 -190.48300000
34.60720000 72.74050000 -187.32700000
-0.45120000 72.62400000 -190.96500000
-0.10910000 7.86180000 -109.21200000
2.24680000 7.24120000 -108.35700000
-12.30050000 7.27060000 -107.70300000
-5.04870000 7.33580000 -108.44900000
-40.56400000 8.12860000 43.78880000
-46.15830000 8.21550000 39.50320000
-40.83520000 7.81020000 35.57240000
-20.51720000 7.57850000 44.24990000
39.99910000 7.36640000 -98.72650000
33.40880000 7.02830000 -102.01700000
34.94580000 9.27610000 -99.36490000
32.36190000 10.51110000 -99.43190000
-29.07550000 11.03880000 123.76700000
34.19530000 18.51340000 86.85330000
31.09430000 17.88860000 78.70570000
62.31900000 19.09390000 76.26590000
53.95930000 18.46460000 71.90800000
58.69200000 19.37010000 83.77350000
-105.14300000 7.31960000 -13.99800000
-105.71800000 7.19130000 -4.34530000
-106.43400000 7.28910000 1.33610000
-105.08900000 7.17940000 14.82580000
-106.56600000 7.79650000 9.04580000
136.93000000 55.78160000 -105.48500000
155.47600000 65.04630000 -89.41610000
151.67000000 65.18090000 -96.05880000
97.92450000 16.54010000 -106.42400000
106.99100000 16.57360000 -97.23250000
97.77240000 14.67670000 -101.52400000
-141.47100000 40.63420000 69.41670000
-135.48200000 38.41800000 76.20990000
-148.44900000 47.02870000 67.38580000
-153.61700000 49.46790000 59.57390000
2.74310000 65.62160000 -181.50600000
9.86750000 62.84570000 -179.14100000
13.83920000 65.31230000 -180.79600000
-15.88040000 64.27230000 -179.62100000
-12.10510000 67.82560000 -182.94800000
-19.65910000 67.47320000 -181.91000000
-54.94920000 16.92370000 63.61760000
-49.89320000 16.94460000 66.98450000
-57.12650000 16.82780000 59.30110000
-84.10670000 18.76830000 61.79200000
-83.19110000 18.45600000 53.56750000
57.73480000 15.65090000 1.90960000
60.02040000 15.77010000 -3.80440000
67.32780000 16.32810000 -14.18340000
-100.98300000 9.41760000 20.30740000
-102.55200000 7.91330000 16.60340000
-102.13200000 9.52470000 14.81230000
-102.37500000 10.35700000 9.31090000
-103.25100000 10.07210000 1.88130000
-101.70600000 11.18490000 5.72630000
14.99220000 47.37780000 -167.58500000
13.80980000 40.17520000 -161.90600000
21.33510000 44.36250000 -164.42100000
7.47900000 43.13560000 -164.81600000
7.86640000 46.04090000 -167.06900000
101.40100000 9.86440000 11.88010000
101.21700000 8.71770000 16.38280000
103.64600000 7.31890000 11.45610000
103.34400000 8.01990000 1.95560000
-45.67260000 65.79300000 -179.87400000
-51.69570000 57.38120000 -172.50100000
-52.68470000 64.72620000 -176.96100000
-41.08440000 57.16320000 -175.38500000
-34.33420000 62.93410000 -180.53400000
-37.11920000 52.55350000 -173.19100000
-101.41800000 12.46050000 86.09080000
-109.90600000 10.92930000 67.64090000
-105.49000000 10.79830000 73.53660000
-115.52500000 16.09860000 -83.37910000
-133.01100000 18.13080000 -57.89550000
-123.32200000 16.48640000 -71.61540000
67.11210000 1.14660000 94.86030000
76.60140000 1.50190000 87.34930000
67.61520000 0.40600000 95.33270000
54.96090000 0.96330000 102.36100000
59.59220000 0.24960000 100.62600000
83.91640000 25.07170000 -131.38200000
94.14640000 23.84300000 -122.46500000
84.43510000 21.28510000 -126.09100000
82.10610000 18.19740000 -122.67000000
72.56700000 20.02590000 -131.71400000
63.08390000 71.61390000 174.97600000
70.74970000 71.92130000 172.51600000
63.30890000 72.41200000 175.41600000
86.60370000 69.32580000 160.94100000
61.49310000 44.31270000 -154.15100000
-79.44510000 43.20970000 138.19300000
-87.43770000 41.97500000 131.99400000
-76.96750000 35.99170000 131.82000000
6.49170000 10.20780000 -104.72300000
13.78630000 9.55410000 -104.36100000
11.19730000 10.65130000 -103.90200000
4.35140000 8.16730000 -105.98400000
134.54400000 39.26210000 92.56260000
141.32400000 46.50180000 91.52560000
139.13000000 49.60530000 98.45750000
125.48200000 35.12690000 99.57570000
71.67120000 10.12820000 78.54910000
72.97130000 9.86460000 76.84030000
74.64190000 7.98930000 72.87080000
78.54940000 9.07310000 70.10120000
-44.69630000 66.77520000 -176.28800000
-51.90670000 68.63620000 -175.68500000
-54.59820000 65.96410000 -172.37400000
-64.95620000 67.99540000 -170.15900000
-65.51970000 69.70880000 -171.62300000
-148.20100000 69.85970000 112.11900000
-156.82900000 69.97490000 100.38100000
-153.27700000 68.84960000 102.48000000
15.03060000 22.37270000 -135.85900000
30.05750000 23.43640000 -136.32700000
157.57600000 54.95000000 73.80740000
-49.05640000 10.49410000 -107.16200000
-58.35880000 9.67360000 -103.57800000
-41.90320000 10.74790000 -109.54000000
-32.06160000 71.11070000 -189.80900000
-39.74040000 70.57450000 -188.00800000
-24.25860000 70.88620000 -190.98500000
-89.18360000 71.90380000 -169.34200000
-95.75450000 72.11010000 -165.53900000
-95.70630000 72.93110000 -165.60800000
-178.24000000 71.10820000 -25.49250000
-178.68300000 72.19500000 -29.07810000
97.23080000 59.37150000 -152.82800000
87.55660000 60.75730000 -159.61400000
78.97730000 67.98650000 163.17000000
70.23180000 63.11650000 163.41700000
71.94540000 57.69820000 159.11700000
79.95690000 61.45280000 157.89700000
-62.82120000 66.74770000 164.70000000
-97.65590000 72.53820000 153.65000000
-87.97610000 72.46740000 159.15000000
-83.90170000 70.64320000 159.04800000
-181.85900000 71.50410000 -39.68240000
-177.01900000 70.85580000 -53.49090000
-180.73500000 70.76950000 -39.30840000
-95.93760000 9.10240000 36.35860000
-101.36800000 7.82170000 22.15440000
-60.43230000 7.48730000 -89.95200000
-58.77770000 7.95340000 -91.87080000
-54.87780000 7.98290000 -94.31080000
-54.63390000 7.45320000 -93.61500000
143.01000000 35.41760000 -60.11880000
140.44900000 31.35990000 -53.07510000
146.91700000 36.08700000 -50.79960000
150.27600000 36.82020000 -41.19920000
68.83230000 8.72970000 91.03270000
61.11480000 8.58860000 96.35710000
-62.73720000 0.66330000 -109.42800000
-69.05070000 0.28800000 -104.41400000
-69.62300000 0.95520000 -105.63100000
107.93700000 11.13700000 25.87200000
104.43800000 10.49590000 28.00470000
108.02600000 11.03630000 20.92380000
103.81700000 11.03010000 35.25180000
25.99070000 0.89530000 118.71800000
25.74310000 0.14360000 118.04500000
35.35120000 0.52190000 116.05300000
-10.49650000 19.99630000 115.76400000
-21.50490000 20.27770000 118.10900000
16.23560000 20.24770000 115.73800000
8.00300000 20.04320000 114.34900000
2.98370000 20.27900000 118.52700000
89.97660000 11.24550000 -18.27540000
95.78050000 11.57290000 -12.88590000
94.67950000 11.50140000 -5.59960000
97.04610000 11.59940000 5.41870000
-112.95800000 11.06620000 0.70650000
-111.59600000 10.91880000 11.03940000
63.25080000 61.22910000 160.29400000
60.25500000 64.22160000 163.65000000
67.09620000 63.38390000 160.23800000
52.96870000 62.43740000 164.86600000
56.08150000 59.85100000 162.03500000
-186.58400000 74.95640000 14.59060000
-186.69000000 74.91380000 18.35730000
-185.61400000 74.74650000 3.35090000
-184.56100000 74.36800000 -0.42890000
-186.07500000 75.06980000 -7.51530000
-165.14500000 56.78550000 -59.09590000
-160.91400000 47.13620000 -53.07930000
-171.31800000 61.43640000 28.70720000
-168.88100000 60.85100000 38.63120000
-164.95400000 53.19920000 29.60100000
-179.33300000 71.09020000 24.04150000
112.71000000 1.76360000 33.25250000
112.60500000 5.19460000 31.05790000
108.17900000 1.52820000 45.51380000
128.22400000 22.77110000 -36.80140000
131.79000000 24.04280000 -36.95760000
134.83700000 23.84540000 -16.59940000
129.34000000 22.27560000 -22.79180000
131.00300000 22.42270000 -11.27780000
-96.34650000 7.85090000 -44.30430000
-89.63850000 7.78330000 -57.22720000
-93.43010000 8.05990000 -49.66030000
-98.80210000 8.45570000 -36.42380000
-97.98720000 7.82410000 -40.56130000
-103.83000000 8.26610000 -13.58090000
-104.87900000 7.52280000 -6.11400000
-149.22600000 26.75330000 -40.24000000
-144.48100000 27.62440000 -57.87320000
-71.47840000 9.25410000 -1.81960000
-82.11110000 10.16770000 7.23880000
-54.95180000 8.03690000 -9.66920000
-63.64320000 8.55980000 -4.56010000
-101.32400000 4.22110000 -65.54500000
-105.85400000 5.23340000 -57.02020000
-105.02300000 2.47150000 -59.75430000
-109.69400000 1.27250000 -51.76430000
106.00400000 22.67860000 -110.29000000
107.07800000 28.04150000 -116.57100000
112.94400000 29.47340000 -112.68000000
85.59730000 56.28620000 145.83300000
84.53980000 64.85640000 153.07500000
79.73660000 58.84450000 151.02900000
-31.45300000 10.75810000 -107.82500000
-31.24260000 9.68220000 -106.13500000
-35.94540000 10.28260000 -105.42300000
16.53400000 10.01220000 -116.61800000
26.88170000 10.06880000 -114.52500000
21.48270000 10.60700000 -114.69100000
3.37820000 10.16490000 -117.60900000
54.76540000 16.66360000 -51.15570000
58.79810000 16.78150000 -49.47090000
60.39020000 17.35910000 -55.54260000
69.95500000 16.87370000 -28.15490000
62.76280000 16.32260000 -28.99130000
64.72810000 16.25130000 -20.22140000
-183.31500000 70.61390000 -24.74740000
-182.87200000 69.40380000 -17.19490000
-184.43500000 70.70370000 -17.49430000
75.35260000 10.96620000 -84.25870000
60.89680000 10.89530000 -95.20600000
-116.99900000 20.63210000 28.63230000
-114.19300000 20.73180000 41.77830000
-107.47200000 19.86630000 33.25800000
-113.66600000 20.21260000 26.27720000
96.85620000 27.41520000 104.20600000
93.98020000 29.42540000 111.00100000
-94.30620000 7.48470000 -50.38040000
-79.28820000 8.24370000 -70.45200000
-84.41990000 8.62660000 -63.54070000
-85.00730000 7.79550000 -64.28610000
105.20900000 1.20520000 -57.06590000
101.26100000 1.00020000 -64.46940000
100.97600000 1.93780000 -64.21680000
-1.23540000 33.72540000 -164.27100000
130.11100000 29.24710000 -70.00230000
-46.37010000 14.96200000 18.15790000
-52.48960000 15.05650000 13.11360000
-57.27500000 15.26950000 16.77800000
-36.65880000 14.80840000 22.83120000
-32.66480000 14.63030000 17.04450000
-35.96160000 14.72620000 15.93900000
165.47600000 73.00650000 87.97920000
161.56100000 72.45850000 94.90300000
-33.52430000 31.95330000 -149.70400000
-44.15640000 29.90570000 -144.14100000
-30.43000000 30.66500000 -148.77600000
-57.34630000 30.51430000 -139.93800000
99.06330000 9.01320000 77.56740000
104.14900000 9.55330000 71.17930000
81.20000000 10.59990000 97.02230000
85.18400000 10.50580000 93.52540000
-93.11440000 50.71400000 136.59300000
-100.84600000 57.16330000 136.97300000
-93.80370000 62.12230000 146.07100000
-55.82240000 10.86250000 -97.25700000
-51.19360000 9.89640000 -98.22410000
-60.45250000 11.37530000 -96.15750000
-131.15400000 75.10510000 -133.80900000
-138.01400000 75.07490000 -125.30500000
-122.54500000 74.53150000 -140.83700000
-89.38720000 10.88600000 91.94780000
-84.86910000 9.75590000 94.25150000
-69.65200000 10.39820000 106.41900000
-77.30370000 9.71000000 100.30900000
-24.73820000 20.10580000 -119.37700000
-20.28440000 20.42400000 -124.09900000
-37.35840000 21.00050000 -124.22300000
172.91900000 58.26340000 -43.43420000
170.49900000 54.10660000 -42.47010000
172.56000000 59.14530000 -47.40110000
166.36500000 53.84450000 -57.07220000
167.05100000 51.56980000 -49.17250000
162.87800000 50.03890000 -59.63980000
6.06780000 73.78860000 185.83500000
2.21590000 73.37320000 186.20900000
107.65400000 70.08640000 -149.40000000
119.62400000 72.65150000 -144.47000000
109.15500000 72.03010000 -151.08100000
114.89600000 71.19220000 -145.42200000
75.10410000 8.39750000 68.32970000
75.97610000 9.70950000 66.58460000
71.66180000 11.29220000 69.01270000
20.22020000 28.49910000 141.78100000
22.82970000 26.54990000 138.01800000
99.92590000 0.17250000 -74.14680000
94.73030000 0.25590000 -81.00420000
100.09000000 9.74180000 37.08280000
100.50600000 10.04790000 37.14020000
95.35450000 9.93790000 47.96310000
-101.26100000 11.22550000 -47.94740000
23.18410000 35.35740000 -163.79300000
22.74130000 32.42720000 -161.53100000
40.16640000 33.95440000 -159.33200000
32.72440000 31.09640000 -158.65000000
37.58170000 38.37580000 -163.34800000
5.42980000 17.41030000 -86.88050000
22.93830000 16.66770000 -69.61230000
27.91340000 16.52950000 -65.76910000
-157.88500000 41.35930000 9.31940000
-157.93900000 41.97290000 15.94960000
-154.85400000 38.22270000 11.16450000
-151.40400000 35.69160000 19.13500000
-153.09000000 37.96500000 23.44820000
173.21500000 62.35290000 -31.36440000
170.24000000 57.46610000 -27.70990000
174.25200000 64.83120000 -35.07980000
155.51700000 38.08900000 -18.01710000
152.54100000 35.56090000 -21.53310000
156.16900000 40.03680000 -28.03730000
153.23400000 37.52810000 -31.40230000
-104.24100000 7.78300000 22.50470000
-105.46500000 7.45480000 14.84140000
-104.03600000 7.21100000 20.53640000
-107.52200000 10.08180000 18.87730000
-105.19500000 9.73610000 26.59250000
-107.10000000 10.62730000 26.95090000
-131.80200000 43.12260000 90.16340000
-127.39600000 45.51820000 99.49380000
-126.20200000 39.78450000 93.04830000
-26.74400000 25.44870000 -141.37400000
161.40100000 58.69220000 57.54300000
169.42100000 66.16900000 49.29000000
