1.39003900 45.29160200 -24.59281900
-1.82057800 45.18789500 -23.96949800
-1.93655600 45.38048400 -24.47203100
1.58733500 45.06825100 -23.49330100
-1.70545800 45.12803500 -23.43055700
-5.48867200 45.20931900 -22.84892300
-1.58426900 45.12090900 -22.88136300
-5.38921600 45.24576400 -22.32432600
-8.59511800 45.21827600 -21.27690100
-5.09548800 45.20960100 -21.61982700
-8.18316100 45.08435700 -20.82176200
-10.73980900 45.17652800 -19.80897500
-11.07844400 45.30715800 -20.15449500
-12.46954600 45.29112900 -18.72905000
-12.84459100 45.34754800 -19.06233200
-13.77691500 45.22740800 -17.87489300
-13.98853100 45.32207300 -18.29130600
-15.15078200 45.22848400 -16.73054500
-15.34562500 45.33219000 -17.16642800
-16.84607900 45.15930000 -15.13786300
-17.09737600 45.27041500 -15.51191700
-18.48228700 45.10810700 -13.29258700
-18.80246600 45.23408400 -13.57884200
-19.13146800 45.30506000 -13.90052800
-20.25573900 45.33387600 -11.44676200
-20.65864400 45.29158600 -11.74440000
-21.05338500 45.32377500 -12.03294400
-21.98950800 45.38235300 -9.33052100
-21.55682600 45.40483700 -9.13642900
-22.50462900 45.54677400 -6.30342100
-21.12248400 45.42938100 -8.95552100
-22.01468100 45.59532800 -6.18617200
-22.64766500 45.63229200 -3.26768500
-21.55389600 45.54735400 -6.15156600
-22.14108900 45.55298500 -3.19010900
-22.48775300 45.58481500 -0.14363100
-21.80849700 45.19345700 -3.18019100
-22.21834800 45.13683200 -0.16395600
-22.25361100 45.28389600 2.76716600
-22.21539500 44.57060900 -0.19380200
-22.19545600 44.77640400 2.73146100
-21.84551500 44.90864400 5.54832500
-22.19599700 44.25223400 2.62867700
-21.82080700 44.45378000 5.50584400
-20.95558400 44.44619600 8.30372600
-21.79141800 43.89788700 5.50999500
-20.86817800 44.03921400 8.54933200
-19.38039200 44.24093500 11.69639600
-20.84331300 43.56135400 8.65629600
-19.49346400 43.75462200 11.56428500
-17.93779600 43.95339800 13.94065900
-19.49384500 43.27781500 11.69902000
-17.93879900 43.47688900 14.00035100
-16.40450100 43.61377600 15.85527000
-17.96562400 42.97915500 14.09730500
-16.43691100 43.15145000 15.91413900
-14.85295700 43.08795000 17.63084400
-16.55970600 42.69774500 16.05979900
-14.93080700 42.63342900 17.72273300
-13.21655500 42.45968500 19.10911600
-15.09041800 42.23192500 17.90080300
-13.36630100 42.06824400 19.35481300
-11.60576100 42.08110700 20.75859100
-13.57807000 41.75986300 19.65278600
-11.81631300 41.80332800 21.07334900
-9.90924700 41.82264600 22.21006800
-11.96882100 41.42651200 21.28990200
-10.00851300 41.38672500 22.37370300
-8.02437000 41.16404600 23.25254800
-10.02525200 40.89987000 22.38429300
-8.03424700 40.70576300 23.20100400
-6.00606800 40.72560700 23.90614300
-8.01942300 40.24437600 23.11006200
-6.01169800 40.24660300 23.82899500
-4.07717000 40.17333800 24.30406200
-6.00791400 39.77429800 23.71540800
-4.06044600 39.67742000 24.17994700
-2.09115100 39.74246100 24.55134600
-4.01886600 39.08226600 24.06199600
-1.98239400 39.17468100 24.42588800
0.03681300 39.44297600 24.61702000
-1.84857800 38.38774000 24.29115300
0.17619500 38.63623700 24.44981400
2.18679200 38.53756600 24.43898000
0.29205100 36.93082300 24.16850300
2.25951900 36.96791700 24.14341700
4.23533000 36.90468500 23.93397500
2.29447300 35.12139700 23.90153500
4.25601200 35.18448500 23.66841100
6.20969700 35.19882800 23.24586500
4.29829800 33.05441900 23.63655100
6.25233100 33.09126900 23.15776100
8.18509100 33.10462800 22.54090900
6.31434200 30.90891500 23.17671200
8.26898700 30.94039400 22.57249500
10.18064700 30.95985300 21.80586200
8.36070800 28.77242100 22.64424100
10.29242900 28.80817700 21.88102700
12.16460600 28.83638600 20.94587700
10.46282600 26.67026000 22.10502600
12.34897800 26.70386000 21.13954200
14.17815200 26.74013800 20.02485700
12.66967600 24.62776000 21.57862900
14.50294900 24.66167300 20.37611400
16.23369200 24.68233300 18.99424700
15.07240700 22.71977900 21.05903600
16.86298000 22.75433200 19.63026400
18.53366600 22.75776900 18.03160100
17.69026900 20.98213800 20.48420700
19.42135600 20.98290900 18.81083700
20.98862900 20.92389200 16.96113600
20.47385600 19.37012300 19.74876400
22.14116800 19.34258100 17.83308400
23.66289100 19.28924000 15.79307600
23.26976600 17.71813800 18.70195000
24.86763700 17.67016500 16.57319600
26.26221500 17.57201200 14.28260800
25.89466500 15.89248900 17.24543800
27.34903500 15.78648600 14.84901400
28.57902000 15.62705100 12.31724500
28.30664500 13.93316900 15.37205500
29.56419200 13.75738400 12.72889700
30.62731600 13.57165400 10.01554900
30.44392400 11.83608900 13.15837100
31.52184300 11.62791700 10.35188300
32.37062100 11.48784900 7.46659900
32.32125900 9.65562300 10.67713900
33.19382000 9.50751400 7.66972400
33.77924400 9.50584700 4.60710100
33.91248900 7.51569600 7.82551600
34.49486100 7.47394400 4.64622500
34.81427900 7.52937900 1.49955700
35.05285800 5.42842000 4.63569600
35.39273300 5.44889700 1.38121000
35.38970100 5.49506200 -1.81553600
35.78702400 3.34006700 1.27351400
35.76006500 3.34487000 -1.96943700
35.41688100 3.36853300 -5.13255300
36.00832700 1.18378300 -2.06935100
35.66188400 1.18640800 -5.28321800
35.04946900 1.18362300 -8.43364000
35.74061300 -0.98738200 -5.38951100
35.13879800 -1.00152300 -8.58323700
34.29467600 -1.05739900 -11.70732100
35.16715600 -3.16216800 -8.70057700
34.29307500 -3.22615200 -11.88774100
33.14684900 -3.23070900 -14.98313900
34.23324900 -5.34980300 -11.99476600
33.05150700 -5.35353800 -15.17283600
31.50112400 -5.23330300 -18.11512800
32.92842500 -7.44774000 -15.19447300
31.37088200 -7.37763200 -18.15153500
29.65604500 -7.27726900 -20.96336400
31.23015400 -9.49812500 -18.09739700
29.49138900 -9.40740900 -20.90846300
27.49565200 -9.26520700 -23.48448200
29.33265200 -11.53080500 -20.80949400
27.34698800 -11.41950200 -23.36976600
25.19339300 -11.30085300 -25.70115700
27.19301600 -13.56145800 -23.22807300
25.03149400 -13.46619400 -25.55632000
22.72400000 -13.38172900 -27.65321400
24.83594500 -15.60768300 -25.36662300
22.53151300 -15.55027900 -27.46485900
20.09458900 -15.48530500 -29.29637100
22.31408300 -17.69993900 -27.23927300
19.88713300 -17.66798400 -29.05479400
17.41845900 -17.63657600 -30.69181800
19.65532700 -19.84110200 -28.76930200
17.22839700 -19.84386800 -30.39054900
14.67037200 -19.78018300 -31.73844900
17.02649500 -22.05567200 -30.05287200
14.49360600 -21.98598100 -31.36515800
11.80456500 -21.80321900 -32.45100400
14.25929800 -24.16282700 -30.90815700
11.60580200 -23.96413900 -32.00944500
8.85723900 -23.74604600 -33.03950500
11.36429200 -26.09123000 -31.49717700
8.67193400 -25.86871800 -32.53910800
5.88673400 -25.71549800 -33.35737600
8.45885100 -27.97294500 -31.91978500
5.76719800 -27.83494900 -32.75053400
2.96049700 -27.70226200 -33.19267300
5.63906300 -29.93350300 -32.03059400
2.90933000 -29.80040000 -32.50148000
0.09844000 -29.65681700 -32.66606100
2.87309100 -31.87637500 -31.73411600
0.13055200 -31.72970600 -31.92329400
-2.65077800 -31.61761700 -31.91587800
0.18334400 -33.77636300 -31.11113000
-2.53060700 -33.64710200 -31.09532200
-5.23639500 -33.56823200 -30.81449900
-2.37737100 -35.66349600 -30.23359700
-5.00791800 -35.58313200 -29.96586600
-7.58159900 -35.58154400 -29.47355700
-4.75461000 -37.57013100 -29.06654400
-7.26651600 -37.58221100 -28.61109900
-9.68396200 -37.57124700 -27.86051900
-6.92478800 -39.49324100 -27.64640800
-9.27924900 -39.45171400 -26.89506500
-11.62205300 -39.45273900 -26.03254700
-8.88519500 -41.22949100 -25.91734300
-11.15383000 -41.20094300 -25.03572100
-13.35617300 -41.25071300 -23.97596700
-10.76440300 -42.79012000 -24.18772900
-12.87960600 -42.82096700 -23.14158600
-14.87483000 -42.85721800 -21.87104800
-12.51763000 -43.96221600 -22.49134800
-14.48280200 -43.97544800 -21.29310600
-16.29957800 -43.95009900 -19.92942800
-14.08788500 -44.96808300 -20.75566100
-15.84569000 -44.94275000 -19.41593900
-17.48992400 -44.95385800 -17.94532800
-15.23958000 -45.65164100 -18.67036400
-16.80547900 -45.62251200 -17.21830700
-18.22710300 -45.70852200 -15.72071800
-15.86828800 -45.85125400 -16.26655600
-17.19844300 -45.90764000 -14.82939100
-18.38460400 -46.11905900 -13.32157900
-15.99810200 -46.05383300 -13.76088000
-17.06033900 -46.21375400 -12.29847700
-18.02217700 -46.45930200 -10.81523100
-15.36223800 -46.35983700 -11.00395200
-16.24024000 -46.43923000 -9.69578600
-17.00769300 -46.68926300 -8.31877100
-14.31850300 -46.42823700 -8.42085300
-13.59585800 -46.45022100 -9.60063200
-12.05374400 -46.44409000 -8.11027500
-11.23965300 -46.35553500 -9.09916700
-10.17635200 -46.48065100 -7.58378600
-11.03628000 -46.41669200 -6.70134000
-12.74994500 -46.55189700 -10.69306900
-11.77071200 -46.44862000 -11.75764500
-10.41129100 -46.28854000 -10.09898400
-14.39226000 -46.35308000 -12.26304600
-13.25982900 -46.18418000 -13.41175800
-11.98423200 -46.08593000 -14.46131900
-10.64228300 -46.49097500 -12.74073800
-14.75014300 -45.97666700 -15.08512900
-13.32672300 -45.93850500 -16.20170600
-11.77180700 -45.94121200 -17.15925600
-10.59322200 -46.23411700 -15.40550200
-14.39837100 -45.88240600 -17.59678600
-12.76776700 -45.83994400 -18.71376000
-10.98159200 -45.88456400 -19.56922900
-10.11791100 -46.01163200 -17.98671000
-13.50634200 -45.55272400 -19.89216600
-11.64026100 -45.57855400 -20.86970500
-9.69628700 -45.75568200 -21.61702000
-9.11036100 -46.02693100 -20.23912000
-12.15022500 -44.96945900 -21.80729700
-10.13642700 -45.07320900 -22.67613200
-8.08493300 -45.19789800 -23.36885100
-7.71015800 -45.88943200 -22.26362600
-10.45173100 -43.99590900 -23.45188900
-8.33717900 -44.12426100 -24.18470800
-6.25869600 -44.26879800 -24.90794400
-6.03494500 -45.28760700 -24.09172100
-8.57372900 -42.81475400 -25.00773600
-6.37608600 -42.99531400 -25.65223700
-4.16360300 -43.12459800 -26.25547800
-4.12809600 -44.44583800 -25.63642900
-6.59818100 -41.30688000 -26.61290000
-4.25329000 -41.38198800 -27.07746900
-1.84487000 -41.59488200 -27.41969300
-1.82452600 -43.34163300 -26.63508600
-4.48992000 -39.50362700 -28.08775300
-1.99273100 -39.59812500 -28.29405200
0.48303000 -39.79388900 -28.25169400
0.55187400 -41.82074000 -27.30168200
-2.19822100 -37.65129200 -29.30024700
0.36529300 -37.80847300 -29.27641300
2.85908700 -37.99075400 -28.92256200
2.88418700 -40.05050600 -27.92421000
0.26291800 -35.80270700 -30.21690400
2.83981100 -35.96104200 -29.91822800
5.32129500 -36.12740100 -29.40477000
5.24956300 -38.17869800 -28.39161700
2.84060800 -33.92722000 -30.86222800
5.40160200 -34.06615500 -30.32731600
7.88170800 -34.19753700 -29.58699000
7.70203200 -36.25266200 -28.69740300
5.51354800 -32.01050500 -31.21122700
8.06155800 -32.13664200 -30.42665100
10.55746100 -32.27291000 -29.46928400
10.29221300 -34.30578300 -28.65419000
8.24547700 -30.06445200 -31.21260100
10.81580500 -30.23350100 -30.21421800
13.35815600 -30.41230300 -29.07817100
13.01022500 -32.41253000 -28.32551600
11.09553700 -28.18093800 -30.90202300
13.69412800 -28.38456300 -29.77891500
16.16365600 -28.44022800 -28.44181800
15.79661300 -30.47139600 -27.76426700
13.99471400 -26.29857400 -30.38114900
16.48617300 -26.36012600 -29.04567000
18.87587100 -26.26748200 -27.53175400
18.53500900 -28.35903600 -26.96821600
16.76888300 -24.22727500 -29.58418300
19.15027300 -24.14565400 -28.01384000
21.51430900 -24.04308700 -26.29628000
21.20284200 -26.15037300 -25.87727400
19.41041400 -22.00181600 -28.43891900
21.79017000 -21.93734200 -26.64558400
24.09741200 -21.92808200 -24.64869700
23.77130500 -24.01272100 -24.34840400
22.06741700 -19.82890800 -26.97215300
24.37751500 -19.83662100 -24.91545100
26.48976400 -19.87689300 -22.59306300
26.17643500 -21.95068600 -22.35154700
24.62078600 -17.73043600 -25.15461700
26.75389300 -17.78852700 -22.81813000
28.72778800 -17.84026000 -20.29728700
28.45636300 -19.92215500 -20.09565700
26.99228500 -15.68537700 -23.03773500
28.96776100 -15.74855400 -20.49607800
30.68263300 -15.76931000 -17.71504200
30.43601200 -17.84609500 -17.54686000
29.17228800 -13.64641500 -20.67540000
30.89166400 -13.68830100 -17.86698900
32.46301300 -13.70663600 -14.91896100
32.23992800 -15.77472100 -14.78422500
31.07531400 -11.59921800 -17.99806200
32.63954400 -11.62796500 -15.03569000
33.89724200 -11.60717300 -11.89778100
33.72031700 -13.67891800 -11.79014600
32.79432400 -9.54055500 -15.13508600
34.03038300 -9.52937100 -11.97761500
34.93611300 -9.48003700 -8.70088200
34.79856900 -11.55783200 -8.62080400
34.17933100 -7.44629000 -12.02494800
35.05996800 -7.39402300 -8.75691200
35.69380900 -7.34186900 -5.43244900
35.60259500 -9.42913600 -5.37312300
35.12437300 -5.28910000 -8.75556900
35.73957300 -5.24715000 -5.46153300
36.09003600 -5.19081800 -2.09211700
36.04902300 -7.28526400 -2.05421400
35.76548500 -3.13144600 -5.44480900
36.10629500 -3.08722100 -2.11717200
36.19458600 -3.00700500 1.25441000
36.18816600 -5.11473000 1.28843700
36.07915500 -0.96394100 -2.11274700
36.15656200 -0.89534900 1.22795100
35.85662500 -0.81349700 4.58497600
35.92828100 -2.92291200 4.61720300
36.04585900 1.22251400 1.22639500
35.74397900 1.28721100 4.57167100
35.16564800 1.36432900 7.92613200
35.32738300 -0.72810500 7.93284600
35.46641900 3.37012700 4.60365300
34.88525100 3.43904000 7.93150300
33.95896800 3.56829700 11.17790200
34.24633100 1.48154700 11.18470800
34.47993800 5.49411600 7.91404700
33.54175400 5.62457900 11.11085500
32.33556600 5.78288500 14.16090400
32.78231400 3.70989800 14.29322800
33.00044100 7.65863700 10.94117700
31.80447600 7.83740500 13.91584800
30.43454600 8.00023500 16.73802200
30.92649400 5.92293800 17.03971900
31.19230800 9.86200600 13.57112100
29.82716100 10.03281300 16.33229100
28.25076500 10.13128100 18.94560200
28.82598600 8.09234900 19.40425100
29.10382800 12.00021200 15.85292100
27.56527100 12.10690200 18.41700700
25.80735900 12.16622000 20.79112200
26.47427200 10.18559500 21.37764000
26.79362500 14.03515900 17.85441600
25.08943800 14.09951300 20.17634600
23.20595700 14.14665100 22.33274800
23.88353900 12.20857900 22.99287400
24.24662700 15.95626700 19.47776800
22.43641800 15.99964000 21.55860900
20.43806600 16.01338800 23.47187800
21.13461300 14.15593200 24.28956600
21.54232400 17.76831700 20.70564300
19.64243100 17.78613900 22.56028700
17.60391200 17.76837000 24.26820400
18.30690700 16.00644200 25.23695400
18.68878500 19.40233100 21.53642300
16.73078700 19.35938100 23.13478100
14.65957600 19.32985500 24.57856800
15.39388300 17.73444600 25.77424600
15.84195900 20.95055600 22.00572200
13.88342600 20.91731100 23.36158800
11.81809400 20.88970000 24.53562900
12.45838300 19.29945600 25.81352200
13.20002700 22.68978400 22.34779400
11.23969200 22.65278500 23.45027200
9.16829100 22.61275700 24.31343100
9.64392800 20.86184200 25.48478700
10.77528400 24.59759000 22.63218700
8.78972400 24.55980200 23.46025100
6.73190500 24.51539900 24.09046900
7.03553200 22.58491400 25.00154100
8.51921400 26.63377600 22.90678400
6.51575300 26.58913300 23.53120400
4.47095800 26.54054100 23.97358700
4.62897300 24.46229800 24.53913900
6.38659600 28.73122600 23.24861100
4.38238500 28.68710600 23.70021100
2.35407400 28.63797200 23.98188800
2.40108300 26.48876000 24.23573300
4.33760600 30.86730400 23.64485200
2.33217000 30.81454700 23.92100500
0.31141800 30.75346600 24.04502900
0.30929400 28.58498200 24.11445600
2.31521000 32.99701500 23.85810900
0.32077200 32.91733400 23.93861400
-1.69824100 32.82446100 23.83018500
-1.72188400 30.68369500 23.92054700
0.32214500 35.01436500 23.94404600
-1.68938300 34.89206600 23.86131300
-3.73906200 34.79409600 23.55754100
-3.73587300 32.74175100 23.55616800
-1.71875600 36.81291100 24.05668600
-3.81679700 36.66951600 23.72404500
-5.84797100 36.63840300 23.19743300
-5.76887700 34.75493500 23.06163000
-3.94656200 38.25717800 23.92143200
-5.94372000 38.18054800 23.40272500
-7.90754500 38.16416800 22.74540700
-7.82202700 36.62834800 22.55015600
-5.98773000 39.12309900 23.57212800
-7.96127500 39.19408300 22.90214500
-9.90183900 39.33617300 22.09407000
-9.82510600 38.26666100 21.93833900
-7.99042000 39.74983800 23.01054400
-9.96020700 39.90918600 22.20719900
-11.86472900 40.04763700 21.19862400
-11.78799300 39.42275100 21.10267600
-9.99680900 40.41212300 22.30186500
-11.93982500 40.51148800 21.28526300
-13.78160300 40.47051100 19.95961000
-13.70526700 39.99816000 19.89381400
-11.99113300 40.96937400 21.33567800
-13.80760800 40.93919200 19.97651700
-15.63198700 41.04863600 18.53038000
-15.58929300 40.54666000 18.51228300
-13.74286500 41.38556500 19.87001000
-15.56543600 41.54455400 18.45253000
-17.20999700 41.50945100 16.75724800
-17.25740600 41.01389900 16.85710100
-15.34757400 41.92845000 18.19932600
-17.02632400 41.93492700 16.54545600
-18.54815900 41.78522300 14.72950700
-18.70775100 41.36895600 14.94352700
-16.77782700 42.30070400 16.28877300
-18.31704500 42.11335600 14.45552100
-19.96292300 42.00086800 12.64939900
-20.16603700 41.75033400 13.00929300
-18.08858300 42.51089300 14.23707600
-19.62307600 42.38017900 12.25837700
-21.15851400 42.02775400 10.60914600
-19.51743900 42.81175100 11.95085100
-22.10769900 41.98924100 8.68879700
-22.25968800 41.63488600 9.18324300
-21.37915300 41.72237300 11.00499000
-22.29859000 41.19810300 9.40815700
-21.48439600 41.28349200 11.23722800
-20.24313200 41.33306700 13.20741300
-21.47239900 40.80780600 11.26310700
-20.18659800 40.85246900 13.26945500
-18.72284200 40.87222100 15.03065500
-20.06254000 40.36317300 13.27558900
-18.64124100 40.37656300 15.04499800
-17.22098800 40.50453000 16.87733500
-18.55909600 39.86554600 15.05619800
-17.13672500 39.98750900 16.85624700
-15.52673200 40.04776600 18.47728000
-17.03983500 39.34139900 16.83488500
-15.43165000 39.40545500 18.41911300
-13.63133800 39.42376600 19.82914700
-15.28936600 38.35626100 18.34956400
-13.52369500 38.38902100 19.74055500
-11.69848100 38.33164100 20.97361800
-13.39528900 36.60410900 19.63581800
-11.59806700 36.62566200 20.80354300
-9.73574700 36.62193900 21.75822400
-11.59881000 34.66812000 20.81694000
-9.69100800 34.71636800 21.67527800
-7.75381300 34.74121700 22.43159500
-9.66158100 32.60491800 21.65232800
-7.73603300 32.63890700 22.44587700
-5.77276400 32.68288300 23.13832100
-7.73783700 30.51161100 22.50337200
-5.76870200 30.55747500 23.15510600
-3.75366800 30.61566400 23.61787400
-5.79538200 28.41686500 23.25770600
-3.78073000 28.46840100 23.71666000
-1.74250200 28.52786500 24.02229300
-3.83440200 26.33436800 24.00608800
-1.76872500 26.38663000 24.27165200
0.31564900 26.43685800 24.33769200
-1.79891800 24.32326700 24.88502500
0.35329200 24.37809200 24.94273400
2.49754900 24.42834700 24.84379600
0.40773600 22.47155600 25.94334400
2.63887600 22.51835900 25.82002300
4.85425700 22.54777000 25.49800100
2.81067800 20.78858800 27.10160800
5.12557800 20.81688500 26.74961900
7.41135600 20.83719900 26.20942700
5.42431400 19.24745000 28.22077900
7.81253200 19.23540000 27.61137400
10.16284300 19.25822300 26.82127400
8.23156000 17.63116700 29.01399200
10.67940700 17.65492900 28.16050700
13.08383300 17.70938300 27.09419300
11.16146800 15.87204200 29.30473300
13.63888300 15.93300900 28.17384300
16.02813500 15.97618000 26.80116300
14.14184500 14.04408100 29.11546300
16.59022500 14.10646300 27.71034200
18.93627300 14.14600200 26.09718300
17.12661900 12.16326800 28.51414500
19.52661000 12.21689100 26.86128200
21.78074500 12.22992900 25.00355500
20.10705400 10.24241500 27.52153000
22.40396200 10.24597800 25.64161700
24.52712400 10.21789000 23.60832200
22.93164800 8.16451900 26.16395600
25.04979900 8.12665400 24.12425200
27.01756300 8.11966600 21.87678500
25.49949000 5.97437100 24.56413300
27.45456500 5.99046900 22.25413500
29.31067700 6.01416600 19.76463300
27.84000300 3.82797500 22.48970000
29.71209500 3.88695800 19.97364800
31.36266800 3.83143900 17.23808300
30.03694800 1.72479900 20.02290300
31.68379700 1.69450200 17.27403300
33.07852900 1.60256800 14.31700100
31.89857300 -0.46464700 17.25526400
33.27811000 -0.52532000 14.30500800
34.41652800 -0.62834300 11.18086200
33.38793700 -2.67676700 14.28617900
34.49597600 -2.75134400 11.17005900
35.37828500 -2.84132500 7.93730200
34.53746900 -4.88896300 11.14375300
35.40996300 -4.96837000 7.94068900
35.91829700 -5.03865000 4.63942000
35.35479900 -7.10748200 7.92286700
35.88770200 -7.16372400 4.65342700
36.14877700 -7.22344400 1.32038900
35.79922700 -9.29299500 4.65791300
36.03622200 -9.33376500 1.34724400
35.95577700 -9.37992800 -2.00730900
35.91893200 -11.44980000 1.37751800
35.82051200 -11.47761500 -1.94813500
35.47886900 -11.51361600 -5.29670700
35.63766700 -13.57587200 -1.88118000
35.30337900 -13.59641400 -5.21019000
34.62646400 -13.62907900 -8.52223200
35.09153400 -15.67420900 -5.12394700
34.41097200 -15.69352300 -8.42643700
33.50470700 -15.74184000 -11.67884800
34.16145700 -17.74865700 -8.33778400
33.24200000 -17.79612900 -11.56703200
31.96938100 -17.83571500 -14.64228800
32.93551300 -19.83949900 -11.45591700
31.65653600 -19.89101000 -14.49922200
30.17422700 -19.92262000 -17.38688700
31.31240100 -21.94150600 -14.35347000
29.81746400 -21.98405300 -17.19645700
28.10986900 -21.98520500 -19.87098700
29.40702100 -24.03066000 -17.00337200
27.69733400 -24.03350800 -19.63465900
25.80824200 -24.01547500 -22.08857700
27.22457600 -26.06504200 -19.39079300
25.36492000 -26.06806900 -21.79777500
23.39711200 -26.10107100 -23.99885600
24.84987000 -28.11339200 -21.44990500
22.91700400 -28.18031300 -23.56626900
20.81006000 -28.25318300 -25.38749700
22.36622800 -30.25982200 -23.08299300
20.33128900 -30.35855800 -24.84898400
18.12626800 -30.43049000 -26.34767200
19.77503800 -32.45067100 -24.23973100
17.63083800 -32.48449000 -25.67427100
15.38088200 -32.48581500 -27.04716500
17.10884800 -34.56107500 -25.01066600
14.92708200 -34.50460400 -26.31700100
12.64004300 -34.41289200 -27.53346300
14.41722500 -36.52668100 -25.53526300
12.24636600 -36.43650200 -26.72197000
10.01887900 -36.35634900 -27.81013500
11.81656400 -38.48521800 -25.85185200
9.72163600 -38.43304600 -26.90724200
7.53812200 -38.34386700 -27.75608800
9.38659100 -40.53862200 -25.92826800
7.30943800 -40.44103300 -26.70723000
5.15844500 -40.27029900 -27.35020400
7.04279900 -42.60309600 -25.71803300
5.00384500 -42.43563000 -26.28163100
2.86028500 -42.11439300 -26.88166800
4.72750400 -44.26559400 -25.33000200
2.67373400 -43.88684100 -25.93522600
0.51462000 -43.60801100 -26.42134100
2.51993300 -45.40466200 -25.25364700
0.37179000 -44.91810200 -25.60389700
-1.86103300 -44.59299900 -25.88755800
0.23051200 -45.97838800 -24.65385400
-1.90413900 -45.54395200 -24.86589100
-3.94385000 -45.34044900 -24.69218400
-1.74936500 -46.05656300 -23.40855400
-3.74041200 -45.93121000 -23.38993800
-5.74077100 -45.99830000 -22.97407500
-3.43665500 -46.45528500 -21.76295500
-5.28561600 -46.41231200 -21.38734400
-7.18798700 -46.15696300 -20.85606400
-4.75307700 -46.39620300 -19.57618700
-6.56650000 -46.41007300 -19.18711900
-8.36659800 -46.20444500 -18.65779100
-5.82422100 -46.39279100 -17.27919000
-7.48227100 -46.37349200 -16.79777500
-9.07613200 -46.22290200 -16.17225600
-6.56685100 -46.34443800 -14.92210400
-8.02615200 -46.08405100 -14.35209700
-9.40323900 -46.21102700 -13.60597200
-6.98818400 -46.00454500 -12.54756200
-8.25892100 -46.11099300 -11.85817000
-9.40378000 -46.17360100 -11.03190600
-7.25328300 -46.13540100 -10.17292800
-8.33748100 -46.27952400 -9.40370200
-9.27139900 -46.36479800 -8.50749200
-7.46570000 -46.21825500 -7.85655200
-8.48844400 -46.31570900 -7.00773600
-9.46483800 -46.38809800 -6.15815700
-7.91642200 -46.32693700 -5.54548600
-9.04737300 -46.55075000 -4.81767300
-10.34588500 -46.60215200 -4.15925600
-10.52744900 -46.45348900 -5.38520800
-11.95464200 -46.71479000 -3.65882900
-11.89607100 -46.58713600 -4.80937200
-13.72700700 -46.84389600 -4.59034700
-10.30697800 -46.68283600 -2.95863300
-8.83928500 -46.60872500 -3.51182600
-8.67633300 -46.73662700 -2.21867400
-7.55374700 -46.53266000 -4.14753700
-7.30766100 -46.66725000 -2.78627000
-7.11311600 -46.81781100 -1.50624100
-5.95430200 -46.57509600 -3.30107100
-5.75258900 -46.66043600 -2.01969900
-4.46724500 -46.57119800 -2.57002300
-4.75146700 -46.43288500 -3.90544100
-3.57804300 -46.36399900 -4.43791200
-3.22977300 -46.47617100 -3.07850600
-6.34259200 -46.38353500 -4.78907800
-5.15825100 -46.30521500 -5.42414900
-4.03248000 -46.24137900 -5.93907200
-2.84910800 -46.26187500 -6.39775100
-2.37965200 -46.31032200 -4.91914400
-5.72378000 -46.17591400 -6.97819500
-4.58561900 -46.21285500 -7.49354600
-3.39759700 -46.24514400 -7.94538900
-2.17567700 -46.50512400 -8.32426500
-1.61662500 -46.33104000 -6.80888400
-5.25160100 -46.07530500 -9.11702000
-4.04487800 -46.24876900 -9.57048000
-2.77170800 -46.40174600 -9.94252000
-1.48087100 -46.68275900 -10.24269100
-0.88085800 -46.58121800 -8.66807600
-4.78336900 -46.16268200 -11.28715500
-3.46988900 -46.36105900 -11.66004900
-2.11833800 -46.68967100 -11.92320300
-0.73657800 -47.03780900 -12.08186300
-0.13453900 -46.91098800 -10.47319000
-4.22545100 -46.34178800 -13.47673000
-2.77846700 -46.57298000 -13.73362700
-1.30301100 -46.87314600 -13.86296100
0.19087400 -47.16474500 -13.84111000
0.66568900 -47.42516500 -12.14607200
-3.47952100 -46.55798700 -15.64524800
-1.90099900 -46.72847000 -15.80235300
-0.31714800 -46.98997400 -15.78147900
1.28063000 -47.23553600 -15.56422400
1.69605000 -47.59697000 -13.72544900
-2.47359700 -46.61652000 -17.84431500
-0.80102400 -46.85523700 -17.90007000
0.87108800 -47.16326500 -17.58839400
2.47595800 -47.66419700 -17.11058000
2.87662700 -47.59427800 -15.12251300
-1.26621500 -46.75569700 -19.96669000
0.53241500 -46.98609900 -19.64082300
2.29127300 -47.48951500 -19.15864600
3.97768600 -48.16509900 -18.57576000
4.14560700 -48.06163300 -16.42643700
0.18019300 -47.05670900 -21.60627700
2.17236900 -47.28350800 -21.07041900
4.01417300 -47.90167600 -20.62123100
5.84368500 -47.83745000 -19.99931300
5.66988300 -48.08448900 -17.84587100
2.18867700 -47.11067500 -22.76139800
4.14987900 -47.52046800 -22.12388600
6.04123500 -47.69924100 -21.58442700
7.87790800 -47.47899200 -21.11076400
7.41984900 -47.62086000 -19.12052900
4.37711300 -46.55949000 -23.31498700
6.24588900 -47.03469100 -22.93156400
8.13145000 -46.93643500 -22.44206200
10.03016300 -46.94912100 -21.71684300
9.49837500 -47.31288600 -20.32817100
6.48741700 -45.92261900 -23.98417700
8.46216000 -46.02238400 -23.45915200
10.43962100 -46.10625500 -22.71376000
12.23290400 -46.08124200 -21.54383900
11.73392800 -46.92689900 -20.68968200
8.71765700 -44.62705100 -24.21119700
10.68201800 -44.71167200 -23.31041000
12.49975000 -44.76852900 -22.14524800
14.14292700 -44.74176600 -20.89415000
13.92866300 -46.17875100 -20.35350000
10.94506600 -42.70952600 -24.00499000
12.81755200 -42.80021000 -22.97035200
14.52279300 -42.78218200 -21.76435900
16.19969900 -42.62515100 -20.51991300
15.62565800 -44.45170200 -19.57786600
13.31236400 -40.65793000 -23.86399800
15.17891300 -40.70589400 -22.70198100
16.92420700 -40.59951800 -21.35490400
18.73722400 -40.43645900 -19.97370900
17.92698800 -42.36258800 -19.22920200
15.85063700 -38.63465600 -23.49955700
17.71372800 -38.59035300 -22.11476100
19.61516700 -38.48470800 -20.70011900
21.41249500 -38.25348700 -19.07673600
20.60723400 -40.25515400 -18.49897800
18.44754000 -36.55941200 -22.83677700
20.36581900 -36.44635400 -21.33995100
22.19859900 -36.23013200 -19.64195300
23.84041800 -35.97230600 -17.63935900
23.07157600 -37.97078500 -17.22084000
21.07564900 -34.39279000 -21.96669000
22.88115600 -34.17705400 -20.11784400
24.59813900 -33.98592000 -18.03523300
26.16266900 -33.82137100 -15.71034200
25.37836200 -35.77086200 -15.43147300
23.58507500 -32.16247100 -20.60334800
25.37166600 -32.04255100 -18.45011900
26.94059200 -31.89278700 -16.00080900
28.43714200 -31.84175400 -13.45240800
27.62603700 -33.79267100 -13.26207000
26.04106100 -30.06426000 -18.79182400
27.66355200 -29.95487900 -16.27699300
29.15851500 -29.88522800 -13.59989900
30.42848700 -29.88334300 -10.84645100
29.77971000 -31.93136300 -10.85624700
28.32341800 -28.01207800 -16.53559900
29.80165100 -27.93052300 -13.76448100
31.08462300 -27.87812300 -10.93013000
31.99197700 -27.87491300 -8.00834700
31.37809700 -29.93079000 -8.08738700
30.38345400 -25.96585200 -13.97456400
31.67950000 -25.89492400 -11.06135600
32.56708300 -25.83816300 -8.02906800
33.18420300 -25.88924900 -4.97978200
32.54674900 -27.96002300 -5.12095600
32.14284000 -23.88740800 -11.20542900
33.06258700 -23.82833900 -8.09321600
33.68534000 -23.85290500 -4.92222600
34.02206500 -24.02949300 -1.79234300
33.51153300 -26.10907600 -1.96128800
33.50478200 -21.81736000 -8.17698700
34.12050500 -21.82678500 -4.93647800
34.45484500 -21.94673200 -1.71757500
34.48143900 -22.10028300 1.40733300
34.03467700 -24.22863400 1.27671800
34.47308700 -19.78895400 -4.97422800
34.82612300 -19.86148300 -1.71519500
34.87861200 -19.96695400 1.45512400
34.67367600 -20.01790000 4.54414400
34.30552300 -22.19173000 4.44767800
35.14892600 -17.77216800 -1.75254800
35.23019900 -17.83372200 1.45887800
35.01200900 -17.86497300 4.59693900
34.50168100 -17.91086200 7.67244000
34.19492300 -20.08177900 7.56926000
35.52860500 -15.70290300 1.43843100
35.28275400 -15.71448900 4.62599200
34.76982300 -15.74973800 7.74543800
34.00799700 -15.82394900 10.76179500
33.73102900 -17.98781400 10.63118000
35.50179000 -13.56859700 4.64210500
34.98719400 -13.58697700 7.81050100
34.22552300 -13.63190200 10.86250300
33.18001300 -13.67540500 13.77693200
32.96592000 -15.89578000 13.64003000
35.15765500 -11.42286300 7.86058000
34.37606700 -11.42564700 10.94990500
33.30661800 -11.44130300 13.89863600
31.96823700 -11.45879700 16.74418600
31.86756200 -13.69726300 16.59257500
34.47613300 -9.22867900 11.02442900
33.39886100 -9.22448900 14.02333100
32.05154200 -9.24287700 16.89109800
30.48027800 -9.30168900 19.62950100
30.41916200 -11.50999200 19.47847000
33.45272100 -7.02601600 14.13798500
32.10110200 -7.03636500 17.03514100
30.54440500 -7.08970000 19.78288300
28.78745900 -7.19985500 22.38597100
28.65282600 -9.38702300 22.20396400
32.09540900 -4.83457100 17.14601100
30.50302400 -4.86442700 19.88545200
28.74457800 -4.98272300 22.46257000
26.59109800 -5.09264700 24.78941300
26.54893200 -7.25968700 24.69386300
30.39253600 -2.65246200 19.95597800
28.68309600 -2.75157500 22.58775300
26.55846800 -2.89509900 24.87474100
24.24917300 -2.90842400 27.06297300
24.25733500 -5.07870100 27.04841600
28.51520100 -0.52932100 22.65382400
26.48429800 -0.67037300 25.01673900
24.13564200 -0.70645300 27.08702100
21.74550500 -0.60842300 29.08100900
21.80864000 -2.81272800 29.11561600
26.24621600 1.55290500 25.03227200
23.97079300 1.53349200 27.08833300
21.58227600 1.62275600 28.97374000
19.08301400 1.69143500 30.75926200
19.22298200 -0.51972300 30.88969400
23.70245900 3.77710200 26.91352800
21.33923500 3.85016100 28.76930200
18.86925900 3.88937200 30.56340000
16.17486700 3.83893100 32.11839300
16.38705000 1.67193500 32.32081600
21.03654700 6.04947900 28.46424900
18.56504000 6.04601900 30.23997500
15.87509300 5.96393100 31.79744000
13.02548600 5.85703100 33.10401900
13.31317700 3.75318800 33.45195000
18.14737100 8.13667200 29.79386900
15.49796700 8.04113200 31.32569900
12.73060800 7.94982400 32.64244100
9.87186000 7.85410500 33.69660900
10.09247000 5.75905100 34.21342500
15.06505000 10.08041200 30.69429000
12.37455200 9.98698300 31.95588700
9.59895700 9.90961300 32.95555100
6.77183300 9.90807200 33.68913300
6.94721600 7.82913800 34.40068100
12.00238200 11.99718700 31.16716000
9.30815700 11.93939400 32.14173900
6.54161000 11.92236200 32.83909600
3.70807100 11.95061000 33.28508000
3.86285200 9.94936600 34.15480000
8.99212600 13.91950800 31.24385100
6.30667300 13.90008400 31.90193200
3.55810300 13.91913800 32.35362200
0.77319900 13.90841500 32.52931200
0.83466900 11.93994000 33.48551900
6.03686100 15.81277700 30.85322600
3.38324900 15.80757000 31.25956700
0.69024400 15.79812500 31.43833900
-2.01710300 15.76439500 31.38356000
-2.01854500 13.88994800 32.48762500
3.19754200 17.59895900 30.02616900
0.60596600 17.58559300 30.20094300
-1.99970100 17.54143400 30.14192200
-4.58115200 17.49380700 29.85450700
-4.71126400 15.71137100 31.09980800
0.52923000 19.18892500 28.74128700
-1.94616900 19.14291600 28.68760700
-4.41438100 19.11263900 28.43174700
-6.84094800 19.07384700 27.94538900
-7.12119500 17.43721200 29.33998100
-1.87034100 20.69021800 27.17109700
-4.20199800 20.64321000 26.92021200
-6.51780900 20.60992300 26.46809400
-8.76258300 20.59677400 25.77412400
-9.19363200 19.04395900 27.23585500
-4.04736500 22.36419200 25.63972500
-6.23236300 22.31999800 25.19065900
-8.36140700 22.29246400 24.51176500
-10.42455500 22.27458800 23.64445500
-10.92523400 20.56402100 24.87123100
-6.01770200 24.22638600 24.19087200
-8.05438800 24.19064600 23.53559900
-10.03583000 24.16979800 22.69731100
-11.97896800 24.19111100 21.74931300
-12.43114300 22.29076200 22.64332600
-7.85844600 26.24608100 22.90162700
-9.79610300 26.23083700 22.09364300
-11.68236400 26.23696800 21.16746500
-13.49977300 26.26993800 20.10044900
-13.84172300 24.23417900 20.65043600
-9.67995300 28.35225900 21.79676800
-11.54457300 28.35297600 20.86308300
-13.33691600 28.37118400 19.79924000
-15.00712000 28.40962100 18.55403100
-15.19142000 26.31114100 18.84138500
-11.51772500 30.47238800 20.76210000
-13.32659400 30.48510600 19.71836900
-14.97125500 30.52022400 18.43605000
-16.48572400 30.58125200 17.01194800
-16.53060400 28.46561300 17.14665200
-13.34964200 32.58394500 19.69010900
-15.01032100 32.61527100 18.39723200
-16.52909300 32.67787800 16.94041400
-17.88403500 32.76128200 15.35731500
-17.86913900 30.65502400 15.48753400
-15.00724200 34.66501500 18.28855900
-16.57983200 34.73331300 16.84193400
-17.92258300 34.83324300 15.19578600
-19.13903600 34.92595500 13.50108300
-19.07438900 32.84803600 13.68742400
-16.68166200 36.66321400 16.76414500
-18.07426700 36.74424600 15.08662400
-19.31653000 36.82721600 13.35270700
-20.42028300 36.81904500 11.65879800
-20.20409600 35.00026600 11.79750100
-18.29002600 38.25800900 15.06297300
-19.56677800 38.22087700 13.30177300
-20.71003200 38.19938500 11.58357200
-21.55197400 38.09891400 9.84645100
-21.28537600 36.79436300 9.94718900
-19.80289700 39.21461300 13.28889500
-20.96700900 39.18102900 11.51622000
-21.81981500 39.12035200 9.74900800
-22.44603900 39.03627600 8.14744600
-22.22537800 38.12335800 8.19502300
-21.16017700 39.83539400 11.45051600
-22.02455400 39.81232300 9.65202300
-22.61833800 39.76763800 8.10948200
-23.14724600 39.76624900 6.67710900
-23.00653300 39.15893400 6.66444400
-22.18094800 40.29436300 9.53569000
-22.75289800 40.25475200 8.03385900
-23.26392600 40.26714200 6.66679400
-23.67611900 40.32270700 5.29017600
-23.55834400 39.80610500 5.22709700
-22.89443400 40.70247500 7.94200100
-23.35200700 40.70667100 6.66636700
-23.74272800 40.77628200 5.33912700
-23.92404800 40.81290300 3.80772400
-23.89274800 40.31422300 3.72297700
-23.33631700 41.12168000 6.61808800
-23.66447300 41.21906100 5.36222800
-23.78039400 41.27783800 3.92579700
-24.02403500 41.60807700 1.64915500
-24.18015900 41.10988500 1.71229600
-24.34067400 41.21236300 -0.15251200
-24.29488600 40.66580100 -0.17173800
-24.15892600 40.60078300 1.69426000
-24.13405100 41.71031800 -0.17530800
-24.09816200 41.71207300 -1.60652200
-24.29498100 41.24420000 -1.75398300
-23.95768600 41.23242000 -3.65098600
-23.94112600 40.71992300 -3.75416600
-24.25553700 40.72994900 -1.85343900
-23.81864000 41.71265300 -3.49964900
-23.50694100 41.65656900 -5.55625900
-23.64173700 41.21093600 -5.69657900
-23.36467600 41.87753200 -3.32606500
-23.17911400 41.97311300 -5.32621800
-22.62969000 41.90888100 -7.61326600
-22.87640200 41.55574700 -7.74330100
-22.97627500 41.64197400 -3.17952000
-22.67151100 41.97924700 -5.21727000
-22.32666200 42.16218400 -7.40541100
-21.28202700 42.05852400 -9.35145600
-21.64837100 42.00624700 -9.64753700
-22.34976400 41.79563800 -5.04261800
-22.04365000 42.40762900 -7.20512400
-21.00815800 41.88159000 -9.06007400
-19.74220100 42.17115600 -10.98008700
-20.12389200 42.33038200 -11.29332000
-21.80719600 42.67018000 -6.73762500
-20.57952700 41.95272700 -8.52113300
-19.50617100 41.91129200 -10.76072700
-18.15813700 41.80770700 -12.96095300
-18.52846000 42.00685700 -13.14491300
-20.56138800 42.55426600 -8.62171900
-19.40836500 42.27377200 -10.65232800
-18.04607600 42.10260600 -12.83692900
-16.51550500 42.09440500 -14.59559600
-16.69500600 41.81041600 -14.72020000
-19.35174000 42.72170900 -10.66429100
-18.06756000 42.56240700 -12.79859900
-16.49562300 42.56809100 -14.58909600
-15.04255900 42.75252400 -16.04374700
-15.09002100 42.28935900 -16.15144300
-18.06101800 43.04634000 -12.78724700
-16.49148800 43.04479100 -14.56300400
-15.01170200 43.21287400 -16.01527400
-13.53402900 43.30087900 -17.16966200
-13.60532200 42.84906600 -17.18449400
-16.48142500 43.52263500 -14.54988100
-14.98421700 43.67936600 -16.00846900
-13.48607900 43.74989900 -17.18974300
-12.01203800 43.66922600 -18.20039400
-12.05189700 43.18530100 -18.19963100
-14.94514300 44.13525200 -16.02739000
-13.44727500 44.19950700 -17.20848100
-11.99902200 44.15959800 -18.20658900
-10.29682400 43.96678800 -19.15971400
-10.27578200 43.47955200 -19.12565600
-13.44702700 44.65587500 -17.25584400
-12.01885800 44.64590300 -18.23173500
-10.38360000 44.42802300 -19.30781600
-8.04285600 44.41442000 -20.27818300
-8.20376000 43.94282400 -20.09974700
-12.18491600 45.05741700 -18.41932700
-10.51900700 44.84854700 -19.50437900
-8.04837300 44.79457700 -20.49824500
-13.56741900 45.03166800 -17.49491900
-14.91190900 44.59806700 -16.11705000
-14.98022700 44.99011900 -16.36082500
-16.48517400 44.47897200 -14.63554400
-16.62168300 44.86867400 -14.84343000
-18.03015700 44.48041400 -12.88722200
-18.18818500 44.86312700 -13.06025700
-19.29976100 44.73057400 -10.84251400
-19.44274700 45.18782700 -10.93885800
-19.84002500 45.33972800 -11.17839100
-20.69670300 45.31940300 -8.79829400
-20.44185900 44.94468500 -8.71806300
-21.21796300 45.25562900 -6.11927800
-20.37314100 44.47381400 -8.72163400
-21.21064600 44.80223700 -6.13185100
-21.84421400 44.64253900 -3.26182600
-21.26704600 44.36293600 -6.19426000
-21.90070900 44.10228600 -3.35459900
-22.22360800 43.99276600 -0.22773700
-21.90983400 43.66677700 -3.44276400
-22.24542100 43.58182400 -0.41212500
-22.17944600 43.71940500 2.52903700
-21.77794100 43.38159800 5.53993200
-21.97148300 43.12118400 -3.59321600
-21.41821500 43.27964600 -6.33406100
-21.57488500 42.92344500 -6.46379100
-22.03873300 42.57858900 -3.80204800
-21.31604200 43.93276800 -6.28135700
-20.44084400 43.52255900 -8.73036200
-20.54068600 43.02972300 -8.66291800
-20.38156300 43.99169800 -8.74244700
-19.31069800 43.71794000 -10.79039000
-19.32194700 43.20620600 -10.72950700
-19.29039200 44.22646200 -10.80964700
-18.01187000 44.01800400 -12.80320700
-18.04401600 43.53264500 -12.78254700
-16.46000100 44.00437000 -14.56318700
-21.92805700 42.16730400 -4.47950700
-22.71188600 41.33280800 -2.88816800
-5.84131800 43.61933000 -21.06617700
-8.21814900 43.45587000 -20.09068300
-6.14131000 43.09567100 -21.09983800
-8.24936500 42.97164000 -20.09834300
-10.29718200 42.99887700 -19.14555400
-8.29441300 42.49567300 -20.12605300
-10.33950600 42.51890400 -19.17546100
-12.11036900 42.70672500 -18.20182800
-10.40267000 42.04467600 -19.23027000
-12.18561800 42.21958800 -18.21452300
-13.74623300 42.44867600 -17.29972800
-12.36482500 41.91744900 -18.45683300
-13.98181000 42.25238700 -17.58772300
-15.28719900 41.93887900 -16.36369300
-14.25083800 42.22444800 -17.94923400
-15.70833400 41.95973100 -16.59138500
-17.04686600 41.99536000 -14.99458300
-16.04865900 41.96755100 -16.88847400
-17.43842500 42.10183600 -15.28953600
-18.89898100 42.18679700 -13.37297100
-17.79823500 41.91317600 -15.55943300
-19.20822400 41.98803600 -13.65171800
-20.57683800 42.19600500 -11.59108000
-19.39185200 41.59218500 -13.81193500
-20.85445600 41.82290500 -11.82380700
-21.95609100 41.65240300 -9.83805800
-21.01674500 41.35468900 -11.97541800
-22.07123800 41.17304100 -9.91502400
-22.95395900 41.09815100 -7.83161900
-22.04493900 40.67027900 -9.91825900
-22.93443900 40.64382000 -7.88029500
-23.61450800 40.72851400 -5.78431700
-22.83143400 40.20145300 -7.89759800
-23.48014300 40.22183800 -5.84214800
-23.84284800 40.22469900 -3.82286100
-23.29556500 39.61206700 -5.88203400
-23.69455600 39.61647700 -3.89262400
-23.94990000 39.56401700 -1.99794000
-24.11304700 40.20870100 -1.92747500
-23.96995400 39.43821600 -0.21235700
-24.15310100 40.12470100 -0.19737200
-23.88138000 39.44601300 1.63185100
-24.04584700 40.11659100 1.66923500
-23.68321100 39.19300700 3.48307800
-23.80268700 39.79331800 3.61552400
-23.41488900 39.17217100 5.14827000
-23.50147100 38.27254300 3.36094700
-23.19751600 38.18463800 5.05189500
-22.78770300 38.22856000 6.63914500
-22.98239700 36.89768100 4.98164400
-22.52680000 36.82479700 6.62815900
-21.96713100 36.84249700 8.26374800
-22.34834900 35.14930600 6.66371200
-21.77245900 35.11272300 8.35978700
-21.08685100 35.05644800 10.08125300
-21.72439400 33.06880800 8.50676000
-20.99986100 33.00070000 10.25312800
-20.12567400 32.92938900 11.98585500
-21.00464100 30.87214100 10.41392500
-20.11937500 30.80237400 12.15446500
-19.07804300 30.73113100 13.85633900
-20.24174000 28.66960400 12.34532200
-19.19103800 28.60758800 14.05067400
-17.94460900 28.53721900 15.65409900
-19.47972700 26.50326800 14.33638000
-18.20925400 26.43821600 15.95646700
-16.76261700 26.36805200 17.45344500
-18.67790800 24.39549100 16.41386400
-17.19908700 24.33356000 17.95411700
-15.59290100 24.28735200 19.38810700
-17.86960400 22.44192400 18.70744300
-16.18115800 22.38272300 20.17286700
-14.36609900 22.33936900 21.49577300
-16.93235200 20.66088700 21.19871500
-15.02707100 20.62134800 22.59471100
-13.01320100 20.56479500 23.80983000
-15.78546400 19.08141200 23.89238000
-13.66800900 19.04234600 25.19541900
-11.46091300 19.02471800 26.30851700
-14.27573600 17.44000500 26.51393100
-11.96956100 17.40532500 27.67250100
-9.58823600 17.40385700 28.62431300
-12.37630700 15.61654100 28.87208600
-9.91267600 15.61352400 29.85380600
-7.35636000 15.65535200 30.60249300
-10.19468500 13.73560600 30.97389200
-7.53436900 13.76811100 31.70539900
-4.80132100 13.82790600 32.19538900
-7.71950700 11.81366600 32.67735300
-4.88480600 11.87020000 33.16081200
-2.03751200 11.92319000 33.43888900
-4.99703800 9.87664700 34.03361500
-2.06871600 9.92908000 34.33268700
0.89635600 9.94857300 34.36277800
-2.11287500 7.92885400 35.20573400
0.93788300 7.92582900 35.11482200
3.97139100 7.88737000 34.85182200
0.92734300 5.83938800 35.66996800
4.02153200 5.79130800 35.39857500
7.07631700 5.74299900 35.04338100
4.04225900 3.67703900 35.83781400
7.16900000 3.62202300 35.40583800
10.30803800 3.67722200 34.61470000
7.30544600 1.53602800 35.72187800
10.48604400 1.59517900 34.88517800
13.52369500 1.62667300 33.68309000
10.57733100 -0.51545500 34.96376000
13.62423300 -0.50486900 33.79759200
16.50697500 -0.51409700 32.41441300
13.65664600 -2.64435500 33.88166800
16.55982600 -2.70074000 32.49906900
19.27978000 -2.73496200 30.95326200
16.53062200 -4.87439700 32.51832600
19.28896500 -4.94615900 31.00779700
21.80369300 -5.00475100 29.13041700
19.18113500 -7.14426200 30.93028300
21.75175800 -7.19118100 29.10206600
24.22387900 -7.23401800 27.02269000
21.65803100 -9.36750200 29.04139700
24.13160400 -9.37776300 26.94548000
26.48036300 -9.40424300 24.62733500
24.01302500 -11.50741500 26.83076500
26.35219400 -11.52739700 24.48701500
28.52302200 -11.54557600 22.02729800
26.23417500 -13.63327400 24.34471100
28.39456200 -13.68700200 21.85011300
30.42144900 -13.71716500 19.36595200
28.24874900 -15.80090300 21.67787200
30.14626900 -15.87093300 19.09666400
31.71111200 -15.92984900 16.43019100
29.95651400 -17.97004200 18.90266400
31.67664000 -18.01956100 16.33210800
32.69202800 -18.00446700 13.46907000
31.23102200 -20.01188900 16.06761200
32.42655300 -20.11105600 13.30467200
33.42295200 -20.15870300 10.47691300
32.01873400 -22.29665800 13.11113000
33.06133400 -22.35353600 10.28572100
33.93978900 -22.28031300 7.42985500
32.61462600 -24.52189000 10.08335900
33.37932300 -24.44346500 7.19847100
33.91561300 -24.37402500 4.31028700
32.80620600 -26.58314500 6.99745200
33.24270200 -26.46192300 4.06562800
33.45863000 -26.31221700 1.07341000
32.54483000 -28.49698300 3.80836500
32.77871500 -28.33829900 0.80281100
32.85081100 -28.16221000 -2.19767800
32.04761900 -30.30481600 0.53901700
32.13392400 -30.18065600 -2.42323300
32.06849300 -30.10352300 -5.32115200
31.28157700 -32.11845200 -2.58754000
31.02750600 -32.01569000 -5.40162700
30.47635000 -31.93863300 -8.10551500
30.14618200 -33.99261100 -5.41282700
29.60496400 -33.93292800 -8.07417300
28.82992300 -33.85914800 -10.73472600
28.73341500 -35.90207700 -7.99305700
27.95568100 -35.80829100 -10.59388700
26.80511700 -35.73606300 -13.06834400
26.98901500 -37.71041200 -10.45683300
25.94444600 -37.65057700 -12.88465900
24.57291100 -37.72989200 -15.13005100
24.98046200 -39.54006200 -12.65937800
23.71313500 -39.68532900 -14.77458200
22.19476900 -39.90853300 -16.69044500
22.73312400 -41.55230300 -14.33720400
21.25135600 -41.79028900 -16.11515800
19.65865200 -42.09983000 -17.76368700
20.36693400 -43.55816700 -15.47139000
18.88266500 -43.81371100 -17.00483700
17.19190200 -44.06620800 -18.29484600
18.39662700 -45.24834100 -16.42863500
16.75385300 -45.50759600 -17.60347000
15.16856900 -45.76481600 -18.80360400
16.14517600 -46.50495300 -16.92436200
14.71202600 -46.77966400 -18.14122000
13.32905400 -47.03833800 -19.47319000
13.88200200 -47.21939900 -17.21434000
12.58068600 -47.57420800 -18.41206400
11.05918300 -47.37665600 -19.42799400
11.44547600 -47.76366700 -16.69764700
10.21183600 -47.74206800 -17.55210900
8.88555500 -47.61674600 -18.29502900
7.16529100 -48.05136600 -17.05909700
7.25223500 -47.96274100 -15.07759100
5.74690600 -47.88541200 -15.72557100
7.69435100 -47.59141800 -13.52867100
6.07781800 -47.78851300 -13.89442400
4.47542700 -47.87228000 -14.51194800
6.57131200 -47.52023300 -12.44303900
4.92456600 -47.76299900 -12.87355000
3.30349500 -47.71528100 -13.35044900
5.45469100 -47.77749300 -11.48237600
3.79252400 -47.93969100 -11.82270800
2.13942500 -47.87568300 -12.06965600
4.28238700 -47.40430400 -10.53199800
2.68520100 -47.47352100 -10.58638000
1.24481400 -47.19212400 -10.65092500
3.29096600 -47.11276200 -9.23741100
1.81899800 -46.91771700 -9.18525700
0.45395400 -46.70983300 -8.95689400
2.37542900 -46.77847600 -7.71763600
0.99962400 -46.61216000 -7.46708700
-0.33259800 -46.46688700 -7.16572600
1.49486300 -46.60935700 -6.02906800
0.15452700 -46.42995300 -5.72023000
-1.13355900 -46.30931100 -5.34800700
0.58037000 -46.44867200 -4.36686700
-0.72753000 -46.39383700 -3.99211100
-1.99310100 -46.41684700 -3.55879200
-0.37725300 -46.48468600 -2.76078800
-1.66586500 -46.56462600 -2.35905500
-2.93446200 -46.62308200 -1.90644800
-1.36479800 -46.69585800 -1.24986300
-0.06199100 -46.54236100 -1.60923800
0.21762300 -46.51505900 -0.51329000
1.56085400 -46.54606200 -0.81083700
1.80298800 -46.54622600 0.25648500
1.28075600 -46.50977500 -1.92521700
2.69006900 -46.62271100 -2.17442300
2.97855200 -46.56756900 -1.05067400
0.95445000 -46.46576900 -3.10801700
2.34503700 -46.65585800 -3.38200400
3.83584000 -46.71436200 -3.57527200
4.21242700 -46.75125400 -2.32756000
1.94732500 -46.56690500 -4.67546100
3.40480600 -46.61173500 -4.90647900
4.95796200 -46.73328700 -5.07167100
5.44510800 -46.78346000 -3.67735300
2.91544100 -46.60918100 -6.29396100
4.40881100 -46.76804400 -6.48860200
6.09244100 -47.04964200 -6.52833600
6.64049900 -46.97890200 -5.15827900
3.83297500 -46.89265500 -7.90290800
5.48443400 -47.08346100 -7.89198300
7.21447300 -47.44815100 -7.84849500
7.91975200 -47.35481000 -6.52919000
4.88890100 -47.19232800 -9.20948800
6.64777700 -47.31322200 -9.10322600
8.56717500 -47.48540200 -9.03523300
9.20905700 -47.28720000 -7.87229900
6.03617500 -47.39109000 -10.32289100
7.88824400 -47.56775200 -10.15907300
9.85893400 -47.48290500 -10.27336100
10.59079000 -47.26514500 -9.19093300
7.16346000 -47.45635100 -11.17036400
9.07555900 -47.25471500 -11.26112400
8.33813300 -47.39444400 -12.29936200
10.22048700 -47.40507200 -12.61967500
11.05638300 -47.12602600 -11.72062700
11.89996300 -47.01006600 -10.72538800
12.69931800 -47.00136000 -9.60148600
13.12694900 -46.94535600 -12.59733600
14.02570300 -46.84388200 -11.53834500
