237.17361500 -10.53443900 -60.64587400
237.46960400 -21.51612900 -63.61035200
240.85076900 -10.81257600 -50.89358500
241.88778700 -21.83157000 -54.47576900
245.31588700 -11.36217100 -39.99285900
245.24304200 -22.60632700 -43.30923500
249.37841800 -12.16582100 -28.70617700
247.31884800 -23.61676000 -31.10156300
246.12625100 -34.91798400 -34.26586900
249.98629800 -24.78917300 -20.21740700
248.48083500 -36.39374900 -22.26434300
248.93438700 -25.39141100 -11.64288300
248.92755100 -37.13087100 -13.05053700
246.87634300 -48.67287400 -15.23095700
247.51672400 -37.51991300 -5.02545200
245.74655200 -49.19241300 -6.77038600
243.28277600 -60.59190400 -7.31427000
246.72262600 -49.89685100 0.20629900
243.99185200 -60.94346600 0.02221700
241.54455600 -71.39801000 0.45874000
245.88174400 -61.81533800 5.38049300
244.88494900 -72.02613800 5.56964100
241.98648100 -81.04097700 5.39361600
238.60418700 -79.15610500 -1.19384800
240.24420200 -86.66452000 3.72143600
236.70306400 -85.84553500 -3.54156500
241.37136800 -80.66374200 11.02069100
240.52111800 -86.96589700 11.31164600
238.28015100 -79.73736600 17.64392100
236.62179600 -87.36094700 18.30304000
239.18746900 -79.92572800 27.76361100
237.37002600 -87.26902000 28.82397500
239.81732200 -79.86218300 39.57000700
238.19000200 -86.34936500 41.02624500
238.47366300 -80.62706000 51.98706100
242.76440400 -72.35535400 38.30072000
241.73114000 -72.94220700 50.69610600
238.62216200 -73.92929800 62.39257800
244.97097800 -63.90667700 49.43969700
242.70187400 -64.48738100 61.19140600
239.38388100 -65.14943700 71.03289800
235.29748500 -74.75520300 70.94244400
235.51886000 -65.42969500 78.68902600
231.94183300 -75.24565100 77.48144500
242.56491100 -53.67606400 70.86956800
238.99972500 -54.18306000 79.59704600
234.37854000 -54.41997500 86.52423100
242.19015500 -42.14183800 80.20294200
237.19085700 -42.25051500 87.80041500
235.03643800 -42.67630800 94.28088400
232.02166700 -55.09820600 92.73382600
234.21322600 -43.04515500 100.19281000
232.23550400 -55.87861600 98.46221900
229.68215900 -42.83580000 104.69458000
228.83032200 -55.67419400 102.95214800
225.10272200 -42.43087400 109.32879600
223.46588100 -55.11090100 106.17962600
224.10598800 -42.91919700 116.54412800
221.78317300 -55.24793200 113.15869100
222.23870800 -43.25591700 124.85418700
220.00939900 -55.57785800 120.98394800
218.93176300 -43.36152600 134.08203100
216.79675300 -55.67237900 130.74401900
214.36743200 -66.73667900 127.23748800
210.54623400 -55.29296900 142.09729000
208.52066000 -66.71511800 138.50817900
206.09411600 -75.94297000 134.65448000
200.15148900 -66.07085400 149.59051500
198.01626600 -76.04113000 145.89794900
191.04415900 -64.64592700 158.90631100
189.42276000 -75.35094500 155.63269000
182.69216900 -63.39033500 165.78186000
181.59448200 -73.83319100 162.60180700
176.86035200 -63.19889800 172.33136000
174.65951500 -73.34241500 168.70636000
170.79443400 -62.49115800 175.47406000
168.83984400 -73.08387000 172.97900400
166.46078500 -62.55645000 180.25054900
164.35873400 -73.08058200 178.44305400
161.14038100 -63.43690500 188.28216600
158.48721300 -73.78078500 186.11200000
151.09719800 -64.83731100 198.28112800
148.55505400 -75.22578400 195.85296600
138.05001800 -66.08509100 206.22357200
135.03161600 -76.87558000 203.90698200
125.09714500 -66.67491900 211.91912800
121.84192700 -78.13677200 209.65295400
115.47862200 -66.67382000 216.35888700
113.56752000 -78.65370200 215.32678200
107.84765600 -65.71900200 219.50689700
106.63095900 -77.81447600 217.80780000
100.02357500 -64.02632100 224.61254900
98.57058700 -75.05390900 221.30749500
90.71842200 -62.98774700 233.58728000
88.56952700 -72.83412900 230.22955300
77.74755900 -62.01570100 240.61370800
75.40473200 -71.24276700 236.55352800
62.63780200 -61.80770100 244.71258500
60.75402800 -71.32196800 240.93481400
47.68726000 -62.13012700 244.38635300
46.41877700 -72.25093800 241.06140100
34.70095100 -62.65178700 241.94177200
33.90004000 -73.51482400 238.71685800
22.32075100 -63.60995500 242.62207000
22.63418200 -75.08258100 239.42828400
10.12480000 -65.48548900 247.20288100
10.16169800 -76.13604000 242.46264600
-3.78362600 -66.34946400 249.20141600
9.80367300 -54.12605300 250.38043200
-3.83690700 -55.12876900 252.20111100
-17.70806100 -55.21360800 251.68127400
-3.84497500 -43.75494800 255.21490500
-17.67718900 -44.01175700 254.72570800
-31.22710000 -43.47192400 252.05322300
-17.74915900 -32.46123100 256.76861600
-31.18961300 -31.98841900 254.06225600
-43.91743100 -31.18714900 249.66418500
-31.43255600 -20.31663100 255.55529800
-43.94927600 -19.43914000 251.05633500
-55.63841200 -18.30523700 248.75598100
-56.00577500 -30.25213200 246.83264200
-67.89919300 -16.74623500 246.36981200
-68.37449600 -28.65963000 244.82586700
-81.61511200 -15.03821200 245.42681900
-67.17703200 -4.65279000 246.96270800
-81.07696500 -3.32575400 246.35174600
-95.74729200 -2.35212700 244.42340100
-96.12323800 -13.84536700 243.67169200
-109.77784000 -1.89805200 238.65051300
-109.74000500 -13.19607900 237.45452900
-123.03810900 -1.51365900 231.32189900
-122.80434400 -12.75537900 230.17181400
-134.32138100 -1.24544500 221.91589400
-134.27145400 -12.35049200 221.07452400
-144.16052200 -1.17045600 214.13513200
-143.96948200 -12.20810300 212.47772200
-153.03497300 -0.76096700 208.75030500
-153.56030300 -12.50703200 208.43200700
-160.98724400 -0.77309600 202.61590600
-161.02136200 -12.58743500 201.77435300
-171.53360000 -1.10480300 195.54266400
-170.98129300 -12.92883100 194.67907700
-181.74969500 -1.74183100 186.55572500
-180.56524700 -13.32490500 185.29602100
-190.55386400 -2.43164400 175.62286400
-189.44238300 -13.72379300 174.69946300
-199.95706200 -3.09239000 164.92901600
-198.54098500 -13.99509000 163.93286100
-206.64990200 -3.39303800 152.21350100
-205.62783800 -14.07426800 151.38714600
-214.99374400 -3.97348000 140.75616500
-214.64477500 -14.74832900 140.39941400
-222.18591300 -4.47383300 128.61547900
-221.40017700 -15.17012000 127.92608600
-230.11593600 -5.01888100 116.77075200
-229.67352300 -15.89894100 116.28411900
-236.70132400 -5.06472400 104.23693800
-236.29480000 -16.16179700 103.66564900
-242.12310800 -4.70870200 91.01232900
-240.86190800 -15.94327200 90.23358200
-244.28082300 -3.93082800 77.02343800
-244.63272100 -15.41746500 76.69451900
-246.43569900 -3.18804600 63.07153300
-245.57504300 -14.51645300 62.65972900
-249.60882600 -2.53031700 49.16131600
-248.73703000 -13.88554400 48.96728500
-251.49011200 -2.03300900 34.89190700
-251.13137800 -13.57274600 35.09106400
-254.55871600 -1.65453700 20.94226100
-253.90679900 -13.44672000 21.20916700
-255.33236700 -0.97983200 6.87512200
-254.08960000 -12.95024900 7.33288600
-254.12612900 -0.63795300 -7.04052700
-253.33621200 -12.53411700 -6.40179400
-250.85723900 -0.90134400 -20.42730700
-250.57452400 -12.80621100 -19.78210400
-247.99029500 -1.43223000 -33.57531700
-247.67306500 -13.33238600 -33.00762900
-244.13214100 -1.98308900 -46.48642000
-243.97641000 -13.75435600 -46.05835000
-242.48379500 -2.38577300 -60.12387100
-242.50128200 -14.23185300 -59.62677000
-239.59097300 -2.57185600 -73.76419100
-239.62927200 -14.41672900 -73.21258500
-234.87057500 -2.62690000 -87.24664300
-234.55624400 -14.36832800 -86.41687000
-228.62954700 -2.64349900 -100.14447000
-228.83328200 -14.36558500 -99.40551800
-221.11666900 -2.79991100 -112.01205400
-221.22372400 -14.48912400 -111.11111500
-214.12643400 -3.21565600 -123.38562000
-214.43914800 -14.98371500 -122.77475000
-205.57980300 -3.80579200 -133.33544900
-206.26239000 -15.49170300 -133.26828000
-199.51644900 -4.02248200 -145.04766800
-200.54217500 -15.73289500 -145.42773400
-193.44491600 -3.79369900 -156.29263300
-193.67855800 -15.72441500 -156.81781000
-185.04309100 -3.54540300 -167.22601300
-185.39798000 -15.58850900 -167.96194500
-175.15066500 -3.33635500 -177.49157700
-175.17782600 -15.49134400 -177.91522200
-164.25759900 -2.84159500 -185.55242900
-163.43475300 -15.16622200 -185.11929300
-154.10397300 -2.15115500 -191.08264200
-153.24905400 -14.76770400 -191.30764800
-148.76852400 -1.73318500 -197.24438500
-147.77923600 -14.05544300 -199.05981400
-142.02221700 -1.29213300 -200.77282700
-140.08322100 -13.32403200 -202.12890600
-135.17123400 -0.81282600 -204.45037800
-133.29611200 -12.70553600 -205.60571300
-132.34930400 -25.39929600 -205.89282200
-127.90828700 -12.68998900 -212.73522900
-126.00730100 -25.31878300 -211.98577900
-118.76633500 -12.38928600 -219.83282500
-116.75397500 -25.17905800 -219.62347400
-107.29359400 -11.93935800 -226.55639600
-106.12455000 -24.89650000 -226.48754900
-95.45883900 -11.50664300 -231.74594100
-94.85678100 -24.59741200 -231.41241500
-85.47826400 -11.23406200 -236.43624900
-84.64066300 -24.26229100 -235.33544900
-77.15375500 -10.95983700 -240.90527300
-76.12703700 -23.76347000 -240.53393600
-68.20683300 -10.60796900 -243.97387700
-76.90079500 1.92074000 -241.56042500
-68.71011400 1.82620200 -244.37954700
-59.78060900 2.09784700 -247.39971900
-68.99267600 14.81191300 -244.31424000
-60.97481500 14.85102300 -246.16378800
-50.67610200 14.96424700 -250.75982700
-61.92148600 27.59902600 -244.57077000
-52.55008700 27.45722800 -248.07800300
-41.63747400 27.50953300 -253.65304600
-38.50729000 14.99421000 -255.96749900
-28.43084000 27.60676200 -258.28851300
-24.77620700 14.92249300 -259.58306900
-13.94569600 27.68449600 -260.08294700
-10.83218200 15.05982400 -261.45050000
-0.11310700 27.82509200 -259.94470200
1.42049500 15.42571900 -260.86233500
11.22661800 27.86216900 -257.94406100
12.01572100 15.84009000 -258.88430800
18.78192500 28.38110000 -260.53234900
19.10648300 15.94577900 -261.71493500
25.74549900 28.58684200 -260.37976100
25.37613300 15.98363500 -261.29071000
30.83082200 28.07016000 -256.24792500
30.77256000 15.79016300 -257.08059700
37.42793700 28.07876200 -254.76669300
38.36821700 15.75081000 -255.72305300
46.35878800 28.38108100 -254.61279300
47.86143100 15.91630900 -255.19769300
49.11275500 3.59463200 -254.96392800
60.31812300 16.28130000 -253.69772300
61.60215400 3.91660500 -253.48498500
62.90587600 -8.27630000 -253.23580900
74.82721700 4.48390500 -250.62371800
76.10176800 -7.77272600 -250.02612300
87.37504600 5.19199000 -245.60723900
88.45652000 -7.03730400 -244.63510100
89.06005900 -18.94414100 -242.22460900
99.35968800 -6.17271400 -237.89950600
100.33313800 -17.93707700 -235.97436500
101.11564600 -29.53089500 -233.78857400
110.10731500 -17.19703300 -231.67938200
110.69961500 -28.55150600 -229.34622200
118.86965200 -15.90189400 -226.80963100
118.64360800 -27.44678100 -224.62945600
126.11868300 -15.19780000 -220.04394500
125.98862500 -26.76701400 -218.42361500
136.41960100 -15.07127000 -216.00351000
136.03749100 -26.57273500 -213.88394200
147.59875500 -14.51085700 -209.29281600
147.58154300 -26.10011300 -207.46676600
158.95529200 -13.82453500 -201.51242100
159.05542000 -25.60012400 -200.18417400
168.31985500 -13.28996700 -193.73596200
168.10833700 -25.18865200 -192.37490800
174.32620200 -12.87546900 -185.54119900
174.10699500 -24.80210900 -184.13613900
178.62048300 -12.69278300 -177.33514400
178.75680500 -24.68045800 -176.19174200
184.90948500 -12.99189200 -173.14813200
178.86743200 -0.75077600 -177.85595700
183.92318700 -0.85116800 -172.36453200
178.67752100 10.88703900 -178.71063200
183.87121600 11.14994200 -173.74264500
188.03097500 11.84438700 -169.33239700
183.77087400 23.51606800 -175.44393900
187.73507700 24.23276700 -170.19271900
189.48028600 24.52371600 -163.41983000
186.66394000 36.02213300 -168.96673600
187.88055400 36.03671300 -161.00207500
193.76721200 36.53392800 -154.51989700
187.33486900 47.13784400 -159.82171600
193.15869100 47.81303000 -152.75064100
201.57577500 47.64477500 -144.81677200
201.96023600 36.66539000 -147.65792800
210.64508100 44.46194500 -133.83496100
210.33392300 33.91078900 -137.41876200
217.14315800 40.12553400 -121.12649500
216.44860800 29.59027500 -124.51565600
221.44979900 37.64304400 -108.45233200
220.53079200 26.76702900 -110.67031900
224.07531700 36.60067700 -97.01971400
223.82809400 24.99029900 -98.40054300
227.16272000 36.24518600 -87.18017600
226.21267700 24.03912700 -87.53970300
231.57452400 35.85312700 -77.92489600
230.14679000 23.62607000 -77.94339000
229.15945400 11.56750100 -77.82760600
234.39831500 23.52890800 -68.28302000
233.39187600 11.92926400 -68.31915300
232.39605700 0.49459600 -68.07986500
239.57025100 11.95034600 -58.90518200
239.10006700 0.52841400 -60.06063800
244.01409900 11.78819500 -47.65942400
243.89791900 0.34098600 -49.44708300
248.12304700 11.60059200 -36.08343500
246.17559800 0.14293700 -37.54647800
249.92514000 11.34844400 -25.40283200
249.87173500 -0.43438300 -26.71954300
250.17727700 11.05303400 -16.28497300
250.11135900 -0.86794300 -17.54669200
250.80291700 -12.91836500 -18.69262700
249.28237900 -1.23005500 -10.31860400
249.91531400 -13.34218600 -11.08453400
248.97586100 -1.58039700 -3.56335400
248.65606700 -13.66089200 -4.12622100
248.34408600 -25.86784000 -4.61212200
250.56625400 -14.01230200 1.99163800
249.93994100 -26.30232600 1.54321300
248.42550700 -38.22129800 1.36492900
252.55349700 -26.72446100 6.99688700
250.73489400 -38.83012000 6.13732900
250.16848800 -51.22603600 4.85192900
249.93051100 -39.42710900 11.33447300
249.40121500 -51.20187400 10.19250500
245.67486600 -62.03428600 10.89483600
246.04104600 -50.74024200 16.89794900
243.43746900 -61.80076600 17.40838600
240.81558200 -71.45719900 17.55798300
244.04235800 -72.00129700 10.86505100
244.62802100 -62.43080100 26.77038600
241.70282000 -71.81525400 27.25598100
245.76263400 -63.32514200 37.51672400
247.68450900 -51.58348100 26.21099900
249.07467700 -52.38984700 36.79516600
248.63790900 -52.96911600 48.41095000
251.65704300 -40.35514800 35.78015100
251.26269500 -40.81689100 47.06311000
249.25585900 -41.23007600 59.30194100
246.29489100 -53.35752100 60.26959200
245.90658600 -41.68579900 70.71679700
251.40182500 -28.89114000 58.22930900
247.87802100 -29.27879700 70.02813700
244.02813700 -29.60373700 79.97064200
249.33172600 -16.80960100 69.38647500
245.14096100 -17.09474600 79.59417700
240.17923000 -17.27823600 88.01867700
238.95483400 -29.73100700 88.25335700
238.21765100 -17.61608500 95.39660600
237.11550900 -30.02484500 95.18615700
237.14874300 -17.76953500 102.14624000
235.96563700 -30.42291600 101.55365000
232.08700600 -17.68270900 106.57568400
231.01470900 -30.16953300 106.14233400
228.44879200 -17.67077600 112.34289600
227.03518700 -30.01723500 111.45220900
227.01675400 -17.88437300 119.83630400
225.72210700 -30.37405000 118.78936800
224.88589500 -18.03998900 128.06085200
223.99450700 -30.66550100 126.85174600
220.80346700 -18.09546700 137.55200200
220.04687500 -30.70378500 136.37475600
212.42691000 -17.86068000 148.34600800
212.85220300 -30.48009500 147.56976300
212.24868800 -43.01478200 145.36804200
203.46081500 -29.98820900 158.55047600
202.79968300 -42.18737800 156.11779800
201.74325600 -54.28869600 153.12799100
192.27505500 -41.04838200 165.06543000
191.69973800 -52.86026800 162.02240000
185.09133900 -40.49909200 172.14111300
183.62155200 -52.00487500 169.31213400
180.30291700 -40.58896600 178.33313000
178.64514200 -52.17061600 176.17370600
174.26110800 -39.75925800 179.78241000
172.47226000 -51.26920300 177.98327600
170.65475500 -39.73014500 184.09814500
168.57202100 -51.51790600 182.44360400
165.13284300 -40.22913400 191.17291300
163.35690300 -52.15948500 189.90960700
155.85333300 -41.02965200 201.30371100
153.67211900 -53.13426200 199.95117200
143.95929000 -41.65206500 210.29321300
141.43658400 -53.93693500 208.25323500
130.78302000 -41.76141700 215.96392800
128.53042600 -54.13450600 213.76336700
119.79884300 -41.75584800 221.57751500
118.34213300 -54.25725600 219.12982200
110.34951000 -41.16247600 224.65222200
109.48333000 -53.31515500 222.15850800
102.20612300 -41.14825800 231.09826700
101.42131800 -52.64096800 228.02630600
92.47727200 -41.00357800 238.53076200
91.81609300 -52.16284900 235.94445800
79.31557500 -40.60367600 244.69073500
78.77330800 -51.51378600 242.66192600
64.81665800 -40.61989200 249.23413100
63.94513300 -51.43838500 246.98547400
50.07109100 -40.63531100 249.59063700
49.06985100 -51.56645200 247.24255400
36.19075400 -40.46221200 247.84075900
35.58359900 -51.63822900 245.19928000
22.72247100 -41.17364500 249.31561300
22.53725400 -52.37577800 246.24047900
9.71522500 -42.65639500 253.15936300
22.63652000 -29.80854400 251.43737800
9.58239800 -31.07991400 255.52429200
-3.94956000 -32.19926100 257.77771000
9.07204400 -19.25274700 256.51867700
-4.39386900 -20.43310900 259.45794700
-18.24773800 -20.86849200 259.16857900
-4.91479800 -8.42874500 260.81439200
-18.70976100 -8.78077900 260.58416700
-32.10196700 -8.50256200 257.67034900
-19.01932100 3.53242100 260.46624800
-32.41473400 3.70517300 257.75756800
-44.35422900 4.44359400 253.21557600
-44.38846200 -7.65908200 252.73126200
-55.14912400 5.90953300 250.19482400
-55.24346200 -6.05870100 248.50329600
-66.82785000 7.24404000 248.16558800
-55.34375000 17.89567200 249.65411400
-66.83332800 19.00351900 248.04058800
-80.21038800 19.82504100 246.82519500
-80.48776200 8.32490400 246.61364700
-94.88809200 20.35022500 244.54626500
-95.08281700 9.09070700 243.72979700
-109.70619200 20.74165500 239.74108900
-109.65900400 9.43876700 239.18499800
-122.90821100 21.07909000 231.45233200
-122.97867600 9.77131400 231.63739000
-133.98443600 21.43733000 221.77410900
-134.18618800 10.08274200 222.37835700
-143.59887700 21.81427000 213.36407500
-143.55740400 10.31067600 213.76709000
-152.59628300 22.30413400 208.75274700
-152.78421000 10.68202800 208.74340800
-160.19409200 22.36430400 202.31079100
-161.10522500 10.78803500 202.76251200
-171.44451900 22.20110900 196.48486300
-171.74356100 10.57624500 195.97399900
-182.26413000 21.24593900 187.17749000
-182.42260700 9.76740900 187.27307100
-192.18582200 20.01742600 176.45086700
-191.89801000 8.79563200 176.55389400
-200.84896900 18.95338100 164.98230000
-200.55432100 7.96890900 165.14642300
-207.55416900 18.01245100 152.70495600
-207.11200000 7.31119400 152.53759800
-215.70211800 17.39167200 141.65020800
-215.90905800 6.68420700 141.55871600
-223.01702900 17.05661200 129.96093800
-222.84845000 6.28006200 129.36694300
-231.01815800 16.90769200 118.56640600
-230.97506700 5.88069600 117.83606000
-237.04306000 17.14001800 105.79766800
-237.07037400 6.04048400 105.01001000
-242.40387000 17.84417300 92.53039600
-241.69241300 6.61545400 91.59484900
-244.62811300 18.60861000 78.16223100
-244.89828500 7.38549900 77.67163100
-245.55249000 19.25960900 63.68829300
-246.50714100 8.06280300 63.45086700
-249.99450700 20.07261500 50.29040500
-250.17349200 8.76729100 49.68420400
-251.92871100 20.74806800 36.00769000
-251.80764800 9.38508500 35.26318400
-253.87921100 21.77842300 21.37445100
-254.49142500 10.12123000 21.04827900
-253.11096200 22.55711400 6.75445600
-254.45306400 10.80535400 6.73107900
-251.71398900 22.95008500 -7.41656500
-254.06268300 11.32745100 -7.44427500
-249.27298000 22.77662700 -20.84472700
-250.62985200 10.97647100 -20.76562500
-246.49066200 22.19340100 -33.69964600
-247.42434700 10.42952700 -33.74908400
-241.68530300 21.17445800 -46.14297500
-243.42169200 9.70391200 -46.56219500
-240.88223300 21.07693500 -59.94097900
-242.05676300 9.43175800 -60.25662200
-237.11325100 20.88774100 -73.64581300
-238.52517700 9.19754200 -73.88067600
-232.76083400 20.87061700 -87.45068400
-234.00003100 9.13730700 -87.50421100
-226.19674700 20.83638000 -100.44305400
-227.82122800 9.11167700 -100.57809400
-218.70074500 20.60421200 -112.30908200
-220.15542600 8.92377600 -112.44302400
-213.05566400 20.42194700 -124.11886600
-214.04312100 8.57942500 -124.11459400
-203.93560800 19.70330000 -132.37350500
-204.81430100 7.95406000 -133.05325300
-197.86694300 19.64276900 -142.63501000
-198.35043300 7.75740900 -144.11102300
-192.74340800 20.13688100 -153.73513800
-193.08065800 8.17515900 -155.32962000
-183.91412400 20.52448700 -164.21307400
-184.79892000 8.53268900 -166.16952500
-174.07501200 21.22302400 -175.54361000
-174.76583900 8.93221300 -176.57293700
-162.83731100 21.88265200 -183.84362800
-163.95300300 9.57551500 -184.71340900
-152.63501000 22.57239300 -190.04443400
-153.70318600 10.29773100 -190.94918800
-148.70428500 23.02021600 -196.17660500
-149.00390600 10.90665300 -197.97067300
-142.59588600 23.08664700 -199.44818100
-143.02639800 11.05789900 -201.62173500
-135.74499500 23.14519900 -203.30239900
-135.86148100 11.12846900 -204.25463900
-129.15780600 23.78374500 -211.84173600
-129.48510700 11.58806000 -212.06561300
-128.87426800 -0.42856800 -211.81182900
-119.66185800 12.37877800 -220.39907800
-119.56964900 0.08527400 -220.10974100
-107.67492700 13.17814800 -227.49807700
-107.79237400 0.73574300 -226.95834400
-95.70047800 13.69296500 -232.59722900
-95.69480900 1.29140100 -232.40155000
-84.35074600 13.98650500 -236.54641700
-84.90570100 1.67801100 -237.00576800
-76.27771000 14.36401700 -241.12695300
-84.81005100 26.30785900 -235.08737200
-77.68416600 26.91084500 -240.37591600
-70.30052200 27.47507100 -244.14218100
-78.64024400 39.48226900 -238.12912000
-72.14421100 40.32512700 -242.41183500
-64.05809000 40.04197300 -241.79193100
-72.58948500 52.89333000 -240.01071200
-65.49801600 52.89737300 -240.17535400
-57.45796200 51.83147400 -241.02633700
-55.28567500 39.96223400 -245.91409300
-49.08701300 52.09772500 -245.70755000
-45.11898000 39.95031700 -250.40506000
-38.06940100 52.32348600 -250.45434600
-32.82030100 40.06842000 -254.47024500
-24.17316100 52.15626500 -253.25854500
-18.84711500 40.33824900 -257.66467300
-9.40361600 52.30669800 -255.44628900
-4.39049500 40.32149500 -258.51541100
4.67373200 52.06308000 -254.67526200
9.62800200 39.99001300 -256.51382400
16.36764000 52.46037700 -255.02175900
17.67234400 40.54033700 -258.41821300
23.53674700 52.75156800 -255.78320300
25.04860300 40.81131400 -258.23233000
29.15224100 52.14468400 -252.08908100
30.21043600 40.18366200 -254.12152100
34.06161500 51.67985200 -249.20935100
36.01158900 40.03769700 -252.27081300
41.00311300 52.19423300 -249.50064100
43.43240700 40.53519400 -252.53463700
51.40124100 52.97485000 -249.36172500
54.97835900 41.17469800 -252.21362300
58.24793200 28.77291500 -253.17654400
70.46131900 41.77297200 -249.33776900
71.79159500 29.26078400 -250.15332000
73.31741300 16.83235000 -250.57455400
84.72338900 29.64025500 -244.51702900
85.96234900 17.46427500 -245.54046600
96.22914100 29.89959700 -237.98938000
97.15194700 18.02133600 -238.89633200
98.04296900 5.89133600 -238.78265400
107.64156300 18.68002100 -234.49939000
107.66676300 6.45621700 -234.48046900
108.91761000 -5.60158000 -233.57989500
115.82217400 7.05653200 -229.84112500
117.80590800 -4.57724800 -228.93365500
123.72395300 7.50145000 -222.14959700
125.26826500 -3.61506300 -221.59335300
135.13545200 7.77653800 -217.91534400
135.74450700 -3.49305200 -217.31054700
147.17752100 8.38420200 -211.53472900
147.66500900 -3.05419000 -210.93597400
158.00714100 9.14958800 -203.18304400
158.65646400 -2.27520400 -202.71163900
167.05447400 9.89558700 -194.73632800
167.93084700 -1.59674600 -194.40548700
173.76608300 10.47632600 -186.36663800
174.50045800 -1.10894200 -186.26339700
166.27526900 21.37288700 -194.91247600
172.69186400 22.00439600 -186.62463400
177.69656400 22.66599700 -178.88253800
171.28158600 33.34776700 -185.99792500
176.10037200 34.02534500 -178.48648100
182.53918500 35.15441500 -174.83917200
174.31457500 44.93136600 -177.57858300
180.91851800 46.32136500 -174.34610000
184.89828500 46.95932800 -167.71008300
179.22103900 56.75066000 -172.61029100
183.24450700 57.61386100 -166.43142700
184.44854700 57.41251000 -158.40133700
180.49591100 67.24826800 -165.08407600
181.53851300 67.21978800 -157.35421800
187.02307100 68.05484800 -150.51599100
190.76327500 58.51978700 -151.47497600
197.49258400 67.13549800 -141.80310100
199.83450300 58.23226200 -143.24939000
207.39559900 64.57125900 -130.20968600
209.30523700 54.72808800 -131.33517500
215.29846200 60.98761700 -116.13089000
217.32882700 50.80542800 -118.40588400
219.30007900 59.55872000 -102.99441500
221.45376600 48.80614900 -105.76705900
221.63955700 59.66518800 -92.11306800
223.82009900 48.29538000 -94.84893800
228.42022700 60.78630400 -84.48971600
228.50503500 48.64012500 -86.53308100
231.50000000 60.40558200 -74.90982100
231.94955400 48.25270100 -77.03488200
234.15621900 59.33821500 -64.59628300
235.08288600 47.48933400 -66.58252000
234.76312300 35.47912200 -67.61984300
240.48996000 46.77582600 -55.72354100
240.08136000 35.01675000 -56.86413600
240.16937300 23.43240500 -57.99737500
244.71594200 34.77130900 -44.93780500
244.60064700 23.27423900 -46.27038600
248.43524200 34.80633900 -33.17974900
248.58703600 23.17086200 -34.63470500
249.39596600 34.75560000 -23.12738000
250.16061400 23.03866600 -24.36254900
249.20123300 34.63780200 -15.18920900
250.12155200 22.81195400 -15.69073500
248.11929300 34.44545000 -8.26782200
249.14285300 22.51596500 -8.35272200
249.49523900 10.76863300 -8.72039800
249.02200300 22.33563400 -1.86969000
249.06951900 10.46151400 -1.99993900
251.62033100 22.39907500 3.53356900
251.69406100 9.94190400 3.52832000
251.38726800 -1.99441700 2.55059800
253.88284300 9.76075100 8.69647200
253.79303000 -2.45298600 8.08026100
253.11190800 -14.58502200 7.31256100
251.87048300 -2.67965900 13.42431600
251.68264800 -14.75223500 12.80566400
251.30984500 -26.96155900 12.51001000
250.97808800 -15.05827700 19.25396700
249.90924100 -27.21928800 19.03448500
248.34326200 -39.37769700 17.90637200
251.95550500 -27.62189500 26.60882600
250.05114700 -39.79341500 26.42327900
253.31713900 -28.07278800 34.85797100
253.19940200 -15.39347500 26.26178000
254.46264600 -15.76109300 34.30395500
254.06167600 -16.13630700 44.76800500
253.27642800 -28.53405800 45.82147200
251.87921100 -16.43608900 57.03405800
255.07348600 -3.78944800 44.09185800
251.24813800 -4.06046300 56.02710000
249.92050200 -4.45808800 68.82605000
253.11721800 8.08116500 55.74328600
250.09262100 7.77489900 68.13269000
246.45590200 7.48893200 78.48547400
245.97387700 -4.74313900 79.34680200
241.65448000 7.17830100 86.42547600
241.13839700 -4.92739900 87.55127000
238.22787500 7.12902900 93.16839600
238.36471600 -5.16431400 94.73114000
237.85397300 7.06892700 100.50048800
237.83578500 -5.25303800 101.67315700
233.51739500 7.07016800 105.94525100
232.88900800 -5.33150900 106.50061000
228.83840900 6.95297100 110.79199200
228.85437000 -5.34967800 111.98376500
227.32150300 6.92118900 117.98059100
227.54992700 -5.43297200 119.28222700
225.51858500 6.94276800 126.53106700
225.40271000 -5.51323300 127.92321800
221.75015300 6.91755200 137.41387900
221.39913900 -5.58060600 138.04107700
214.87368800 6.91148900 149.03204300
214.56469700 -5.60205500 149.92511000
206.03698700 7.10411200 159.86010700
205.03930700 -5.29962700 160.60974100
204.48104900 -17.71179600 160.31433100
194.98999000 -4.80309500 168.55145300
194.00619500 -17.03002900 168.46991000
192.93219000 -29.10821200 167.28332500
187.89080800 -16.77833900 175.75372300
186.35119600 -28.76566700 174.62078900
182.98840300 -16.39299000 180.67956500
181.41189600 -28.53968400 180.06262200
177.05835000 -15.70078300 181.87670900
175.52859500 -27.76974900 180.97876000
172.99704000 -15.75921600 186.27246100
171.94848600 -27.87055200 185.66687000
168.18789700 -16.12387800 193.26745600
166.98342900 -28.27499400 192.55731200
158.54385400 -16.51325200 203.23718300
157.59671000 -28.80421800 202.30792200
146.23168900 -16.83659400 212.23046900
145.36871300 -29.21431400 211.35455300
133.31802400 -17.24545300 218.77154500
132.08648700 -29.41414300 217.31005900
121.87671700 -17.51583900 225.16296400
120.60851300 -29.47715000 223.40063500
110.97071100 -17.19429400 227.70336900
110.75869000 -29.21061700 227.09491000
102.42581200 -17.42981700 234.20605500
102.15625800 -29.34266700 232.94610600
92.26858500 -17.66952500 241.40997300
92.41342200 -29.43199200 240.07940700
79.42494200 -17.66665300 247.63580300
79.44637300 -29.26607500 246.28540000
65.06806200 -17.70390700 251.57666000
65.10223400 -29.25777400 250.43737800
50.55333700 -17.86816400 252.47686800
50.56366700 -29.33743700 251.07415800
36.42839800 -18.01612900 252.84307900
36.44298600 -29.43375000 251.11737100
22.48543200 -18.30038800 252.84063700
36.33055100 -6.39094500 253.77130100
22.28461600 -6.69993400 253.86785900
8.78848900 -7.52290300 257.99047900
22.24490000 4.92561400 255.06652800
8.69158200 4.32883300 259.00164800
-5.17253400 3.75642000 261.57043500
8.47210100 16.29060200 258.85284400
-5.56565500 15.97534400 261.71496600
-19.63732300 15.86562500 260.82885700
-6.38990900 28.19624300 261.01239000
-20.63844500 28.22707000 259.96911600
-33.80657200 28.61211600 256.60339400
-32.83199300 16.16717700 257.26556400
-45.21498100 29.25150300 251.74169900
-44.40708200 16.87188500 252.68890400
-55.92715500 30.07619900 248.34466600
-46.52275100 41.62107800 249.62616000
-57.16080500 42.46642700 248.75262500
-67.55123100 42.78112400 246.12658700
-67.19034600 30.85320300 247.07775900
-79.89336400 43.09960200 245.46350100
-79.99742100 31.31982000 245.91436800
-93.55946400 43.18796900 242.41168200
-94.30727400 31.65733300 243.46948200
-108.23636600 43.43128600 237.28851300
-108.99976300 32.04704700 238.49017300
-122.31200400 43.64334900 228.79803500
-122.71076200 32.36960200 230.53820800
-134.34362800 44.00107600 218.16204800
-134.20568800 32.78057100 220.60644500
-144.46533200 44.84828600 212.01104700
-144.62103300 33.33864200 212.37701400
-150.81710800 45.69234100 207.31713900
-152.15454100 34.08906200 208.19506800
-155.72827100 45.64789600 200.69842500
-158.22076400 34.01170300 202.01788300
-167.19924900 45.47197700 195.36041300
-169.86734000 33.75391400 196.04315200
-181.25808700 44.11808000 185.46106000
-181.74676500 32.70423900 186.66143800
-192.04834000 42.14162400 174.02105700
-192.42379800 31.19449200 175.86236600
-200.35171500 40.47493000 162.55230700
-200.38198900 29.80117400 163.92657500
-206.32946800 39.08757000 151.09771700
-207.18945300 28.62924200 152.19549600
-214.69644200 38.71926500 141.81970200
-215.85418700 28.07653400 142.09509300
-220.96890300 38.31734500 130.60284400
-222.09475700 27.73442100 130.18371600
-228.73910500 38.70238500 119.63171400
-230.51184100 27.88029700 119.24523900
-235.00860600 39.28423700 107.11377000
-236.07998700 28.26918000 106.28686500
-239.52398700 40.01857400 93.39038100
-241.60894800 29.05338700 93.06512500
-242.27816800 40.81454800 78.66497800
-243.63070700 29.75013500 78.43237300
-243.80627400 41.64558400 64.05285600
-244.88922100 30.50185800 64.00427200
-249.04455600 42.62004900 51.48413100
-249.28100600 31.32968100 50.91491700
-249.59561200 43.31767300 36.98901400
-251.05093400 32.12011300 36.69390900
-251.77972400 44.92839400 21.48376500
-253.17614700 33.36789700 21.58764600
-250.72552500 46.12408400 5.90924100
-251.96878100 34.30477100 6.62292500
-248.53103600 46.74877900 -8.74188200
-250.92520100 34.87586600 -7.80712900
-244.39953600 45.94495400 -21.69067400
-247.52960200 34.49259900 -21.02966300
-242.13809200 44.94174200 -33.29418900
-244.40673800 33.60125000 -33.42169200
-238.40606700 43.76921800 -44.60516400
-240.52395600 32.59816700 -45.54550200
-237.08630400 43.76058600 -58.10598800
-238.92205800 32.48846400 -59.20910600
-233.93078600 43.93483700 -72.40280200
-236.26312300 32.56691000 -73.33551000
-229.30825800 44.25532500 -86.68426500
-231.21746800 32.58295100 -87.17611700
-222.50161700 44.31467800 -99.85788000
-224.33477800 32.55464200 -100.09259000
-214.97378500 43.98613000 -111.21694900
-216.48294100 32.18900300 -111.50500500
-209.13287400 43.72783300 -122.13821400
-210.87011700 32.04219800 -123.14913900
-201.39831500 43.02841200 -128.99691800
-202.75781300 31.38807500 -130.95889300
-197.24670400 43.27471200 -137.68426500
-197.65963700 31.49090600 -140.35412600
-191.76709000 43.78906300 -148.57022100
-192.62252800 32.05629700 -151.53619400
-183.32012900 44.42646800 -160.57522600
-183.52633700 32.50343300 -162.53686500
-171.75668300 45.13802000 -172.34371900
-173.08834800 33.34777100 -174.24939000
-158.25894200 45.97394200 -182.53161600
-160.78414900 34.09296400 -183.05435200
-148.58947800 46.61885500 -191.33728000
-150.53918500 34.92338600 -190.68261700
-143.94128400 47.26928300 -197.39126600
-146.43084700 35.27367000 -197.02096600
-138.21722400 47.00267800 -198.50769000
-140.42376700 34.85504200 -199.43780500
-133.76568600 47.11883200 -202.25231900
-134.90103100 35.06424000 -203.07034300
-128.59063700 47.80609900 -208.83676100
-128.96273800 35.85874900 -210.56320200
-117.05393200 49.00452400 -217.69726600
-118.31468200 36.83327100 -218.72464000
-119.27782400 24.65589500 -220.14813200
-105.43453200 38.02566100 -226.41534400
-106.83012400 25.56020700 -227.31707800
-93.38156100 38.61474600 -230.37820400
-94.89175400 26.06937200 -231.78036500
-84.60008200 38.77290300 -232.75857500
-91.24489600 51.36013000 -229.05639600
-83.51297800 51.55878100 -231.03021200
-78.12023200 52.32294800 -235.55679300
-81.30620600 63.97032900 -228.97879000
-77.36016100 64.56716900 -232.97018400
-73.67523200 65.27255200 -237.24655200
-76.03379100 75.36593600 -229.58840900
-73.68395200 75.78443900 -232.91247600
-69.68367000 75.95774800 -234.86343400
-67.79605100 65.19918800 -238.23877000
-64.46073200 75.09149200 -234.64648400
-61.12914300 63.62177300 -236.48223900
-57.44743300 73.77852600 -234.05288700
-52.97235500 63.21580900 -239.42507900
-49.25008800 73.63969400 -238.17910800
-43.39033500 63.48826600 -244.26211500
-37.09312800 73.28099100 -242.68383800
-30.43130100 63.45262900 -248.69397000
-21.57294700 73.09337600 -246.68685900
-15.15367700 63.53410000 -251.57510400
-5.35722300 72.82221200 -247.82446300
0.10256300 63.07627100 -251.27954100
8.28081500 72.03536200 -246.14025900
12.77608100 62.62278700 -249.83087200
18.88998000 73.48608400 -248.10965000
21.71153300 64.25533300 -252.90118400
25.66696400 73.69595300 -247.71539300
27.27000600 63.52283900 -250.31372100
30.46379700 72.59715300 -244.14184600
32.00068700 62.85926100 -246.39843800
37.82103700 72.95223200 -242.70343000
39.34127800 63.36631400 -245.93182400
53.52647400 74.27783200 -242.29821800
51.38961400 64.61912500 -246.12228400
69.46225000 74.80918900 -237.69162000
69.56059300 65.60642200 -241.76800500
69.37679300 53.90938200 -246.06811500
83.36269400 65.66088900 -236.37295500
83.33535800 53.93499400 -240.34188800
83.84926600 41.84297200 -243.20007300
94.45821400 53.44924200 -233.95040900
95.28942900 41.70784800 -236.51248200
103.38768800 53.08519000 -229.38552900
105.20891600 41.72393800 -231.72399900
106.96086100 30.25352500 -233.46933000
115.31652800 42.12766300 -228.62094100
117.03463700 30.48752200 -229.36419700
117.48165900 18.76978700 -229.94726600
123.79511300 30.31244300 -220.86611900
124.30249000 18.68919000 -221.61111500
134.61337300 30.75343700 -216.51263400
135.02581800 19.14835500 -217.49307300
145.83386200 31.36749500 -210.71142600
146.68847700 19.82415000 -211.68698100
156.70285000 32.07199500 -202.62616000
157.44021600 20.59460800 -203.30795300
165.12286400 32.73717500 -194.06765700
155.64157100 43.28352000 -200.75137300
163.76245100 43.76913500 -192.11166400
169.54071000 44.27558100 -184.51074200
162.43838500 54.22134400 -189.46545400
167.73263500 54.66693500 -182.35760500
172.37750200 55.18126300 -175.88916000
166.23248300 64.44308500 -179.71871900
170.66540500 64.84956400 -173.66976900
176.90853900 66.60926800 -171.15786700
169.14410400 73.95892300 -171.38430800
175.10482800 75.78685000 -168.84683200
179.15618900 76.09002700 -162.25344800
181.03393600 76.23350500 -155.13409400
185.39495800 76.34730500 -148.28347800
193.73614500 76.30948600 -140.82125900
202.19561800 81.28640700 -128.63235500
204.65069600 73.58158900 -128.99685700
210.81674200 79.95074500 -111.99996900
212.96273800 70.69157400 -114.17718500
216.03897100 80.14485900 -97.04922500
217.56802400 70.22152700 -100.63488800
222.32550000 70.69394700 -88.92193600
228.83752400 71.55427600 -81.03897100
230.78790300 71.83218400 -72.27410900
232.78765900 70.28751400 -62.81884800
235.83264200 77.80961600 -50.18231200
237.76825000 69.11795800 -52.05722000
239.90890500 58.56734800 -54.08834800
241.91122400 68.72013900 -39.49792500
243.67483500 57.90341600 -41.92160000
244.75235000 46.39372300 -43.63900800
245.76620500 57.83184400 -30.26617400
247.31390400 46.38758100 -31.82495100
245.69534300 57.79402200 -20.40075700
247.49725300 46.37530500 -21.65460200
244.97573900 57.90696700 -13.18579100
246.86862200 46.38513200 -14.19635000
244.10562100 58.07030500 -7.16815200
246.33474700 46.35254700 -7.93475300
245.15029900 58.65749000 -2.16253700
247.01178000 46.51679200 -2.30896000
248.27032500 34.41683200 -2.24578900
249.75634800 47.08255800 2.03057900
251.31497200 34.75015600 2.54864500
250.35949700 47.28728100 6.71209700
252.55075100 35.04711200 7.60119600
253.33862300 22.54772000 8.63293500
250.12548800 34.71005200 12.55566400
250.75161700 22.32495900 13.24542200
251.52377300 9.65117700 13.52514600
251.13586400 22.03197500 18.96832300
251.74124100 9.57064700 19.42559800
251.38940400 -2.77889100 19.68676800
253.71118200 9.38724000 25.74523900
253.78588900 -3.05754300 26.12683100
255.18661500 9.06140700 33.34985400
255.33236700 -3.39341900 33.68750000
255.17376700 8.58884000 43.56683300
254.32336400 21.38684500 33.11102300
254.46133400 20.87144500 42.83160400
252.76507600 20.29986800 54.83917200
253.55188000 33.10522500 41.50622600
252.19860800 32.36921300 53.77496300
249.08844000 31.86367200 66.09869400
249.85617100 19.92249500 67.10339400
245.13885500 31.62828400 76.25561500
246.19860800 19.65066500 77.18090800
240.79687500 31.40810800 83.58587600
241.66888400 19.31727400 84.96356200
236.85153200 31.16459500 89.56317100
237.68530300 19.16218600 91.19689900
236.65518200 31.47437100 96.26916500
237.97464000 19.28088800 98.35229500
233.72470100 31.40836700 102.00128200
234.18191500 19.26091400 104.17669700
228.79742400 31.13230100 106.68353300
229.18655400 19.15154100 109.02429200
226.37118500 31.20020700 113.43273900
227.15646400 19.20122100 116.17443800
224.74688700 31.47990000 121.96362300
225.26129200 19.29044500 124.83453400
221.58956900 31.65168000 132.28930700
221.72732500 19.36309600 135.47833300
215.47122200 31.79537600 144.26800500
215.17001300 19.36637500 147.02105700
206.94702100 31.93544000 155.79138200
206.60302700 19.51643600 157.83001700
197.17379800 32.08644100 164.93127400
197.09909100 19.83679400 166.42486600
196.07186900 7.49754900 167.59637500
190.12777700 20.26637800 174.09790000
189.96807900 7.97054100 174.53131100
189.09017900 -4.37488600 175.40881300
186.08969100 8.24264700 179.93768300
184.87405400 -4.16151600 180.52685500
179.69848600 8.33157800 182.48681600
178.84713700 -3.72949000 182.25933800
173.92022700 8.42597000 187.66339100
173.93682900 -3.68332100 186.51110800
167.86068700 8.39878800 195.79028300
167.97436500 -3.91597900 194.43042000
158.18551600 8.28489100 204.94586200
158.50964400 -4.15474700 204.00042700
146.63113400 8.01001500 212.88830600
146.45938100 -4.45200200 212.44818100
134.70510900 7.50407800 219.42016600
133.89709500 -4.92122100 218.79986600
123.67863500 6.94815500 224.66601600
122.69482400 -5.34601200 224.77856400
113.32414200 6.54112100 229.76599100
112.43074000 -5.31526800 228.52172900
103.21978800 6.07971000 235.98748800
103.05408500 -5.59203700 235.02056900
92.18113700 5.66231800 243.34820600
91.67075300 -5.91860200 241.52716100
78.70918300 5.66366100 248.70507800
79.03122700 -6.00546300 248.15911900
64.32589000 5.59498600 251.81823700
64.74563600 -6.04418000 251.73693800
49.91737700 5.49998700 252.71936000
50.29986600 -6.20747900 252.86047400
36.08187100 5.30875500 254.00616500
49.19533900 17.20043400 252.38275100
35.55788400 17.07553100 253.87017800
22.12988300 16.69601400 255.29345700
34.53006000 28.93378800 253.17944300
22.06273300 28.55182300 255.01879900
8.11002500 28.26248000 258.30401600
21.45199400 40.37463400 254.10076900
6.86808100 39.98749500 256.41650400
-8.15108500 40.33095600 259.68481400
3.95084800 51.92993500 255.65557900
-11.34980800 52.56488800 258.17889400
-25.53264600 52.83328200 255.87829600
-22.66437100 40.51337400 258.60107400
-37.90331600 53.38403700 251.25396700
-35.42992000 40.96445500 254.35803200
-48.70617700 54.09029000 247.12377900
-40.37112000 65.51386300 248.14770500
-51.11212500 66.61219000 245.07635500
-59.53631600 67.04832500 244.67712400
-58.30313100 54.78699900 246.63891600
-66.65014600 65.99276000 241.00073200
-67.58910400 54.65666200 243.74560500
-77.19989000 65.70452100 240.41754200
-79.01344300 54.75653100 242.86438000
-89.60856600 65.52446000 238.17785600
-92.03294400 54.71458800 240.58532700
-103.79312100 65.10983300 232.35119600
-106.45849600 54.53448500 235.04418900
-119.74626900 65.10032700 223.00805700
-121.59525300 54.67726500 225.97802700
-132.28372200 66.01576200 212.42810100
-133.66665600 55.13625000 215.41027800
-140.56112700 67.69548000 209.22833300
-142.16345200 56.22494100 211.10546900
-146.71414200 68.01056700 205.04498300
-148.16876200 57.01107800 206.72589100
-151.29699700 67.85625500 198.11566200
-152.63995400 57.00215100 199.92150900
-164.28964200 67.94155900 190.53241000
-164.46102900 57.27870600 194.04492200
-180.26782200 65.26505300 178.54101600
-180.53302000 55.15062700 182.62689200
-191.09091200 62.32957500 166.74676500
-191.76049800 52.72162200 171.17926000
-198.71118200 60.46575200 156.54296900
-199.63464400 50.74910400 160.04431200
-204.29553200 59.36998700 147.92816200
-205.31021100 49.37203200 149.71972700
-209.45092800 58.82501200 139.62493900
-212.22168000 48.94546500 140.79724100
-215.88620000 58.96686200 130.33654800
-218.83825700 48.76273300 130.48175000
-223.02560400 59.62787600 120.51611300
-226.53356900 49.33337400 120.14862100
-229.33398400 60.45262500 108.37310800
-232.76736500 50.05620600 107.77429200
-234.28787200 61.33411000 94.43261700
-237.75524900 50.93648100 94.03009000
-237.67324800 62.13289300 79.30035400
-240.28466800 51.62112800 78.99145500
-239.66201800 62.74417900 63.74340800
-241.96649200 52.44056700 63.95544400
-244.08035300 64.18005400 50.07165500
-247.17767300 53.73659500 51.07782000
-244.59710700 65.05490900 36.05499300
-247.56323200 54.33647900 36.75299100
-246.18148800 66.39281500 19.97454800
-249.45761100 56.16904100 20.90362500
-245.75466900 67.75087000 2.71460000
-248.85583500 57.72108100 4.52227800
-242.50555400 68.63914500 -12.74432400
-245.26773100 58.28738800 -10.48565700
-238.45489500 67.92851300 -24.51269500
-241.42327900 57.38607400 -22.89984100
-238.61782800 67.04608900 -33.96276900
-239.35025000 55.97499500 -33.28619400
-234.05871600 65.12669400 -42.17330900
-235.99939000 54.64353200 -43.47750900
-231.91510000 65.31265300 -54.87207000
-234.81576500 54.79085500 -56.65145900
-229.26867700 66.14559900 -69.86764500
-231.60189800 55.19133800 -71.31268300
-223.77310200 66.87390100 -85.01440400
-226.50839200 55.74793200 -85.94125400
-216.51525900 67.48049900 -98.69015500
-219.58221400 55.99380500 -99.30752600
-209.72268700 67.14830800 -109.86148100
-212.44656400 55.76800500 -110.63555900
-206.91650400 67.04016100 -119.79299900
-208.65408300 55.52629100 -121.15835600
-200.41357400 66.28831500 -125.89859000
-201.11142000 54.80632000 -126.98590100
-195.11349500 65.60720800 -131.27011100
-196.44574000 54.75704600 -134.53195200
-190.96347000 65.95040100 -140.36166400
-191.26229900 55.22424700 -144.90539600
-182.01968400 66.32133500 -153.71362300
-182.87139900 55.86643600 -157.29208400
-170.20092800 67.41696200 -166.86554000
-170.82507300 56.63948100 -170.11093100
-153.63824500 68.32740000 -179.38085900
-155.44244400 57.39877700 -181.04950000
-147.07971200 69.40731800 -188.72824100
-147.97799700 58.34027900 -190.29064900
-141.43804900 69.64637800 -194.45483400
-142.80844100 58.89874300 -195.64425700
-134.87039200 68.81001300 -195.05279500
-136.85281400 58.46374500 -196.95913700
-130.21423300 68.72909500 -199.36453200
-132.52902200 58.41737400 -200.84329200
-122.40259600 69.69233700 -208.10763500
-128.09872400 59.15401800 -207.26617400
-109.77803000 71.24568900 -216.66845700
-114.29617300 60.67210000 -217.32080100
-96.22348800 72.64854400 -222.43789700
-100.40557100 62.17165400 -223.94906600
-103.05253600 50.66122400 -225.73965500
-89.34958600 63.05769300 -227.00351000
-85.96067000 73.61135900 -224.59722900
-78.79309100 75.16239900 -226.57147200
-82.63945800 82.22839400 -222.03842200
-77.24716900 83.49740600 -224.23297100
-79.33096300 89.40261100 -221.05181900
-76.43969700 90.13156900 -224.47866800
-78.40336600 93.64801800 -222.57080100
-75.98064400 93.48474900 -226.52121000
-73.44346600 90.87817400 -230.14718600
-74.00042000 95.30300100 -229.07397500
-69.07337200 91.13643600 -231.91607700
-63.30913500 83.72037500 -232.23019400
-68.92631500 84.78154800 -232.86041300
-62.17957300 90.54763800 -231.46203600
-55.05842600 82.05766300 -231.76394700
-51.94566700 89.67379800 -229.30850200
-43.88570800 81.58634200 -235.72775300
-35.63877500 88.02066000 -236.26593000
-28.53762800 81.12110100 -241.67373700
-17.22756000 86.66897600 -240.94201700
-11.28994400 80.51225300 -244.16589400
-0.92171600 86.63736000 -240.09268200
3.72102600 80.19645700 -243.20929000
12.32542200 87.56556700 -239.03372200
15.45388200 80.67858900 -243.25814800
21.31302600 88.48934900 -242.93847700
23.54258700 81.48654200 -245.03619400
28.60278900 88.06161500 -239.82208300
29.31091300 80.93986500 -241.71011400
38.66481000 87.35237100 -236.60803200
37.46088400 81.02193500 -239.69018600
55.86534500 88.12953200 -234.88119500
54.45715000 82.09355900 -238.37435900
72.32945300 89.25920100 -229.59829700
70.59986100 82.87414600 -233.64382900
86.28939800 89.38301100 -222.58938600
84.13759600 82.82411200 -227.47723400
83.04679100 75.03270000 -232.53106700
94.42372900 82.11784400 -222.25073200
92.49758900 74.57289100 -226.22598300
93.80175000 64.67312600 -230.39474500
102.38386500 73.64608800 -223.12527500
102.36925500 63.95482300 -225.89474500
110.51126100 73.36698900 -218.25811800
111.68291500 64.76765400 -223.42312600
113.15717300 53.66547800 -226.68261700
119.23835000 63.96611000 -215.08956900
120.86943100 53.21139500 -218.35702500
122.53480500 41.86773700 -219.81509400
132.15289300 53.83783700 -213.11145000
133.65152000 42.42188300 -215.35937500
143.65142800 53.93337600 -206.40808100
145.04840100 42.90836700 -209.32717900
154.03695700 53.83705100 -197.61752300
143.20242300 64.38658100 -203.68148800
153.78421000 63.90121100 -194.65408300
161.70163000 64.24518600 -186.64517200
153.64395100 72.78662100 -191.17883300
160.44763200 73.09164400 -183.39172400
164.59848000 73.23469500 -176.88562000
158.11798100 80.67196700 -181.07153300
162.19229100 80.83963000 -175.14474500
167.08746300 81.86970500 -169.87429800
164.52487200 88.32427200 -168.82855200
159.46853600 94.10321000 -168.28161600
155.00192300 100.55148300 -165.70376600
163.81347700 101.98906700 -160.32516500
151.82208300 107.36936200 -160.37185700
159.41815200 108.34567300 -155.88699300
173.19967700 109.89487500 -145.38128700
177.43249500 104.71198300 -148.73355100
187.63510100 111.20584900 -124.48764000
194.35037200 105.35542300 -126.48407000
197.95611600 102.12623600 -129.12466400
200.69375600 111.02771000 -105.27453600
204.79260300 103.33456400 -107.35104400
207.19549600 95.92842900 -108.87954700
201.92245500 95.16890000 -130.27859500
209.09371900 88.88544500 -109.71038800
202.70425400 87.41120100 -128.95568800
216.16149900 97.69151300 -90.01001000
216.86441000 89.96769700 -92.28088400
212.92282100 103.96194500 -86.85223400
224.09408600 104.92158500 -68.73489400
208.82760600 110.59436000 -82.09866300
220.65267900 109.58382400 -65.11087000
224.92065400 109.29846200 -43.24441500
229.44723500 106.46489700 -46.80603000
229.38317900 110.42652100 -20.87921100
233.30685400 106.13225600 -23.26355000
229.66424600 108.98076600 -0.09790000
234.44226100 105.49204300 -1.89361600
230.52938800 110.72548700 16.64141800
235.37374900 106.80077400 16.97613500
239.02536000 103.15493000 15.24737500
234.14147900 105.59337600 30.18670700
237.56106600 102.38552100 30.28967300
239.65588400 98.87410000 30.15332000
241.47967500 99.14698000 15.87493900
241.53830000 95.44257400 29.80127000
241.66201800 95.54007000 17.18927000
