27.73547700 51.17113500 -18.85150100
25.44150200 51.25682100 -21.48733500
22.87295500 51.23288000 -23.89514200
20.03778800 51.16488600 -26.05032300
19.31766500 48.75918600 -24.94299300
26.10593000 52.70795400 -22.09100300
23.41848400 52.63148500 -24.55212400
20.49272200 52.60885600 -26.78006000
17.41047700 52.80875400 -28.68798800
16.98787300 51.03071600 -27.82486000
23.84237300 53.59764900 -25.06979400
20.84753000 53.64182300 -27.33776900
17.69050200 53.80377200 -29.25366200
14.31268300 53.69757800 -30.62832600
14.09550900 52.66684000 -30.04159500
21.15829800 54.53075400 -27.84075900
17.90538000 54.59972400 -29.69500700
14.51474400 54.52516900 -31.15603600
10.90720400 54.49279800 -32.21273800
10.79360200 53.63488000 -31.64679000
18.15887500 55.33949300 -30.16891500
14.70198400 55.30212400 -31.66296400
11.01147500 55.33508300 -32.75552400
7.22117300 55.18505900 -33.31518600
7.23257800 54.36920200 -32.76452600
14.87651400 56.04516600 -32.15048200
11.12227200 56.09082800 -33.30392500
7.24939700 55.97223700 -33.87789900
3.42710500 55.61457800 -33.86239600
3.48371100 54.85202000 -33.29898100
11.26332500 56.75708000 -33.91970800
7.28849800 56.73182700 -34.46533200
3.35539600 56.32495100 -34.41381800
-0.23737700 56.03360000 -34.05551100
-0.16178500 55.31913800 -33.51336700
7.33466400 57.26953900 -35.18576000
3.28287100 56.95443700 -35.01709000
-0.35377900 56.59688600 -34.68725600
-3.80855900 56.55295600 -34.62924200
-3.78285600 56.16116300 -33.87973000
3.23227700 57.11406700 -35.81994600
-0.44088300 56.71668200 -35.49704000
-3.87864300 56.57627100 -35.41018700
-7.66217400 58.08527400 -35.61462400
-7.61001900 57.72023000 -34.76922600
-0.50400100 56.56710100 -36.30337500
-3.93948000 56.43421200 -36.13653600
-7.78644200 57.90171800 -36.46279900
-12.55498900 58.10127300 -35.49237100
-12.25080500 58.20446800 -34.72467000
-4.00131600 56.05411500 -36.72598300
-7.96697600 57.46654500 -37.20260600
-12.82149900 57.65895100 -36.14404300
-17.18650400 57.31528500 -34.28009000
-16.89181900 57.87031600 -33.73443600
-8.16370000 56.74836000 -37.67511000
-12.96078900 56.86213700 -36.34664900
-17.25960200 56.46472200 -34.40332000
-21.17187900 56.03230300 -32.02481100
-21.13013100 56.89422600 -31.97641000
-12.96399300 55.98833500 -36.21203600
-17.18837400 55.57883500 -34.24090600
-21.01490400 55.18876600 -31.77758800
-24.43859500 54.93285400 -28.91989100
-24.66025900 55.73083500 -29.18750000
-17.03484700 54.72481500 -33.89663700
-20.81673000 54.35573600 -31.47988900
-24.19382900 54.12652600 -28.62948600
-27.25651900 53.91766400 -25.50351000
-27.54172900 54.73916600 -25.76556400
-20.57618300 53.53404200 -31.10772700
-23.93637500 53.30323800 -28.32568400
-26.89294100 53.10981800 -25.16220100
-29.38118400 52.86283900 -21.67474400
-29.86663400 53.71493500 -22.00372300
-23.58964900 52.48465000 -27.90637200
-26.48659100 52.19570200 -24.78625500
-28.89838000 51.97451000 -21.32821700
-30.82035400 51.80697600 -17.66799900
-31.39796100 52.72031400 -17.98465000
-25.99055100 51.18467700 -24.33364900
-28.29990000 51.02694700 -20.91595500
-30.24274100 50.89363100 -17.35134900
-31.82840300 50.84578700 -13.61557000
-32.51723900 51.82984900 -13.88046300
-27.59798800 49.78501900 -20.44302400
-29.43146100 49.65038300 -16.90918000
-30.96550400 49.56580400 -13.28903200
-32.06355700 49.48001100 -9.60397300
-32.98841500 50.85095200 -9.80664100
-28.59817100 48.25708000 -16.46218900
-30.08794800 48.18792700 -12.94583100
-31.13415900 48.06445300 -9.36862200
-31.81456400 47.78685000 -5.80651900
-32.73712500 49.30094900 -5.92987100
-29.00304000 46.35388200 -12.51232900
-30.10501500 46.17196700 -9.11270100
-30.76447700 45.92057000 -5.67392000
-30.98394400 45.43821000 -2.20019500
-32.09539400 47.49201200 -2.21057100
-28.93764100 43.68156400 -8.77117900
-29.63867600 43.38131000 -5.49844400
-29.84964400 42.93529500 -2.17938200
-29.74515200 42.35001400 1.09124800
-30.93364300 44.96845200 1.22448700
-28.53743400 40.48616000 -5.32205200
-28.82226200 40.23436000 -2.16693100
-28.63906500 39.93398300 0.97345000
-27.99345800 39.68299900 4.04937700
-29.43606900 41.66091900 4.31002800
-27.77725600 37.40130600 -2.08200100
-27.74106200 37.43347900 0.95050000
-27.50222400 37.40194700 4.02529900
-26.98407400 37.24736800 7.16720600
-27.28075800 39.49198900 7.22619600
-27.06531100 34.53623200 0.99310300
-27.01744500 34.56118000 3.95819100
-26.29007300 34.40424300 6.90417500
-25.77164100 33.93188500 9.91574100
-26.17637300 36.93846100 10.26770000
-26.54141600 31.88510100 3.81543000
-26.13689800 31.60923800 6.64801000
-25.29544400 31.33236700 9.47778300
-24.15715400 31.13615400 12.31454500
-24.73222000 33.48171200 12.83822600
-25.35400800 29.61467700 6.23822000
-24.54900000 29.43065600 8.93606600
-23.42511400 29.36827900 11.71066300
-21.77503600 29.51297000 14.47738600
-22.55466100 31.26690700 15.08505200
-24.21582400 27.79782100 8.48886100
-23.04252200 27.73603800 11.24441500
-21.29060000 27.80767100 14.08010900
-19.64513000 27.97632600 17.13122600
-19.88423500 29.73252900 17.28060900
-23.41055700 26.32166300 11.15765400
-21.95453300 26.29430400 14.27478000
-20.15650600 26.40056600 17.42959600
-18.03772400 26.34030900 20.21722400
-17.59268600 28.06018100 19.82675200
-23.30632400 25.10390500 14.73849500
-21.33288200 24.97530400 18.11059600
-19.01204300 24.77669500 21.01495400
-16.60726500 24.79270200 23.61196900
-15.69584300 26.35118100 22.59228500
-22.61795400 23.27226300 18.90393100
-20.31009300 23.16993700 22.11853000
-17.58517800 22.96962000 24.76074200
-14.72677200 22.80680800 27.03476000
-13.86825900 24.73780800 25.70898400
-21.82114000 21.08457200 23.64050300
-19.02025200 20.83725700 26.57122800
-15.90634500 20.50663000 28.94458000
-12.67221500 20.35081500 30.92126500
-11.75052300 22.66209400 28.99044800
-20.42902000 18.37493900 28.57357800
-17.10551800 18.04963700 31.08786000
-13.63150400 17.93767500 33.22900400
-9.83368300 17.51190200 34.64138800
-9.17972200 19.90612800 32.31246900
-18.25989200 15.48985300 33.30300900
-14.50744200 15.38270600 35.53433200
-10.45222900 15.04243500 37.09137000
-6.31140500 14.56149300 38.19799800
-5.92908100 17.12287100 35.74984700
-15.18352100 12.45539100 37.47906500
-10.99998100 12.22023000 39.24502600
-6.63863000 11.84619100 40.55896000
-2.09939200 11.27510800 41.06707800
-2.07017100 14.09091200 38.82052600
-11.36826700 9.01738000 40.93411300
-6.79269000 8.65188600 42.25036600
-2.02763700 8.15119900 42.83264200
2.76479400 7.71387500 42.86737100
2.42870700 10.86388400 41.11340300
-6.82985300 5.29639400 43.61535600
-1.85886000 4.72610500 43.92956500
3.12703300 4.28334800 43.98501600
8.05228400 4.02780200 43.75601200
7.49198200 7.49256900 42.66986100
-1.59218200 1.28398900 44.89007600
3.58419800 0.81822200 44.92825300
8.71215800 0.54727900 44.56121800
13.79187800 0.43067900 43.59103400
12.87768600 3.83204700 42.69216900
4.04032500 -2.58541900 45.88537600
9.44819600 -2.85864300 45.40817300
14.75748100 -2.99801600 44.21533200
19.68465000 -3.04326600 42.06240800
18.62938700 0.39233400 41.72103900
10.18195300 -6.23046900 46.05004900
15.76375600 -6.40695200 44.64718600
20.88718800 -6.44871500 42.35409500
25.67857700 -6.25970500 39.54898100
24.33538100 -2.88406400 39.36892700
16.66106800 -9.78826100 44.78564500
22.01734200 -9.85035700 42.53387500
26.86409000 -9.61003100 39.51309200
31.39259300 -8.92600300 35.79559300
30.05753700 -5.65558600 36.09466600
22.91502000 -13.24760400 42.46591200
27.78153600 -12.92627000 39.06469700
32.05833400 -12.19976800 34.92504900
35.96076600 -10.94531300 30.48159800
35.20724900 -7.69620500 31.37829600
28.21231500 -16.20520800 38.12872300
32.68729400 -15.45310200 34.10272200
36.62739600 -14.20459000 29.59637500
39.69845600 -12.67829900 24.49746700
38.88100100 -9.43219800 25.34350600
33.08494200 -18.69430500 33.21752900
37.01335500 -17.47780600 28.68499800
40.12603400 -16.06359900 23.73391700
42.67724200 -14.86507000 18.67623900
42.30107500 -11.35820000 19.30398600
36.92234400 -20.78499600 27.84179700
40.08995100 -19.53279100 23.04553200
42.54438800 -18.44408800 18.10427900
44.54541400 -17.70457500 13.06091300
44.74676900 -14.03261600 13.50351000
39.56686800 -23.00748400 22.46579000
41.97958400 -22.02887700 17.56979400
43.91566800 -21.31676900 12.56750500
45.43815200 -20.84695400 7.33401500
46.03622100 -17.29336900 7.72082500
40.92512500 -25.45397600 16.99264500
42.88625000 -24.79248800 12.02557400
44.36487200 -24.30789200 6.86489900
45.10533900 -23.93058800 1.46402000
46.29959100 -20.54797400 1.67706300
41.51874200 -28.08293200 11.46398900
42.97306400 -27.63859200 6.38574200
43.73650700 -27.31086000 1.15557900
43.58651400 -27.09378100 -4.14395100
44.88248800 -23.76298500 -4.20101900
41.28390500 -30.75390600 5.92700200
41.99110000 -30.52131100 0.86749300
41.92729600 -30.33249500 -4.16644300
41.03878800 -30.17031100 -9.29727200
42.52419700 -26.96471400 -9.54809600
40.07306300 -33.61879700 0.74209600
40.09197600 -33.51090200 -4.08773800
39.32431800 -33.29627200 -8.91906700
37.73218200 -33.01863100 -13.74090600
39.27682900 -29.93326000 -14.29361000
37.87740300 -36.41257500 -3.76458700
37.30442000 -36.24236300 -8.40762300
35.95020700 -35.97252700 -12.99063100
34.00484800 -35.83663200 -17.37612900
35.73775100 -32.89996700 -18.42639200
34.95113000 -38.91244100 -7.79528800
33.83928300 -38.71018200 -12.11972000
32.10961200 -38.65296900 -16.23431400
29.87096400 -38.83351100 -20.02819800
31.66757200 -36.01385100 -21.44940200
31.81945000 -41.57792700 -11.29141200
30.16171600 -41.47028400 -15.11673000
27.94988600 -41.53158600 -18.62643400
25.40016200 -41.84351300 -21.87924200
27.15368300 -39.16841100 -23.48629800
28.24703200 -44.34302500 -14.06344600
26.11467700 -44.34244200 -17.31628400
23.65217600 -44.53124200 -20.31991600
20.80530200 -44.70813000 -23.00735500
22.33067700 -42.01348100 -24.65231300
24.28669000 -47.16477200 -16.04397600
21.98706100 -47.32901800 -18.89294400
19.32123900 -47.44165800 -21.41970800
16.27211800 -47.42514800 -23.46752900
17.56882100 -44.76903500 -25.24465900
20.28114700 -50.03501100 -17.45675700
17.76871100 -50.07751800 -19.76092500
14.96028900 -50.05207800 -21.71759000
12.08877200 -50.16800700 -23.54446400
13.06810800 -47.47320200 -25.29733300
16.70263300 -53.03034200 -18.71426400
14.08301200 -52.98896000 -20.61297600
11.20724500 -52.82568000 -21.94259600
8.25994900 -52.67737600 -23.03115800
8.99285100 -50.15833300 -24.90225200
13.18475700 -55.36124000 -19.38504000
10.42363700 -55.20997600 -20.61239600
7.66253300 -55.13881700 -21.65835600
4.87156300 -55.01332900 -22.50949100
5.29449500 -52.57869700 -23.93148800
9.93001600 -57.03291300 -19.85168500
7.28234100 -57.06328600 -20.90567000
4.53348200 -56.91325000 -21.47103900
1.80218500 -56.54314400 -21.73580900
1.98112900 -54.82500800 -22.93621800
6.87083100 -58.38983900 -19.96875000
4.22964500 -58.21123500 -20.58425900
1.64771300 -57.98097200 -20.82516500
-0.94565900 -57.83145100 -20.91085800
-0.91587400 -56.34132800 -21.79650900
3.91815600 -59.13391900 -19.36425800
1.47442300 -59.01797500 -19.59646600
-0.91309700 -58.74715000 -19.57165500
-3.27660000 -58.57369200 -19.36361700
-3.50066000 -57.62434800 -20.52063000
1.38067600 -59.20746600 -17.98040800
-0.82539000 -59.05077400 -18.00994900
-3.00966200 -58.83649800 -17.83569300
-5.21915000 -59.15004000 -17.47702000
-5.67986700 -58.79460100 -18.97482300
-0.69579700 -58.94995100 -16.26046800
-2.65654400 -58.99309200 -16.11810300
-4.70267800 -59.12353500 -15.78955100
-6.76046400 -59.17292800 -15.23284900
-7.41508100 -59.13101600 -16.77627600
-2.05296700 -59.17472100 -13.82650800
-4.03160500 -59.13383900 -13.92547600
-5.97954900 -59.22114200 -13.55954000
-7.93542800 -59.20491800 -12.93774400
-8.81488400 -59.19966900 -14.40542600
-2.89498500 -59.20059200 -11.35852100
-4.71553400 -59.23343300 -11.17297400
-6.50777000 -59.18212900 -10.73489400
-8.30601900 -59.19677400 -10.07925400
-9.82140700 -59.17226800 -12.02548200
-3.26824600 -59.03945900 -8.76297000
-4.82712200 -59.05658000 -8.27227800
-6.42477000 -59.11939600 -7.71087600
-7.94682700 -59.07899100 -6.94512900
-10.01050900 -59.18945700 -9.18957500
-3.37073900 -58.95655400 -6.16192600
-4.83122600 -58.97778300 -5.60778800
-6.14824300 -58.93742000 -4.85418700
-7.38137400 -58.91263200 -4.00174000
-9.38262600 -58.98578300 -6.01852400
-3.42975200 -58.82950600 -3.72204600
-4.69418700 -58.81934700 -3.01025400
-5.79011900 -58.80030800 -2.15850800
-6.80549200 -58.68998000 -1.25216700
-8.46641900 -58.80397000 -3.02340700
-3.46836500 -58.72230900 -1.34347500
-4.57725900 -58.65044800 -0.53064000
-5.60030700 -58.63178300 0.35681200
-6.68953300 -58.51878000 1.23663300
-7.80382100 -58.55940200 -0.29083300
-3.56990400 -58.68270500 0.97433500
-4.67945500 -58.74115000 1.81353800
-5.81330500 -58.57030100 2.67373700
-3.83504100 -58.67689500 3.23843400
-5.09528000 -58.60742600 4.06314100
-6.47716900 -58.83592200 4.92721600
-7.15005900 -58.81135600 3.57058700
-7.79493300 -58.71518700 2.20083600
-8.82122400 -58.87642700 4.51391600
-9.20824100 -58.86725600 3.14343300
-8.69895600 -58.75412000 0.76962300
-10.21440500 -59.03285600 -0.71124300
-9.35371800 -58.74184800 -1.95254500
-12.57432900 -59.07394400 -2.16137700
-11.70490600 -58.97846600 -3.64111300
-10.64361200 -58.70740500 -4.92453000
-14.00060700 -58.93637100 -4.98315400
-12.85743300 -58.76231400 -6.63055400
-11.48454700 -58.76773800 -8.02230800
-14.35899700 -58.91705300 -7.70501700
-13.10081900 -58.63606300 -9.43515000
-11.59069400 -59.11180900 -10.87908900
-14.33919100 -58.66328000 -10.49194300
-12.71550500 -59.09081300 -12.07955900
-10.80736200 -59.11789700 -13.39773600
-13.74119900 -59.02113700 -13.18969700
-11.74443400 -59.06385000 -14.66354400
-9.61413200 -59.11402900 -15.81530800
-12.55060200 -58.64292100 -15.80038500
-10.27075600 -58.64526400 -17.00799600
-8.03123900 -58.83087200 -18.11770600
-10.71558000 -57.50425700 -17.78564500
-8.45387600 -57.65676900 -19.10659800
-5.98436300 -57.61779400 -19.95910600
-8.80165500 -56.20494100 -19.93481400
-6.19553700 -56.10129900 -20.67590300
-3.56776000 -56.14014800 -21.33200100
-6.51005900 -54.21960400 -21.83145100
-3.70405200 -54.32034700 -22.43005400
-0.88480700 -54.49629600 -22.84552000
-3.90331600 -51.86166800 -23.94912700
-0.85137500 -52.11068700 -24.32562300
2.20353000 -52.39690800 -24.37869300
-0.85838700 -49.62701800 -26.22522000
2.46934100 -49.86097000 -26.28570600
5.76356100 -50.07629000 -25.84378100
2.70954200 -47.33895500 -28.40463300
6.26760500 -47.45852700 -27.83734100
9.73181500 -47.51290100 -26.81430100
6.83961100 -45.00096500 -30.08862300
10.57185000 -44.99404900 -28.87139900
14.10921100 -44.82591600 -27.16473400
11.40888600 -42.44778400 -30.94372600
15.26360700 -42.38236200 -29.23425300
18.89539000 -42.19452300 -27.08227500
16.35863900 -39.82577100 -31.18106100
20.23265800 -39.61351400 -28.95266700
23.93347200 -39.45484900 -26.49478100
21.42703200 -36.85795200 -30.75338700
25.30191000 -36.67722300 -28.20385700
28.66684000 -36.28740700 -24.98288000
26.64394000 -33.91454300 -29.97528100
30.17717000 -33.45794300 -26.60049400
33.31833300 -33.12843700 -22.79696700
31.65409100 -30.54798500 -28.02139300
34.73678200 -30.02378800 -23.82229600
37.25339500 -29.84229300 -19.21945200
36.11821400 -26.86646300 -24.62710600
38.78614400 -26.73040400 -19.85440100
40.81862300 -26.79796600 -14.80001800
40.02584500 -23.43528400 -20.34982300
42.10654800 -23.51065100 -15.24377400
43.78112400 -23.68884300 -9.86892700
42.89149100 -19.99345400 -15.54190100
44.63430400 -20.25460400 -10.11639400
45.92026900 -20.41231500 -4.29852300
45.19642600 -16.74993100 -10.19229100
46.71145200 -17.01612900 -4.29586800
47.01283600 -17.09528400 1.85705600
46.64896400 -13.51874500 -3.97644000
47.09038200 -13.57179300 2.09262100
46.23173100 -13.69727300 8.01849400
46.64925000 -10.00265500 2.48144500
45.89493200 -10.10020400 8.32168600
44.52746200 -10.43811000 13.94879200
45.17216500 -6.53620100 8.84573400
43.84550100 -6.97288500 14.56784100
41.51938200 -7.97479200 20.01446500
43.01723100 -3.55779300 15.36050400
40.77011500 -4.70064500 20.93869000
38.10888300 -6.19245900 26.29473900
39.86354400 -1.51984400 21.90188600
37.11918600 -3.01017000 27.25466900
34.03336700 -4.48978400 32.16552700
35.93849600 0.10204300 28.15670800
32.44879900 -1.33942400 32.53604100
28.52659600 -2.39877300 36.18771400
30.81295400 1.81063800 32.69955400
27.06816100 0.93445600 36.11093100
23.02550100 0.51413000 39.08972200
25.71342500 4.34714500 35.86499000
21.80176500 3.93043500 38.64199800
17.59507400 3.83948500 41.17544600
20.67106600 7.37172700 38.08877600
16.49047500 7.16849500 40.13839700
12.01826500 7.19857800 41.52722200
15.40738700 10.38760400 38.69979900
11.23264300 10.45810700 40.01199300
6.89782400 10.65652500 40.86874400
10.46896700 13.51490000 38.06198100
6.37077700 13.58219100 38.73034700
2.17471700 13.72195400 38.89306600
5.99728400 16.32009900 36.39019800
2.03632800 16.40306100 36.50927700
-1.95067200 16.65007000 36.32324200
1.96088400 18.95076000 34.14883400
-1.81834000 19.11212900 33.97390700
-5.52471500 19.39478300 33.27478000
-1.62526300 21.28984800 31.98693800
-5.12192100 21.64688100 31.26077300
-8.54480400 22.27506300 30.40692100
-4.76150900 23.83722700 29.73425300
-7.94740700 24.36731000 28.89892600
-10.99325900 24.65259600 27.54425000
-7.40309500 26.24002800 27.68115200
-10.36448300 26.43520400 26.36544800
-13.16409700 26.46608700 24.68820200
-9.95974300 28.14100600 25.58935500
-12.76099000 28.14232600 24.01767000
-15.32494700 28.11078600 22.13803100
-12.83163800 29.91181900 24.07449300
-15.43797700 29.91711400 22.18945300
-17.80505000 29.85443900 19.93518100
-15.80170800 31.78093000 22.59527600
-18.27446400 31.70530700 20.30197100
-20.52325800 31.53293600 17.77124000
-18.69306600 33.83532000 20.75381500
-21.08093600 33.59811400 18.29281600
-23.20286900 33.35675800 15.67715500
-21.60721200 36.25312800 18.87887600
-23.51655200 36.22422000 16.11688200
-24.99255800 36.51267200 13.22628800
-24.18601600 39.15878300 16.72271700
-25.69276800 39.29383100 13.69601400
-26.66534000 39.39260100 10.48498500
-26.87843700 41.45496400 14.22912600
-27.81532700 41.22737900 10.78073100
-28.73874300 41.15683700 7.47860700
-29.25914400 43.94086500 11.30456500
-30.13637200 44.08454900 7.89007600
-30.70489900 44.47676800 4.56616200
-31.26890200 46.70214800 8.21298200
-31.80904800 46.97283200 4.79873700
-32.09679000 47.24521600 1.36593600
-32.91743100 49.01121500 5.02529900
-33.08603300 49.03553800 1.49746700
-33.01234100 49.05179600 -2.18335000
-33.97533800 50.62911200 1.61984300
-33.84805700 50.46804000 -2.15335100
-33.58126400 50.61111500 -6.01651000
-34.47044000 51.54145800 -2.12280300
-34.33900100 51.76393900 -6.08364900
-33.75925100 51.98603800 -9.98651100
-34.94308100 52.65721100 -6.10421800
-34.38081000 52.82202100 -10.14474500
-33.15220300 52.69601400 -14.12921100
-34.91311300 53.65548700 -10.27792400
-33.72348400 53.56240800 -14.36203000
-31.93917500 53.60801700 -18.28164700
-34.16307400 54.43296100 -14.54657000
-32.38261000 54.44635000 -18.51834100
-30.26749800 54.53997000 -22.27688600
-32.72567400 55.26722700 -18.70318600
-30.55818600 55.37104000 -22.47195400
-27.79649700 55.55408500 -26.00274700
-30.71900600 56.23043100 -22.58004800
-27.87994000 56.37937200 -26.07696500
-24.71690000 56.56246200 -29.25473000
-27.65331600 57.12339000 -25.86874400
-24.45277000 57.27603900 -28.95071400
-20.84492100 57.57186100 -31.57565300
-23.93186600 57.60630800 -28.36486800
-20.35987500 57.80406200 -30.90557900
-16.49440400 58.10068500 -33.01626600
-19.85268800 57.63008900 -30.21765100
-16.05941400 57.88231700 -32.27761800
-11.97530700 57.98053700 -33.95190400
-15.67714300 57.38861100 -31.60531600
-11.72456700 57.42961900 -33.28598000
-7.56699700 57.10691800 -34.03234900
-11.47550600 56.79042100 -32.60797100
-7.52067900 56.34463500 -33.29962200
-3.76520100 55.49453700 -33.27978500
-7.46496900 55.55165900 -32.61453200
-3.74042100 54.76522800 -32.71176100
-0.09237300 54.59132400 -32.96859700
-3.71502300 53.98940300 -32.15621900
-0.04739700 53.82283800 -32.41571000
3.54145100 54.09029400 -32.73373400
0.01459100 52.99837500 -31.83743300
3.58730700 53.19133800 -32.15240500
7.22292700 53.50920100 -32.18942300
3.63484200 52.22670000 -31.54812600
7.18063800 52.47873700 -31.53210400
10.65422100 52.49164600 -30.99881000
7.08194000 50.86577600 -30.61138900
10.44273800 50.91344500 -30.07620200
13.75105700 50.99873400 -29.11511200
10.14223100 48.74134800 -28.88949600
13.29978600 48.76183300 -27.89474500
16.37588500 48.71978000 -26.58758500
12.74679600 45.99388900 -26.47882100
15.65407200 45.97454800 -25.22384600
18.45951100 46.02896100 -23.66430700
14.99777600 42.96240200 -23.93368500
17.64751400 43.01850900 -22.44796800
20.18520700 43.08076500 -20.73718300
16.98820900 39.81057000 -21.49823000
19.43148000 39.84761000 -19.88168300
21.65616200 39.92819200 -17.94860800
18.80321900 36.53698700 -19.21588100
20.93122100 36.62943300 -17.30862400
22.82842300 36.76553300 -15.14074700
20.32687400 33.25934600 -16.82211300
22.12955900 33.39473000 -14.68042000
23.58726100 33.59783200 -12.23959400
21.36388000 30.13618500 -14.18548600
22.71393200 30.39073900 -11.80145300
23.97915600 30.61109900 -9.30169700
22.03291700 27.36756900 -11.45016500
23.21995500 27.62027700 -9.00155600
24.15202700 27.84632900 -6.41250600
22.67397300 24.99083700 -8.79068000
23.54733300 25.13956500 -6.27218600
24.02803000 25.15877500 -3.67865000
23.07729000 23.33093300 -6.19381700
23.56750500 23.31191300 -3.65866100
23.86041300 23.22959900 -1.10089100
23.42489600 21.74494900 -3.72708100
23.63664200 21.61893500 -1.15432700
23.66335700 21.57003000 1.42132600
24.00472600 20.09204900 -1.26196300
24.06813000 20.08116900 1.37103300
24.09708000 20.11225100 3.94278000
24.97020300 18.65838600 1.31170700
25.00013000 18.65178700 3.93078600
24.92243600 18.37196400 6.43045000
26.36608500 16.65950000 3.94693000
26.17890500 16.32966600 6.57418800
25.45447500 15.87190200 9.12515300
27.77686700 13.99866500 6.88015700
26.99858100 13.61646300 9.63638300
25.94488100 13.19041400 12.36370800
28.60725800 11.20880900 10.17755100
27.37711700 10.77916000 13.05560300
25.91644700 10.44704400 15.96713300
28.74728800 8.19781500 13.78643800
27.16833900 7.88919100 16.82159400
25.37426400 7.64022100 19.74096700
28.40627700 5.19193300 17.68869000
26.55368400 4.93049600 20.77645900
24.33702900 4.72439600 23.56921400
27.82361200 2.22843200 21.85855100
25.52096200 1.99703200 24.82885700
22.85573600 1.80381000 27.47879000
26.66896100 -0.80455800 25.98483300
23.89439800 -0.99596400 28.78814700
20.82984500 -1.14973400 31.41156000
24.92854700 -3.74240900 30.08142100
21.67376700 -3.85924500 32.88055400
17.98801800 -4.15056600 35.10171500
22.53787200 -6.29274000 34.41223100
18.58250800 -6.64951300 36.71252400
14.46582400 -7.49629200 37.85757400
19.05508800 -8.95939300 38.15164200
14.84373100 -9.88655100 39.22076400
10.84104200 -9.92606400 40.90701300
15.21458400 -12.12579000 40.54464700
11.14263200 -12.00316600 42.19986000
6.47965600 -12.04444500 43.38894700
10.98963500 -14.18145400 42.85214200
6.52098900 -14.28331800 43.81716900
1.97446100 -15.27870900 43.94271900
6.43254100 -16.90904200 43.36645500
2.12014400 -17.61733200 43.62417600
-2.39264300 -18.46855900 43.34204100
2.06314900 -20.46098300 43.06991600
-2.39882300 -21.04262500 42.88089000
-6.80768200 -21.36254100 42.18118300
-2.43590900 -23.90675700 41.79888900
-6.77386800 -24.10195200 41.07144200
-11.07444400 -24.08969100 40.40792800
-6.78458800 -27.02362400 39.39572100
-10.98852200 -26.94894400 38.91070600
-15.05039600 -26.13292300 37.80706800
-10.89568700 -29.75557700 36.71850600
-14.77801100 -28.98499700 35.86154200
-18.59751500 -28.08009000 35.09591700
-14.55926100 -32.05380600 33.36569200
-18.09431100 -31.00031100 32.45199600
-14.58028000 -35.14477500 30.21579000
-17.81952300 -33.86803400 29.52706900
-14.86746600 -37.99854700 26.19342000
-18.47942000 -36.57003800 25.74569700
-10.82000400 -38.48474900 27.57949800
-9.79401000 -40.68306000 24.34878500
-10.97264500 -35.88082500 31.25814800
-7.03477100 -35.85516400 32.15179400
-6.83139400 -38.38111900 28.92001300
-10.87451600 -32.72660800 34.16012600
-6.95620300 -32.96068200 34.94714400
-2.91204400 -32.93589000 35.69552600
-3.00933400 -35.43218600 32.78222700
-6.86574900 -30.04451800 37.42373700
-2.71879200 -29.96670500 37.98535200
1.47284700 -29.82935700 38.51718100
1.22193200 -32.62196000 36.10034200
-2.54167500 -26.96867400 40.03485100
1.71733100 -26.74961100 40.42871100
5.95175200 -26.41726700 40.40478500
5.67081100 -29.54709800 38.61395300
1.91278100 -23.57218200 42.06405600
6.17631900 -23.20627600 41.91583300
10.38687500 -22.77778600 41.11590600
10.18701900 -25.98149100 39.79925500
6.34829300 -19.97818000 42.99948100
10.47070700 -19.55396300 41.93978900
15.10069700 -19.28663600 40.89694200
14.86412300 -22.36891200 40.06222500
10.70126000 -16.70214500 42.61337300
15.25207100 -16.61598200 41.38607800
19.99199700 -15.79678700 39.94265700
19.73885700 -18.57891100 39.21780400
15.37933600 -14.31563900 41.57498200
19.77858000 -13.39655300 39.93466200
24.13759200 -12.37457300 37.74478100
24.06794400 -14.76720000 37.56732200
19.40512500 -11.19311500 39.26394700
23.84309800 -10.39908600 37.03588900
27.82756000 -10.51961500 33.86639400
28.31942000 -12.46154000 34.81451400
23.33454900 -8.52449400 35.91992200
27.03121600 -8.58724200 32.76669300
30.18179300 -8.60279800 29.35531600
31.16313600 -10.73567600 30.34454300
26.01599500 -6.30644200 31.44866900
29.03341700 -6.24527000 28.27273600
31.52735500 -5.95707700 24.83288600
32.83963000 -8.40249600 25.79577600
27.81895800 -3.61455500 27.10897800
30.20630300 -3.32944500 23.84545900
32.34673700 -2.89180000 20.38241600
33.79917900 -5.42883300 21.29657000
29.02907900 -0.53454600 22.87191800
31.02004600 -0.20968600 19.48828100
33.01300400 0.30410000 16.04983500
34.43529100 -2.27921300 16.79788200
29.72488000 2.50712600 18.60037200
31.63667700 2.95561200 15.30667100
33.34725600 3.42015100 11.88867200
34.82698400 0.81282000 12.41516100
30.17256900 5.57277700 14.53869600
31.77262900 6.01970700 11.32989500
32.86182800 6.28733800 7.90176400
34.55618700 3.67446900 8.23950200
30.18471900 8.62982900 10.74658200
31.15417100 8.92807000 7.55682400
31.56382800 9.07386800 4.30615200
33.35253500 6.37323800 4.43582200
29.46815100 11.54180100 7.22161900
29.82980700 11.75500500 4.16781600
29.80410800 11.88407100 1.10131800
31.51109300 9.13585700 1.06085200
28.07843000 14.27331500 4.03628500
27.99846300 14.45987700 1.15701300
27.73928100 14.60248600 -1.76168800
29.47083300 11.98255200 -1.97390700
26.29943800 16.81061600 1.23077400
26.10090300 16.91479500 -1.55416900
25.79274700 17.09938000 -4.36331200
27.36370100 14.70587200 -4.72119100
24.89621400 18.64611100 -1.38800000
24.64692300 18.84384200 -4.09799200
24.18603900 19.11762200 -6.76882900
25.39061700 17.27469600 -7.17852800
23.81888600 20.25273100 -3.88522300
23.28434000 20.49433900 -6.43054200
22.47833300 20.65353400 -8.86361700
23.50671000 19.39167800 -9.34793100
22.94298900 21.87819700 -6.23849500
22.16583600 21.86915600 -8.67614700
21.13279300 21.69241300 -11.03799400
21.49474300 20.49792500 -11.21432500
22.33001300 23.23644300 -8.68853800
21.24264100 23.02549700 -11.09176600
19.85917700 22.64533200 -13.25051900
19.68412800 21.14004500 -13.16391000
21.51995100 24.82458500 -11.20724500
20.12442400 24.51895100 -13.41125500
18.50405900 24.23185000 -15.36233500
18.26987100 22.27219400 -15.18676800
20.67429000 27.09718300 -13.74343900
18.97945000 26.87010200 -15.73764000
17.07749200 26.71045700 -17.47235100
16.67644500 23.93646200 -17.09634400
19.61524600 29.95600900 -16.23480200
17.57205200 29.87968400 -17.93103000
15.48395200 29.79071000 -19.51669300
15.00083200 26.57318900 -18.90164200
18.23119400 33.18070200 -18.62435900
15.97251100 33.13323200 -20.14614900
13.56298100 33.11041300 -21.34860200
13.15981700 29.75305200 -20.67193600
16.44269200 36.49639900 -20.76226800
13.92301200 36.49150800 -21.97027600
11.35864300 36.46617900 -23.04470800
11.05264300 33.08181800 -22.30355800
14.41125500 39.78780400 -22.82504300
11.75730500 39.76355700 -23.95599400
8.99759300 39.76200900 -24.80496200
8.73492100 36.42491100 -23.90600600
12.22580300 42.94168900 -25.14294400
9.35972600 42.95606200 -26.04650900
6.42305800 43.02097300 -26.65295400
6.20376600 39.78200500 -25.40033000
9.77224300 46.02078200 -27.50372300
6.68294200 46.09902200 -28.07061800
3.53303200 46.22873700 -28.14804100
3.42272200 43.12461100 -26.81335400
6.91127400 48.78187600 -29.46215800
3.60508700 48.85244000 -29.61508200
0.23646900 48.88839700 -29.31234700
0.33679600 46.33329000 -27.90603600
3.64699600 50.82891100 -30.77514600
0.15499500 50.76577000 -30.40460200
-3.38997300 50.91362800 -29.94216900
-3.15885500 48.93580600 -28.83419800
0.07803000 52.05638100 -31.20242300
-3.54619200 52.15087900 -30.82962000
-7.13650100 52.62156700 -30.48196400
-6.85006300 51.16144600 -29.39291400
-3.64767100 53.10747500 -31.52749600
-7.31410600 53.73637400 -31.30761700
-10.78114700 54.13961000 -30.50146500
-10.48450900 52.92263000 -29.59774800
-7.40977800 54.68422700 -31.98089600
-11.03552600 55.13790900 -31.21261600
-14.61294900 55.13015700 -29.75335700
-14.26078400 54.13233200 -29.10076900
-11.25542800 56.02488700 -31.92904700
-14.95758400 55.99074600 -30.37155200
-18.49022300 55.81623100 -28.40377800
-18.04403300 55.02243000 -27.84243800
-15.32107200 56.72918700 -30.98385600
-18.91836900 56.55739600 -28.98251300
-22.24434300 56.48693800 -26.55398600
-21.73308900 55.75688900 -26.04196200
-19.37179200 57.18746200 -29.57690400
-22.76702500 57.12654100 -27.11074800
-25.82221600 56.89058700 -24.29684400
-25.22865700 56.30680800 -23.81103500
-23.34142700 57.53820000 -27.72021500
-26.46832700 57.30207800 -24.83377100
-29.10525100 57.05473300 -21.50946000
-28.44423300 56.63186600 -21.08032200
-27.10084200 57.46150200 -25.38015700
-29.79561200 57.31231700 -21.95660400
-31.96069700 57.17352300 -18.31567400
-31.22723800 56.97561600 -17.93890400
-30.46926500 57.03226500 -22.40856900
-32.63208400 56.87807500 -18.66104100
-34.43173600 56.98580900 -14.72164900
-33.66688200 57.20591000 -14.44329800
-32.87232600 56.10382800 -18.78381300
-34.72098200 56.18373900 -14.80477900
-36.07169000 56.20973200 -10.61779800
-35.83239400 57.05017100 -10.60876500
-34.55726200 55.29827900 -14.71566800
-35.81493000 55.33577000 -10.50866700
-36.54063000 55.34072100 -6.20620700
-36.89549600 56.26112400 -6.21789600
-35.42096300 54.48732800 -10.39834600
-36.05773500 54.46331800 -6.15341200
-35.93233100 54.38406400 -2.14999400
-36.20026800 55.21193700 -2.18524200
-35.55303600 53.56587200 -6.11679100
-35.53159700 53.49952700 -2.11422700
-35.76187500 53.77803000 1.72073400
-36.26498000 54.61201500 1.76336700
-35.04803800 52.56799300 -2.10324100
-35.27418900 52.91702300 1.71777300
-35.34414300 53.28720100 5.60299700
-35.88792000 54.23370400 5.72723400
-34.72385000 51.95994600 1.70105000
-34.75379600 52.28187600 5.46554600
-33.98572900 51.93362400 9.13519300
-34.47254600 52.90815700 9.43594400
-33.94810100 50.86056500 5.27346800
-33.30038100 50.63108800 8.83068800
-32.04079100 49.99710100 12.52191200
-32.57083500 51.23632800 12.84512300
-32.34582900 48.83825700 8.51336700
-31.38392300 48.49709300 12.16793800
-30.05865900 48.36268600 15.95541400
-30.63031400 49.95005000 16.30325300
-30.41927000 46.46597300 11.76400800
-29.26282900 46.34921300 15.46627800
-27.56943100 46.51726500 19.04318200
-28.36552800 48.62851700 19.59234600
-28.18914400 43.92437000 14.88174400
-26.60220000 44.17405700 18.35000600
-24.47179000 44.48757900 21.51702900
-25.46352000 46.79521900 22.35696400
-25.41318900 41.68332700 17.55163600
-23.35792200 41.87721300 20.54660000
-21.03628200 41.98159000 23.41415400
-22.17751700 44.62517500 24.56735200
-22.27712600 39.15961500 19.57925400
-19.89252100 39.28209700 22.21939100
-17.39660300 39.30273400 24.84591700
-18.34451700 42.09863300 25.99633800
-19.22075300 36.41471100 21.41293300
-16.63769100 36.49366000 23.83325200
-13.76277500 36.51504500 25.91546600
-14.57776300 39.26208500 27.18643200
-16.12605700 33.94552600 23.05383300
-13.46677000 33.86946100 25.26428200
-10.57747400 33.86163300 27.18963600
-10.88242700 36.36379200 27.97418200
-13.12553800 31.83547200 24.62439000
-10.21001800 31.84185000 26.30770900
-7.12257000 31.81889300 27.69131500
-7.40009700 33.96051000 28.60824600
-9.92613600 29.93266300 25.58291600
-6.90077600 29.92585000 26.91000400
-3.86562700 29.63372800 28.19430500
-3.94522500 31.64344800 28.81762700
-6.97536800 28.04737900 26.87484700
-3.99266400 27.72997300 27.99774200
-0.98686600 27.20108800 28.72341900
-0.84521800 29.17269100 29.10311900
-4.38364000 25.86071000 28.64798000
-1.23785000 25.26895900 29.22149700
1.92590400 24.91282700 29.43518100
2.03257000 26.88983200 29.02951000
-1.43359000 23.36077900 30.40612800
1.89724000 23.04083300 30.62930300
5.19288700 23.06930500 30.48388700
5.05529000 24.85007500 29.28833000
1.92184100 21.14234900 32.24618500
5.39443200 21.20533800 32.10174600
8.65085600 21.43487500 31.44198600
8.32728600 23.21896400 30.04574600
5.64704200 19.03360000 34.09750400
9.16874300 19.01577000 33.50613400
12.50012200 19.02869400 32.42721600
11.73532900 21.39731600 30.39471400
9.83182100 16.45472700 35.93145800
13.44118100 16.37071200 34.75396700
16.83186700 16.41227700 33.15765400
15.67963000 19.12323000 31.03723100
14.33349600 13.37066700 36.73925800
18.02406300 13.51819600 35.09640500
21.42400400 13.80777000 32.84252900
20.06939700 16.72647900 31.24115000
19.32185700 10.52439100 36.83508300
22.83530000 10.80641900 34.22793600
26.25399400 11.33943900 31.48709100
24.63209900 14.20035600 30.25003100
24.36359000 7.69977600 35.33660900
27.74616600 8.20685600 32.20507800
30.97282400 8.90206900 28.69525100
29.32644700 11.83379400 28.16946400
29.27173200 5.02111100 32.62313800
32.58735700 5.95631400 28.74536100
35.71210900 7.14762900 24.07348600
33.77279300 9.71548500 24.21029700
34.30577500 3.05486300 28.59118700
37.37895600 4.43831600 23.56662000
39.72567400 5.79579900 17.63949600
38.15810000 8.45146900 18.46752900
38.74532700 1.53302000 22.79608200
41.17780700 2.96458400 16.95553600
42.42383600 3.87791400 10.90771500
41.11053100 7.09425400 11.32318100
42.23281500 -0.20213300 16.22042800
43.33626600 0.44604500 10.35897800
44.10161600 0.55291000 4.40170300
43.36446000 4.03478200 4.97195400
44.27139300 -3.01722700 9.62255900
45.09755300 -2.88446800 3.74142500
44.82468800 -2.91022500 -2.20346100
43.97614700 0.51547200 -1.58728000
45.97685200 -6.40895100 3.04565400
45.63582200 -6.41981500 -2.86117600
44.95304500 -6.13349900 -8.67968800
44.22421600 -2.65492200 -8.04626500
46.24562500 -9.97870600 -3.44821200
45.19597200 -9.65845100 -9.31375100
43.59559200 -9.16897200 -15.08960000
43.63516200 -5.67923000 -14.65329000
45.23136100 -13.19892900 -9.86706500
43.58055500 -12.74157700 -15.48361200
41.55163200 -12.58872200 -20.86630200
41.45274000 -8.98304000 -20.69955400
43.38406000 -16.37822700 -15.66110200
41.34888800 -16.26940900 -20.84527600
38.72508200 -16.63999900 -25.83517500
38.77181600 -13.02545200 -25.83331300
40.81937800 -19.92085300 -20.65716600
38.25970100 -20.19564800 -25.67221100
34.87147100 -20.64081200 -30.41342200
35.31646300 -17.12669000 -30.62164300
37.34905600 -23.60849000 -25.26025400
34.00486800 -24.04150400 -29.82070900
30.23066300 -24.53095200 -33.79406700
31.00608800 -21.07329600 -34.55825800
32.82130100 -27.30507300 -28.95443700
29.11096200 -27.80616000 -32.76257300
25.21597300 -28.31523100 -36.09524500
26.22291900 -24.97828700 -37.20867900
27.97431200 -30.97647300 -31.57699600
24.09984600 -31.47711200 -34.66748000
19.82935300 -31.77356000 -37.04971300
20.80246000 -28.57687000 -38.52475000
22.86233100 -34.41865500 -32.90713500
18.73999400 -34.70359000 -35.26434300
14.33224100 -34.74359900 -37.10971100
15.30299800 -31.91155100 -38.99350000
17.54827900 -37.32756800 -33.22174100
13.25711400 -37.28124600 -34.97961400
8.81936600 -37.43782400 -36.59838900
9.59612300 -34.77424200 -38.54922500
12.27560000 -39.86116800 -32.95773300
8.03998900 -39.84512300 -34.32736200
3.66381900 -39.82850600 -35.23407000
4.08049000 -37.28522500 -37.42681900
7.41928900 -42.46665200 -32.27328500
3.29468900 -42.38252600 -32.99624600
-0.86662700 -42.24501800 -33.14776600
-0.83492600 -39.70699300 -35.41293300
2.97902300 -44.89714100 -30.71377600
-0.90507900 -44.77230800 -30.86999500
-4.77299100 -44.48642700 -30.41601600
-5.03124600 -41.98638500 -32.69509900
-0.90100500 -47.19302400 -28.50143400
-4.48225000 -46.97145800 -28.12933300
-7.96662500 -46.76760100 -27.36328100
-8.56020000 -44.27211000 -29.60128800
-4.16309700 -49.43344100 -25.88116500
-7.40883200 -49.27539400 -25.21621700
-10.46574800 -49.05925800 -24.02587900
-11.33518600 -46.64214300 -26.26409900
-6.93076700 -51.79373600 -23.35412600
-9.83384300 -51.80450800 -22.43460100
-12.49980500 -51.71472900 -20.99444600
-13.50764100 -49.18453200 -22.86691300
-9.25037000 -54.25492100 -21.01260400
-11.77807200 -54.15489200 -19.65469400
-14.08368300 -54.04266000 -17.95944200
-14.99419000 -51.62928400 -19.27154500
-11.18062200 -56.17808200 -18.60882600
-13.44998600 -56.07334500 -17.06625400
-15.63199200 -56.01321400 -15.34295700
-16.28588500 -53.93020600 -16.11184700
-13.03012400 -57.49354200 -16.48916600
-15.14375700 -57.37669400 -14.79892000
-16.86607700 -57.23454300 -12.70648200
-17.35801300 -55.83147800 -13.14883400
-14.59775900 -58.47003200 -14.15307600
-16.26613200 -58.19176900 -12.17501800
-17.80123500 -58.23455000 -10.04309100
-18.41072500 -57.12191800 -10.45211800
-15.43734400 -58.77142700 -11.44613600
-16.85074200 -58.88565800 -9.40527300
-17.98908600 -59.05202900 -7.16159100
-19.02627900 -58.38404100 -7.68533300
-15.66653100 -58.99972200 -8.59518400
-16.76233300 -59.17086400 -6.55590800
-17.64960100 -59.17746400 -4.33142100
-18.83295800 -59.02015700 -4.79238900
-15.45114500 -59.11943100 -5.81771900
-16.38875200 -59.16928500 -3.84945700
-17.01351500 -59.19611400 -1.73114000
-18.33849000 -59.19475600 -2.07373000
-14.93918200 -58.96858600 -3.23156700
-15.52478400 -58.99549500 -1.34329200
-15.87454600 -59.01202000 0.61444100
-17.30796400 -59.18332300 0.39233400
-17.32454300 -59.19051400 2.55297900
-18.64457300 -59.21245600 2.50689700
-18.66878100 -59.21463400 0.24218800
-15.90586500 -59.11636000 2.58065800
-15.70450200 -59.22321700 4.51950100
-17.07255900 -59.21594200 4.64740000
-13.98943700 -59.08639500 4.37048300
-13.68522300 -59.17388200 6.09191900
-15.29236200 -59.23857500 6.46020500
-11.14377200 -58.89021300 4.00802600
-11.00632100 -58.92564400 5.43426500
-10.60345800 -59.03265000 6.88159200
-13.20745400 -59.07845300 7.82009900
-8.23373000 -58.95371200 5.87558000
-7.61059200 -59.02069500 7.21188400
-9.93816000 -58.99195900 8.29306000
-5.81311400 -58.75352500 6.29418900
-4.32735000 -58.58647200 5.46084600
-3.43566500 -58.59087000 6.89495800
-5.00230000 -58.74463700 7.65396100
-6.80371500 -59.02541700 8.51751700
-4.04253800 -58.72790900 9.03436300
-5.90113400 -58.97242000 9.89041100
-8.00981500 -59.03452700 10.89724700
-9.06265600 -59.05840300 9.60385100
-10.30392100 -58.93995300 12.16925000
-11.48994100 -59.00183900 10.89990200
-12.49735600 -59.08040600 9.45019500
-12.91695800 -59.11374300 11.74249300
-13.94420200 -59.11636400 10.10488900
-14.74798200 -59.20251500 8.33834800
-15.15877200 -59.14811700 10.67114300
-16.00670200 -59.26282100 8.77313200
-16.59219000 -59.24787100 6.73956300
-17.16981100 -59.27035500 9.13360600
-17.78658700 -59.20053100 6.98822000
-18.31048200 -59.24094000 4.77969400
-18.88330500 -59.02505500 7.21267700
-19.43964800 -59.06877500 4.90750100
-19.83301900 -59.06260300 2.49734500
-20.36294900 -58.36797300 4.96652200
-20.83314100 -58.40223700 2.46298200
-20.87624700 -58.35876800 -0.11621100
-19.90514000 -59.07243000 0.03695700
-20.47414800 -58.29174800 -2.66857900
-19.52322800 -58.96796400 -2.39111300
-19.75015600 -58.27765700 -5.15835600
-21.19914600 -57.18173200 -2.91949500
-20.52843900 -57.21266200 -5.49707000
-19.57279600 -57.12213100 -8.00543200
-21.08523900 -55.75116300 -5.76236000
-20.15700900 -55.71415300 -8.37057500
-18.96619000 -55.79295000 -10.86367800
-21.09305200 -53.62845200 -8.94857800
-19.78023900 -53.72613500 -11.51565600
-18.09666100 -53.75346000 -13.86068700
-21.01606400 -51.19480100 -12.48019400
-19.18323100 -51.27494800 -14.91195700
-17.28390100 -51.50358600 -17.26583900
-20.76122700 -48.69667400 -16.41287200
-18.59357800 -48.84395200 -18.82263200
-16.17288600 -49.05218100 -21.00735500
-20.06223700 -46.18692000 -20.54907200
-17.41447100 -46.32272300 -22.77609300
-14.57159800 -46.57682800 -24.82501200
-18.69282200 -43.64565700 -24.66381800
-15.61706200 -43.90616600 -26.79425000
-12.22940400 -44.11839700 -28.45986900
-16.69402700 -41.25227700 -28.78887900
-13.08068500 -41.55856300 -30.62023900
-9.12913900 -41.78462200 -31.87033100
-13.95257200 -39.02463200 -32.78878800
-9.70747800 -39.28566700 -34.10263100
-5.27673700 -39.43862200 -34.90444900
-10.21997500 -36.73856400 -36.28457600
-5.52279300 -36.92331300 -37.13137800
-0.72723000 -37.15161500 -37.59045400
-5.62430900 -34.25642000 -39.18219000
-0.57245200 -34.55192600 -39.72525000
4.57997100 -34.75207500 -39.55307000
-0.31155000 -31.89943900 -41.71969600
5.14528700 -32.07877300 -41.49139400
10.38235500 -32.02940000 -40.43505900
5.71000700 -29.25397900 -43.18832400
11.15754700 -29.15054100 -42.21334800
16.26638800 -28.89289100 -40.67330900
11.87963500 -26.13991200 -43.80435200
17.15594100 -25.76939800 -42.14913900
22.02383800 -25.45265200 -40.09521500
17.79603600 -22.40967900 -43.11578400
22.68951400 -21.92689500 -40.89062500
26.97403000 -21.49325600 -38.04367100
23.14729700 -18.36274000 -41.36526500
27.27108800 -17.90229800 -38.56692500
31.41164800 -17.52184300 -34.94726600
27.27376900 -14.33889000 -39.10730000
31.61233500 -13.98136900 -35.16098000
35.47399900 -13.56807300 -30.63446000
31.54764600 -10.47625000 -35.24310300
35.33860400 -9.99638400 -30.54901100
38.47917600 -9.41423000 -25.74853500
34.88419000 -6.46257800 -30.33819600
38.25548900 -5.84648100 -25.64505000
41.26775700 -5.52623000 -20.42022700
37.77480700 -2.43372300 -25.17852800
40.88937800 -2.17524700 -19.83636500
43.03469500 -2.30665600 -13.99484300
39.98105200 0.95611600 -19.01599100
41.94997800 0.98370400 -13.23791500
43.07823600 0.70882400 -7.45703100
40.72680300 4.26649500 -12.52639800
41.81596000 4.06739800 -6.67932100
43.12598400 3.88298000 -0.94598400
42.53754800 7.58951600 5.37500000
41.30875400 10.62259700 6.50442500
39.75812900 9.97459400 12.06985500
40.12189900 13.28377500 7.90896600
38.35683100 12.33244300 13.38549800
36.21155200 10.84634400 19.10739100
34.30032700 13.22808800 19.53921500
31.94598000 12.32147200 24.12142900
32.36789700 15.62340500 19.64575200
30.08676900 14.90020800 23.61489900
27.46497700 14.47158100 27.09680200
28.06768400 17.37831100 22.72818000
25.65012000 17.11679800 25.88641400
23.01858900 16.94048300 28.76620500
23.86160700 19.67202800 24.50979600
21.32201400 19.46259300 27.00164800
18.65916400 19.39263900 29.30017100
20.00823600 21.60226400 25.48062100
17.44611000 21.62622800 27.52224700
14.68711100 21.46631600 29.14822400
16.65673100 23.39276900 26.23327600
14.05081200 23.31697800 27.83151200
11.25133200 23.27109500 29.08422900
13.60303500 25.12625900 26.86584500
10.92399600 25.06275900 28.04525800
8.05841100 24.95568800 28.80462600
10.85395100 26.98989900 27.68353300
8.01600300 26.87385600 28.47351100
5.03184500 26.80352000 28.79269400
8.18956000 28.75851400 29.08261100
5.17969500 28.76188700 29.42111200
2.16069000 28.83670000 29.57696500
5.32366200 30.65227500 30.36306800
2.21835000 30.80828100 30.41714500
-0.87360700 31.21914700 29.86319000
2.16793500 33.31253100 31.44070400
-1.00610000 33.54929400 30.78579700
-4.17035300 33.84616900 29.74237100
-1.15750500 36.41856400 31.61749300
-4.42416700 36.38324000 30.69528200
-7.71615200 36.34862500 29.50610400
-5.03622000 39.15484600 32.26098600
-8.32585500 39.08780700 30.91986100
-11.57586300 39.11808000 29.28366100
-9.13825600 41.86015300 32.62451200
-12.38189300 41.93218200 30.67974900
-15.47099700 42.07146500 28.43673700
-13.29050800 44.57871200 32.08737200
-16.50844200 44.69288600 29.72757000
-19.48386800 44.71976500 27.25241100
-17.43817500 47.05248300 30.78152500
-20.43291900 47.09017200 28.22491500
-23.08194400 46.95867200 25.43698100
-21.27116000 49.20684100 29.06903100
-23.91254000 48.96524800 26.19656400
-26.26372100 48.72611200 22.95773300
-24.58388900 50.59616900 26.73886100
-26.92244300 50.29647100 23.39578200
-28.96443600 50.16264300 19.95117200
-27.45713400 51.50956000 23.72149700
-29.52586700 51.31158400 20.25061000
-31.15959500 51.09870900 16.58898900
-29.98077800 52.34774800 20.47348000
-31.63006200 52.08718100 16.83978300
-33.03896700 52.20426200 13.17410300
-31.93584800 53.09246800 17.02514600
-33.52393700 53.13198100 13.50247200
-34.95954500 53.85842900 9.72830200
-33.91257100 54.07837700 13.78195200
-35.39909000 54.78942100 9.99002100
-36.36354400 55.13568900 5.82666000
-35.47076000 55.67117300 10.24768100
-36.80431000 56.05057500 5.94857800
-36.72214900 55.43936200 1.78582800
-37.08122600 56.99340800 6.01705900
-37.00555000 56.39262400 1.78991700
-36.29941900 56.00249500 -2.18685900
-36.89851000 57.37080400 1.67324800
-36.22160000 56.79955300 -2.16091900
-36.66260900 57.16082800 -6.19220000
-35.58481200 57.21254000 -2.18164100
-35.82121700 57.54896500 -6.17660500
-35.04168300 57.37506100 -10.43386800
-34.88881300 57.36877400 -6.15106200
-34.19231000 57.18627900 -10.22274800
-32.88757700 56.99399600 -14.15673800
-33.39930300 56.76158900 -10.04440300
-32.14918100 56.57189200 -13.87582400
-30.51205800 56.55896800 -17.56164600
-31.44345500 56.01454200 -13.60012800
-29.85290900 55.98498500 -17.23178100
-27.80219700 56.08471700 -20.67150900
-29.22070700 55.34800000 -16.92065400
-27.15416300 55.51747100 -20.26574700
-24.66999400 55.60628500 -23.35488900
-26.54565000 54.83272600 -19.88357500
-24.12128800 54.88024100 -22.91055300
-21.23878900 54.96173100 -25.55749500
-23.55697300 54.05057500 -22.45846600
-20.76872600 54.07426500 -25.10571300
-17.61178200 54.11120600 -27.29791300
-20.18579500 53.07618700 -24.53326400
-17.10236000 53.04462400 -26.63803100
-13.82903700 52.95243800 -28.34039300
-16.40252300 51.44397700 -25.70834400
-13.30582800 51.40971400 -27.35504200
-10.09652300 51.39872000 -28.51596100
-12.55456200 49.19363400 -25.95004300
-9.58352300 49.19132200 -27.23281900
-6.45332700 49.12303200 -28.11343400
-8.96973800 46.32897900 -25.83895900
-5.97614700 46.34354400 -26.79296900
-2.86417800 46.36555500 -27.47268700
-5.53017000 43.25496700 -25.52002000
-2.61326200 43.22438000 -26.28521700
0.40919100 43.19357300 -26.69982900
-2.34840000 39.93247200 -25.13430800
0.49049400 39.89147900 -25.55810500
3.36259500 39.83783700 -25.62402300
0.55923500 36.48101800 -24.61358600
3.29747000 36.43751500 -24.72750900
6.03675900 36.42487300 -24.46279900
3.26186400 33.04944600 -23.82043500
5.90293900 33.04116800 -23.59347500
8.49861900 33.05727400 -23.05502300
5.72594900 29.70769500 -22.63360600
8.22428000 29.72695200 -22.14328000
10.71837200 29.73740400 -21.50824000
7.99681100 26.42116500 -21.48941000
10.41527600 26.42095200 -20.89013700
12.77046600 26.46269200 -20.04852300
10.15009700 23.69400000 -20.40109300
12.45478400 23.69003300 -19.54992700
14.64056000 23.70195800 -18.47314500
12.23114800 21.75139600 -19.26864600
14.43204900 21.65313700 -18.21643100
16.44951200 21.90062700 -16.87756300
14.22474300 20.25038900 -18.06439200
16.33929800 20.46485900 -16.69397000
18.20514300 20.79457900 -15.17157000
16.62325300 19.19162800 -17.14068600
18.56660100 19.58858500 -15.52432300
20.08708600 19.90583800 -13.44540400
19.14532900 18.05592300 -16.15664700
20.86788900 18.57199900 -14.02944900
22.36054600 19.25288400 -11.76248200
21.90320200 16.55437500 -14.92654400
23.51633100 17.13283500 -12.53237900
24.75808300 17.38010400 -9.94619800
24.79592100 14.68592800 -13.39697300
26.11426500 14.92878000 -10.63632200
26.90530000 14.85129500 -7.70864900
27.57696500 12.37935600 -11.37085000
28.46194800 12.30144500 -8.23065200
29.00750400 12.12475600 -5.09558100
30.13180500 9.60007500 -8.78167700
30.70321300 9.35735300 -5.44000200
31.15909200 9.20031000 -2.17581200
32.41950600 6.53521000 -5.76815800
