-113.93061100 -24.34640500 48.77066000
-109.05213200 -25.45997600 59.55520200
-102.90235900 -25.76785300 69.73249100
-79.11829400 -26.04415900 96.29811900
-69.59963200 -26.26814300 103.95803100
-87.72135200 -26.10318000 88.11339600
25.76273000 -27.06117200 123.90373200
36.97640200 -26.33807400 120.93169400
48.25693500 -26.19973800 116.70418500
59.57808700 -26.13476600 111.43110700
69.65749400 -26.48223900 105.32748400
-24.85551600 -27.38812300 123.99987800
-10.69424200 -28.20932000 126.15423600
79.30489300 -26.65171800 98.12616000
108.73355100 -22.22351100 62.31037100
113.86676800 -21.17047100 52.01959200
117.86886600 -20.36920200 41.76189400
120.93492100 -19.99676500 31.86841400
123.22434200 -20.19622800 21.47002000
124.74764300 -20.96292100 10.43246800
125.13396500 -22.43428000 -1.66300500
124.27219400 -25.10032700 -13.90315100
122.02131700 -28.43394500 -27.14235300
97.63686400 -26.42315700 -74.30180400
90.15089400 -26.46588100 -82.67147800
-120.59506200 -24.88183600 -22.91677500
-122.30806000 -23.45518500 -12.31139100
-123.23917400 -23.87205500 0.36182200
-122.76577800 -24.15762300 12.66875600
-121.02126300 -23.98242200 25.09419100
-118.03020500 -23.32724000 37.24535400
-95.61969800 -25.99589500 79.23599200
-58.15859200 -24.60560600 111.24512500
-47.61254100 -24.38708500 116.36106100
-36.55753300 -25.77557400 120.55468000
4.96847900 -96.08165700 -66.89247100
-2.34915200 -97.06236300 -67.09476500
-9.41252300 -99.07646900 -66.83523600
-36.53041800 -96.25179300 -56.14236800
-40.97345000 -96.52394100 -53.21335200
-31.28475800 -97.57324200 -59.36526900
-20.39135600 -100.00459300 -64.55537400
67.72486900 -95.43663800 -19.26314000
65.61949900 -96.56214100 -25.01107400
62.66989500 -95.34618400 -30.33872800
59.42950100 -94.54125200 -35.71284500
55.05773200 -93.78994800 46.50145700
58.79288100 -92.98801400 41.47217600
50.30761700 -94.46424900 51.89791900
8.67434700 -95.25577500 72.42608600
2.80084200 -95.18168600 72.50688900
11.61093900 -94.84517700 -66.19889800
-45.03775800 -96.61635600 -49.99511300
-25.32317900 -98.09172100 -62.19850200
25.34598200 -94.69153600 -62.62236400
19.16490200 -95.27147700 -64.47628800
31.13805400 -94.83426700 -60.22321700
36.55933800 -94.67009000 -57.25846900
41.65225600 -94.53347800 -53.87684200
46.65671500 -94.49205000 -49.93838500
-64.05294000 -95.56395000 -24.24902500
-66.36241100 -95.02932000 -17.73231100
-60.93481800 -95.54550200 -30.58234000
-54.60534300 -96.31928300 -40.06920600
-58.01052900 -96.03031200 -35.54288500
-49.81484200 -96.43916300 -45.53834200
-63.98680900 -93.32598900 28.74384900
-61.22929000 -93.95541400 34.83976000
-57.75314300 -94.12944000 40.59241100
-44.30933400 -94.28565200 55.60849400
-38.92895100 -94.41224700 59.93822900
-49.17216100 -94.31898500 50.98212800
14.97413700 -94.86047400 71.21243300
21.31261100 -94.45178200 69.53250100
27.68887700 -94.37356600 67.14294400
34.08809700 -94.33680700 64.16234600
39.78543500 -94.53327200 60.71230300
-13.63757000 -95.04527300 71.26680000
-5.63298200 -95.50947600 72.48452000
45.23857500 -94.62902100 56.64180000
61.87297100 -92.12601500 36.39709500
64.77449000 -91.53082300 30.58028800
67.03668200 -91.07790400 24.78217300
68.76974500 -90.86734000 19.18993800
70.06382800 -90.98010300 13.31229500
70.92485800 -91.41350600 7.07337500
71.14323400 -92.24514800 0.23646900
70.65611300 -93.75213600 -6.68221000
69.38383500 -95.63646700 -14.16560200
55.60062800 -94.49985500 -40.82224700
51.36923200 -94.52401000 -45.55315800
-67.75387600 -93.62862400 -11.77711900
-68.72214500 -92.82220500 -5.78247700
-69.24844400 -93.05784600 1.38099200
-68.98085000 -93.21928400 8.33742400
-67.99478100 -93.12021600 15.36083800
-66.30409200 -92.74990800 22.22922500
-53.63668100 -94.25835400 45.96421100
-32.46196000 -93.47251100 64.05722000
-26.50086000 -93.34897600 66.94897500
-20.25207700 -94.13382700 69.31939700
3.91021400 -135.34056500 -48.57558800
-1.48156900 -136.06316800 -48.72464800
-6.68600800 -137.54722200 -48.53341700
-26.66703800 -135.46593900 -40.65468600
-29.94075400 -135.66646200 -38.49652900
-22.80192900 -136.43960200 -43.02938800
-14.77544300 -138.23106000 -46.85356500
50.15042900 -134.86530700 -13.48130500
48.59915200 -135.69459200 -17.71650300
46.42581900 -134.79866400 -21.64202900
44.03822700 -134.20555500 -25.60179100
40.81702400 -133.65200400 34.97542600
43.56916000 -133.06113100 31.26974100
37.31703900 -134.14882300 38.95164500
6.64077500 -134.73203700 54.07723200
2.31305300 -134.67746400 54.13677200
8.80451700 -134.42952300 -48.06455200
-32.93542500 -135.73456200 -36.12525900
-18.40931100 -136.82163600 -45.11697800
18.92478200 -134.31628800 -45.42928700
14.37043400 -134.74361000 -46.79529600
23.19250100 -134.42147400 -43.66154100
27.18701700 -134.30049500 -41.47705500
30.93958900 -134.19984100 -38.98540500
34.62697600 -134.16932300 -36.08346200
-46.94620500 -134.95911000 -17.15500800
-48.64787700 -134.56520500 -12.35335600
-44.64870800 -134.94551500 -21.82152900
-39.98502300 -135.51564400 -28.81164900
-42.49403400 -135.30275300 -25.47655900
-36.45528000 -135.60399200 -32.84142300
-46.89748000 -133.31013900 21.89124700
-44.86568500 -133.77392200 26.38284100
-42.30439000 -133.90212600 30.62151300
-32.39870800 -134.01724600 41.68567700
-28.43433000 -134.11053100 44.87591900
-35.98173500 -134.04179000 38.27687100
11.28259100 -134.44078400 53.18298300
15.95291100 -134.13964500 51.94517500
20.65107700 -134.08201200 50.18450200
25.36615400 -134.05492800 47.98833500
29.56407500 -134.19968800 45.44627000
-9.79911100 -134.57693900 53.22304500
-3.90116400 -134.91896400 54.12028500
33.58206200 -134.27024500 42.44703700
45.83863100 -132.42598300 27.53031900
47.97653200 -131.98742300 23.24437300
49.64335600 -131.65372100 18.97220000
50.92031100 -131.49856900 14.85172500
51.87382500 -131.58165400 10.52095600
52.50824700 -131.90097400 5.92398900
52.66915100 -132.51376000 0.88641400
52.31022600 -133.62413400 -4.21141200
51.37278700 -135.01256200 -9.72533200
41.21703300 -134.17507600 -29.36650700
38.09925800 -134.19286000 -32.85234100
-49.67313400 -133.53311500 -7.96544800
-50.38657800 -132.93893100 -3.54847100
-50.77436100 -133.11256800 1.72972300
-50.57719000 -133.23151000 6.85536700
-49.85063900 -133.15852700 12.03036500
-48.60490400 -132.88567700 17.09113500
-39.27129400 -133.99714300 34.57956700
-23.66931500 -133.41811800 47.91087300
-19.27705000 -133.32706800 50.04158000
-14.67281700 -133.90537600 51.78815500
2.20877800 -145.65352200 -19.12645100
-0.08670600 -145.96116300 -19.18991300
-2.30243000 -146.59297600 -19.10849800
-10.80910000 -145.70689400 -15.75422100
-12.20284300 -145.79226700 -14.83542100
-9.16357600 -146.12142200 -16.76522400
-5.74640500 -146.88411100 -18.39332400
21.89496000 -145.45118500 -4.18550500
21.23452900 -145.80424500 -5.98858500
20.30925900 -145.42281300 -7.65982500
19.29277200 -145.17030700 -9.34564800
17.92138700 -144.93463900 16.44433600
19.09307500 -144.68307900 14.86668400
16.43130500 -145.14615200 18.13715900
3.37127900 -145.39444400 24.57668900
1.52880700 -145.37121200 24.60203700
4.29246500 -145.26565900 -18.90887800
-13.47778700 -145.82125900 -13.82587400
-7.29347600 -146.28406500 -17.65398800
8.60104100 -145.21744900 -17.78694700
6.66208400 -145.39937800 -18.36850900
10.41796500 -145.26223200 -17.03435900
12.11857800 -145.21072400 -16.10434000
13.71619400 -145.16787000 -15.04355200
15.28604900 -145.15488100 -13.80808300
-19.44269900 -145.49112300 -5.74953800
-20.16715600 -145.32342100 -3.70529500
-18.46456700 -145.48533200 -7.73624700
-16.47906500 -145.72805800 -10.71220400
-17.54724700 -145.63742600 -9.29233000
-14.97631800 -145.76567300 -12.42782800
-19.42195700 -144.78908900 10.87391100
-18.55694400 -144.98654600 12.78615100
-17.46650500 -145.04112600 14.59071400
-13.24928700 -145.09013600 19.30114000
-11.56150200 -145.12985200 20.65934900
-14.77471200 -145.10058800 17.84988600
5.34747400 -145.27044900 24.19596700
7.33580200 -145.14224600 23.66898900
9.33599000 -145.11770600 22.91940700
11.34337100 -145.10617800 21.98441700
13.13058300 -145.16780900 20.90216400
-3.62779200 -145.32841700 24.21303000
-1.11681700 -145.47403100 24.59501800
14.84118800 -145.19784900 19.62527500
20.05927100 -144.41267400 13.27467600
20.96945400 -144.22596400 11.44998900
21.67908300 -144.08389500 9.63116600
22.22272500 -144.01784100 7.87692500
22.62867400 -144.05321500 6.03315400
22.89877700 -144.18915900 4.07605400
22.96727800 -144.45004500 1.93137000
22.81447000 -144.92277100 -0.23896500
22.41536300 -145.51387800 -2.58644600
18.09168800 -145.15733000 -10.94842700
16.76433400 -145.16490200 -12.43247400
-20.60364900 -144.88402200 -1.83719600
-20.90739300 -144.63105800 0.04327400
-21.07248700 -144.70497500 2.29039800
-20.98854400 -144.75561900 4.47257600
-20.67922000 -144.72454800 6.67576600
-20.14887200 -144.60838300 8.83032400
-16.17520000 -145.08157700 16.27580100
-9.53285800 -144.83506600 21.95143300
-7.66290300 -144.79630300 22.85855900
-5.70271200 -145.04251100 23.60214600
4.58788500 139.55059800 -66.01644900
-2.03713000 138.23135400 -66.19958500
-8.43195000 135.52203400 -65.96460000
-32.98312400 139.32174700 -56.28384400
-37.00561900 138.95565800 -53.63205000
-28.23397100 137.54425000 -59.20166000
-18.37163000 134.27368200 -63.90054300
61.40435800 140.41827400 -22.89523300
59.49826800 138.90423600 -28.09912100
56.82784300 140.53991700 -32.92251600
53.89414200 141.62271100 -37.78796400
49.93616500 142.63336200 36.64471400
53.31778700 143.71197500 32.09146100
45.63565800 141.72625700 41.53039600
2.62541400 140.76116900 60.18872100
7.94299300 140.66153000 60.11554000
10.60163100 141.21386700 -65.38848900
-40.68523400 138.83129900 -50.71841400
-22.83665800 136.84674100 -61.76675400
23.03664400 141.42050200 -62.15048200
17.44060900 140.64044200 -63.82894900
28.28049500 141.22851600 -59.97842400
33.18866000 141.44934100 -57.29428100
37.79953400 141.63305700 -54.23272700
42.33031500 141.68884300 -50.66705300
-57.90062300 140.24700900 -27.40921000
-59.99149300 140.96615600 -21.50930800
-55.07762500 140.27185100 -33.14306600
-49.34724400 139.23089600 -41.73199500
-52.43013800 139.61956800 -37.63409400
-45.01017000 139.06970200 -46.68347200
-57.84078200 143.25735500 20.56787100
-55.34423100 142.41061400 26.08679200
-52.19712100 142.17660500 31.29495200
-40.02576400 141.96649200 44.88977100
-35.15464000 141.79626500 48.80969200
-44.42832900 141.92160000 40.70129400
13.64650000 141.19323700 59.01678500
19.38503600 141.74304200 57.49585000
25.15778400 141.84823600 55.33245800
30.95131700 141.89764400 52.63397200
36.10939800 141.63342300 49.51049800
-12.25709600 140.94467200 59.06597900
-5.01014500 140.32019000 60.16845700
41.04640600 141.50454700 45.82525600
56.10633900 144.87152100 27.49673500
58.73323100 145.67218000 22.23049900
60.78128800 146.28149400 16.98117100
62.35032700 146.56463600 11.91824300
63.52191900 146.41299400 6.59692400
64.30146800 145.83004800 0.94851700
64.49915300 144.71124300 -5.24127200
64.05815900 142.68414300 -11.50509600
62.90628800 140.14947500 -18.28018200
50.42768900 141.67840600 -42.41375700
46.59677900 141.64581300 -46.69689900
-61.25126300 142.85028100 -16.11776700
-62.12786900 143.93508900 -10.69052100
-62.60435900 143.61804200 -4.20507800
-62.36209900 143.40094000 2.09292600
-61.46937200 143.53411900 8.45156900
-59.93870900 144.03234900 14.66986100
-48.47027600 142.00320400 36.15832500
-29.29975500 143.06036400 52.53881800
-23.90287800 143.22644000 55.15686000
-18.24554100 142.17071500 57.30291700
-8.80154700 141.89254800 -65.06564300
35.28874600 -167.20619200 -25.21398900
-50.89913600 -167.78247000 8.81674200
-10.96272900 -165.42074500 5.50054900
12.79377700 -165.21325600 37.52990700
-2.27548800 143.59417700 -65.81695600
-16.20639800 140.37719700 -63.55078100
36.13109600 -167.08961500 -21.76040600
30.67919900 -166.70848000 -21.33654800
32.08042100 -167.11708000 -26.76171900
-50.49276700 -167.73590000 5.73117100
-46.28952800 -167.52185000 8.75021400
-50.00537100 -167.74879400 11.69894400
-11.75251400 -165.49909900 3.87362700
-9.62498900 -165.39022900 2.97399900
-9.41748200 -165.35272200 5.49237100
-11.88791100 -165.50247100 6.86456300
-13.53502800 -165.55685400 5.10513300
-9.96523800 -165.45217800 7.73492400
9.95012300 -165.18054200 37.58453400
10.22036000 -164.95193500 32.76001000
14.15577700 -165.08129900 34.80969200
-21.42962800 142.95471200 -61.76260400
-12.22318300 148.20752000 58.73443600
-5.56757000 147.14270000 59.70190400
1.08471700 147.02185100 59.91650400
-6.07586100 153.18670700 59.31884800
0.17132400 153.15008500 59.53418000
6.27412000 153.24810800 59.18908700
7.02265200 147.34079000 59.54797400
12.29536400 153.49188200 58.39416500
12.76606800 148.40216100 58.60217300
18.24031800 153.69235200 56.95782500
18.67169600 148.62878400 57.19122300
24.03921900 153.88571200 54.98498500
24.49712800 148.72561600 55.22412100
29.63205300 153.97766100 52.42504900
30.12350800 148.73919700 52.56561300
34.88570400 154.02557400 49.24176000
35.40225600 148.77508500 49.37316900
39.86307500 154.13031000 45.66748000
40.32620200 148.77911400 45.68957500
44.87737300 148.96728500 41.58636500
44.41081200 154.38977100 41.63098100
48.53598800 154.52542100 37.23547400
48.95455900 149.43869000 37.15399200
52.21780400 154.79327400 32.59896900
52.57959700 150.00427200 32.51574700
55.40339700 155.22067300 27.70074500
55.66316200 150.54138200 27.60028100
58.53006700 150.90942400 22.53897100
60.49301100 151.24041700 17.18548600
62.11329700 151.31176800 11.82208300
63.30423700 151.09198000 6.33148200
64.09598500 150.78692600 0.51736500
64.28661300 150.27832000 -5.54614300
63.88927500 149.61022900 -11.58486900
64.09981500 154.98214700 -5.70385700
63.60491200 154.61367800 -11.63134800
62.55452000 154.21701000 -17.34564200
62.83934800 148.88269000 -17.33172600
61.10131100 153.87521400 -22.85867300
61.32620200 147.57861300 -22.85806300
59.07695800 153.68762200 -28.15741000
59.19563300 146.83734100 -28.04620400
56.56917600 153.63140900 -33.27002000
56.70182800 147.30841100 -33.11541700
53.50531000 153.55334500 -38.14495800
53.72078700 148.21206700 -38.04840100
49.95283500 153.50384500 -42.76351900
50.19126900 148.23028600 -42.66741900
46.24296600 148.34887700 -47.01132200
41.94803600 148.32247900 -51.01101700
46.04930100 153.53064000 -47.15631100
41.66447400 153.45065300 -51.07763700
36.97497200 153.25311300 -54.59774800
37.27535600 148.22894300 -54.53286700
31.96286400 153.10525500 -57.59249900
32.42207700 148.01031500 -57.62600700
26.73535500 153.00607300 -60.12933300
27.31156900 147.94827300 -60.21008300
21.30637400 152.80224600 -62.28109700
21.90347300 147.92938200 -62.27688600
15.58367200 152.39794900 -63.93078600
16.12842200 147.79007000 -64.05319200
9.61763800 151.87286400 -65.06826800
9.96733900 147.11233500 -65.24542200
3.60228300 151.24548300 -65.59512300
3.99009500 145.34942600 -65.79699700
-2.43725800 149.67651400 -65.60150100
3.42117500 155.72747800 -65.27606200
-2.51747700 155.22103900 -65.32968100
-8.48492300 154.87048300 -64.78094500
-8.62995100 148.71157800 -65.04269400
-14.35408700 154.76492300 -63.73043800
-14.85989700 148.48870800 -63.83120700
-20.00876800 154.88302600 -62.01611300
-20.30533400 149.70263700 -62.14154100
-25.50155300 155.18347200 -59.80020100
-25.77762800 150.41302500 -59.79489100
-26.87341300 144.51470900 -59.43023700
-30.75688400 155.22204600 -57.07543900
-31.08615500 150.73297100 -57.06384300
-31.75898000 145.20575000 -56.68252600
-35.89175800 150.67877200 -53.95535300
-36.25548200 145.24093600 -53.78466800
-40.33770000 150.59613000 -50.44680800
-40.48003400 145.07693500 -50.46148700
-44.50084300 150.68420400 -46.51825000
-44.66718300 144.98956300 -46.54299900
-48.33424800 150.76678500 -42.18679800
-48.55125400 145.15112300 -42.17901600
-51.84103400 150.95983900 -37.61944600
-51.92454900 145.56237800 -37.61322000
-54.86125200 151.33343500 -32.68414300
-54.91162100 146.10958900 -32.82876600
-57.45739400 151.99591100 -27.40469400
-57.54698600 146.86383100 -27.54052700
-59.50241100 152.70382700 -21.84655800
-59.63927800 147.76153600 -21.93588300
-61.05778500 153.38409400 -16.13476600
-61.09601600 148.56256100 -16.25827000
-62.12636900 149.19860800 -10.41592400
-62.51632300 149.54534900 -4.22714200
-62.26113100 149.61657700 2.10009800
-61.40862700 149.46621700 8.40466300
-59.97371300 148.99014300 14.58840900
-57.92214600 148.56390400 20.51730300
-59.87575500 153.01278700 14.52447500
-57.85645300 152.69928000 20.45443700
-55.21639600 152.70837400 26.06637600
-55.33964200 148.32360800 26.13003500
-52.01339700 152.83895900 31.34454300
-52.17151600 148.13366700 31.40045200
-48.27932700 152.93057300 36.22784400
-48.43714900 148.05401600 36.28271500
-44.38158800 148.15313700 40.89093000
-44.21414600 153.12381000 40.82275400
-39.71660600 153.28845200 45.02771000
-39.86539800 148.38354500 45.11499000
-34.76391200 153.29812600 48.81701700
-34.78539300 148.51037600 48.90142800
-29.47847000 153.24353000 52.09582500
-29.45996300 148.67495700 52.35809300
-23.99761000 153.14541600 54.81469700
-23.96047400 148.65457200 55.04394500
-18.28376200 148.59436000 57.17187500
-18.29227800 153.16684000 56.94665500
-12.28244800 153.18310500 58.42956500
-18.34710100 157.44604500 56.72229000
-12.37459400 157.60464500 58.19885300
-6.22815600 157.60192900 59.02587900
-12.41048200 160.74011200 57.88311800
-6.31478700 160.89965800 58.65838600
-0.20196900 160.96398900 58.92254600
-0.07519900 157.65322900 59.21502700
5.80609700 161.05035400 58.64508100
5.98350700 157.80377200 58.98535200
11.78747600 161.25000000 57.81158400
11.98872400 158.01528900 58.16259800
17.72410600 161.43786600 56.42321800
17.91954400 158.24444600 56.72802700
23.49858500 161.55175800 54.49902300
23.71673600 158.38543700 54.77404800
29.01393900 161.50610400 51.97082500
29.26489300 158.42297400 52.21484400
34.23554200 161.41381800 48.87670900
34.49113500 158.38983200 49.06091300
39.28225700 161.41000400 45.48138400
39.51280200 158.37384000 45.57946800
43.82912400 161.40603600 41.47540300
44.02829000 158.52227800 41.53295900
47.91014100 161.60272200 37.11077900
48.10764300 158.72442600 37.14325000
51.59715300 161.81835900 32.49591100
51.86580700 158.98629800 32.58117700
54.78086100 161.93490600 27.58532700
55.02668800 159.22808800 27.64813200
57.46362300 162.09832800 22.44778400
57.71286800 159.34396400 22.50006100
58.11731700 155.47387700 22.55999800
59.82334900 159.39154100 17.13787800
60.21681200 155.59857200 17.21072400
61.47576900 159.24963400 11.63110400
61.81493400 155.56951900 11.73797600
62.77039300 159.19253500 5.98150600
63.09933500 155.38293500 6.13305700
63.56971700 159.05746500 0.15045200
63.88343800 155.21463000 0.29647800
63.74819200 158.77569600 -5.78945900
63.39796400 161.81427000 0.07714800
63.44315300 161.66418500 -5.83233600
63.03199000 161.56207300 -11.64358500
63.21994800 158.72598300 -11.63656600
62.07024400 161.29632600 -17.27813700
62.27795400 158.37423700 -17.31228600
60.58443500 161.09906000 -22.75714100
60.75222000 158.24157700 -22.79409800
58.52825900 161.02862500 -28.04653900
58.74059300 158.08044400 -28.09640500
56.02546700 160.88598600 -33.13104200
56.25420400 158.00567600 -33.20983900
53.03086100 160.81121800 -38.01394700
53.17090600 157.83697500 -38.05200200
49.57378400 160.70742800 -42.64221200
49.71408100 157.70294200 -42.71029700
45.62043800 160.54821800 -46.91070600
45.73484800 157.59277300 -46.98370400
41.28273400 160.42431600 -50.80661000
41.41857900 157.60345500 -50.95123300
36.51233300 160.36627200 -54.21460000
36.69869200 157.35607900 -54.43069500
31.47608600 160.17190600 -57.21267700
31.66109500 157.17718500 -57.40618900
26.16617200 160.01684600 -59.72226000
26.38699300 157.06396500 -59.95599400
20.70122900 159.84149200 -61.74914600
20.93916700 156.71356200 -62.01995800
15.07385300 159.41510000 -63.36676000
15.24515900 156.39282200 -63.55603000
9.21743600 159.17456100 -64.35946700
9.37496800 156.04138200 -64.72637900
3.32989900 158.97991900 -65.02038600
9.13899800 161.75280800 -64.29156500
3.27237700 161.57409700 -64.87948600
-2.60324500 161.38116500 -65.01303100
-2.56354100 158.70532200 -65.08371000
-8.45450200 161.22424300 -64.58548000
-8.44832200 158.49255400 -64.62249800
-14.23531500 161.20681800 -63.46975700
-14.24236600 158.44543500 -63.47863800
-19.84375800 161.30261200 -61.75762900
-19.86835500 158.63391100 -61.81756600
-25.27521700 161.44546500 -59.58578500
-25.31743200 158.77362100 -59.60391200
-30.49082600 161.41113300 -56.88391100
-30.56207300 158.62567100 -56.93051100
-35.38936200 161.39727800 -53.71139500
-35.43598600 158.76306200 -53.76141400
-35.63189300 155.24682600 -53.91848800
-40.00978900 158.82635500 -50.20358300
-40.16428400 155.25988800 -50.36679100
-44.23956300 158.95465100 -46.24832200
-44.38122900 155.25048800 -46.42248500
-48.15143600 158.75903300 -41.95639000
-48.25423800 155.38046300 -42.11941500
-51.67462900 158.80578600 -37.29898100
-51.72989700 155.55633500 -37.46966600
-54.75017500 159.28826900 -32.31570400
-54.79056500 155.88488800 -32.50119000
-57.38231700 159.53845200 -27.03067000
-57.35635400 156.45611600 -27.19674700
-59.51868800 159.96575900 -21.53121900
-59.42953900 157.00274700 -21.66436800
-61.15804300 160.24996900 -15.82415800
-61.04876700 157.45819100 -15.96380600
-62.07489800 160.35388200 -9.90185500
-61.99710800 157.70748900 -10.04611200
-62.07612600 153.85668900 -10.23928800
-62.36162200 157.82366900 -3.95556600
-62.43682500 153.98208600 -4.10241700
-62.03186400 157.65676900 2.23013300
-62.16926200 153.95935100 2.14746100
-61.27462400 157.19897500 8.41171300
-61.27503600 153.61770600 8.38150000
-59.80682800 156.62164300 14.49218800
-61.27005800 159.98904400 8.44866900
-59.85754000 159.67514000 14.51306200
-57.80238000 159.51525900 20.40258800
-57.85112000 156.49639900 20.43045000
-55.20853000 159.56250000 26.06015000
-55.22245400 156.50744600 26.06991600
-51.99774200 159.74832200 31.36444100
-51.97937000 156.81439200 31.34558100
-48.25198400 160.11554000 36.23986800
-48.24357200 157.07037400 36.22747800
-44.27334600 160.28094500 40.87103300
-44.23008700 157.10150100 40.84338400
-39.77678700 160.22833300 45.00634800
-39.73281900 157.07608000 45.01123000
-34.86249500 160.35467500 48.70459000
-34.77874800 157.37493900 48.72131300
-29.63473900 160.45306400 51.86871300
-29.56408300 157.34191900 51.95697000
-24.13283200 160.48468000 54.41589400
-24.04761900 157.24801600 54.56433100
-18.38721700 160.62200900 56.47235100
-24.23522200 162.93914800 54.34606900
-18.44743900 163.15734900 56.34362800
-12.47003700 163.26229900 57.76269500
-18.53941700 165.45434600 56.31469700
-12.53607500 165.66070600 57.69946300
-6.44842700 165.81951900 58.56640600
-6.37951900 163.41009500 58.57897900
-0.35307300 165.87573200 58.81829800
-0.27760100 163.52038600 58.92828400
5.64598100 165.89856000 58.55236800
5.71960100 163.55023200 58.60083000
11.63223300 166.08209200 57.68103000
11.71811700 163.74694800 57.80487100
17.59705000 166.25067100 56.26532000
17.68228100 163.92303500 56.43463100
23.35220000 166.34204100 54.28778100
23.45407500 164.00717200 54.47222900
28.81646000 166.33175700 51.80444300
28.94155900 163.98712200 51.95196500
34.01812700 166.34307900 48.79229700
34.13879000 163.93231200 48.85882600
39.02814100 166.36163300 45.38665800
39.18251400 163.94421400 45.47473100
43.53940600 166.40036000 41.38586400
43.70198800 164.00036600 41.46081500
47.69842500 166.49176000 37.10266100
47.87149000 164.09109500 37.17004400
51.36367000 166.61428800 32.46051000
51.52827500 164.26532000 32.51693700
54.57307400 166.74362200 27.56311000
54.68941500 164.40515100 27.58874500
57.12335200 166.89715600 22.36584500
57.30867800 164.56280500 22.41876200
59.28410300 166.95367400 17.01998900
59.47818800 164.58679200 17.06768800
59.59673300 162.08227500 17.08749400
61.16712200 164.53982500 11.52999900
61.28879500 162.05972300 11.56948900
62.45632200 164.52670300 5.84060700
62.54965200 162.05670200 5.89309700
63.24781000 164.41235400 0.02078200
62.22548700 166.93917800 5.77090500
62.96575200 166.86627200 -0.03585800
62.99684900 166.75048800 -5.90707400
63.20782500 164.24792500 -5.86505100
62.65037500 166.64386000 -11.64703400
62.87634300 164.16748000 -11.64926100
61.62733500 166.52551300 -17.19870000
61.86660000 164.01989700 -17.23840300
60.12760900 166.38659700 -22.64645400
60.40652500 163.85229500 -22.71762100
58.08887500 166.23193400 -27.92294300
58.32611800 163.72552500 -27.99273700
55.66555800 166.08355700 -33.00555400
55.85784900 163.57693500 -33.07943700
52.77494800 165.92077600 -37.89300500
52.92016600 163.46441700 -37.96862800
49.27684800 165.82440200 -42.45101900
49.47117600 163.35681200 -42.58526600
45.32708000 165.64129600 -46.62310800
45.55268100 163.17376700 -46.85275300
41.05294800 165.43234300 -50.46136500
41.17991600 162.98162800 -50.65756200
36.34599700 165.25030500 -53.89028900
36.46050300 162.86059600 -54.10775800
31.28004800 165.02215600 -56.89584400
31.40341900 162.63861100 -57.11200000
25.90647900 164.75155600 -59.35418700
26.05844100 162.46496600 -59.61080900
20.47997700 164.46539300 -61.41626000
20.59043100 162.19201700 -61.60223400
14.84563400 164.24157700 -63.00836200
14.95850400 161.93914800 -63.19433600
9.04644000 164.06634500 -64.08386200
14.74773800 166.42434700 -62.85348500
8.95963700 166.24096700 -63.96072400
3.14399700 166.06207300 -64.60690300
3.21213700 163.92224100 -64.74035600
-2.67700600 165.94158900 -64.77356000
-2.63507500 163.73382600 -64.92102100
-8.46699000 165.90951500 -64.35263100
-8.46094400 163.66564900 -64.48043800
-14.18712600 166.02645900 -63.20111100
-14.21523300 163.72558600 -63.36273200
-19.74717100 166.17816200 -61.48806800
-19.82934800 163.85321000 -61.71014400
-25.13034100 166.23645000 -59.30923500
-25.21345700 163.92517100 -59.47900400
-30.30172000 166.25885000 -56.59957900
-30.40573100 163.93701200 -56.76617400
-35.28432500 166.31503300 -53.52346800
-35.34096500 163.93557700 -53.63299600
-39.92850900 166.42379800 -49.94638100
-39.98823900 164.02337600 -50.07620200
-40.01426700 161.45629900 -50.16589400
-44.23672100 164.13793900 -46.10601800
-44.27470400 161.62072800 -46.21664400
-48.23357400 164.18780500 -41.82452400
-48.15733000 161.56964100 -41.86200000
-51.76725000 164.27142300 -37.11322000
-51.71107500 161.63659700 -37.19781500
-54.85202000 164.46020500 -32.07089200
-54.83524700 161.92364500 -32.20950300
-57.51271800 164.61975100 -26.74874900
-57.48295200 162.19064300 -26.90026900
-59.64299400 164.83944700 -21.25204500
-59.59175100 162.49664300 -21.39212000
-61.22461700 164.97192400 -15.53179900
-61.24358000 162.69201700 -15.68713400
-62.16239200 165.03241000 -9.62356600
-62.11589100 162.75030500 -9.75686600
-62.42168800 165.01568600 -3.60305800
-62.41665600 162.75116000 -3.71002200
-62.37311900 160.37646500 -3.82959000
-62.14766700 162.60644500 2.39538600
-62.15415200 160.25445600 2.31787100
-61.27294900 162.41748000 8.48794600
-62.15974400 164.89349400 2.46850600
-61.31815700 164.77740500 8.53085300
-59.85937500 164.63269000 14.53707900
-59.87590400 162.17443800 14.52941900
-57.81582600 164.55596900 20.40176400
-57.83509100 162.08728000 20.41238400
-55.24102000 164.57348600 26.07504300
-55.20616900 162.11245700 26.05691500
-52.08961100 164.65002400 31.43075600
-52.07251000 162.25689700 31.41503900
-48.26632700 164.92474400 36.24786400
-48.27853400 162.58715800 36.25952100
-44.33163500 165.11694300 40.88763400
-44.33336300 162.73101800 40.91302500
-39.90006300 165.16796900 44.99963400
-39.83177900 162.75628700 44.99023400
-34.98252900 165.21481300 48.60675000
-34.92482800 162.78628500 48.65710400
-29.82180800 165.22625700 51.78955100
-29.72673000 162.86944600 51.82708700
-24.35758000 165.28082300 54.33520500
-29.92582500 167.47628800 51.80194100
-24.46139000 167.53784200 54.29876700
-18.61368800 167.68838500 56.21044900
-24.69706500 169.60919200 54.64447000
-18.81222200 169.78472900 56.52410900
-12.74242100 169.89038100 57.93981900
-12.59969800 167.89889500 57.60284400
-6.62293700 169.98849500 58.81573500
-6.51970500 168.01135300 58.46618700
-0.49465000 170.02288800 59.05969200
-0.42783000 168.02508500 58.72320600
5.55383100 170.09832800 58.82800300
5.57496100 168.07812500 58.47528100
11.60036100 170.23822000 58.01446500
11.56970600 168.24862700 57.62176500
17.63549000 170.41314700 56.59216300
17.55367300 168.40472400 56.21923800
23.45773700 170.49572800 54.69043000
23.29945000 168.53234900 54.23236100
29.01687600 170.56414800 52.34948700
28.75060300 168.58093300 51.77471900
34.36964000 170.57922400 49.54016100
34.01932500 168.61297600 48.89672900
39.32726300 170.61053500 45.95690900
38.98156000 168.62844800 45.42443800
44.02167500 170.48458900 42.05041500
43.54957600 168.60226400 41.47839400
48.33383900 170.52465800 37.77978500
47.74917600 168.69763200 37.21325700
52.10139500 170.67309600 33.07836900
51.46794100 168.79339600 32.58132900
55.48876200 170.86303700 28.15329000
54.72464800 168.94851700 27.68423500
58.25968200 170.98684700 22.95141600
57.35030400 169.13739000 22.50399800
60.45832100 171.05615200 17.48794600
59.49398000 169.21414200 17.12597700
62.24787100 171.02868700 11.80340600
61.22331200 169.20788600 11.53299000
61.00906400 166.94732700 11.48291000
62.54937700 169.18722500 5.80358900
63.62117000 170.95986900 5.97064200
64.47129800 170.89822400 0.02764900
63.24403400 169.15820300 -0.05133100
64.62048300 170.77301000 -5.97430400
63.38567400 169.03704800 -5.95086700
64.05140700 170.56417800 -11.85015900
62.88008900 168.89093000 -11.70175200
63.03411100 170.38726800 -17.56491100
61.91308600 168.69516000 -17.29296900
61.50983400 170.20593300 -23.11337300
60.37365000 168.57995600 -22.74215700
59.45998400 170.04037500 -28.53167700
58.36628700 168.41320800 -28.06393400
56.97409100 169.87744100 -33.76724200
55.95777900 168.24319500 -33.19775400
53.98804500 169.72381600 -38.76858500
53.04037500 168.10925300 -38.09729000
50.40374800 169.66955600 -43.43182400
49.50021400 168.00897200 -42.65295400
46.31143200 169.65387000 -47.62905900
45.53681200 167.88726800 -46.83172600
41.91727400 169.54907200 -51.50003100
41.20215200 167.72564700 -50.62020900
37.02649700 169.36923200 -54.87155200
36.42555600 167.50030500 -53.97338900
31.67486200 169.16369600 -57.62680100
31.28388600 167.24087500 -56.89996300
26.12489700 168.89581300 -59.91842700
25.85012100 166.95672600 -59.28302000
20.53476300 168.55706800 -61.79669200
20.38353300 166.66033900 -61.24496500
14.79259900 168.36050400 -63.29074100
20.91684000 169.92517100 -63.05722000
15.02660000 169.80874600 -64.49978600
9.08206600 169.65075700 -65.58572400
8.95207000 168.19604500 -64.35394300
3.13914700 169.44619800 -66.16143800
3.11097500 167.97570800 -65.01550300
-2.82334300 169.39135700 -66.31225600
-2.74421100 167.88159200 -65.16592400
-8.74988700 169.33282500 -65.89721700
-8.55814000 167.86737100 -64.76022300
-14.58703000 169.43914800 -64.83139000
-14.30218900 168.00701900 -63.64721700
-20.27669300 169.62109400 -63.04531900
-19.86614000 168.17132600 -61.86242700
-25.81880600 169.69384800 -60.81289700
-25.30889700 168.21569800 -59.71344000
-31.16057600 169.79354900 -58.03790300
-30.52532800 168.30120800 -56.97631800
-36.24808900 169.85211200 -54.80767800
-35.53772400 168.36761500 -53.84112500
-41.05303200 169.90686000 -51.19036900
-40.23059100 168.45416300 -50.24569700
-45.58578500 169.98739600 -47.22204600
-44.61253400 168.53085300 -46.33584600
-44.22154200 166.51947000 -46.02447500
-48.65633800 168.73193400 -41.97247300
-48.23473400 166.63311800 -41.72341900
-52.27281200 168.86346400 -37.23522900
-51.74887100 166.75610400 -36.98284900
-55.41765600 168.90911900 -32.14001500
-54.90127900 166.85650600 -31.96667500
-58.11317100 168.78601100 -26.76922600
-57.49968300 166.88531500 -26.60470600
-60.31434200 168.77270500 -21.18893400
-59.70518900 166.94720500 -21.12228400
-61.95744300 168.89205900 -15.39825400
-61.31547200 167.06582600 -15.40930200
-62.93441400 168.98297100 -9.44628900
-62.19955100 167.17297400 -9.49813800
-63.24534600 168.93621800 -3.41275000
-62.46833000 167.15057400 -3.50289900
-62.97227100 168.88269000 2.66482500
-62.25401300 167.03930700 2.53994800
-61.97944600 168.86364700 8.73278800
-61.34719100 166.96652200 8.57379200
-60.42406100 168.82098400 14.72396900
-59.88093900 166.90805100 14.54904200
-58.43085100 168.77240000 20.65521200
-57.85597200 166.83953900 20.41809100
-55.72389200 168.79895000 26.33285500
-55.22023000 166.83770800 26.06579600
-52.55336400 168.89260900 31.75424200
-52.11007700 166.93048100 31.45178200
-48.93129700 169.05892900 36.82269300
-48.43347200 167.12368800 36.39971900
-44.92375600 169.31958000 41.44348100
-44.48374200 167.35632300 41.01464800
-40.48219300 169.52771000 45.54583700
-40.03365300 167.49951200 45.07873500
-35.56956100 169.58624300 49.18426500
-35.16302900 167.51355000 48.72460900
-30.21991000 169.55719000 52.17950400
-36.41553500 170.74108900 50.35046400
-30.90391900 171.02630600 53.29937700
-25.22505000 171.14154100 55.78857400
-31.80380400 171.38461300 54.99395800
-25.94419500 171.55084200 57.53228800
-19.81376800 171.70617700 59.52050800
-19.25200500 171.27716100 57.75396700
-13.43646600 171.86224400 60.90313700
-13.04945300 171.37008700 59.14825400
-6.99719700 171.98211700 61.80572500
-6.78838000 171.51062000 59.95678700
-0.59729000 172.03436300 62.04461700
-0.55996500 171.55645800 60.22882100
5.77500700 172.14325000 61.87823500
5.62540100 171.66577100 60.02728300
12.12908600 172.20843500 61.01049800
11.78852100 171.75360100 59.20397900
18.45200700 172.28729200 59.67138700
17.96731200 171.88595600 57.84991500
24.59354400 172.23797600 57.71691900
23.93521500 171.85455300 55.95776400
30.47271700 172.12197900 55.32189900
29.64021300 171.87674000 53.63293500
36.04811500 171.98486300 52.35168500
35.10891300 171.82806400 50.78857400
41.33593400 171.97204600 48.70330800
40.21852100 171.77084400 47.18652300
46.31198100 171.84405500 44.61022900
45.03649900 171.69335900 43.18621800
50.90850100 171.76944000 40.14337200
49.44438200 171.73742700 38.80358900
55.04906500 171.75244100 35.23898300
53.45710800 171.73608400 34.07174700
58.55809000 171.65353400 29.99881000
56.97580000 171.73904400 29.04281600
61.47391500 171.63702400 24.54354900
59.82158700 171.75460800 23.72912600
63.80677800 171.62304700 18.77737400
62.09288800 171.77624500 18.12854000
65.75886500 171.55011000 12.77151500
63.97311400 171.72497600 12.27413900
67.20391800 171.39294400 6.61901900
65.35678100 171.62237500 6.26461800
68.08436600 171.25354000 0.36288500
66.26485400 171.51385500 0.18151900
68.21949000 171.16204800 -5.98861700
66.42627000 171.42773400 -5.98855600
67.83018500 170.99554400 -12.25973500
65.89132700 171.25775100 -12.05813600
66.84284200 170.80395500 -18.33670000
64.89691200 171.05654900 -17.95755000
65.18090100 170.61636400 -24.20639000
63.31107300 170.83508300 -23.67031900
63.02426100 170.53839100 -29.98001100
61.17647600 170.71102900 -29.22659300
60.32804100 170.43634000 -35.54211400
58.58390000 170.59808300 -34.63406400
57.08480800 170.24829100 -40.88845800
55.46213500 170.44101000 -39.78735400
53.27959400 170.23126200 -45.86819500
51.79554700 170.36715700 -44.61862200
49.03105200 170.20855700 -50.42730700
47.62513000 170.36987300 -48.99273700
44.32240300 170.18737800 -54.52002000
43.12361900 170.29373200 -52.99267600
39.13368600 170.16455100 -58.09390300
38.08451500 170.25305200 -56.46789600
33.47480000 170.18505900 -60.90298500
32.52129000 170.24063100 -59.16171300
27.48735800 170.36737100 -63.03582800
26.70665700 170.17120400 -61.26602200
21.48356200 170.33905000 -64.79959100
28.24918000 169.79415900 -64.72332800
22.09338800 169.91952500 -66.62075800
15.81975600 169.98217800 -68.16574100
15.41204800 170.28729200 -66.28955100
9.56565100 169.88696300 -69.26385500
9.31420700 170.13598600 -67.41183500
3.31136100 169.72454800 -69.87744100
3.21465100 169.95654300 -67.99557500
-3.00994100 169.66348300 -69.92562900
-2.92857200 169.87109400 -68.05444300
-9.26656600 169.59967000 -69.50000000
-9.00966700 169.80651900 -67.68573000
-15.47667500 169.65206900 -68.37298600
-15.03119100 169.89300500 -66.57684300
-21.54992500 169.74383500 -66.57135000
-20.90733700 170.04644800 -64.80612200
-27.41365400 169.88119500 -64.17990100
-26.60735100 170.19665500 -62.48220800
-33.08091400 169.98889200 -61.25125100
-32.09275100 170.28250100 -59.62109400
-38.46224200 169.96157800 -57.85687300
-37.33690600 170.27899200 -56.33068800
-43.57504300 169.97827100 -54.06427000
-42.29147300 170.37860100 -52.62445100
-48.43015300 169.99572800 -49.79248000
-47.00250200 170.40832500 -48.50567600
-52.83564800 170.01205400 -45.10339400
-51.31069900 170.46148700 -43.96185300
-49.80639600 170.13079800 -42.82205200
-55.11944600 170.49606300 -38.98696900
-53.46851300 170.21618700 -37.95248400
-58.30671300 170.49084500 -33.55029300
-56.65215300 170.21637000 -32.71630900
-60.96971100 170.44091800 -27.83154300
-59.30369600 170.10180700 -27.17968800
-63.26876400 170.49267600 -21.90426600
-61.52801900 170.10302700 -21.45535300
-65.03086100 170.47222900 -15.78015100
-63.25708400 170.16558800 -15.54562400
-66.11090100 170.38867200 -9.53781100
-64.31481900 170.17303500 -9.47106900
-66.52575700 170.29565400 -3.20306400
-64.65892800 170.13793900 -3.31332400
-66.30632000 170.37982200 3.11712600
-64.37224600 170.18786600 2.86346400
-65.28381300 170.40014600 9.48812900
-63.33762400 170.16003400 9.02700800
-63.73120100 170.43768300 15.75213600
-61.81560900 170.20013400 15.14767500
-61.55992900 170.49423200 21.95239300
-59.69038000 170.18951400 21.17947400
-58.71186800 170.53570600 27.93139600
-56.99239300 170.16424600 27.01355000
-55.32367300 170.62023900 33.60321000
-53.71013600 170.26055900 32.52981600
-51.46137600 170.74697900 38.90972900
-49.99480400 170.39953600 37.68872100
-47.30457300 170.88079800 43.81396500
-45.91403200 170.62496900 42.42358400
-42.63085200 170.99841300 48.09808300
-41.43449000 170.72604400 46.65692100
-37.45687900 171.03646900 51.86731000
-43.74803900 170.43963600 49.46722400
-38.43930800 170.55816700 53.33453400
-32.66830400 170.89718600 56.66528300
-39.25744600 169.44741800 54.58215300
-33.32861700 169.68499800 57.97399900
-27.21649600 169.97897300 60.76770000
-26.64340600 171.10308800 59.28698700
-20.79905300 170.21905500 62.79834000
-20.36115500 171.30828900 61.32989500
-14.11003800 170.35583500 64.29803500
-13.81749200 171.47314500 62.73779300
-7.34365100 170.43966700 65.17944300
-7.18371400 171.61389200 63.68689000
-0.65181400 170.48547400 65.46911600
-0.63521000 171.68621800 63.96826200
6.01658100 170.52453600 65.30029300
5.89933000 171.73230000 63.77374300
12.69289800 170.53433200 64.45330800
12.43306000 171.75238000 62.89715600
19.31509800 170.48834200 62.90893600
18.92290100 171.73529100 61.45159900
25.72354100 170.37060500 60.79980500
25.22776000 171.64337200 59.41455100
31.82233800 170.14090000 58.18731700
31.23770500 171.52093500 56.95257600
37.62359600 169.84246800 55.00323500
36.96022800 171.31750500 53.88391100
43.16577900 169.60931400 51.19238300
42.41513800 171.22955300 50.16906700
48.33873000 169.44427500 46.90014600
47.55864000 171.13793900 45.99908400
52.94487000 169.14923100 42.06024200
52.24270600 170.92999300 41.38098100
57.10769700 168.94598400 36.87573200
56.47253400 170.83386200 36.32959000
60.65023800 169.07257100 31.35070800
59.96654500 170.83889800 30.87310800
63.53954300 169.04364000 25.62536600
62.90512800 170.78332500 25.26599100
66.16106400 168.97274800 19.75201400
65.38581100 170.76583900 19.40319800
68.19546500 168.83233600 13.52935800
67.34345200 170.63037100 13.24746700
69.61850000 168.63208000 7.13739000
68.79945400 170.43920900 6.93920900
70.36957600 168.40271000 0.66079700
69.69179500 170.31085200 0.54339600
70.60089900 168.24011200 -5.92535400
69.87467200 170.15387000 -5.98477200
70.26787600 168.11242700 -12.41037000
69.51738700 169.98584000 -12.40225200
69.29293800 167.91903700 -18.68887300
68.57263900 169.77420000 -18.63665800
67.70771800 167.82782000 -24.86285400
66.89553100 169.62310800 -24.70074500
65.55880700 167.85894800 -30.88714600
64.60395100 169.54406700 -30.57614100
62.74470500 167.87750200 -36.74813800
61.79116800 169.46691900 -36.31228600
59.40978200 167.80410800 -42.40820300
58.48392500 169.31256100 -41.81701700
55.39524100 167.67175300 -47.64440900
54.57116700 169.23214700 -46.94043000
50.96381400 167.59698500 -52.41101100
50.23739600 169.19940200 -51.65515100
45.98928100 167.59405500 -56.62851000
45.38890800 169.18475300 -55.86737100
40.61978500 167.73407000 -60.34951800
40.05525600 169.26873800 -59.49484300
34.89952500 168.10241700 -63.47610500
34.30020900 169.45578000 -62.41354400
28.85819200 168.57000700 -66.06549100
34.92914200 166.19323700 -63.46167000
29.01075700 166.58694500 -66.34872400
22.77167500 166.82324200 -68.66024800
22.60445800 168.80725100 -68.20669600
16.36280400 166.93594400 -70.42385900
16.19309600 168.86877400 -69.76940900
9.89870500 166.98434400 -71.57989500
9.78657900 168.89953600 -70.93933100
3.43268600 166.95391800 -72.23971600
3.38905900 168.79190100 -71.51174900
-3.10494400 166.95187400 -72.45153800
-3.06967500 168.73214700 -71.60629300
-9.67942500 166.93676800 -71.99536100
-9.51464600 168.62817400 -71.05752600
-16.13039800 166.93902600 -70.77761800
-15.87535600 168.63116500 -69.89892600
-22.46892500 166.97192400 -69.00936900
-22.11336500 168.71676600 -68.11013800
-28.58296400 167.11276200 -66.51647900
-28.13149800 168.86203000 -65.65133700
-34.47205700 167.24932900 -63.46044900
-33.92892800 168.95623800 -62.62869300
-40.04904200 167.16876200 -59.92227200
-39.45572300 168.92572000 -59.18917800
-45.31369000 167.11950700 -55.91241500
-44.69077300 168.91845700 -55.29827900
-50.29901900 167.09484900 -51.41406300
-49.60126500 168.85287500 -50.84329200
-54.80286400 167.06921400 -46.50607300
-54.09863300 168.83770800 -46.03018200
-58.78461100 167.15554800 -41.20523100
-58.00976900 168.90194700 -40.77987700
-56.67967600 170.04663100 -39.96319600
-61.37368400 168.96533200 -35.09539800
-59.96276900 170.08142100 -34.40210000
-64.23002600 169.01080300 -29.05606100
-62.70854600 170.11129800 -28.50116000
-66.66306300 169.07586700 -22.76385500
-65.05865500 170.12634300 -22.36731000
-68.43643200 169.04361000 -16.27243000
-66.87472500 170.08349600 -16.05481000
-69.44954700 168.84429900 -9.65011600
-67.91672500 169.87350500 -9.60369900
-69.81280500 168.70434600 -3.00601200
-68.31198900 169.81121800 -3.11419700
-69.54098500 168.58725000 3.65432700
-68.10618600 169.76510600 3.39923100
-68.66990700 168.54830900 10.29003900
-67.17306500 169.82910200 9.91366600
-67.02797700 168.61572300 16.83410600
-65.58429000 169.86105300 16.35525500
-64.69045300 168.74298100 23.29241900
-63.29827500 169.94128400 22.69616700
-61.66965900 168.84646600 29.55023200
-60.35579300 170.02557400 28.82717900
-58.08458700 169.00421100 35.49130200
-56.83136700 170.14547700 34.63497900
-54.04216000 169.10113500 41.07696500
-52.84523000 170.24603300 40.06982400
-49.56621600 169.15640300 46.10491900
-48.54130900 170.32720900 45.04943800
-44.66358900 169.22467000 50.59539800
-50.03690700 167.35061600 46.63116500
-45.02366600 167.47607400 51.08331300
-39.59566500 167.67266800 55.13855000
-44.62865100 165.58706700 50.65612800
-39.19111600 165.77227800 54.59558100
-33.21563700 165.96850600 57.91186500
-33.53996300 167.87689200 58.49090600
-27.07007000 166.13763400 60.52630600
-27.34688200 168.09710700 61.17578100
-20.68939400 166.36962900 62.47265600
-20.91603700 168.35211200 63.22808800
-14.03944200 166.52670300 63.87109400
-14.19783200 168.48736600 64.73938000
-7.33240900 166.53106700 64.73693800
-7.40306200 168.55642700 65.62908900
-0.65237800 166.59960900 64.99078400
-0.64938400 168.61282300 65.90258800
5.96680100 166.54669200 64.72100800
6.04837400 168.56839000 65.67956500
12.56241600 166.47064200 63.79803500
12.73724400 168.51367200 64.76068100
19.08862300 166.35357700 62.24725300
19.35924100 168.42382800 63.16790800
25.35916500 166.23150600 60.04412800
25.74122200 168.30377200 60.93225100
31.30189900 165.93618800 57.26043700
31.79469700 168.03253200 58.18896500
36.90826800 165.57897900 53.91528300
37.51047500 167.66308600 54.85650600
42.25164000 165.25305200 50.13067600
42.93917800 167.39740000 50.96398900
47.23583200 165.16726700 45.88458300
48.05921900 167.27356000 46.67974900
51.74626900 165.03552200 41.18261700
52.56842000 167.05706800 41.82165500
55.78897100 164.78125000 36.12298600
56.60057800 166.88696300 36.61084000
59.27246100 164.58389300 30.75689700
60.04752300 166.90673800 31.10961900
62.15919500 164.53842200 25.11709600
62.97677600 166.92346200 25.42703200
64.59661900 164.39794900 19.27682500
65.62317700 166.76763900 19.60168500
66.56203500 164.24743700 13.22305300
67.68397500 166.61636400 13.45782500
68.00573000 164.04513500 7.01095600
69.05111700 166.40631100 7.11386100
68.86776700 163.86669900 0.70065300
69.80085000 166.19744900 0.68527200
69.06189700 163.82049600 -5.68603500
70.02655000 166.10131800 -5.82409700
68.67581200 163.83975200 -12.02111800
69.72414400 166.03375200 -12.25732400
67.82695000 163.82897900 -18.21283000
68.78534700 165.87039200 -18.49630700
66.36241100 163.71618700 -24.26083400
67.34323100 165.75079300 -24.64633200
64.30974600 163.67034900 -30.20001200
65.27098800 165.77343800 -30.67797900
61.63520100 163.65069600 -36.01767000
62.55278000 165.75729400 -36.57730100
58.36767600 163.61370800 -41.60720800
59.26445800 165.71514900 -42.26242100
54.46292900 163.62304700 -46.78997800
55.25916300 165.66424600 -47.51068100
50.10833000 163.69250500 -51.46313500
50.80059800 165.61029100 -52.21893300
45.28244800 163.80838000 -55.66110200
45.83593000 165.68219000 -56.41372700
40.04294200 163.94604500 -59.39688100
40.52496700 165.85531600 -60.16677900
34.53059400 164.21313500 -62.66946400
39.68629800 161.66070600 -58.80413800
34.22613500 161.81671100 -62.08099400
28.37561800 161.98834200 -64.76516700
28.68294900 164.42861900 -65.52667200
22.29882000 162.19397000 -67.04821800
22.54534900 164.63128700 -67.88891600
16.05398600 162.31848100 -68.76507600
16.23568000 164.72589100 -69.72860700
9.73419800 162.41503900 -70.03338600
9.83005900 164.80108600 -70.90484600
3.35905500 162.46618700 -70.71640000
3.40661000 164.76837200 -71.63491800
-3.07238200 162.42163100 -70.87832600
-3.09952200 164.73031600 -71.90533400
-9.52279200 162.42614700 -70.46624800
-9.63705000 164.73858600 -71.52539100
-15.86760500 162.47326700 -69.30276500
-16.09600600 164.79388400 -70.44583100
-22.08292200 162.51763900 -67.56051600
-22.38764800 164.77890000 -68.62439000
-28.08684200 162.59277300 -65.11737100
-28.51926400 164.87091100 -66.20916700
-33.87027700 162.68420400 -62.12658700
-34.32981500 165.02819800 -63.07876600
-39.35222600 162.76922600 -58.64825400
-39.91767900 165.01379400 -59.59594700
-44.50575300 162.76519800 -54.67758200
-45.15434300 164.96972700 -55.59396400
-49.29107700 162.79126000 -50.19421400
-50.09979600 164.94039900 -51.10339400
-53.74432800 162.85675000 -45.42453000
-54.60114300 164.97421300 -46.23248300
-57.58374400 162.89935300 -40.17303500
-58.51362600 165.05023200 -40.91244500
-60.94618600 162.94671600 -34.54556300
-61.91786600 165.08264200 -35.20001200
-62.20292700 167.21289100 -35.46246300
-64.86953700 165.10760500 -29.12970000
-65.15560900 167.24203500 -29.35406500
-67.27110300 165.13287400 -22.78833000
-67.55033900 167.27130100 -22.95993000
-69.03714000 165.11032100 -16.23233000
-69.35920700 167.28421000 -16.36557000
-69.85118100 165.01336700 -9.51800500
-70.25778200 167.09332300 -9.63671900
-70.15602100 164.98016400 -2.80358900
-70.52892300 166.98345900 -2.89920000
-69.73656500 164.93298300 3.88049300
-70.16787700 166.84314000 3.82235700
-68.75834700 164.85247800 10.49118000
-69.23467300 166.75195300 10.49237100
-67.13566600 164.86016800 17.01809700
-67.60314900 166.78253200 17.07672100
-64.88008100 164.95822100 23.47772200
-65.25824700 166.91857900 23.56793200
-61.90397600 165.07974200 29.77288800
-62.33103600 167.08764600 29.94012500
-58.32747700 165.20953400 35.72625700
-58.76045200 167.26672400 35.97991900
-54.19938300 165.22860700 41.28155500
-54.60365300 167.28820800 41.57885700
-49.62133800 165.38067600 46.25189200
-53.25182300 163.23510700 40.52716100
-48.78363800 163.51013200 45.42596400
-43.90093200 163.70147700 49.81237800
-48.35621600 161.13610800 45.01300000
