-2.30113816 5.58407354 1.47291410
-2.35707450 5.57914400 1.38315713
-2.42456555 5.45061398 1.30328333
-2.40949488 5.57423639 1.29155695
-2.34670019 5.69386911 1.37409914
-2.39873266 5.68921089 1.28274691
-2.39873266 5.68921089 1.28274691
-2.45764065 5.56918621 1.19779539
-2.40949488 5.57423639 1.29155695
-2.44657063 5.68460369 1.18926191
-2.39105058 5.79569340 1.27603698
-2.39105058 5.79569340 1.27603698
-2.43876123 5.79117680 1.18294930
-2.49079108 5.68021059 1.09433675
-2.48284292 5.78705072 1.08820045
-2.43331647 5.88919926 1.17839503
-2.38539767 5.89464808 1.27109110
-2.47729182 5.88484049 1.08392727
-2.52422166 5.78278208 0.99256867
-2.51881886 5.88104391 0.98847234
-2.47313738 5.97639894 1.08027506
-2.51485443 5.97325039 0.98499054
-2.55689430 5.87732935 0.89164674
-2.55313516 5.97044325 0.88837665
-2.51294637 6.05780792 0.98239380
-2.55176163 6.05562544 0.88602626
-2.58680367 6.05275202 0.78837138
-2.58795571 5.96766520 0.79060978
-2.55389428 6.13182831 0.88512415
-2.58940053 6.12967873 0.78748792
-2.62143135 6.12666225 0.68870342
-2.61856842 6.05083418 0.68966210
-2.59554386 6.19838524 0.78800786
-2.62777948 6.19506073 0.68897998
-2.65742707 6.19230556 0.58918655
-2.65097928 6.12377024 0.58920872
-2.63376689 6.25850391 0.68930215
-2.66313505 6.25553799 0.58911365
-2.68861341 6.25325251 0.48802647
-2.68351221 6.19018459 0.48854873
-2.66144443 6.31524038 0.58717340
-2.68632555 6.31267786 0.48589545
-2.70996046 6.25157785 0.38614401
-2.70555186 6.31013298 0.38361740
-2.64958501 6.35523653 0.47690514
-2.66812825 6.35204506 0.37576318
-2.71969247 6.30783510 0.28086197
-2.68135047 6.34873295 0.27431834
-2.61614180 6.36669540 0.36658084
-2.62850118 6.36254835 0.26711711
-2.68948913 6.34470654 0.17281693
-2.63603330 6.35804176 0.16756873
-2.57379413 6.36117697 0.26008564
-2.58135653 6.35708046 0.16286087
-2.64037466 6.35364628 0.06829754
-2.58550858 6.35204506 0.06504440
-2.53858399 6.32592487 0.16038674
-2.54408789 6.31880188 0.06495278
-2.54612112 6.31180429 -0.03011938
-2.58617640 6.34734392 -0.03115513
-2.51932645 6.27522564 0.16081679
-2.52697062 6.26718521 0.06647052
-2.53083825 6.25939798 -0.02784073
-2.54475355 6.30554676 -0.12472706
-2.53103709 6.25248671 -0.12202302
-2.53083825 6.25939798 -0.02784073
-2.52697062 6.26718521 0.06647052
-2.53430080 6.20115519 -0.02489627
-2.53103709 6.25248671 -0.12202302
-2.53509665 6.19448709 -0.11935866
-2.52717495 6.24691677 -0.21584235
-2.53185129 6.18897200 -0.21379419
-2.54985809 6.13378429 -0.11687578
-2.54665756 6.12835455 -0.21209498
-2.52379751 6.18471098 -0.30768356
-2.53895974 6.12375402 -0.30689523
-2.56642318 6.06252861 -0.21058366
-2.55841970 6.05743837 -0.30628777
-2.52723217 6.12049532 -0.40120885
-2.54683018 6.05339575 -0.40150583
-2.57797766 5.98179579 -0.30536464
-2.56601167 5.97643995 -0.40140194
-2.53237987 6.05070353 -0.49640355
-2.55145073 5.97202969 -0.49717027
-2.58038998 5.88752985 -0.40020514
-2.56553912 5.88142252 -0.49665675
-2.53363442 5.96770525 -0.59273201
-2.54755139 5.87542152 -0.59286976
-2.57329059 5.77996588 -0.49472588
-2.55520916 5.77331209 -0.59134442
-2.52594829 5.87037754 -0.68824649
-2.53325224 5.76684332 -0.68712437
-2.56100988 5.66511774 -0.58987159
-2.53901649 5.65824318 -0.68611896
-2.50823736 5.76073551 -0.78231621
-2.51388049 5.65157604 -0.78166729
-2.54709506 5.54091024 -0.68553722
-2.52207184 5.53343058 -0.78157979
-2.48628569 5.64522219 -0.87670147
-2.49453712 5.52620029 -0.87706506
-2.53447080 5.40677643 -0.78255773
-2.50710702 5.39933634 -0.87866747
-2.46372509 5.51986027 -0.97191721
-2.47617912 5.39275408 -0.97418714
-2.52562332 5.26680040 -0.88209677
-2.49442697 5.26030445 -0.97846031
-2.44040847 5.38644981 -1.06811154
-2.45833898 5.25387383 -1.07323194
-2.51837707 5.12685108 -0.98472083
-2.48195577 5.12031794 -1.08053362
-2.41874814 5.24771643 -1.16678929
-2.44186926 5.11397123 -1.17509639
-2.51163578 4.98643208 -1.09026444
-2.47065425 4.97996378 -1.18576956
-2.39926100 5.10803890 -1.26846349
-2.42711520 4.97387266 -1.28044784
-2.50587916 4.84634495 -1.19953883
-2.46145391 4.84013939 -1.29544091
-2.38026834 4.96830797 -1.37348282
-2.41321421 4.83441305 -1.38979292
-2.50289273 4.70795155 -1.31389880
-2.45357680 4.70211172 -1.41025591
-2.35982990 4.82830143 -1.48102093
-2.39942598 4.69579649 -1.50320172
-2.50089359 4.57195854 -1.43390834
-2.44561052 4.56536913 -1.52917314
-2.34200859 4.68971348 -1.59428895
-2.38729000 4.55908012 -1.62217021
-2.49738598 4.43703222 -1.55817723
-2.43802786 4.43048525 -1.65329778
-2.32640171 4.55334520 -1.71366251
-2.37608910 4.42453051 -1.74693155
-2.49339056 4.30394650 -1.68697274
-2.43041182 4.29779911 -1.78301942
-2.31005836 4.41894436 -1.83837998
-2.36317873 4.29203320 -1.87693846
-2.48933768 4.17365074 -1.82173085
-2.42086124 4.16772604 -1.91842067
-2.29180741 4.28624296 -1.96789932
-2.34887147 4.16221762 -2.01279998
-2.48077822 4.04463387 -1.96077085
-2.40785813 4.03905296 -2.05827641
-2.27402997 4.15694714 -2.10367274
-2.33194041 4.03386593 -2.15277982
-2.46474314 3.91398954 -2.10111618
-2.38802457 3.90884447 -2.19935417
-2.25349116 4.02921772 -2.24411035
-2.30853820 3.90415263 -2.29379296
-2.43666720 3.77842879 -2.23812628
-2.35581589 3.77337146 -2.33542490
-2.22666788 3.90130258 -2.38682771
-2.27333736 3.77056766 -2.43169475
-2.38637447 3.63382149 -2.36113334
-2.30212712 3.63047457 -2.45891953
-2.18682957 3.76873803 -2.52499747
-2.21523714 3.62864137 -2.55461764
-2.31637430 3.48469138 -2.47199392
-2.23156333 3.48383880 -2.57232475
-2.12416792 3.62719440 -2.64515638
-2.14269757 3.48330545 -2.66720366
-2.25670886 3.34147263 -2.59761572
-2.16910267 3.34196186 -2.69646525
-2.05194879 3.48371959 -2.76105237
-2.07915735 3.34324121 -2.79389715
-2.29661226 3.20616436 -2.63454866
-2.20731473 3.20717192 -2.73803520
-2.11755419 3.20887780 -2.83889365
-2.02069926 3.20892286 -2.92923975
-1.98319876 3.34305573 -2.88305807
-2.20731473 3.20717192 -2.73803520
-2.11755419 3.20887780 -2.83889365
-2.16879392 3.08465314 -2.89483953
-2.06613255 3.08222818 -2.98690534
-2.02069926 3.20892286 -2.92923975
-1.95705998 3.07994390 -3.07004142
-1.91200435 3.20391297 -3.00728703
-2.13216853 2.97999191 -3.06671786
-2.01916838 2.97717476 -3.15461206
-1.89918673 2.97285867 -3.23349261
-1.84326839 3.07586598 -3.14529252
-2.08590937 2.88559556 -3.24792218
-1.96254563 2.88053775 -3.32819128
-1.83724582 2.87813401 -3.40681458
-1.77803051 2.96777725 -3.30558562
-2.02957082 2.80004549 -3.43061757
-1.90047288 2.79693294 -3.51346612
-1.76723361 2.79418325 -3.58528543
-1.70716119 2.87351394 -3.47510767
-1.96687758 2.72360206 -3.62416744
-1.82833600 2.72054625 -3.70014620
-1.68923235 2.71788263 -3.77144599
-1.63082361 2.79153752 -3.65516353
-1.89103949 2.64835572 -3.81488538
-1.74545825 2.64509869 -3.88929343
-1.59858561 2.64337182 -3.95615602
-1.54471660 2.71563172 -3.83591580
-1.80210614 2.57112360 -4.00582170
-1.65039539 2.56872582 -4.07517862
-1.49492693 2.56620741 -4.13883305
-1.44758749 2.64104080 -4.01760197
-1.70015776 2.48811984 -4.19230604
-1.54217470 2.48564625 -4.25697803
-1.37917531 2.48350501 -4.31639338
-1.33871090 2.56407142 -4.19518042
-1.58613265 2.40019965 -4.37334394
-1.42007744 2.39758420 -4.43365622
-1.25169086 2.39627218 -4.48772335
-1.21621382 2.48220181 -4.36815119
-1.45965886 2.30795407 -4.54863644
-1.28580642 2.30624485 -4.60431194
-1.08108449 2.39461637 -4.53471375
-1.11157835 2.30431104 -4.65243244
-1.31932974 2.21040559 -4.71667004
-1.13926935 2.20842218 -4.76672792
-0.93425095 2.30478334 -4.69466066
-0.95875144 2.20892048 -4.80961895
-1.16639674 2.10545635 -4.87483549
-0.98150814 2.10601473 -4.91949177
-0.77580595 2.20858574 -4.84564781
-0.79409295 2.10488844 -4.95540333
-1.00222206 1.99818861 -5.02450991
-0.81113124 1.99680853 -5.06108522
-0.60600382 2.10745168 -4.98562574
-0.61875904 1.99898160 -5.09160805
-0.82683206 1.88373923 -5.16195059
-0.63036293 1.88573325 -5.19251156
-0.43259957 1.88607633 -5.21419573
-0.42502546 1.99903989 -5.11235428
-0.64034879 1.76536703 -5.28614187
-0.43926340 1.76576042 -5.30772448
-0.23655815 1.76844692 -5.32234526
-0.23437405 1.88846231 -5.22780132
-0.44452852 1.64196777 -5.39680767
-0.23920268 1.64440513 -5.41143894
-0.03236318 1.64649892 -5.41645050
-0.03463484 1.77030313 -5.32722139
-0.24031897 1.51723754 -5.49593163
-0.03008803 1.51960838 -5.50140238
0.17396514 1.64986050 -5.41327143
0.17934406 1.52286565 -5.49778032
-0.02831003 1.38799775 -5.57950974
0.18598163 1.39170194 -5.57644987
0.38984692 1.52712059 -5.48572731
0.39831382 1.39623129 -5.56414366
0.19144107 1.25690413 -5.64899302
0.40769628 1.26171243 -5.63680601
0.61156213 1.40150356 -5.54319763
0.62318301 1.26679897 -5.61479759
0.41688266 1.12467325 -5.70456123
0.63486511 1.12973607 -5.68206024
0.83776176 1.27392566 -5.58531189
0.85269994 1.13696527 -5.65174294
0.64677888 0.98942095 -5.74296570
0.86682230 0.99689060 -5.71233273
1.06849253 1.14395881 -5.61144781
1.08526003 1.00427568 -5.67147446
0.88048786 0.85371739 -5.76612949
1.10114872 0.86133713 -5.72401857
1.30230761 1.01404572 -5.62285137
1.32072532 0.87125421 -5.67535782
1.11665642 0.71658748 -5.77191687
1.33784521 0.72655976 -5.72257996
1.53726649 0.88139993 -5.61665058
1.55752861 0.73720789 -5.66405678
1.35452414 0.57945442 -5.76308918
1.57543349 0.59049094 -5.70456314
1.77352190 0.74928510 -5.59759569
1.79471660 0.60297614 -5.63859701
1.59198272 0.44097620 -5.73523474
1.81360161 0.45429057 -5.67292976
2.00977325 0.61635220 -5.56304455
2.02884030 0.46688241 -5.59168196
1.83024383 0.30368510 -5.69811630
2.04794192 0.31710654 -5.61895275
2.24181294 0.48118153 -5.50499773
2.26027727 0.33062637 -5.52693367
2.06212401 0.16446587 -5.63152313
2.27770543 0.17904992 -5.54390144
2.47101760 0.34643382 -5.43157578
2.49095726 0.19568610 -5.45117903
2.29416299 0.02703987 -5.55798101
2.50933552 0.04427661 -5.46681738
2.70052505 0.21337271 -5.35188198
2.72211432 0.06283201 -5.36990738
2.52709126 -0.10749827 -5.47956944
2.74153113 -0.08846952 -5.38355684
2.92926788 0.08223883 -5.26299620
2.95138502 -0.06856731 -5.27847815
2.75781012 -0.24092244 -5.38996029
2.96950388 -0.22042499 -5.28529978
3.15469599 -0.04775134 -5.16158390
3.17543030 -0.19875537 -5.17090368
2.98539329 -0.37281135 -5.28793383
3.19290566 -0.35077175 -5.17398024
3.37609196 -0.17628272 -5.04734898
3.39415479 -0.32787430 -5.04984188
3.20797968 -0.50311315 -5.17247915
3.41053081 -0.47981077 -5.04914188
3.60651278 -0.45582035 -4.91573048
3.59082198 -0.30435780 -4.91881084
3.42307043 -0.63212299 -5.04160643
3.61984444 -0.60766870 -4.90841532
3.81043386 -0.58261102 -4.76724672
3.79553223 -0.43126398 -4.77332401
3.63185930 -0.75967395 -4.89848423
3.82356787 -0.73394650 -4.75771999
4.00865936 -0.70739859 -4.60887480
3.99460459 -0.55653399 -4.61783457
3.83426666 -0.88551706 -4.74446487
4.01992464 -0.85842466 -4.59545374
4.19627333 -0.83033103 -4.43593931
4.18367243 -0.68000680 -4.44803715
4.02972412 -1.00931144 -4.57970333
4.20619488 -0.98056364 -4.41983747
4.37654591 -0.95100576 -4.25358295
4.36732244 -0.80154467 -4.27068758
4.21508074 -1.13072956 -4.40158653
4.38516378 -1.10051179 -4.23485661
4.54880762 -1.06962836 -4.06194353
4.54106665 -0.92077172 -4.08158493
4.39183712 -1.24995434 -4.21312904
4.55559397 -1.21839809 -4.04021549
4.71161270 -1.18597281 -3.86047196
4.70510054 -1.03798282 -3.88250470
4.56059647 -1.36686361 -4.01579905
4.71711016 -1.33356309 -3.83647633
4.86673546 -1.29978418 -3.65137243
4.86125803 -1.15300488 -3.67531466
4.72068405 -1.48117173 -3.80967212
4.87015820 -1.44648349 -3.62475491
5.01316023 -1.41149092 -3.43482471
5.00924063 -1.26557994 -3.46058679
4.87275124 -1.59301245 -3.59628725
5.01428127 -1.55707622 -3.40563774
5.14764595 -1.37594211 -3.23855186
5.14791298 -1.52058911 -3.20944023
5.01575994 -1.70236170 -3.37580633
5.14860106 -1.66516566 -3.17965102
5.27373409 -1.48370004 -3.00799274
5.27324677 -1.62738383 -2.97780538
5.14867687 -1.80941129 -3.14763308
5.27255583 -1.77083635 -2.94642687
5.38832760 -1.58922315 -2.77031064
5.38692522 -1.73154724 -2.73945785
5.27105761 -1.91387630 -2.91340184
5.38540506 -1.87406278 -2.70703077
5.49431992 -1.69244659 -2.52851629
5.38692522 -1.73154724 -2.73945785
5.38540506 -1.87406278 -2.70703077
5.49087667 -1.83385265 -2.49599123
5.37955618 -2.01562858 -2.67128515
5.37955618 -2.01562858 -2.67128515
5.48641586 -1.97499859 -2.46245408
5.59428072 -1.79467857 -2.28398180
5.58591795 -1.93452036 -2.24934983
5.36747885 -2.15581298 -2.63153172
5.47577906 -2.11486316 -2.42461586
5.57637835 -2.07389522 -2.21405411
5.68120623 -1.89490843 -2.03446984
5.66798925 -2.03308654 -1.99874139
5.56104326 -2.21239662 -2.17440033
5.65335321 -2.17106748 -1.96151900
5.75179148 -1.99268758 -1.78034866
5.73714733 -2.13011360 -1.74435067
5.63645649 -2.30832648 -1.92193806
5.71951675 -2.26667523 -1.70682657
5.81104374 -2.08927751 -1.52361274
5.79326105 -2.22536540 -1.48767185
5.69972420 -2.40244246 -1.66747665
5.77366829 -2.36050797 -1.45017874
5.85746145 -2.18437409 -1.26497161
5.83681536 -2.31880546 -1.22926295
5.75083447 -2.49483156 -1.41110492
5.81323576 -2.45217419 -1.19197416
5.88998699 -2.27784705 -1.00516987
5.86618900 -2.41037750 -0.96986032
5.78819036 -2.58545303 -1.15292656
5.83939362 -2.54239631 -0.93239170
5.90915108 -2.36982703 -0.74485636
5.88166094 -2.50079584 -0.70995063
5.81076002 -2.67392325 -0.89428604
5.85163307 -2.63108349 -0.67320269
5.91393137 -2.46040821 -0.48477155
5.88488007 -2.59014106 -0.45064133
5.82034302 -2.76043820 -0.63590568
5.85157871 -2.71875477 -0.41528866
5.90628576 -2.55013895 -0.22581711
5.87401533 -2.67822170 -0.19324310
5.81701851 -2.84598780 -0.37938333
5.83886814 -2.80475736 -0.15935156
5.88715553 -2.63956308 0.03107871
5.85269403 -2.76557255 0.06235611
5.80132437 -2.93046737 -0.12449832
5.81408787 -2.89035010 0.09495927
5.85697985 -2.72881174 0.28563344
5.81876421 -2.85316515 0.31606355
5.77486467 -3.01452422 0.12773690
5.77969503 -2.97569036 0.34622586
5.81465626 -2.81742907 0.53774321
5.77459955 -2.93988109 0.56701034
5.73729944 -3.09661651 0.37773022
5.73294735 -3.05982375 0.59571850
5.76040697 -2.90651727 0.78816307
5.71848679 -3.02621984 0.81588799
5.68883610 -3.17909288 0.62535214
5.67371273 -3.14498711 0.84370917
5.69447088 -2.99828196 1.03571904
5.64865112 -3.11626077 1.06214678
5.62730408 -3.26107311 0.87191027
5.60140991 -3.23269105 1.08906114
5.61387777 -3.09231949 1.27828646
5.56558180 -3.20962000 1.30349755
5.55338621 -3.34708667 1.11614704
5.51576471 -3.32512474 1.32912934
5.52044630 -3.19186497 1.51227033
5.46909761 -3.30857897 1.53514671
5.46409035 -3.43823075 1.35431707
5.41625261 -3.42377377 1.55781591
5.41594362 -3.29577231 1.73424113
5.36200571 -3.41328502 1.75306320
5.40812254 -3.16560864 1.90771425
5.46782637 -3.17721438 1.71401680
5.35563421 -3.28546381 1.92471230
5.30085945 -3.40400624 1.94072235
5.28927469 -3.27657199 2.10868120
5.23417425 -3.39698887 2.12044787
5.24344301 -3.52197504 1.95363331
5.17682266 -3.51640868 2.12989783
5.16196775 -3.39031863 2.29413152
5.10479403 -3.51104021 2.30003047
5.11769342 -3.63439798 2.13813043
5.04597092 -3.63067222 2.30446577
4.96979761 -3.62708998 2.46502972
5.02826214 -3.50617027 2.46471691
4.98515034 -3.74935603 2.30639720
4.90919018 -3.74726462 2.46236944
4.82914782 -3.74493718 2.61487937
4.88913870 -3.62370896 2.62106752
4.94738817 -3.50156593 2.62491417
4.80473375 -3.62004137 2.77286100
4.86200428 -3.49666333 2.78044987
4.74592733 -3.74264169 2.76303744
4.65845156 -3.73952174 2.90910554
4.71598005 -3.61582375 2.92219043
4.68666220 -3.86497259 2.75137758
4.60039854 -3.86293578 2.89415860
4.51100445 -3.86065865 3.03346634
4.56777382 -3.73627996 3.05153108
4.62371016 -3.61155534 3.06746364
4.47299051 -3.73213696 3.19206834
4.52765322 -3.60677981 3.21065879
4.41748476 -3.85713363 3.17118692
4.32020950 -3.85299587 3.30598140
4.37427521 -3.72724342 3.32946229
4.36111641 -3.98180342 3.14791489
4.26551819 -3.97833991 3.27994061
4.16533947 -3.97331548 3.41029596
4.21873951 -3.84753442 3.43845844
4.27124548 -3.72162914 3.46507168
4.11263466 -3.84128928 3.56924510
4.16328192 -3.71481323 3.59765267
4.06136465 -3.96749544 3.53796029
3.95291948 -3.96032834 3.66286421
4.00257683 -3.83373594 3.69613981
4.00972223 -4.09372473 3.50451016
3.90267229 -4.08670712 3.62727284
3.79168844 -4.07871628 3.74710083
3.83968282 -3.95218968 3.78509879
3.85147691 -4.21257877 3.58903480
3.74228644 -4.20474863 3.70677733
3.67578745 -4.06915092 3.86363554
3.62832713 -4.19507837 3.82154441
3.60036898 -3.93275404 4.01942062
3.72232103 -3.94272184 3.90356398
3.55604792 -4.05897379 3.97762394
3.51048017 -4.18475151 3.93396568
3.43138885 -4.04735088 4.08831310
3.38820529 -4.17290163 4.04304647
3.46380472 -4.30994844 3.88816118
3.34397840 -4.29778051 3.99594593
3.26234722 -4.16043520 4.14979601
3.21987724 -4.28515959 4.10187387
3.17032862 -4.02215672 4.30150127
3.30321980 -4.03526163 4.19626904
3.13175607 -4.14688158 4.25367069
3.09239316 -4.27103806 4.20443201
2.99797344 -4.13249493 4.35469818
2.96046925 -4.25632906 4.30486441
3.05166817 -4.39433813 4.15348196
2.92194676 -4.37920618 4.25322342
2.82506776 -4.24061632 4.40248108
2.78943753 -4.36316824 4.35064077
2.65180492 -4.34626865 4.44547939
2.61812997 -4.46660662 4.39105558
2.47828770 -4.44800234 4.48266029
2.44526839 -4.56634712 4.42623663
2.30395961 -4.54517412 4.51436043
2.27238345 -4.66152239 4.45614862
2.12871146 -4.63802052 4.54137278
2.09807992 -4.75108385 4.48018932
1.95239484 -4.72479582 4.56222868
1.92477727 -4.83569860 4.49995708
1.77519953 -4.80738354 4.57896233
1.89617777 -4.94511080 4.43658447
1.74951053 -4.91576385 4.51368046
1.59911466 -4.88887978 4.58640909
1.72411680 -5.02368116 4.44911480
1.57819593 -4.99617577 4.51994038
1.42997825 -4.98464298 4.57482958
1.86659598 -5.05330896 4.37203264
3.34297633 -3.90965748 4.24128008
3.47388864 -3.92132592 4.13182259
3.51506424 -3.79492593 4.17325068
3.64367318 -3.80603886 4.05904293
3.68629074 -3.67906952 4.09670019
3.76764464 -3.81595826 3.94155765
3.81188965 -3.68893170 3.97706485
3.88711095 -3.82542706 3.82060695
3.93396497 -3.69860983 3.85387564
4.05092955 -3.70720601 3.72778749
4.09824991 -3.58023596 3.75676489
3.97957563 -3.57155371 3.88528752
4.21256542 -3.58812118 3.62496471
4.26060677 -3.46107531 3.65027642
4.14421749 -3.45288396 3.78385711
4.37194681 -3.46862221 3.51285005
4.32247353 -3.59540534 3.48995376
4.47880459 -3.47517443 3.37244749
4.42724514 -3.60137534 3.35182166
4.58110523 -3.48132133 3.22875094
4.63208246 -3.35513854 3.24396157
4.52818966 -3.34847498 3.39037490
4.73121166 -3.36091375 3.09438896
4.67870951 -3.48645353 3.08207536
4.82599258 -3.36663342 2.94147635
4.77229166 -3.49157953 2.93255234
4.91715813 -3.37238193 2.78585148
4.97043419 -3.24797893 2.78949428
4.87831879 -3.24146891 2.94894838
5.05804968 -3.25492454 2.62655854
5.00324297 -3.37845206 2.62623286
5.14056635 -3.26218414 2.45865107
5.08487606 -3.38431764 2.46248960
5.21731234 -3.26869154 2.28683114
5.19434929 -3.13917971 2.45433593
5.27100945 -3.14684272 2.27810168
5.34243155 -3.15530777 2.09615564
5.32310581 -3.02424932 2.26991010
5.39446640 -3.03343034 2.08415270
5.45980310 -3.04454589 1.89179456
5.44352150 -2.91152048 2.07055783
5.50814486 -2.92339206 1.87433839
5.51860857 -3.05776358 1.69357240
5.56642914 -2.93709493 1.67319405
5.57012081 -3.07344890 1.48935771
5.61723471 -2.95406032 1.46593618
5.66063547 -2.97369289 1.25322759
5.66226482 -2.83368111 1.44292390
5.70428658 -2.85417175 1.22800434
5.73634863 -2.87828851 1.00890791
5.74604034 -2.73238707 1.20388210
5.77757788 -2.75724173 0.98313665
5.80113125 -2.78561473 0.76087230
5.81746244 -2.63410497 0.95803469
5.83905363 -2.66210508 0.73394042
5.85247183 -2.69411731 0.50975275
5.87536526 -2.53794789 0.70766902
5.88905382 -2.56913686 0.48154181
5.89261103 -2.60341215 0.25603545
5.92147541 -2.44310927 0.45430997
5.92579746 -2.47686410 0.22690189
5.92086458 -2.51263118 -0.00017067
5.95731878 -2.34935689 0.19807354
5.95168924 -2.38447404 -0.03031662
5.93789768 -2.42156672 -0.25845352
5.98050022 -2.25548339 -0.06002725
5.96544647 -2.29180193 -0.28951618
5.94235229 -2.33002663 -0.51834691
5.99268055 -2.16167903 -0.32006711
5.96760464 -2.19880462 -0.54989684
5.93452930 -2.23787093 -0.77907354
5.99128199 -2.06711173 -0.58153766
5.95582056 -2.10497141 -0.81133533
5.91309786 -2.14445424 -1.03993845
5.97635984 -1.97146559 -0.84330481
5.93078804 -2.00998259 -1.07268393
5.87639523 -2.04931855 -1.30001509
5.94708920 -1.87489712 -1.10469842
5.89199591 -1.91373229 -1.33290064
5.82662916 -1.95281303 -1.55834925
5.90506220 -1.77736473 -1.36470795
5.83880091 -1.81597245 -1.59094477
5.76409197 -1.85508764 -1.81431949
5.85013533 -1.67848217 -1.62265980
5.77378750 -1.71680915 -1.84665501
5.68952942 -1.75584400 -2.06764030
5.78115559 -1.57794416 -1.87760675
5.69581747 -1.61603665 -2.09909511
5.59897566 -1.65424216 -2.31568170
5.69843864 -1.47603142 -2.12807393
5.60144806 -1.51341128 -2.34560013
5.49642801 -1.55111206 -2.55889845
5.60029316 -1.37228346 -2.37273979
5.49837208 -1.40929747 -2.58837867
5.38832760 -1.58922315 -2.77031064
5.39017153 -1.44660378 -2.80066061
5.49779034 -1.26725519 -2.61555743
5.38886786 -1.30363607 -2.82782602
5.38886786 -1.30363607 -2.82782602
5.27259254 -1.34006941 -3.03599000
5.39017153 -1.44660378 -2.80066061
5.38703108 -1.16045475 -2.85393786
5.27062035 -1.19584668 -3.06222987
5.14563274 -1.23095024 -3.26531267
5.13951302 -1.08564425 -3.28832150
5.26461220 -1.05145514 -3.08511209
5.00419474 -1.11955333 -3.48469853
4.99534798 -0.97324336 -3.50492454
5.12988901 -0.94018489 -3.30811620
4.85443306 -1.00582719 -3.69708347
4.84599829 -0.85864234 -3.71642518
4.98516369 -0.82680768 -3.52298164
4.69869852 -0.88994139 -3.90337300
4.68915796 -0.74197346 -3.92042661
4.83580542 -0.71131927 -3.73305321
4.53270054 -0.77205634 -4.09958887
4.52121019 -0.62301248 -4.11365938
4.67668295 -0.59374768 -3.93420172
4.35354376 -0.65188164 -4.28188753
4.33790302 -0.50254184 -4.29051304
4.50289488 -0.47457942 -4.12053537
4.16801786 -0.53005898 -4.45627546
4.14889383 -0.38027811 -4.45936108
4.31689692 -0.35384104 -4.29310989
3.97725534 -0.40582180 -4.62210941
3.95619607 -0.25606364 -4.62110758
4.12721062 -0.23121490 -4.45895147
3.77623940 -0.28062648 -4.77339077
3.93227410 -0.10662703 -4.61565876
3.75444651 -0.13029301 -4.76880360
3.56768250 -0.15391047 -4.91088486
3.72872114 0.01877310 -4.75870943
3.54330325 -0.00418614 -4.90066099
3.35265899 -0.02616574 -5.03641796
3.51647234 0.14486939 -4.88641453
3.32730556 0.12354868 -5.02142143
3.13092208 0.10244211 -5.14613724
3.30008984 0.27216482 -5.00262737
3.10547113 0.25180528 -5.12776423
2.90607977 0.23231719 -5.24434042
3.08035755 0.40091157 -5.10791063
2.88151407 0.38175270 -5.22286558
2.67972040 0.36381879 -5.33361006
2.86009860 0.53175318 -5.20496178
2.65851855 0.51393586 -5.31316805
2.45247960 0.49726632 -5.41328716
2.63514256 0.66247565 -5.28677464
2.43051696 0.64628917 -5.38689756
2.22239208 0.63069761 -5.47882986
2.40447140 0.79192179 -5.34841537
2.19736052 0.77662480 -5.43983555
1.98775518 0.76249552 -5.52288914
2.17140436 0.92004710 -5.39401102
1.96311700 0.90608740 -5.47639132
1.75198996 0.89341342 -5.55098534
1.93766630 1.04793012 -5.42560959
1.72897756 1.03571188 -5.49960375
1.51647139 1.02387035 -5.56504917
1.70423388 1.17461705 -5.44150686
1.49485719 1.16294467 -5.50605822
1.28288388 1.15359211 -5.56369543
1.47185469 1.29929829 -5.44209337
1.26280546 1.29037321 -5.49913549
1.05102527 1.28086483 -5.54560232
1.24188268 1.42478240 -5.42938280
1.03345823 1.41554821 -5.47564983
0.82270163 1.40841293 -5.51384497
1.01412559 1.54569817 -5.39848471
0.80760473 1.53878701 -5.43616819
0.59827590 1.53208292 -5.46496868
0.79114878 1.66535664 -5.35308933
0.58633763 1.65887010 -5.38115072
0.38039854 1.65383899 -5.40133858
0.57400489 1.78268015 -5.29312038
0.37094197 1.77753413 -5.31267214
0.16908282 1.77383220 -5.32433891
0.36314726 1.89652073 -5.21819353
0.16336489 1.89318359 -5.22957373
-0.03497678 1.89001274 -5.23282480
0.15887702 2.00708318 -5.12899542
-0.03596060 2.00340533 -5.13123608
-0.23113315 2.00207973 -5.12669134
-0.22645038 2.11126351 -5.02053165
-0.03638249 2.11279535 -5.02556705
-0.41670033 2.10774732 -5.00628328
-0.22168650 2.21524048 -4.90920782
-0.40730971 2.21188092 -4.89581537
-0.59223330 2.21116948 -4.87455225
-0.39675087 2.30777001 -4.77816725
-0.57688427 2.30697989 -4.75780249
-0.75653511 2.30432963 -4.72917128
-0.56120855 2.39813113 -4.63728333
-0.73547405 2.39524412 -4.60949278
-0.90952420 2.39536667 -4.57567739
-0.88279194 2.48160529 -4.45354366
-0.71353829 2.48205972 -4.48696804
-1.04954636 2.48100948 -4.41440964
-1.01826143 2.56137753 -4.28999090
-0.85445899 2.56181693 -4.32848787
-1.17832744 2.56265259 -4.24612141
-1.14051342 2.63819957 -4.12125826
-0.98424548 2.63738966 -4.16418028
-1.29546547 2.63943791 -4.07234859
-1.25122809 2.71214056 -3.94785213
-1.10204768 2.71123862 -3.99470472
-1.40026093 2.71369290 -3.89473462
-1.35114002 2.78733802 -3.77372241
-1.20912111 2.78627753 -3.82407355
-1.49324048 2.78930616 -3.71592879
-1.44114482 2.86828828 -3.59928846
-1.30508721 2.86654449 -3.65460539
-1.57559717 2.87167716 -3.54081011
-1.52292907 2.96128798 -3.43333268
-1.39159620 2.95805502 -3.49014211
-1.64987254 2.96387649 -3.37138486
-1.60001051 3.06645894 -3.27517772
-1.47525752 3.06400466 -3.33495855
-1.72281229 3.07016420 -3.21311784
-1.68098378 3.19368172 -3.14106679
-1.56174028 3.18985462 -3.20259047
-1.79737020 3.19820738 -3.07575226
-1.76724410 3.33582830 -3.03014612
-1.68098378 3.19368172 -3.14106679
-1.65122640 3.33122969 -3.09249210
-1.79737020 3.19820738 -3.07575226
-1.87912416 3.34059143 -2.96211505
-1.91200435 3.20391297 -3.00728703
-1.85361481 3.48219466 -2.92729211
-1.74443948 3.47863102 -2.99656367
-1.95638883 3.48368669 -2.84889126
-1.93449390 3.62641120 -2.81941605
-1.83374345 3.62621045 -2.89959359
-2.03107214 3.62671089 -2.73438644
-2.00057912 3.76393962 -2.69555187
-1.90257335 3.76226139 -2.77602911
-2.09537530 3.76574183 -2.61076307
-2.05018997 3.89519477 -2.55866385
-1.95595706 3.89224291 -2.63997197
-2.13971281 3.89850616 -2.47583175
-2.08596182 4.02235079 -2.41890502
-1.99848068 4.01890898 -2.49908757
-2.17207098 4.02579451 -2.33340788
-2.11654305 4.14870834 -2.27836251
-2.03194976 4.14494371 -2.36073303
-2.19700623 4.15250444 -2.19227529
-2.14250112 4.27668571 -2.14175153
-2.06323338 4.27268457 -2.22505999
-2.21828413 4.28110409 -2.05578303
-2.16725039 4.40808773 -2.01167297
-2.09259772 4.40365362 -2.09527588
-2.23982692 4.41323996 -1.92630517
-2.19238043 4.54231834 -1.88818824
-2.12095213 4.53730345 -1.97157264
-2.26164460 4.54801083 -1.80303144
-2.21857238 4.67896366 -1.77112091
-2.15077877 4.67365408 -1.85485518
-2.28206921 4.68413877 -1.68387496
-2.24461293 4.81705141 -1.65899575
-2.18275285 4.81210613 -1.74492598
-2.30340457 4.82243490 -1.57067156
-2.27250934 4.95675802 -1.55224907
-2.21473646 4.95149469 -1.63916838
-2.32800055 4.96243191 -1.46374333
-2.30155063 5.09683275 -1.44952869
-2.24693513 5.09136152 -1.53705120
-2.35305285 5.10252666 -1.36031866
-2.28047371 5.23107910 -1.43831921
-2.33126760 5.23657370 -1.34996867
-2.37687230 5.24202728 -1.25902092
-2.31496572 5.36993456 -1.34245694
-2.35995197 5.37550306 -1.25219309
-2.40142155 5.38063288 -1.16069376
-2.34859133 5.50423908 -1.24797428
-2.38958311 5.50882149 -1.15700889
-2.42819381 5.51405525 -1.06512213
-2.38217878 5.62860823 -1.15523970
-2.42036939 5.63390970 -1.06369603
-2.45559430 5.63927317 -0.97107226
-2.41527629 5.74361229 -1.06347311
-2.45028639 5.74928045 -0.97096318
-2.48078537 5.75497437 -0.87699795
-2.44427800 5.85641336 -0.97094572
-2.47417998 5.86190176 -0.87728679
-2.50130606 5.86601782 -0.78305256
-2.45983052 5.95873451 -0.87479460
-2.48697948 5.96214581 -0.78137028
-2.51200032 5.96481752 -0.68745697
-2.46659470 6.04626560 -0.77756685
-2.49176216 6.04839897 -0.68472379
-2.51412606 6.05018234 -0.59075564
-2.47180963 6.11926222 -0.68159956
-2.49410534 6.12005472 -0.58883351
-2.51258683 6.11889172 -0.49519679
-2.47976708 6.18228626 -0.58755672
-2.49734235 6.18141079 -0.49450123
-2.51178050 6.18223476 -0.40120417
-2.50677776 6.24082375 -0.40255326
-2.49284101 6.23998833 -0.49565545
-2.51870847 6.24293852 -0.30932269
-2.53046942 6.29669094 -0.31273919
-2.50677776 6.24082375 -0.40255326
-2.51821041 6.29459858 -0.40621018
-2.51870847 6.24293852 -0.30932269
-2.53976965 6.30023527 -0.21872380
-2.52717495 6.24691677 -0.21584235
-2.57618546 6.33997965 -0.22276759
-2.56616068 6.33705759 -0.31778201
-2.58331800 6.34330702 -0.12725081
-2.63024020 6.34193468 -0.22641695
-2.63800263 6.34598875 -0.12887707
-2.64133644 6.34983873 -0.03054827
-2.69229269 6.33571815 -0.12992451
-2.69542670 6.33792353 -0.02905445
-2.69405317 6.34066153 0.07172281
-2.73873448 6.30270100 -0.02715800
-2.73629904 6.30428314 0.07544919
-2.72982287 6.30601120 0.17810422
-2.75044870 6.24898958 0.07772609
-2.74135399 6.24993420 0.18100551
-2.72749519 6.25044537 0.28376207
-2.73907876 6.18629456 0.18252674
-2.72414184 6.18741465 0.28504235
-2.70572686 6.18874311 0.38714305
-2.69920731 6.12007141 0.38774523
-2.71755075 6.11826944 0.28591701
-2.67700815 6.12151384 0.48888487
-2.67304635 6.04605818 0.48995972
-2.69467854 6.04340506 0.38887551
-2.64725161 6.04833221 0.59020948
-2.64743304 5.96378136 0.59216541
-2.67253160 5.96106577 0.49187949
-2.61907387 5.96569729 0.69171089
-2.65009379 5.86917877 0.59492552
-2.62204623 5.87186670 0.69461334
-2.59134197 5.87446070 0.79367793
-2.62669420 5.77231455 0.69828016
-2.59596157 5.77538729 0.79739851
-2.56214666 5.77900982 0.89570510
-2.60400963 5.66700983 0.80281126
-2.57000661 5.67128372 0.90131104
-2.53213954 5.67565107 0.99851477
-2.58184814 5.55440712 0.90888166
-2.54363656 5.55932808 1.00634861
-2.50188804 5.56432819 1.10258090
-2.56037664 5.43347025 1.01691914
-2.51813436 5.43891907 1.11355805
-2.47318053 5.44461489 1.20918751
-2.54153419 5.31078243 1.12842619
-2.49576902 5.31683302 1.22465730
-2.42456555 5.45061398 1.30328333
-2.44635177 5.32320261 1.31939209
-2.52315331 5.18720627 1.24276805
-2.47285199 5.19384670 1.33842492
-2.47285199 5.19384670 1.33842492
-2.44635177 5.32320261 1.31939209
-2.41849971 5.20000982 1.43152881
-2.50420785 5.06343222 1.36012840
-2.44884396 5.06975222 1.45432520
-2.39000440 5.07580185 1.54613733
-2.48453116 4.93939495 1.48031139
-2.42462707 4.94549799 1.57322967
-2.36180520 4.95168257 1.66424298
-2.46545672 4.81626701 1.60447967
-2.40147948 4.82246876 1.69655597
-2.33363724 4.82887459 1.78656030
-2.44854712 4.69567442 1.73399782
-2.37919593 4.70193529 1.82516789
-2.30664182 4.70799398 1.91381955
-2.43137622 4.57786369 1.86890697
-2.35708928 4.58362770 1.95879114
-2.27960491 4.58923054 2.04603887
-2.41357017 4.46258116 2.00870776
-2.33450603 4.46818209 2.09772182
-2.24952888 4.47283983 2.18261409
-2.39480209 4.35219193 2.15529060
-2.30792975 4.35633612 2.24207473
-2.21988249 4.36086988 2.32498002
-2.36828327 4.24254847 2.30481720
-2.27610850 4.24654627 2.39049697
-2.18210053 4.25065374 2.47269535
-2.33505011 4.13380623 2.45692086
-2.23823094 4.13767910 2.54104090
-2.13849854 4.14138699 2.62171745
-2.29515171 4.02536535 2.61010385
-2.19245696 4.02898359 2.69238400
-2.08553052 4.03293991 2.77080727
-2.13746119 3.92050624 2.84349990
-2.24676323 3.91648078 2.76320720
-2.02561212 3.92426991 2.92015386
-2.07533860 3.81198573 2.99506187
-2.18962049 3.80811739 2.91658497
-1.95878887 3.81548810 3.06966853
-2.00648189 3.70454073 3.14813328
-2.12547445 3.70084977 3.07178807
-1.88379514 3.70817971 3.21975708
-2.05640793 3.59812379 3.23164868
-1.93069458 3.60191274 3.30459833
-1.80230856 3.60532165 3.37256885
-1.98031616 3.50199342 3.39544702
-1.84849489 3.50560689 3.46475649
-1.71371353 3.50879550 3.52971983
-1.89663494 3.41381001 3.56361938
-1.75756347 3.41728044 3.63031363
-1.61549556 3.42036915 3.69231415
-1.80289090 3.33421016 3.73749161
-1.65699327 3.33750105 3.80077410
-1.50892103 3.33805656 3.85509205
-1.69906473 3.26150703 3.91437602
-1.54687679 3.26243973 3.96994138
-1.39122331 3.26284170 4.02105618
-1.58422279 3.19176769 4.08858633
-1.42393315 3.19299769 4.14100933
-1.26188779 3.19317675 4.18806267
-1.45576608 3.12517142 4.26262617
-1.28930056 3.12609792 4.31088114
-1.12102556 3.12608004 4.35278225
-1.31569099 3.05820870 4.43342781
-1.14173186 3.05922556 4.47693110
-0.96672225 3.05960798 4.51153564
-1.16260040 2.98820925 4.59830999
-0.98103732 2.98869419 4.63483810
-0.80212343 2.98862410 4.66458082
-0.99986875 2.91392756 4.75394201
-0.81405878 2.91509080 4.78604603
-0.62765485 2.91399002 4.81062889
-0.82934356 2.83754182 4.90270376
-0.63686162 2.83712697 4.92892075
-0.44466332 2.83569169 4.94867706
-0.64685267 2.75539947 5.04258776
-0.44921246 2.75424027 5.06308889
-0.25163755 2.75353980 5.07569313
-0.45460656 2.66849661 5.17332649
-0.25201336 2.66749525 5.18660927
-0.04881619 2.66580725 5.19162941
-0.25283086 2.57752824 5.29350567
-0.04509623 2.57576752 5.29886389
0.16204728 2.57345819 5.29694176
-0.04221421 2.48211598 5.40264797
0.16919485 2.47954392 5.40073252
0.37990022 2.47650433 5.39135027
0.17561302 2.38135242 5.50014687
0.39064515 2.37775445 5.49017000
0.60487032 2.37432814 5.47247839
0.40056619 2.27513671 5.58475304
0.61851895 2.27138996 5.56692648
0.83515632 2.26912880 5.54037380
0.63124555 2.16482544 5.65694189
0.85143024 2.16235590 5.63010406
1.07059193 2.15958881 5.59471941
0.86675054 2.05171514 5.71485662
1.08935630 2.04852295 5.67841768
1.31031692 2.04533219 5.63399649
1.10677612 1.93368697 5.75692320
1.33088911 1.93045306 5.71188736
1.55325150 1.92731309 5.65893030
1.35029829 1.81310499 5.78642750
1.57569134 1.80949426 5.73138475
1.79933989 1.80640984 5.66838980
1.59651506 1.68845940 5.79862833
1.82305837 1.68505573 5.73443985
2.04700923 1.68198693 5.66201401
1.84499133 1.56116581 5.79572678
2.07166624 1.55781925 5.72217321
2.29554534 1.55418909 5.64120436
2.09442973 1.43154442 5.77790785
2.32097936 1.42746091 5.69559574
2.54285979 1.42197061 5.60376835
2.34427404 1.29889798 5.74589157
2.56857204 1.29308486 5.65356112
2.78756046 1.28589642 5.55268383
2.59182835 1.16251004 5.69952297
2.81274462 1.15477502 5.59796047
3.02795720 1.14585114 5.48842049
2.83491230 1.02171719 5.63880205
3.05176067 1.01209438 5.52904367
3.26221061 1.00208986 5.41230631
3.07191277 0.87658292 5.56542826
3.28361106 0.86573738 5.44844437
3.48876452 0.85477144 5.32474756
3.30122972 0.72799462 5.48128700
3.50754333 0.71602899 5.35741329
3.70643473 0.70438874 5.22594595
3.52221775 0.57629865 5.38767338
3.72232866 0.56394768 5.25588512
3.91616702 0.55249333 5.11740541
3.73411822 0.42283216 5.28390360
3.92940879 0.41092417 5.14492273
4.11839008 0.40019792 4.99797153
3.93904638 0.26909098 5.17051744
4.12965631 0.25827059 5.02237797
4.31475306 0.24818853 4.86768818
4.13736868 0.11633813 5.04343748
4.32471371 0.10632018 4.88807917
4.50574970 0.09679773 4.72567797
4.33290911 -0.03518990 4.90517616
4.51589441 -0.04462130 4.74138117
4.69223261 -0.05399271 4.57127714
4.52474928 -0.18594295 4.75343800
4.70167065 -0.19559672 4.58313656
4.87153482 -0.20525874 4.40685844
4.87846279 -0.34757105 4.41671944
4.70919609 -0.33766752 4.59252405
5.04108810 -0.35743728 4.23538876
5.04344225 -0.50077087 4.24585438
4.88224888 -0.49087548 4.42567921
5.19830608 -0.51085937 4.05995035
5.19485283 -0.65571076 4.07247829
5.04196787 -0.64558309 4.25614929
5.34114790 -0.66629642 3.88315463
5.33226061 -0.81244308 3.89761543
5.18769979 -0.80243623 4.08508301
5.47157764 -0.82113755 3.70309806
5.45923233 -0.96756560 3.71747637
5.32142115 -0.95983326 3.91097999
5.58936739 -0.97248697 3.51431465
5.57437325 -1.11788273 3.52625704
5.44464254 -1.11442292 3.72913599
5.69911623 -1.11867809 3.31581545
5.68341875 -1.26228356 3.32424784
5.55850124 -1.26315188 3.53490496
5.80319071 -1.25715268 3.10452485
5.78783941 -1.39793324 3.10716867
5.66713715 -1.40490878 3.32786274
5.90324783 -1.38775313 2.87902069
5.77224731 -1.53760815 3.10435319
5.88834906 -1.52598155 2.87534928
5.99690199 -1.51162457 2.63987279
5.87358713 -1.66311932 2.86656713
5.98258781 -1.64766002 2.63021684
6.08331537 -1.63078165 2.38991857
5.96787262 -1.78288376 2.61647224
6.06856966 -1.76541543 2.37614918
6.15788603 -1.74679756 2.13164330
6.05268526 -1.89946520 2.35915637
6.14185190 -1.88052225 2.11511254
6.22192621 -1.86116338 1.86785853
6.12466431 -2.01403356 2.09684944
6.20452738 -1.99465764 1.85089958
6.27440453 -1.97540772 1.60171092
6.18487167 -2.12811017 1.83316278
6.25453568 -2.10905147 1.58578825
6.31467056 -2.09091878 1.33586848
6.23272657 -2.24298310 1.57027531
6.29193020 -2.22532797 1.32289970
6.34162426 -2.20933962 1.07366133
6.26702166 -2.36017776 1.31124783
6.31569004 -2.34469271 1.06469095
6.35425234 -2.33092809 0.81716651
6.28690386 -2.48032212 1.05702806
6.32439089 -2.46714926 0.81236178
6.35238171 -2.45528436 0.56811845
6.29154968 -2.60351777 0.80868560
6.31925869 -2.59226584 0.56687152
6.33718395 -2.58199358 0.32555458
6.28284883 -2.72884226 0.56574702
6.30097342 -2.71921229 0.32654887
6.31079531 -2.71076179 0.08868990
6.26229525 -2.85610199 0.32754904
6.27220011 -2.84854007 0.09193487
6.27297115 -2.84190965 -0.14197834
6.23168945 -2.98008227 -0.13643135
6.23083162 -2.98581719 0.09526795
6.22414923 -2.97514606 -0.36585084
6.18025351 -3.11407900 -0.35717097
6.18782711 -3.11777639 -0.13052495
6.16529226 -3.11092091 -0.58174723
6.11883307 -3.25010800 -0.57035738
6.13376474 -3.25237846 -0.34778616
6.09519482 -3.24846029 -0.78995448
6.04567623 -3.38773251 -0.77542710
6.06946898 -3.38851213 -0.55814898
6.01429272 -3.38695168 -0.99002397
5.96172810 -3.52574134 -0.97264147
5.99333143 -3.52597547 -0.76001573
5.92312813 -3.52543139 -1.18281114
5.86810064 -3.66350865 -1.16254413
5.90585661 -3.66308928 -0.95428491
5.82193041 -3.66458869 -1.36753392
5.76585054 -3.80251026 -1.34444904
5.81136274 -3.80084491 -1.14127421
5.71379709 -3.80406880 -1.54558361
5.65646935 -3.94140506 -1.51971889
5.70785522 -3.93942642 -1.32039285
5.59830666 -3.94334102 -1.71595168
5.53925991 -4.07976341 -1.68678200
5.59696865 -4.07764530 -1.49243987
5.47435379 -4.08296585 -1.87800586
5.41390371 -4.21837902 -1.84599388
5.47838640 -4.21508074 -1.65668154
5.34278679 -4.22206163 -2.03244615
5.28057671 -4.35581398 -1.99750948
5.35142612 -4.35245991 -1.81321681
5.20250416 -4.35903692 -2.17907143
5.13948011 -4.49105930 -2.14206386
5.21617842 -4.48798609 -1.96204662
5.05523443 -4.49474716 -2.31936884
4.99118471 -4.62468195 -2.28066134
5.07448387 -4.62150002 -2.10476208
4.96382666 -4.49963856 -2.49403119
4.90041447 -4.62858009 -2.45367360
4.83534050 -4.75598669 -2.41311121
4.92520189 -4.75295830 -2.24169230
4.90041447 -4.62858009 -2.45367360
4.73936510 -4.75921011 -2.58230066
4.83534050 -4.75598669 -2.41311121
4.67394304 -4.88441563 -2.54005718
4.76863670 -4.88191032 -2.37237954
4.57311058 -4.88706827 -2.70549560
4.50826645 -5.01025915 -2.66161084
4.60751534 -5.00836468 -2.49784279
4.40023470 -5.01279688 -2.82233906
4.33616400 -5.13412523 -2.77682447
4.44127750 -5.13239384 -2.61788273
4.22331333 -5.13647604 -2.93320656
4.15776920 -5.25552130 -2.88593435
4.26838827 -5.25392818 -2.73188663
4.04087782 -5.25778627 -3.03748560
3.97440267 -5.37496996 -2.98882103
4.08930683 -5.37316942 -2.83939910
3.85370374 -5.37742996 -3.13506103
3.78655362 -5.49323988 -3.08503318
3.90528917 -5.49097633 -2.94084501
3.66229224 -5.49617386 -3.22539258
3.59447289 -5.61082602 -3.17387199
3.71666837 -5.60792828 -3.03560615
3.46581101 -5.61421347 -3.30558705
3.52401614 -5.72424936 -3.12225270
3.39717126 -5.72759724 -3.25221610
3.26491761 -5.73108292 -3.37684131
3.32827115 -5.83976889 -3.19653869
3.19884944 -5.84322834 -3.31803751
3.06448913 -5.84612799 -3.43392682
3.13276601 -5.95394325 -3.25632811
3.00109577 -5.95690155 -3.36957788
2.86506629 -5.95947266 -3.47741103
2.93710923 -6.06600428 -3.30256772
2.80419087 -6.06901598 -3.40808773
2.66772985 -6.07206869 -3.50861716
2.74299502 -6.17679691 -3.33625841
2.60977459 -6.18011045 -3.43411708
2.47086692 -6.18301344 -3.52604055
2.41590500 -6.28959036 -3.44779587
2.55188918 -6.28653908 -3.35752988
2.27692389 -6.29274035 -3.53365374
2.22503304 -6.39721823 -3.45143771
2.36107135 -6.39409447 -3.36722207
2.08633208 -6.40013075 -3.53083754
2.03865123 -6.50216293 -3.44379258
2.17380381 -6.49914455 -3.36614013
1.90070355 -6.50483322 -3.51638484
1.85623217 -6.60416603 -3.42462492
1.99130714 -6.60149050 -3.35392237
1.71743429 -6.60725641 -3.48992944
1.67689347 -6.70380306 -3.39331770
1.81193531 -6.70069504 -3.32985497
1.54053831 -6.70697355 -3.45166636
1.50490487 -6.80091906 -3.35044813
1.63773155 -6.79792547 -3.29349685
1.37022436 -6.80416727 -3.40277529
1.33781612 -6.89476538 -3.29795504
1.46887529 -6.89148760 -3.24682856
1.20529699 -6.89852762 -3.34401417
1.17697501 -6.98720551 -3.23616052
1.30578017 -6.98354626 -3.19211674
1.04582894 -6.99073267 -3.27438545
1.02170908 -7.07945728 -3.16588569
1.14905882 -7.07602262 -3.12876844
0.89299864 -7.08258772 -3.19758224
0.87446994 -7.17280960 -3.08928967
0.99825323 -7.16958380 -3.05878353
0.74963409 -7.17579889 -3.11455011
0.73616463 -7.26849365 -3.00754261
0.85718489 -7.26571417 -2.98325253
0.61397505 -7.27139521 -3.02679086
0.60530210 -7.36869526 -2.92263389
0.72378343 -7.36551332 -2.90430713
0.48656985 -7.37189102 -2.93588662
0.59948909 -7.47708130 -2.82909513
0.48423228 -7.47970152 -2.84130144
0.36861777 -7.48249578 -2.84961748
0.48369253 -7.59928989 -2.76146317
0.37114793 -7.60219526 -2.76973057
0.25875798 -7.60494137 -2.77385783
0.26625800 -7.73419952 -2.70983887
0.37592232 -7.73093081 -2.70441914
0.15550832 -7.73758793 -2.71071315
0.16556302 -7.87478590 -2.66506743
0.27444017 -7.87137365 -2.66354990
0.05649330 -7.87829733 -2.66328549
0.06831898 -8.02040672 -2.63772202
0.17611775 -8.01726723 -2.63843036
-0.03966072 -8.02356052 -2.63377786
-0.02872667 -8.16824627 -2.63135910
0.07922851 -8.16540337 -2.63377023
-0.13674429 -8.17114544 -2.62524581
-0.12727897 -8.31505108 -2.63820744
-0.01889198 -8.31259823 -2.64405560
-0.23572955 -8.31755543 -2.62776518
-0.22950979 -8.45852757 -2.65690589
-0.11988574 -8.45657063 -2.66648078
-0.33887184 -8.46078396 -2.64281034
-0.22604600 -8.59385490 -2.70461869
-0.33719653 -8.59585667 -2.69019628
-0.44798881 -8.59810448 -2.67152953
-0.33778009 -8.72470284 -2.74769902
-0.45127636 -8.72654915 -2.72846603
-0.56375325 -8.72808075 -2.70527816
-0.45636001 -8.84928417 -2.79123735
-0.57120895 -8.85026360 -2.76771688
-0.68546617 -8.85131931 -2.74018717
-0.58010066 -8.96718311 -2.83311152
-0.69681978 -8.96767044 -2.80494499
-0.81317711 -8.96862507 -2.77188730
-0.70989531 -9.07818985 -2.87081695
-0.82904071 -9.07865906 -2.83715010
-0.94720113 -9.07980061 -2.79887152
-0.84535778 -9.18344021 -2.90131307
-0.96614987 -9.18402195 -2.86276197
-1.08522987 -9.18515778 -2.81910229
-0.98419237 -9.28425980 -2.92219901
-1.10566020 -9.28544617 -2.87695742
-1.22554958 -9.28719330 -2.82672262
-1.12266064 -9.38259602 -2.92331004
-1.24425554 -9.38467312 -2.87214041
-1.36459661 -9.38682938 -2.81712532
-1.25765491 -9.48307705 -2.90827489
-1.37943149 -9.48568726 -2.85275531
-1.49926603 -9.48912334 -2.79235959
-1.38880980 -9.58340168 -2.87740016
-1.50958502 -9.58619118 -2.81615567
-1.62777400 -9.58845997 -2.74937391
-1.51464593 -9.67823124 -2.83048272
-1.63351536 -9.67900944 -2.76350188
-1.74972260 -9.67820549 -2.69119000
-1.75003302 -9.76011753 -2.69568038
-1.63351178 -9.76058578 -2.76794791
-1.86397517 -9.75995445 -2.61851525
-1.85855019 -9.83776379 -2.61462617
-1.74451184 -9.83747959 -2.69120574
-1.96941137 -9.83858109 -2.53296804
-1.95547509 -9.91037750 -2.51830506
-1.84521437 -9.90960979 -2.59940505
-2.06283855 -9.91155910 -2.43266106
-1.92309713 -9.95481110 -2.47923541
-2.02887392 -9.95543385 -2.39412737
-2.13207936 -9.95667267 -2.30558205
-1.98306525 -9.96745491 -2.34112430
-2.08449364 -9.96772099 -2.25418663
-2.18211699 -9.96819305 -2.16464901
-2.04063296 -9.93785858 -2.20790911
-2.13770103 -9.93739891 -2.12060261
-2.23208928 -9.93754101 -2.03037691
-2.21354604 -9.87085438 -2.01511145
-2.13770103 -9.93739891 -2.12060261
-2.12066221 -9.86823177 -2.10581541
-2.23208928 -9.93754101 -2.03037691
-2.32322574 -9.93849945 -1.93705082
-2.30273867 -9.87467670 -1.92010164
-2.20212245 -9.79626942 -2.00634050
-2.28936195 -9.80138302 -1.90978456
-2.37261200 -9.80710602 -1.80956113
-2.26712704 -9.72398090 -1.89155567
-2.35029054 -9.72878551 -1.79238331
-2.43024468 -9.73308563 -1.68994820
-2.31014299 -9.65034485 -1.76104283
-2.38758826 -9.65475464 -1.65892994
-2.46113753 -9.65756607 -1.55490935
-2.32425714 -9.58559799 -1.61377573
-2.39729309 -9.58756351 -1.51396072
-2.46866727 -9.58807945 -1.40933800
-2.38612175 -9.53426838 -1.36139989
-2.31562066 -9.53346825 -1.46250856
-2.45429659 -9.53546429 -1.25771677
-2.35740018 -9.49821854 -1.20676994
-2.29091477 -9.49770641 -1.30670869
-2.42093468 -9.49848747 -1.10391641
-2.31251216 -9.47784233 -1.05192339
-2.25102997 -9.47730541 -1.15019858
-2.36969733 -9.47738647 -0.95110071
-2.25097442 -9.46800804 -0.90064293
-2.19558191 -9.46846962 -0.99665099
-2.30242825 -9.46734524 -0.80227786
-2.17888069 -9.46182060 -0.75470680
-2.12893653 -9.46253872 -0.84858155
-2.22490788 -9.46091938 -0.65842146
-2.09821701 -9.45779610 -0.61403465
-2.05358982 -9.45873642 -0.70560449
-2.13905120 -9.45670509 -0.52023458
-2.01059055 -9.45501328 -0.47893521
-1.97115719 -9.45607376 -0.56791830
-2.04626870 -9.45387077 -0.38796404
-1.91687512 -9.45322895 -0.35026437
-1.88257480 -9.45426941 -0.43613729
-1.94747317 -9.45211220 -0.26254636
-1.81808758 -9.45198822 -0.22655293
-1.78880990 -9.45304775 -0.30960101
-1.84357357 -9.45086765 -0.14221524
-1.71394038 -9.45118713 -0.11045702
-1.68950498 -9.45222855 -0.19058985
-1.73469102 -9.45010090 -0.02923360
-1.60478330 -9.45075035 -0.00185647
-1.58548963 -9.45172405 -0.07833294
-1.62056458 -9.44975471 0.07540776
-1.47759163 -9.45145226 0.02720821
-1.49206126 -9.45056057 0.09998515
-1.50309801 -9.44966412 0.17327209
-1.36713016 -9.45125484 0.12573250
-1.37651384 -9.45045662 0.19450647
-1.38258076 -9.44967365 0.26334053
-1.25299847 -9.45108700 0.21604487
-1.25756514 -9.45038033 0.28118348
-1.25893986 -9.44968891 0.34615523
-1.13608968 -9.45086288 0.29964849
-1.13546479 -9.45024014 0.36017495
-1.13170564 -9.44962978 0.42008579
-1.01871598 -9.45044422 0.37608409
-1.01337671 -9.44986820 0.43247807
-1.00473118 -9.44929504 0.48784968
-0.90245605 -9.44979572 0.44594577
-0.89301288 -9.44915867 0.49718487
-0.88306558 -9.44854164 0.54868072
-0.79235178 -9.44872475 0.50995064
-0.78210217 -9.44814014 0.55769271
-0.76530546 -9.44749069 0.60375655
-0.69175768 -9.44745159 0.56858408
-0.67484778 -9.44671726 0.61269087
-0.65393901 -9.44590759 0.65548170
-0.59349775 -9.44574165 0.62459940
-0.57396138 -9.44486046 0.66739959
-0.55253273 -9.44388580 0.71072143
-0.50250381 -9.44359875 0.68355966
-0.48505771 -9.44256115 0.72884160
-0.43934393 -9.44225597 0.70345545
-0.45293242 -9.44323254 0.65797043
-0.39296728 -9.44180393 0.67897379
-0.51969969 -9.44454956 0.63968748
-0.53506029 -9.44541359 0.59639132
-0.46612704 -9.44412327 0.61372894
-0.60992509 -9.44653797 0.58145022
-0.62248832 -9.44725800 0.53742516
-0.54749519 -9.44619942 0.55296499
-0.70389032 -9.44812393 0.52288491
-0.71057338 -9.44875431 0.47548774
-0.63032913 -9.44788837 0.49267071
-0.80215722 -9.44933224 0.46103567
-0.81027639 -9.44994640 0.40996695
-0.71812010 -9.44933414 0.42740723
-0.91036159 -9.45032787 0.39319357
-0.91373032 -9.45090389 0.33922648
-0.81413579 -9.45053005 0.35892096
-1.02068126 -9.45103931 0.31883061
-1.01935136 -9.45164204 0.26102689
-0.91397125 -9.45147610 0.28424522
-1.13351929 -9.45149326 0.23866978
-1.12769401 -9.45213032 0.17746061
-1.01474798 -9.45224190 0.20293836
-1.24518096 -9.45180130 0.15092434
-1.23405969 -9.45252132 0.08601794
-1.11855888 -9.45277023 0.11622807
-1.35438323 -9.45205402 0.05722519
-1.33810806 -9.45285034 -0.01097984
-1.21960163 -9.45323563 0.02153404
-1.45967865 -9.45232868 -0.04486500
-1.31836760 -9.45362949 -0.07853076
-1.43847692 -9.45317650 -0.11605708
-1.56268728 -9.45266724 -0.15382616
-1.53638387 -9.45356846 -0.22813600
-1.41402674 -9.45399380 -0.18621866
-1.66148818 -9.45321655 -0.26934320
-1.62993014 -9.45414352 -0.34651408
-1.50660551 -9.45442581 -0.30105302
-1.75559700 -9.45404148 -0.39128950
-1.71882868 -9.45495415 -0.47109613
-1.59489250 -9.45500469 -0.42190522
-1.84453046 -9.45522118 -0.52019429
-1.80258930 -9.45608425 -0.60245347
