1.88806045 9.59889030 3.62775016
1.80847144 9.59889030 3.66808510
1.98072135 9.67347622 3.61115503
2.05902815 9.67347527 3.56707692
2.04450512 9.59888840 3.54192209
1.96675062 9.59888840 3.58568978
2.13635421 9.67347431 3.52130079
2.21266317 9.67347336 3.47384906
2.19705701 9.59888649 3.44935131
2.12128592 9.59888649 3.49646926
2.28791904 9.67347336 3.42474318
2.36208534 9.67347240 3.37400794
2.34542561 9.59888649 3.35021448
2.27178168 9.59888649 3.40059233
2.43512774 9.67347240 3.32166576
2.50701094 9.67347240 3.26774240
2.48932862 9.59888649 3.24469924
2.41795254 9.59888649 3.29824162
2.57770038 9.67347336 3.21226454
2.64716268 9.67347431 3.15525723
2.62849212 9.59888649 3.13300681
2.55951953 9.59888649 3.18961167
2.71536469 9.67347527 3.09674907
2.78227448 9.67347622 3.03676629
2.76265121 9.59888840 3.01535130
2.69621325 9.59888649 3.07491112
2.84785986 9.67347622 2.97533822
2.91208911 9.67347622 2.91249371
2.89155054 9.59888840 2.89195538
2.82777405 9.59888840 2.95435667
2.97493219 9.67347622 2.84826374
3.03635907 9.67347622 2.78267765
3.01494384 9.59888935 2.76305461
2.95395041 9.59888840 2.82817769
3.09634161 9.67347527 2.71576738
3.15485001 9.67347336 2.64756513
3.13259935 9.59888649 2.62889457
3.07450318 9.59888840 2.69661641
3.21185637 9.67347240 2.57810283
3.26733375 9.67347240 2.50741339
3.24428988 9.59888649 2.48973131
3.18920350 9.59888649 2.55992246
3.32125497 9.67347336 2.43553019
3.37359571 9.67347336 2.36248755
3.34980226 9.59888649 2.34582758
3.29783082 9.59888649 2.41835499
3.42433119 9.67347336 2.28832078
3.47343659 9.67347240 2.21306443
3.44893956 9.59888649 2.19745803
3.40017986 9.59888649 2.27218366
3.52088809 9.67347336 2.13675451
3.56666398 9.67347431 2.05942798
3.54150939 9.59888649 2.04490495
3.49605608 9.59888649 2.12168670
3.61074162 9.67347431 1.98112071
3.65310097 9.67347527 1.90187097
3.62733674 9.59888840 1.88845897
3.58527589 9.59888649 1.96715009
3.69372106 9.67347622 1.82171559
3.73258328 9.67347527 1.74069345
3.70625877 9.59888840 1.72841823
3.66767073 9.59888840 1.80886889
3.76966715 9.67347431 1.65884304
3.80495691 9.67347431 1.57620335
3.77812195 9.59888649 1.56508839
3.74308109 9.59888649 1.64714527
3.83843684 9.67347336 1.49281371
3.87008977 9.67347431 1.40871370
3.84279513 9.59888649 1.39877963
3.81136560 9.59888649 1.48228681
3.89989948 9.67347431 1.32394266
3.92785406 9.67347431 1.23854160
3.90015197 9.59888649 1.22980738
3.87239504 9.59888649 1.31460631
3.95393848 9.67347431 1.15255058
3.97814131 9.67347431 1.06601131
3.95008492 9.59888649 1.05849385
3.92605305 9.59888649 1.14442289
4.00045013 9.67347431 0.97896445
4.02085400 9.67347431 0.89145207
3.99249721 9.59888649 0.88516551
3.97223663 9.59888649 0.97206086
4.03934479 9.67347431 0.80351591
4.05591202 9.67347527 0.71519721
4.02730799 9.59888840 0.71015358
4.01085663 9.59888840 0.79784954
4.07054853 9.67347431 0.62653726
4.08324862 9.67347431 0.53757882
4.05445051 9.59888649 0.53378785
4.04184055 9.59888840 0.62211889
4.09400463 9.67347431 0.44836432
4.10281277 9.67347431 0.35893655
4.07387686 9.59888649 0.35640526
4.06513071 9.59888649 0.44520241
4.10966730 9.67347431 0.26933831
4.11456537 9.67347431 0.17961200
4.08554745 9.59888649 0.17834525
4.08068323 9.59888649 0.26743886
4.11750317 9.67347431 0.08979996
4.11848164 9.67347431 -0.00005506
4.08943558 9.59888649 -0.00005482
4.08846378 9.59888649 0.08916656
4.11750078 9.67347240 -0.08991040
4.11456108 9.67347145 -0.17972279
4.08554268 9.59888554 -0.17845556
4.08846188 9.59888554 -0.08927651
4.10966110 9.67347240 -0.26944900
4.10280514 9.67347431 -0.35904649
4.07386971 9.59888649 -0.35651472
4.08067751 9.59888554 -0.26754901
4.09399557 9.67347431 -0.44847292
4.08323717 9.67347240 -0.53768563
4.05444050 9.59888649 -0.53389406
4.06512308 9.59888649 -0.44531044
4.07053661 9.67347336 -0.62664241
4.05589771 9.67347240 -0.71530145
4.02729321 9.59888649 -0.71025753
4.04182863 9.59888649 -0.62222356
4.03932905 9.67347240 -0.80362123
4.02083731 9.67347240 -0.89155865
3.99247956 9.59888554 -0.88527179
4.01084137 9.59888649 -0.79795450
4.00043249 9.67347240 -0.97907102
3.97812295 9.67347431 -1.06611693
3.95006680 9.59888649 -1.05859876
3.97221923 9.59888649 -0.97216690
3.95391893 9.67347431 -1.15265489
3.92783260 9.67347240 -1.23864472
3.90013123 9.59888554 -1.22991025
3.92603350 9.59888649 -1.14452684
3.89987659 9.67347240 -1.32404542
3.87006474 9.67347050 -1.40881658
3.84277034 9.59888363 -1.39888203
3.87237215 9.59888554 -1.31470883
3.83841038 9.67347240 -1.49291706
3.80492878 9.67347240 -1.57630694
3.77809405 9.59888554 -1.56519115
3.81133938 9.59888554 -1.48238957
3.76963568 9.67347240 -1.65894592
3.73254848 9.67347050 -1.74079525
3.70622396 9.59888554 -1.72851920
3.74304986 9.59888554 -1.64724731
3.69368458 9.67347050 -1.82181585
3.65306377 9.67347050 -1.90196967
3.62729979 9.59888363 -1.88855755
3.66763473 9.59888363 -1.80896878
3.61070251 9.67347240 -1.98121846
3.56662369 9.67347431 -2.05952454
3.54146910 9.59888554 -2.04500103
3.58523726 9.59888554 -1.96724725
3.52084613 9.67347240 -2.13685036
3.47339368 9.67347050 -2.21315956
3.44889665 9.59888363 -2.19755268
3.49601460 9.59888554 -2.12178183
3.42428732 9.67347050 -2.28841472
3.37355065 9.67347050 -2.36258078
3.34975815 9.59888363 -2.34592056
3.40013647 9.59888363 -2.27227759
3.32120824 9.67347145 -2.43562269
3.26728511 9.67347240 -2.50750566
3.24424195 9.59888554 -2.48982310
3.29778481 9.59888554 -2.41844726
3.21180654 9.67347240 -2.57819462
3.15479946 9.67347145 -2.64765668
3.13254881 9.59888554 -2.62898588
3.18915439 9.59888554 -2.56001353
3.09629011 9.67347050 -2.71585798
3.03631115 9.67347050 -2.78276300
3.01489687 9.59888363 -2.76313949
3.07445240 9.59888554 -2.69670630
2.97489572 9.67347145 -2.84833455
2.95391393 9.59888554 -2.82824898
2.85912061 9.41966057 -2.85960770
2.79606199 9.41966057 -2.92130375
2.78640437 9.31511307 -2.91121531
2.84924507 9.31511307 -2.84973168
2.73166895 9.41966057 -2.98161411
2.72223377 9.31511211 -2.97131753
2.71678734 9.17847347 -2.96537375
2.78083014 9.17847443 -2.90539193
2.84354496 9.17847347 -2.84403133
2.66597486 9.41965866 -3.04050517
2.65676665 9.31511211 -3.03000498
2.59901190 9.41965866 -3.09794950
2.59003496 9.31511021 -3.08725095
2.58485293 9.17847157 -3.08107495
2.65145135 9.17847157 -3.02394390
2.53081250 9.41965866 -3.15391946
2.52207065 9.31511116 -3.14302754
2.46140790 9.41965866 -3.20838881
2.45290589 9.31511116 -3.19730878
2.44799805 9.17847157 -3.19091272
2.51702499 9.17847061 -3.13674045
2.39083123 9.41965771 -3.26133037
2.38257313 9.31511021 -3.25006723
2.31911707 9.41965675 -3.31271958
2.31110644 9.31511021 -3.30127931
2.30648232 9.17847157 -3.29467535
2.37780619 9.17847157 -3.24356604
2.24629927 9.41965866 -3.36253309
2.23854017 9.31511116 -3.35092092
2.17241240 9.41965866 -3.41074634
2.16490865 9.31511116 -3.39896727
2.16057706 9.17847157 -3.39216805
2.23406124 9.17847061 -3.34421754
2.09749079 9.41965866 -3.45733476
2.09024549 9.31511116 -3.44539523
2.02157021 9.41965866 -3.50227809
2.01458716 9.31511116 -3.49018288
2.01055646 9.17847157 -3.48320127
2.08606339 9.17847157 -3.43850303
1.94468713 9.41965866 -3.54555440
1.93796980 9.31511211 -3.53330970
1.86687887 9.41966057 -3.58714342
1.86043000 9.31511211 -3.57475591
1.85670757 9.17847347 -3.56760454
1.93409240 9.17847157 -3.52624202
1.78818166 9.41965961 -3.62702608
1.78200483 9.31511211 -3.61450005
1.70863354 9.41965866 -3.66518283
1.70273125 9.31511211 -3.65252495
1.69932425 9.17847157 -3.64521861
1.77843916 9.17847252 -3.60726953
1.62827158 9.41965866 -3.70159411
1.62264669 9.31511116 -3.68881059
1.54713476 9.41965675 -3.73624349
1.54179013 9.31511021 -3.72334051
1.53870511 9.17847157 -3.71589184
1.61940014 9.17847157 -3.68143058
1.46526182 9.41965866 -3.76911473
1.46020019 9.31511116 -3.75609756
1.38269150 9.41965866 -3.80019188
1.37791491 9.31511211 -3.78706813
1.37515771 9.17847157 -3.77949262
1.45727837 9.17847157 -3.74858379
1.29946220 9.41965866 -3.82946038
1.29497302 9.31511116 -3.81623483
1.21561396 9.41965675 -3.85690546
1.21141422 9.31511021 -3.84358597
1.20899010 9.17847157 -3.83589721
1.29238188 9.17847157 -3.80860066
1.13118660 9.41965675 -3.88251615
1.12727845 9.31511021 -3.86910772
1.04622090 9.41965675 -3.90627861
1.04260623 9.31511021 -3.89278841
1.04051971 9.17846966 -3.88500166
1.12502277 9.17846966 -3.86136770
0.96075678 9.41965771 -3.92818308
0.95743740 9.31511021 -3.91461682
0.87483555 9.41965866 -3.94821739
0.87181270 9.31511211 -3.93458247
0.87006813 9.17847157 -3.92671204
0.95552129 9.17847061 -3.90678668
0.78849787 9.41965866 -3.96637177
0.78577334 9.31511211 -3.95267415
0.70178485 9.41965961 -3.98263812
0.69935966 9.31511211 -3.96888399
0.69795996 9.17847252 -3.96094465
0.78420067 9.17847157 -3.94476700
0.61473721 9.41965866 -3.99700952
0.61261272 9.31511116 -3.98320580
0.52739680 9.41965675 -4.00947905
0.52557391 9.31511021 -3.99563241
0.52452159 9.17847061 -3.98763990
0.61138636 9.17847157 -3.97523832
0.43980509 9.41965580 -4.02003956
0.43828475 9.31510830 -4.00615692
0.35200411 9.41965485 -4.02868843
0.35078692 9.31510830 -4.01477575
0.35008430 9.17846870 -4.00674391
0.43740705 9.17846966 -3.99814343
0.26403573 9.41965675 -4.03541899
0.26312232 9.31510830 -4.02148294
0.17594136 9.41965771 -4.04022884
0.17533223 9.31511021 -4.02627611
0.17498057 9.17846966 -4.01822186
0.26259509 9.17846966 -4.01343870
0.08776251 9.41965771 -4.04311419
0.08745788 9.31511021 -4.02915192
-0.00045837 9.41965675 -4.04407644
-0.00045835 9.31511021 -4.03011036
-0.00045834 9.17847061 -4.02204847
0.08728201 9.17847061 -4.02109241
-0.00045837 9.41965675 -4.04407644
-0.08867880 9.41965675 -4.04311275
-0.08837412 9.31511021 -4.02915001
-0.00045835 9.31511021 -4.03011036
-0.17685717 9.41965675 -4.04022646
-0.17624795 9.31511021 -4.02627325
-0.17589633 9.17846966 -4.01821852
-0.08819826 9.17846966 -4.02109098
-0.00045834 9.17847061 -4.02204847
-0.26495188 9.41965485 -4.03541660
-0.26403841 9.31510830 -4.02148008
-0.35292083 9.41965580 -4.02868700
-0.35170358 9.31510830 -4.01477385
-0.35100099 9.17846870 -4.00674248
-0.26351115 9.17846966 -4.01343632
-0.44072205 9.41965675 -4.02003813
-0.43920153 9.31510830 -4.00615501
-0.52831364 9.41965675 -4.00947666
-0.52649075 9.31511021 -3.99563074
-0.52543849 9.17846966 -3.98763752
-0.43832389 9.17846966 -3.99814129
-0.61565405 9.41965675 -3.99700761
-0.61352938 9.31511021 -3.98320413
-0.70270157 9.41965675 -3.98263550
-0.70027643 9.31511021 -3.96888185
-0.69887650 9.17847157 -3.96094298
-0.61230308 9.17846966 -3.97523618
-0.78941530 9.41965866 -3.96636844
-0.78669071 9.31511021 -3.95267105
-0.87575346 9.41965866 -3.94821334
-0.87273067 9.31511021 -3.93457842
-0.87098587 9.17847061 -3.92670798
-0.78511792 9.17847061 -3.94476366
-0.96167439 9.41965866 -3.92817926
-0.95835483 9.31511021 -3.91461349
-1.04713774 9.41965866 -3.90627599
-1.04352319 9.31511021 -3.89278531
-1.04143667 9.17847061 -3.88499880
-0.95643872 9.17847061 -3.90678239
-1.13210332 9.41965771 -3.88251281
-1.12819517 9.31511021 -3.86910510
-1.21653020 9.41965675 -3.85690308
-1.21233058 9.31510925 -3.84358311
-1.20990646 9.17846966 -3.83589387
-1.12593913 9.17846966 -3.86136484
-1.30037808 9.41965771 -3.82945633
-1.29588890 9.31511021 -3.81623101
-1.38360751 9.41965866 -3.80018687
-1.37883091 9.31511116 -3.78706241
-1.37607372 9.17847157 -3.77948689
-1.29329765 9.17846966 -3.80859637
-1.46617901 9.41965866 -3.76910853
-1.46111727 9.31511211 -3.75609136
-1.54805315 9.41965961 -3.73623610
-1.54270828 9.31511211 -3.72333336
-1.53962326 9.17847347 -3.71588516
-1.45819545 9.17847157 -3.74857807
-1.62918973 9.41965866 -3.70158577
-1.62356496 9.31511211 -3.68880272
-1.70955169 9.41965866 -3.66517377
-1.70364904 9.31511021 -3.65251660
-1.70024192 9.17847157 -3.64521027
-1.62031817 9.17847157 -3.68142390
-1.78909981 9.41965771 -3.62701821
-1.78292310 9.31511021 -3.61449218
-1.86779726 9.41965675 -3.58713603
-1.86134839 9.31511021 -3.57474804
-1.85762620 9.17847061 -3.56759691
-1.77935731 9.17847061 -3.60726213
-1.94560599 9.41965675 -3.54554653
-1.93888867 9.31511021 -3.53330255
-2.02248907 9.41965675 -3.50227022
-2.01550603 9.31511021 -3.49017549
-2.01147532 9.17847061 -3.48319459
-1.93501103 9.17846966 -3.52623463
-2.09840870 9.41965866 -3.45732546
-2.09116364 9.31511021 -3.44538593
-2.17333031 9.41965866 -3.41073608
-2.16582608 9.31511021 -3.39895701
-2.16149473 9.17847061 -3.39215755
-2.08698177 9.17846966 -3.43849397
-2.24721694 9.41965866 -3.36252356
-2.23945785 9.31511021 -3.35091114
-2.32003498 9.41965675 -3.31271124
-2.31202459 9.31511021 -3.30127072
-2.30740047 9.17847061 -3.29466724
-2.23497963 9.17846966 -3.34420800
-2.39174891 9.41965675 -3.26132131
-2.38349080 9.31511021 -3.25005865
-2.46232486 9.41965675 -3.20837998
-2.45382333 9.31511021 -3.19729948
-2.44891548 9.17847061 -3.19090438
-2.37872410 9.17846966 -3.24355721
-2.53172874 9.41965675 -3.15391135
-2.52298737 9.31511021 -3.14301920
-2.59992838 9.41965675 -3.09794116
-2.59095120 9.31511021 -3.08724308
-2.58576941 9.17847061 -3.08106732
-2.51794147 9.17846966 -3.13673210
-2.66689086 9.41965675 -3.04049706
-2.65768242 9.31511021 -3.02999687
-2.73258471 9.41965675 -2.98160577
-2.72314930 9.31511021 -2.97130871
-2.71770334 9.17847061 -2.96536493
-2.65236735 9.17846966 -3.02393556
-2.79697776 9.41965675 -2.92129564
-2.78731990 9.31511021 -2.91120720
-2.86003923 9.41965675 -2.85959530
-2.85016418 9.31511021 -2.84971976
-2.84446430 9.17846966 -2.84401917
-2.78174543 9.17846966 -2.90538383
-2.92174029 9.41965675 -2.79653263
-2.91165161 9.31511021 -2.78687477
-2.98205018 9.41965675 -2.73213887
-2.97175312 9.31511021 -2.72270346
-2.96580958 9.17847061 -2.71725702
-2.90582824 9.17846966 -2.78130007
-3.04094100 9.41965675 -2.66644526
-3.03044105 9.31511021 -2.65723681
-3.09838557 9.41965675 -2.59948301
-3.08768654 9.31511021 -2.59050608
-3.08151126 9.17847061 -2.58532381
-3.02437973 9.17846966 -2.65192127
-3.15435481 9.41965675 -2.53128338
-3.14346313 9.31511021 -2.52254176
-3.20882392 9.41965675 -2.46187901
-3.19774389 9.31511021 -2.45337701
-3.19134831 9.17847061 -2.44846916
-3.13717604 9.17846966 -2.51749563
-3.26176476 9.41965675 -2.39130235
-3.25050235 9.31511021 -2.38304400
-3.31315446 9.41965675 -2.31958723
-3.30171394 9.31511021 -2.31157660
-3.29511023 9.17847061 -2.30695271
-3.24400067 9.17846966 -2.37827706
-3.36296749 9.41965866 -2.24676871
-3.35135508 9.31511021 -2.23900962
-3.41117978 9.41965866 -2.17288113
-3.39940166 9.31511021 -2.16537690
-3.39260221 9.17847157 -2.16104555
-3.34465194 9.17846966 -2.23453045
-3.45776939 9.41965866 -2.09795928
-3.44582939 9.31511116 -2.09071398
-3.50271225 9.41965866 -2.02203894
-3.49061799 9.31511116 -2.01505589
-3.48363614 9.17847157 -2.01102495
-3.43893790 9.17847061 -2.08653140
-3.54598999 9.41965771 -1.94515622
-3.53374505 9.31511116 -1.93843865
-3.58757925 9.41965675 -1.86734772
-3.57519174 9.31511021 -1.86089909
-3.56804037 9.17847157 -1.85717642
-3.52667785 9.17847157 -1.93456101
-3.62746119 9.41965675 -1.78865087
-3.61493516 9.31511021 -1.78247392
-3.66561675 9.41965771 -1.70910251
-3.65295959 9.31511021 -1.70320022
-3.64565301 9.17847157 -1.69979298
-3.60770535 9.17846966 -1.77890837
-3.70202780 9.41965866 -1.62874019
-3.68924475 9.31511211 -1.62311542
-3.73667789 9.41966057 -1.54760313
-3.72377467 9.31511211 -1.54225838
-3.71632695 9.17847252 -1.53917325
-3.68186641 9.17847157 -1.61986876
-3.76954937 9.41965866 -1.46572971
-3.75653267 9.31511211 -1.46066797
-3.80062723 9.41965771 -1.38315904
-3.78750324 9.31511021 -1.37838244
-3.77992797 9.17847157 -1.37562501
-3.74901938 9.17847157 -1.45774603
-3.82989669 9.41965675 -1.29993010
-3.81667185 9.31511021 -1.29544091
-3.85734296 9.41965675 -1.21608233
-3.84402323 9.31511021 -1.21188283
-3.83633423 9.17846966 -1.20945835
-3.80903769 9.17846966 -1.29284954
-3.88295197 9.41965580 -1.13165581
-3.86954379 9.31510925 -1.12774765
-3.90671396 9.41965580 -1.04669023
-3.89322424 9.31510925 -1.04307556
-3.88543749 9.17846966 -1.04098892
-3.86180496 9.17846966 -1.12549174
-3.92861724 9.41965675 -0.96122622
-3.91505098 9.31511021 -0.95790660
-3.94865131 9.41965866 -0.87530440
-3.93501592 9.31511211 -0.87228179
-3.92714548 9.17847157 -0.87053674
-3.90722132 9.17847157 -0.95599031
-3.96680593 9.41965771 -0.78896648
-3.95310783 9.31511021 -0.78624183
-3.98307276 9.41965675 -0.70225269
-3.96931911 9.31511021 -0.69982749
-3.96137929 9.17846966 -0.69842744
-3.94520140 9.17847157 -0.78466892
-3.99744391 9.41965866 -0.61520398
-3.98364043 9.31511211 -0.61307943
-4.00991344 9.41966057 -0.52786279
-3.99606657 9.31511211 -0.52603978
-3.98807454 9.17847347 -0.52498740
-3.97567296 9.17847157 -0.61185288
-4.02047539 9.41965866 -0.44027191
-4.00659180 9.31511211 -0.43875146
-4.02912378 9.41965771 -0.35247180
-4.01521158 9.31511021 -0.35125452
-4.00718021 9.17847157 -0.35055172
-3.99857879 9.17847252 -0.43787360
-4.03585529 9.41965866 -0.26450294
-4.02191877 9.31511211 -0.26358950
-4.04066420 9.41966057 -0.17640825
-4.02671099 9.31511211 -0.17579904
-4.01865768 9.17847347 -0.17544718
-4.01387501 9.17847157 -0.26306209
-4.04355001 9.41965866 -0.08823045
-4.02958679 9.31511211 -0.08792576
-4.04451084 9.41965866 -0.00001075
-4.03054476 9.31511211 -0.00001072
-4.02248287 9.17847157 -0.00001052
-4.02152777 9.17847157 -0.08774970
-4.04354668 9.41966057 0.08820972
-4.02958488 9.31511211 0.08790509
-4.04066038 9.41966057 0.17638855
-4.02670765 9.31511211 0.17577940
-4.01865387 9.17847347 0.17542796
-4.02152538 9.17847347 0.08772942
-4.03585148 9.41966057 0.26448342
-4.02191544 9.31511211 0.26357001
-4.02912188 9.41965866 0.35245225
-4.01520920 9.31511116 0.35123506
-4.00717783 9.17847157 0.35053265
-4.01387119 9.17847252 0.26304299
-4.02047443 9.41965866 0.44025311
-4.00659180 9.31511021 0.43873274
-4.00991392 9.41965866 0.52784449
-3.99606705 9.31511021 0.52602154
-3.98807454 9.17847061 0.52496952
-3.99857807 9.17846966 0.43785530
-3.99744391 9.41965866 0.61518449
-3.98364043 9.31511021 0.61306006
-3.98307133 9.41965866 0.70223218
-3.96931791 9.31511021 0.69980693
-3.96137857 9.17847157 0.69840735
-3.97567248 9.17846966 0.61183381
-3.96680427 9.41965866 0.78894597
-3.95310664 9.31511211 0.78622133
-3.94864964 9.41965961 0.87528431
-3.93501425 9.31511211 0.87226152
-3.92714334 9.17847252 0.87051696
-3.94519997 9.17847157 0.78464878
-3.92861605 9.41965866 0.96120560
-3.91504908 9.31511211 0.95788610
-3.90671110 9.41965866 1.04666924
-3.89322209 9.31511211 1.04305458
-3.88543415 9.17847252 1.04096854
-3.90721869 9.17847252 0.95597011
-3.88294911 9.41966057 1.13163483
-3.86954093 9.31511211 1.12772679
-3.85733914 9.41966057 1.21606183
-3.84401989 9.31511402 1.21186221
-3.83633137 9.17847347 1.20943832
-3.86180210 9.17847347 1.12547112
-3.82989264 9.41966057 1.29990947
-3.81666780 9.31511402 1.29542017
-3.80062270 9.41966057 1.38313878
-3.78749943 9.31511402 1.37836194
-3.77992439 9.17847347 1.37560499
-3.80903411 9.17847443 1.29282904
-3.76954532 9.41966057 1.46571004
-3.75652885 9.31511211 1.46064842
-3.73667359 9.41965866 1.54758453
-3.72377110 9.31511211 1.54224002
-3.71632361 9.17847347 1.53915501
-3.74901557 9.17847347 1.45772684
-3.70202422 9.41966057 1.62872243
-3.68924093 9.31511211 1.62309766
-3.66561246 9.41966057 1.70908499
-3.65295577 9.31511402 1.70318282
-3.64564991 9.17847443 1.69977605
-3.68186235 9.17847347 1.61985135
-3.62745714 9.41966152 1.78863323
-3.61493111 9.31511402 1.78245628
-3.58757377 9.41966057 1.86733007
-3.57518673 9.31511402 1.86088109
-3.56803584 9.17847443 1.85715878
-3.60770082 9.17847443 1.77889121
-3.54598451 9.41966057 1.94513750
-3.53373957 9.31511211 1.93842006
-3.50270653 9.41965866 2.02201986
-3.49061203 9.31511211 2.01503658
-3.48363042 9.17847347 2.01100636
-3.52667260 9.17847347 1.93454301
-3.45776224 9.41966057 2.09793878
-3.44582295 9.31511402 2.09069347
-3.41117287 9.41966152 2.17286015
-3.39939451 9.31511402 2.16535616
-3.39259529 9.17847443 2.16102505
-3.43893170 9.17847347 2.08651185
-3.36296034 9.41966152 2.24674821
-3.35134888 9.31511402 2.23898911
-3.31314802 9.41966057 2.31956744
-3.30170798 9.31511402 2.31155682
-3.29510427 9.17847347 2.30693316
-3.34464598 9.17847443 2.23451066
-3.26175880 9.41966057 2.39128113
-3.25049615 9.31511211 2.38302302
-3.20881724 9.41965866 2.46185637
-3.19773674 9.31511211 2.45335460
-3.19134188 9.17847157 2.44844699
-3.24399519 9.17847252 2.37825632
-3.15434766 9.41966057 2.53125978
-3.14345551 9.31511402 2.52251792
-3.09837699 9.41966152 2.59945893
-3.08767819 9.31511402 2.59048152
-3.08150268 9.17847538 2.58529997
-3.13716841 9.17847347 2.51747227
-3.04093266 9.41966152 2.66642141
-3.03043199 9.31511497 2.65721321
-2.98204088 9.41966152 2.73211551
-2.97174430 9.31511402 2.72268009
-2.96580076 9.17847443 2.71723413
-3.02437115 9.17847443 2.65189791
-2.92173076 9.41966057 2.79650831
-2.91164207 9.31511402 2.78685045
-2.86002994 9.41966057 2.85956979
-2.85015440 9.31511402 2.84969473
-2.84445429 9.17847347 2.84399438
-2.90581894 9.17847443 2.78127623
-2.79696798 9.41966057 2.92127061
-2.78731012 9.31511307 2.91118217
-2.73257518 9.41966057 2.98158145
-2.72313976 9.31511402 2.97128439
-2.71769333 9.17847443 2.96534109
-2.78173542 9.17847443 2.90535879
-2.66688156 9.41966152 3.04047275
-2.65767312 9.31511402 3.02997255
-2.59991908 9.41966057 3.09791684
-2.59094214 9.31511402 3.08721828
-2.58576012 9.17847443 3.08104277
-2.65235758 9.17847443 3.02391124
-2.53172016 9.41966152 3.15388632
-2.52297831 9.31511402 3.14299464
-2.46231627 9.41966057 3.20835543
-2.45381427 9.31511402 3.19727564
-2.44890642 9.17847443 3.19088054
-2.51793242 9.17847443 3.13670826
-2.39174032 9.41966152 3.26129746
-2.38348198 9.31511402 3.25003457
-2.32002616 9.41966057 3.31268692
-2.31201553 9.31511402 3.30124712
-2.30739164 9.17847443 3.29464388
-2.37871504 9.17847443 3.24353361
-2.24720788 9.41966152 3.36249995
-2.23944902 9.31511402 3.35088754
-2.17332077 9.41966152 3.41071248
-2.16581702 9.31511402 3.39893389
-2.16148520 9.17847443 3.39213490
-2.23497009 9.17847443 3.34418488
-2.09839964 9.41966152 3.45730329
-2.09115458 9.31511497 3.44536304
-2.02248001 9.41966343 3.50224733
-2.01549721 9.31511497 3.49015260
-2.01146650 9.17847633 3.48317170
-2.08697224 9.17847443 3.43847132
-1.94559729 9.41966152 3.54552412
-1.93887997 9.31511497 3.53327966
-1.86778879 9.41966152 3.58711267
-1.86133957 9.31511402 3.57472515
-1.85761750 9.17847443 3.56757474
-1.93500257 9.17847443 3.52621174
-1.78909075 9.41966152 3.62699509
-1.78291392 9.31511402 3.61446905
-1.70954180 9.41966152 3.66515064
-1.70363986 9.31511497 3.65249348
-1.70023263 9.17847633 3.64518785
-1.77934825 9.17847443 3.60723877
-1.62917960 9.41966343 3.70156217
-1.62355506 9.31511497 3.68877864
-1.54804242 9.41966343 3.73621130
-1.54269791 9.31511688 3.72330809
-1.53961289 9.17847633 3.71586037
-1.62030828 9.17847633 3.68139982
-1.46616888 9.41966152 3.76908064
-1.46110702 9.31511497 3.75606489
-1.38359761 9.41966057 3.80015707
-1.37882102 9.31511402 3.78703451
-1.37606394 9.17847443 3.77945900
-1.45818532 9.17847443 3.74855185
-1.30036783 9.41966152 3.82942605
-1.29587865 9.31511402 3.81620145
-1.21651971 9.41966152 3.85687232
-1.21232009 9.31511497 3.84355283
-1.20989585 9.17847538 3.83586478
-1.29328752 9.17847443 3.80856872
-1.13209271 9.41966152 3.88248253
-1.12818468 9.31511497 3.86907434
-1.04712737 9.41966152 3.90624571
-1.04351258 9.31511402 3.89275599
-1.04142618 9.17847443 3.88496923
-1.12592876 9.17847443 3.86133575
-0.96166360 9.41966152 3.92814946
-0.95834404 9.31511402 3.91458368
-0.87574244 9.41966152 3.94818354
-0.87271971 9.31511402 3.93454814
-0.87097478 9.17847443 3.92667842
-0.95642793 9.17847443 3.90675354
-0.78940493 9.41966152 3.96633840
-0.78668022 9.31511402 3.95264077
-0.70269173 9.41966152 3.98260570
-0.70026654 9.31511497 3.96885157
-0.69886684 9.17847633 3.96091366
-0.78510749 9.17847443 3.94473481
-0.61564380 9.41966152 3.99697614
-0.61351925 9.31511497 3.98317266
-0.52830285 9.41966152 4.00944424
-0.52647996 9.31511497 3.99559784
-0.52542770 9.17847443 3.98760629
-0.61229289 9.17847443 3.97520590
-0.44071057 9.41966343 4.02000618
-0.43919012 9.31511497 4.00612211
-0.35290882 9.41966343 4.02865362
-0.35169163 9.31511688 4.01474094
-0.35098901 9.17847633 4.00671005
-0.43831250 9.17847633 3.99810910
-0.26493952 9.41966343 4.03538370
-0.26402608 9.31511593 4.02144766
-0.17684506 9.41966152 4.04019356
-0.17623582 9.31511497 4.02624130
-0.17588422 9.17847443 4.01818752
-0.26349887 9.17847633 4.01340389
-0.08866784 9.41966152 4.04308081
-0.08836319 9.31511402 4.02911806
-0.00044854 9.41966152 4.04404354
-0.00044855 9.31511497 4.03007793
-0.00044855 9.17847538 4.02201605
-0.08818734 9.17847443 4.02105904
0.08777232 9.41966152 4.04308081
0.08746765 9.31511497 4.02911806
0.17595199 9.41966152 4.04019451
0.17534277 9.31511402 4.02624178
0.17499110 9.17847443 4.01818848
0.08729178 9.17847443 4.02105951
0.26404765 9.41966248 4.03538370
0.26313421 9.31511497 4.02144766
0.35201722 9.41966343 4.02865314
0.35079998 9.31511688 4.01474094
0.35009736 9.17847633 4.00671005
0.26260695 9.17847538 4.01340389
0.43981868 9.41966248 4.02000618
0.43829823 9.31511497 4.00612307
0.52741033 9.41966152 4.00944567
0.52558738 9.31511402 3.99559927
0.52453512 9.17847443 3.98760724
0.43742058 9.17847538 3.99810982
0.61475080 9.41966343 3.99697685
0.61262619 9.31511497 3.98317385
0.70179868 9.41966343 3.98260522
0.69937342 9.31511688 3.96885157
0.69797367 9.17847633 3.96091270
0.61139983 9.17847633 3.97520638
0.78851306 9.41966343 3.96633720
0.78578842 9.31511688 3.95263958
0.87485176 9.41966343 3.94818187
0.87182891 9.31511497 3.93454647
0.87008417 9.17847633 3.92667675
0.78421557 9.17847633 3.94473338
0.96077311 9.41966248 3.92814660
0.95745367 9.31511497 3.91458082
1.04623687 9.41966152 3.90624261
1.04262221 9.31511497 3.89275217
1.04053581 9.17847538 3.88496542
0.95553744 9.17847443 3.90675044
1.13120270 9.41966248 3.88247967
1.12729454 9.31511497 3.86907244
1.21562994 9.41966343 3.85687017
1.21143019 9.31511497 3.84355068
1.20900619 9.17847633 3.83586240
1.12503886 9.17847443 3.86133265
1.29947793 9.41966343 3.82942319
1.29498863 9.31511497 3.81619811
1.38270760 9.41966343 3.80015373
1.37793088 9.31511497 3.78702998
1.37517357 9.17847538 3.77945447
1.29239726 9.17847538 3.80856490
1.46527970 9.41966152 3.76907659
1.46021795 9.31511402 3.75605941
1.54715455 9.41966057 3.73620462
1.54181004 9.31511402 3.72330189
1.53872490 9.17847443 3.71585417
1.45729601 9.17847443 3.74854660
1.62829232 9.41966152 3.70155311
1.62266719 9.31511497 3.68877029
1.70865428 9.41966343 3.66514063
1.70275176 9.31511688 3.65248346
1.69934487 9.17847633 3.64517736
1.61942053 9.17847538 3.68139195
1.78820217 9.41966438 3.62698340
1.78202498 9.31511688 3.61445785
1.86689901 9.41966343 3.58710098
1.86045015 9.31511688 3.57471347
1.85672772 9.17847729 3.56756306
1.77845943 9.17847729 3.60722804
1.94470775 9.41966343 3.54551172
1.93799019 9.31511688 3.53326726
2.02159071 9.41966343 3.50223446
2.01460791 9.31511688 3.49014020
2.01057673 9.17847633 3.48315835
1.93411255 9.17847633 3.52619982
2.09751129 9.41966248 3.45729065
2.09026599 9.31511497 3.44535065
2.17243338 9.41966152 3.41070127
2.16492915 9.31511402 3.39892244
2.16059780 9.17847443 3.39212370
2.08608413 9.17847443 3.43845963
2.24632072 9.41966152 3.36248803
2.23856163 9.31511402 3.35087562
2.31913924 9.41966152 3.31267476
2.31112885 9.31511402 3.30123448
2.30650449 9.17847443 3.29463077
2.23408294 9.17847443 3.34417319
2.39085364 9.41966152 3.26128411
2.38259554 9.31511402 3.25002146
2.46143031 9.41966152 3.20834112
2.45292830 9.31511402 3.19726205
2.44802046 9.17847443 3.19086647
2.37782860 9.17847443 3.24352074
2.53083467 9.41966152 3.15387154
2.52209282 9.31511402 3.14298010
2.59903431 9.41966152 3.09790087
2.59005737 9.31511497 3.08720231
2.58487487 9.17847443 3.08102751
2.51704693 9.17847443 3.13669324
2.66599679 9.41966343 3.04045558
2.65678859 9.31511497 3.02995586
2.73169041 9.41966343 2.98156357
2.72225523 9.31511688 2.97126722
2.71680903 9.17847633 2.96532393
2.65147328 9.17847538 3.02389503
2.79608321 9.41966343 2.92125225
2.78642559 9.31511688 2.91116405
2.85914516 9.41966343 2.85955048
2.84926963 9.31511688 2.84967542
2.84356952 9.17847729 2.84397483
2.78085089 9.17847633 2.90534067
2.92084599 9.41966343 2.79648733
2.91075730 9.31511688 2.78682971
2.98115635 9.41966343 2.73209381
2.97085953 9.31511688 2.72265863
2.96491599 9.17847633 2.71721244
2.90493417 9.17847633 2.78125572
3.04004836 9.41966343 2.66639996
3.02954793 9.31511497 2.65719151
3.09749317 9.41966152 2.59943724
3.08679438 9.31511402 2.59046030
3.08061838 9.17847443 2.58527875
3.02348709 9.17847633 2.65187645
3.15346313 9.41966152 2.53123784
3.14257121 9.31511402 2.52249622
3.20793152 9.41966152 2.46183324
3.19685197 9.31511402 2.45333147
3.19045639 9.17847443 2.44842434
3.13628411 9.17847443 2.51745057
3.26087284 9.41966152 2.39125681
3.24960995 9.31511402 2.38299847
3.31226182 9.41966152 2.31954169
3.30082178 9.31511497 2.31153154
3.29421854 9.17847538 2.30690765
3.24310899 9.17847443 2.37823176
3.36207533 9.41966152 2.24672318
3.35046291 9.31511402 2.23896408
3.41028810 9.41966152 2.17283535
3.39850926 9.31511402 2.16533136
3.39171052 9.17847443 2.16100001
3.34376025 9.17847443 2.23448586
3.45687699 9.41966152 2.09791255
3.44493747 9.31511402 2.09066749
3.50181937 9.41966152 2.02199101
3.48972559 9.31511497 2.01500821
3.48274374 9.17847633 2.01097775
3.43804502 9.17847443 2.08648539
3.54509711 9.41966248 1.94510746
3.53285265 9.31511497 1.93839014
3.58668637 9.41966343 1.86729813
3.57429790 9.31511497 1.86084938
3.56714797 9.17847633 1.85712743
3.52578449 9.17847538 1.93451297
3.62656879 9.41966343 1.78859973
3.61404276 9.31511593 1.78242314
3.66472387 9.41966343 1.70905066
3.65206671 9.31511497 1.70314860
3.64476061 9.17847633 1.69974184
3.60681248 9.17847633 1.77885783
3.70113420 9.41966152 1.62868834
3.68835092 9.31511497 1.62306356
3.73578238 9.41966057 1.54755092
3.72287941 9.31511402 1.54220653
3.71543145 9.17847443 1.53912163
3.68097162 9.17847443 1.61981702
3.76865363 9.41966152 1.46567702
3.75563693 9.31511402 1.46061540
3.79973078 9.41966152 1.38310552
3.78660703 9.31511497 1.37832916
3.77903152 9.17847538 1.37557220
3.74812341 9.17847443 1.45769370
3.82899928 9.41966152 1.29987586
3.81577396 9.31511497 1.29538679
3.85644507 9.41966152 1.21602714
3.84312534 9.31511497 1.21182764
3.83543682 9.17847538 1.20940363
3.80814028 9.17847443 1.29279566
3.88205576 9.41966152 1.13159943
3.86864734 9.31511497 1.12769139
3.90581822 9.41966152 1.04663289
3.89232826 9.31511497 1.04301846
3.88454175 9.17847633 1.04093218
3.86090779 9.17847443 1.12543583
3.92772150 9.41966152 0.96116859
3.91415572 9.31511402 0.95784920
3.94775558 9.41966152 0.87524700
3.93412018 9.31511402 0.87222433
3.92624998 9.17847443 0.87047970
3.90632534 9.17847443 0.95593339
3.96590924 9.41966343 0.78890926
3.95221162 9.31511497 0.78618473
3.98217559 9.41966343 0.70219594
3.96842194 9.31511688 0.69977093
3.96048236 9.17847633 0.69837129
3.94430470 9.17847443 0.78461224
3.99654627 9.41966152 0.61514777
3.98274302 9.31511497 0.61302328
4.00901461 9.41966057 0.52780640
3.99516797 9.31511402 0.52598357
3.98717594 9.17847443 0.52493161
3.97477460 9.17847443 0.61179727
4.01957560 9.41966152 0.44021365
4.00569248 9.31511497 0.43869340
4.02822304 9.41966152 0.35241154
4.01431131 9.31511497 0.35119447
4.00627947 9.17847538 0.35049215
3.99767900 9.17847443 0.43781602
4.03495407 9.41966152 0.26444200
4.02101755 9.31511497 0.26352876
4.03976250 9.41966057 0.17634667
4.02580976 9.31511402 0.17573768
4.01775646 9.17847443 0.17538631
4.01297379 9.17847443 0.26300177
4.04264736 9.41966152 0.08816727
4.02868414 9.31511497 0.08786276
4.04360819 9.41966152 -0.00005437
4.02964211 9.31511497 -0.00005419
4.02158070 9.17847538 -0.00005391
4.02062464 9.17847443 0.08768719
4.04264498 9.41966057 -0.08827630
4.02868176 9.31511402 -0.08797145
4.03975868 9.41965866 -0.17645608
4.02580643 9.31511211 -0.17584671
4.01775169 9.17847347 -0.17549478
4.02062273 9.17847347 -0.08779532
4.03494835 9.41966057 -0.26455122
4.02101183 9.31511402 -0.26363763
4.02821636 9.41966152 -0.35252005
4.01430368 9.31511402 -0.35130265
4.00627279 9.17847538 -0.35059977
4.01296759 9.17847347 -0.26311010
4.01956701 9.41966152 -0.44032091
4.00568390 9.31511402 -0.43880025
4.00900459 9.41966152 -0.52791202
3.99515867 9.31511402 -0.52608889
3.98716521 9.17847443 -0.52503622
3.99767113 9.17847443 -0.43792233
3.99653482 9.41966152 -0.61525166
3.98273134 9.31511402 -0.61312681
3.98216248 9.41966152 -0.70229906
3.96840882 9.31511402 -0.69987369
3.96046948 9.17847443 -0.69847351
3.97476387 9.17847443 -0.61190027
3.96589422 9.41966057 -0.78901339
3.95219660 9.31511402 -0.78628856
3.94773889 9.41966057 -0.87535232
3.93410397 9.31511402 -0.87232947
3.92623353 9.17847443 -0.87058431
3.94429016 9.17847443 -0.78471553
3.92770433 9.41966057 -0.96127391
3.91413879 9.31511402 -0.95795411
3.90580082 9.41966152 -1.04673719
3.89231062 9.31511497 -1.04312241
3.88452339 9.17847443 -1.04103577
3.90630841 9.17847443 -0.95603770
3.88203645 9.41966152 -1.13170242
3.86862826 9.31511402 -1.12779415
3.85642385 9.41966057 -1.21612906
3.84310508 9.31511402 -1.21192932
3.83541608 9.17847443 -1.20950484
3.86088920 9.17847443 -1.12553799
3.82897639 9.41966057 -1.29997742
3.81575155 9.31511307 -1.29548800
3.79970574 9.41965961 -1.38320756
3.78658247 9.31511307 -1.37843060
3.77900743 9.17847347 -1.37567317
3.80811787 9.17847347 -1.29289651
3.76862693 9.41966057 -1.46577919
3.75561070 9.31511402 -1.46071744
3.73575473 9.41966057 -1.54765344
3.72285151 9.31511402 -1.54230857
3.71540403 9.17847443 -1.53922319
3.74809742 9.17847443 -1.45779538
3.70110297 9.41966057 -1.62878978
3.68832040 9.31511402 -1.62316489
3.66469073 9.41965961 -1.70915115
3.65203357 9.31511211 -1.70324886
3.64472747 9.17847347 -1.69984150
3.68094158 9.17847443 -1.61991799
3.62653351 9.41965866 -1.78869903
3.61400795 9.31511211 -1.78252184
3.58664989 9.41965866 -1.86739600
3.57426190 9.31511211 -1.86094701
3.56711173 9.17847347 -1.85722446
3.60677767 9.17847157 -1.77895629
3.54505897 9.41966057 -1.94520438
3.53281474 9.31511402 -1.93848681
3.50178075 9.41966152 -2.02208710
3.48968601 9.31511402 -2.01510406
3.48270488 9.17847443 -2.01107264
3.52574682 9.17847347 -1.93460882
3.45683599 9.41966057 -2.09800720
3.44489670 9.31511402 -2.09076166
3.41024590 9.41965866 -2.17292905
3.39846730 9.31511211 -2.16542482
3.39166832 9.17847157 -2.16109347
3.43800449 9.17847347 -2.08657932
3.36203265 9.41965866 -2.24681616
3.35042048 9.31511116 -2.23905706
3.31221843 9.41965866 -2.31963420
3.30077863 9.31511211 -2.31162381
3.29417515 9.17847347 -2.30699968
3.34371758 9.17847157 -2.23457813
3.26082754 9.41966057 -2.39134836
3.24956489 9.31511211 -2.38309026
3.20788455 9.41966057 -2.46192431
3.19680500 9.31511402 -2.45342255
3.19040942 9.17847443 -2.44851494
3.24306464 9.17847347 -2.37832332
3.15341425 9.41966057 -2.53132868
3.14252305 9.31511402 -2.52258658
3.09744334 9.41966057 -2.59952736
3.08674455 9.31511307 -2.59054995
3.08056951 9.17847347 -2.58536792
3.13623595 9.17847443 -2.51754045
3.03999758 9.41965961 -2.66648936
3.02949715 9.31511211 -2.65728068
2.98110914 9.41965866 -2.73217797
2.97081208 9.31511211 -2.72274280
2.96486878 9.17847252 -2.71729612
3.02343655 9.17847252 -2.65196514
2.92080975 9.41966057 -2.79655790
2.91072106 9.31511211 -2.78690028
2.90489793 9.17847347 -2.78132558
2.77897167 8.98758984 -2.90345025
2.84164476 8.98758984 -2.84213042
2.71497202 8.98758984 -2.96339202
2.71976280 8.78482151 -2.96861982
2.78387594 8.78482246 -2.90857196
2.84665918 8.78482342 -2.84714460
2.64967966 8.98758793 -3.02192283
2.58312607 8.98758793 -3.07901597
2.58768415 8.78482151 -3.08444786
2.65435529 8.78482151 -3.02725387
2.51534295 8.98758793 -3.13464403
2.44636250 8.98758793 -3.18878055
2.45067978 8.78482151 -3.19440579
2.51978183 8.78482056 -3.14017415
2.37621737 8.98758793 -3.24139833
2.30494118 8.98758602 -3.29247379
2.30900860 8.78482056 -3.29828238
2.38041043 8.78482056 -3.24711680
2.23256850 8.98758793 -3.34198284
2.15913320 8.98758793 -3.38990140
2.16294336 8.78482151 -3.39588189
2.23650837 8.78482056 -3.34787846
2.08466935 8.98758793 -3.43620515
2.00921273 8.98758793 -3.48087382
2.01275826 8.78482056 -3.48701453
2.08834839 8.78482056 -3.44226742
1.93279982 8.98758793 -3.52388525
1.85546696 8.98758888 -3.56522059
1.85874128 8.78482151 -3.57151031
1.93621075 8.78482151 -3.53010249
1.77725077 8.98758984 -3.60485911
1.69818878 8.98758793 -3.64278245
1.70118558 8.78482151 -3.64920878
1.78038752 8.78482151 -3.61121941
1.61831796 8.98758793 -3.67897105
1.53767681 8.98758602 -3.71340895
1.54039073 8.78482056 -3.71996021
1.62117398 8.78482056 -3.68546128
1.45630443 8.98758793 -3.74607897
1.37423861 8.98758793 -3.77696657
1.37666416 8.78482151 -3.78363013
1.45887458 8.78482056 -3.75268793
1.29151797 8.98758793 -3.80605602
1.20818222 8.98758698 -3.83333397
1.21031451 8.78482056 -3.84009624
1.29379737 8.78482056 -3.81277061
1.12427080 8.98758602 -3.85878754
1.03982437 8.98758602 -3.88240504
1.04165959 8.78482056 -3.88925457
1.12625515 8.78482056 -3.86559463
0.95488262 8.98758698 -3.90417600
0.86948645 8.98758793 -3.92408800
0.87102133 8.78482151 -3.93101096
0.95656812 8.78482056 -3.91106319
0.78367645 8.98758888 -3.94213152
0.69749331 8.98758793 -3.95829844
0.69872457 8.78482151 -3.96528172
0.78505987 8.78482151 -3.94908595
0.61097759 8.98758793 -3.97258162
0.52417088 8.98758602 -3.98497510
0.52509648 8.78482056 -3.99200606
0.61205637 8.78482056 -3.97959042
0.43711454 8.98758602 -3.99547195
0.34985012 8.98758507 -4.00406742
0.35046813 8.78481865 -4.01113129
0.43788654 8.78481865 -4.00252056
0.26241931 8.98758602 -4.01075602
0.17486335 8.98758698 -4.01553726
0.17517264 8.78482056 -4.02262115
0.26288307 8.78481865 -4.01783276
0.08722338 8.98758793 -4.01840544
-0.00045835 8.98758602 -4.01936054
-0.00045839 8.78482056 -4.02645159
0.08737805 8.78482056 -4.02549458
-0.08813965 8.98758602 -4.01840353
-0.00045835 8.98758602 -4.01936054
-0.17577912 8.98758602 -4.01553392
-0.17608850 8.78482056 -4.02261877
-0.08829439 8.78481960 -4.02549219
-0.00045839 8.78482056 -4.02645159
-0.26333541 8.98758507 -4.01075459
-0.35076675 8.98758507 -4.00406551
-0.35138485 8.78481865 -4.01112938
-0.26379922 8.78481865 -4.01782990
-0.43803138 8.98758602 -3.99546981
-0.52508777 8.98758602 -3.98497343
-0.52601337 8.78482056 -3.99200368
-0.43880346 8.78481865 -4.00251913
-0.61189431 8.98758698 -3.97257948
-0.69840997 8.98758602 -3.95829582
-0.69964141 8.78482056 -3.96527982
-0.61297303 8.78482056 -3.97958827
-0.78459370 8.98758793 -3.94212794
-0.87040436 8.98758793 -3.92408395
-0.87193930 8.78482056 -3.93100643
-0.78597730 8.78482056 -3.94908261
-0.95580006 8.98758793 -3.90417218
-1.04074121 8.98758698 -3.88240218
-1.04257667 8.78482056 -3.88925242
-0.95748591 8.78482056 -3.91105986
-1.12518740 8.98758602 -3.85878491
-1.20909846 8.98758602 -3.83333087
-1.21123075 8.78481960 -3.84009409
-1.12717187 8.78482056 -3.86559296
-1.29243398 8.98758602 -3.80605173
-1.37515461 8.98758793 -3.77696085
-1.37758029 8.78482151 -3.78362393
-1.29471350 8.78482056 -3.81276608
-1.45722151 8.98758793 -3.74607325
-1.53859496 8.98758793 -3.71340179
-1.54130864 8.78482151 -3.71995282
-1.45979178 8.78482151 -3.75268173
-1.61923587 8.98758793 -3.67896390
-1.69910622 8.98758793 -3.64277411
-1.70210350 8.78482151 -3.64920068
-1.62209177 8.78482151 -3.68545389
-1.77816880 8.98758793 -3.60485125
-1.85638535 8.98758602 -3.56521320
-1.85965991 8.78482056 -3.57150292
-1.78130507 8.78482056 -3.61121106
-1.93371856 8.98758602 -3.52387810
-2.01013160 8.98758602 -3.48086596
-2.01367736 8.78482056 -3.48700714
-1.93712938 8.78481960 -3.53009462
-2.08558750 8.98758602 -3.43619633
-2.16005087 8.98758698 -3.38989091
-2.16386127 8.78482056 -3.39587164
-2.08926654 8.78482056 -3.44225836
-2.23348641 8.98758698 -3.34197307
-2.30585933 8.98758602 -3.29246497
-2.30992699 8.78482056 -3.29827356
-2.23742628 8.78482056 -3.34786868
-2.37713480 8.98758698 -3.24138975
-2.44727993 8.98758602 -3.18877172
-2.45159674 8.78482056 -3.19439673
-2.38132834 8.78482056 -3.24710822
-2.51625967 8.98758602 -3.13463593
-2.58404231 8.98758602 -3.07900810
-2.58860087 8.78482056 -3.08443975
-2.52069831 8.78481960 -3.14016581
-2.65059543 8.98758602 -3.02191496
-2.71588778 8.98758602 -2.96338367
-2.72067857 8.78482056 -2.96861148
-2.65527129 8.78482056 -3.02724624
-2.77988696 8.98758602 -2.90344191
-2.84256339 8.98758602 -2.84211874
-2.84757805 8.78482056 -2.84713292
-2.78479099 8.78482056 -2.90856433
-2.90388703 8.98758602 -2.77944136
-2.96382880 8.98758602 -2.71544099
-2.96905661 8.78482056 -2.72023177
-2.90900946 8.78481960 -2.78434491
-3.02235961 8.98758602 -2.65014911
-3.07945228 8.98758698 -2.58359599
-3.08488536 8.78482056 -2.58815360
-3.02769160 8.78482056 -2.65482426
-3.13508058 8.98758698 -2.51581335
-3.18921614 8.98758602 -2.44683290
-3.19484210 8.78482056 -2.45114946
-3.14061093 8.78482056 -2.52025151
-3.24183369 8.98758602 -2.37668753
-3.29290891 8.98758602 -2.30541086
-3.29871821 8.78482056 -2.30947781
-3.24755239 8.78482056 -2.38087988
-3.34241772 8.98758698 -2.23303723
-3.39033628 8.98758793 -2.15960073
-3.39631724 8.78482056 -2.16341043
-3.34831405 8.78482056 -2.23697615
-3.43664050 8.98758793 -2.08513689
-3.48130918 8.98758793 -2.00968075
-3.48745084 8.78482151 -2.01322603
-3.44270325 8.78482056 -2.08881521
-3.52432156 8.98758793 -1.93326795
-3.56565738 8.98758698 -1.85593534
-3.57194734 8.78482056 -1.85920918
-3.53053880 8.78482056 -1.93667817
-3.60529518 8.98758602 -1.77771914
-3.64321780 8.98758793 -1.69865727
-3.64964509 8.78482056 -1.70165348
-3.61165547 8.78482056 -1.78085530
-3.67940640 8.98758793 -1.61878598
-3.71384478 8.98758888 -1.53814459
-3.72039557 8.78482151 -1.54085791
-3.68589759 8.78482151 -1.62164152
-3.74651480 8.98758793 -1.45677137
-3.77740240 8.98758698 -1.37470543
-3.78406692 8.78482056 -1.37713015
-3.75312448 8.78482151 -1.45934117
-3.80649352 8.98758698 -1.29198515
-3.83377218 8.98758602 -1.20864999
-3.84053493 8.78482056 -1.21078169
-3.81320858 8.78482056 -1.29426408
-3.85922527 8.98758602 -1.12473929
-3.88284183 8.98758602 -1.04029310
-3.88969111 8.78481865 -1.04212761
-3.86603332 8.78481865 -1.12672305
-3.90461063 8.98758793 -0.95535111
-3.92452192 8.98758793 -0.86995471
-3.93144512 8.78482151 -0.87148893
-3.91149902 8.78482056 -0.95703614
-3.94256544 8.98758793 -0.78414422
-3.95873356 8.98758698 -0.69796038
-3.96571755 8.78482056 -0.69919115
-3.94952106 8.78482056 -0.78552705
-3.97301698 8.98758793 -0.61144358
-3.98540998 8.98758984 -0.52463621
-3.99244070 8.78482246 -0.52556115
-3.98002577 8.78482151 -0.61252171
-3.99590731 8.98758793 -0.43758056
-4.00450373 8.98758793 -0.35031709
-4.01156759 8.78482056 -0.35093454
-4.00295687 8.78482151 -0.43835205
-4.01119232 8.98758793 -0.26288584
-4.01597309 8.98758888 -0.17532948
-4.02305794 8.78482151 -0.17563821
-4.01826906 8.78482056 -0.26334906
-4.01884079 8.98758888 -0.08769060
-4.01979637 8.98758793 -0.00001003
-4.02688742 8.78482151 -0.00000942
-4.02593040 8.78482151 -0.08784467
-4.01883841 8.98758984 0.08767129
-4.01596928 8.98758984 0.17531125
-4.02305412 8.78482246 0.17562118
-4.02592850 8.78482151 0.08782660
-4.01118994 8.98758888 0.26286769
-4.00450182 8.98758793 0.35029894
-4.01156616 8.78482056 0.35091761
-4.01826572 8.78482151 0.26333216
-3.99590683 8.98758698 0.43756324
-3.98541045 8.98758698 0.52461916
-3.99244118 8.78482056 0.52554554
-4.00295639 8.78482056 0.43833581
-3.97301698 8.98758698 0.61142558
-3.95873260 8.98758793 0.69794112
-3.96571565 8.78482056 0.69917333
-3.98002577 8.78482056 0.61250490
-3.94256401 8.98758793 0.78412515
-3.92452073 8.98758888 0.86993581
-3.93144393 8.78482151 0.87147141
-3.94951963 8.78482151 0.78550923
-3.90460849 8.98758888 0.95533198
-3.88283968 8.98758984 1.04027331
-3.88968825 8.78482151 1.04210937
-3.91149688 8.78482151 0.95701808
-3.85922194 8.98758984 1.12471986
-3.83376884 8.98758984 1.20863080
-3.84053159 8.78482342 1.21076369
-3.86603045 8.78482151 1.12670469
-3.80648971 8.98759174 1.29196596
-3.77739906 8.98758984 1.37468636
-3.78406286 8.78482342 1.37711251
-3.81320477 8.78482342 1.29424596
-3.74651098 8.98758984 1.45675313
-3.71384072 8.98758984 1.53812718
-3.72039223 8.78482151 1.54084158
-3.75312042 8.78482151 1.45932400
-3.67940307 8.98758984 1.61876917
-3.64321423 8.98759174 1.69864082
-3.64964151 8.78482342 1.70163846
-3.68589377 8.78482151 1.62162626
-3.60529089 8.98759174 1.77770281
-3.56565237 8.98759174 1.85591877
-3.57194233 8.78482342 1.85919356
-3.61165094 8.78482342 1.78083992
-3.52431655 8.98758984 1.93325078
-3.48130393 8.98758888 2.00966287
-3.48744488 8.78482151 2.01320934
-3.53053379 8.78482151 1.93666220
-3.43663383 8.98758984 2.08511806
-3.39032936 8.98759174 2.15958166
-3.39631009 8.78482533 2.16339231
-3.44269633 8.78482342 2.08879781
-3.34241152 8.98759174 2.23301816
-3.29290342 8.98758984 2.30539203
-3.29871273 8.78482342 2.30946064
-3.34830761 8.78482533 2.23695850
-3.24182820 8.98758888 2.37666798
-3.18920946 8.98758793 2.44681215
-3.19483590 8.78482151 2.45112967
-3.24754667 8.78482151 2.38086176
-3.13507271 8.98758984 2.51579094
-3.07944441 8.98759174 2.58357310
-3.08487678 8.78482533 2.58813214
-3.14060378 8.78482342 2.52023029
-3.02235055 8.98759174 2.65012670
-2.96381950 8.98759174 2.71541905
-2.96904778 8.78482437 2.72021079
-3.02768230 8.78482533 2.65480280
-2.90387774 8.98759079 2.77941847
-2.84255385 8.98758984 2.84209490
-2.84756827 8.78482342 2.84710956
-2.90900016 8.78482342 2.78432250
-2.77987742 8.98758984 2.90341854
-2.71587777 8.98759079 2.96336055
-2.72066879 8.78482342 2.96858954
-2.78478122 8.78482246 2.90854168
-2.65058613 8.98759174 3.02189183
-2.58403301 8.98759174 3.07898450
-2.58859134 8.78482437 3.08441806
-2.65526175 8.78482342 3.02722406
-2.51625037 8.98759174 3.13461280
-2.44727063 8.98759174 3.18874907
-2.45158768 8.78482342 3.19437528
-2.52068949 8.78482342 3.14014387
-2.37712622 8.98759174 3.24136710
-2.30585051 8.98759174 3.29244280
-2.30991817 8.78482342 3.29825258
-2.38131952 8.78482342 3.24708676
-2.23347712 8.98759174 3.34195137
-2.16004157 8.98759174 3.38986874
-2.16385198 8.78482437 3.39585018
-2.23741722 8.78482342 3.34784818
-2.08557820 8.98759174 3.43617463
-2.01012301 8.98759270 3.48084426
-2.01366878 8.78482533 3.48698711
-2.08925772 8.78482533 3.44223785
-1.93370986 8.98759174 3.52385664
-1.85637641 8.98759174 3.56519127
-1.85965097 8.78482533 3.57148242
-1.93712115 8.78482533 3.53007436
-1.77815962 8.98759174 3.60482979
-1.69909716 8.98759174 3.64275265
-1.70209408 8.78482533 3.64917994
-1.78129613 8.78482437 3.61119103
-1.61922598 8.98759270 3.67894077
-1.53858471 8.98759270 3.71337867
-1.54129839 8.78482628 3.71993041
-1.62208200 8.78482533 3.68543267
-1.45721138 8.98759174 3.74604821
-1.37514460 8.98759174 3.77693462
-1.37757027 8.78482342 3.78359866
-1.45978141 8.78482533 3.75265765
-1.29242373 8.98759174 3.80602407
-1.20908809 8.98759174 3.83330226
-1.21122038 8.78482437 3.84006596
-1.29470325 8.78482342 3.81273985
-1.12517691 8.98759174 3.85875630
-1.04073071 8.98759174 3.88237476
-1.04256606 8.78482437 3.88922453
-1.12716138 8.78482437 3.86556554
-0.95578927 8.98759174 3.90414405
-0.87039328 8.98759174 3.92405534
-0.87192822 8.78482437 3.93097949
-0.95747489 8.78482342 3.91103339
-0.78458327 8.98759174 3.94209957
-0.69840008 8.98759270 3.95826721
-0.69963157 8.78482533 3.96525145
-0.78596681 8.78482533 3.94905519
-0.61188418 8.98759174 3.97254968
-0.52507699 8.98759174 3.98494220
-0.52600265 8.78482533 3.99197364
-0.61296296 8.78482533 3.97955966
-0.43802002 8.98759270 3.99543834
-0.35075486 8.98759270 4.00403357
-0.35137290 8.78482628 4.01109791
-0.43879205 8.78482533 4.00248861
-0.26332313 8.98759270 4.01072264
-0.17576702 8.98759174 4.01550293
-0.17607637 8.78482533 4.02258873
-0.26378694 8.78482533 4.01779938
-0.08812873 8.98759174 4.01837254
-0.00044857 8.98759174 4.01932907
-0.00044859 8.78482437 4.02642107
-0.08828346 8.78482342 4.02546263
0.08723313 8.98759174 4.01837349
0.17487389 8.98759174 4.01550388
0.17518321 8.78482437 4.02258873
0.08738783 8.78482342 4.02546263
0.26243114 8.98759174 4.01072311
0.34986314 8.98759270 4.00403261
0.35048118 8.78482628 4.01109791
