-1.30839026 9.34876060 0.74862820
-1.19257855 9.14378643 0.69298780
-1.14331436 9.72509766 0.61099291
-1.11068809 9.72178555 0.77947658
-1.14458168 9.66440773 0.68031275
-1.29870605 9.30180931 0.80102324
-1.09454989 9.27154350 0.96309251
-1.08409107 9.30553532 0.96267623
-1.33239365 9.23283195 0.58419639
-1.13101482 9.39326763 0.84345216
-1.33578062 9.27264881 0.51586473
-1.21052682 9.55830002 1.02046454
-1.26873660 9.21304703 0.91917515
-1.11566925 9.68079567 1.18316054
-1.19912922 9.69906139 1.03407788
-1.15688038 9.63167286 1.11883378
-1.13158739 9.23732662 1.16329730
-1.19597733 9.27421093 1.04838657
-1.16419601 9.29748535 1.11823213
-1.14906168 9.73392582 1.12386215
-1.09717643 9.41874504 0.91389495
-1.08734453 9.62012768 1.22887206
-1.00493395 9.31414986 1.33062375
-1.22263908 9.64452934 0.97496706
-1.25951171 9.33350086 0.89015847
-1.18471384 9.20637703 0.70269459
-1.27766371 9.39125538 0.85285985
-1.18708599 9.29160309 0.68817896
-1.31597197 9.31371784 0.62308693
-1.17943609 9.38441086 0.67389882
-1.14459682 9.44869804 0.79067653
-1.15940750 9.52266598 0.70008349
-1.04352665 9.72275734 1.28519845
-1.14906168 9.73392582 1.12386215
-1.11566925 9.68079567 1.18316054
-1.15035331 9.51326847 1.14176488
-1.12206149 9.45557594 0.86842036
-1.18878400 9.46826267 0.58322388
-1.15325236 9.33995056 1.11456764
-1.32072449 9.17565346 0.64995182
-1.13223040 9.56542110 0.78063893
-1.19884706 9.41396999 0.59924489
-1.08734453 9.62012768 1.22887206
-1.00686824 9.61658669 1.32867157
-1.02251422 9.66409874 1.31892538
-0.84252369 9.13432598 1.48736751
-0.96416289 9.70061398 1.37962043
-1.25116324 9.66705894 0.83040339
-1.16690147 9.58955002 0.60724604
-1.26916730 9.58308315 0.79487747
-1.18546069 9.44894791 0.67147958
-0.89207166 9.20404243 1.45385981
-1.04616404 9.37444973 1.02181661
-1.04030001 9.79056263 0.92886060
-0.99578112 9.70868492 1.05660141
-1.09923041 9.42128944 1.20653665
-1.22357512 9.73040199 0.91446197
-1.11004579 9.46857452 1.21229684
-1.22959900 9.30202007 0.99721175
-1.30648088 9.40672398 0.64916277
-0.95352411 9.62700176 1.14794886
-1.02784598 9.62867355 1.02859402
-0.99578112 9.70868492 1.05660141
-1.10770380 9.31100941 1.19801342
-1.09923041 9.42128944 1.20653665
-1.15325236 9.33995056 1.11456764
-0.88353980 9.29683781 1.47758090
-1.01556599 9.37084103 1.32208252
-0.88235521 9.60878944 1.48796368
-1.07687998 9.37135410 1.22940385
-0.88606429 9.69819927 1.45432341
-0.95120746 9.79837704 1.10146856
-0.92428249 9.74791050 1.15856516
-1.17496681 9.14733219 0.77470213
-0.95120746 9.79837704 1.10146856
-0.98202217 9.37998390 1.37295997
-0.91129607 9.77737522 1.44066906
-1.29539657 9.47628021 0.77729732
-1.31435168 9.45183468 0.60775322
-1.11004579 9.46857452 1.21229684
-1.24910009 9.58209419 0.92494905
-1.22231352 9.39594269 0.97775137
-1.31121922 9.51653290 0.57795095
-1.30864429 9.55196285 0.64133704
-1.25785780 9.45296955 0.92040884
-1.27007520 9.50900173 0.87792313
-1.29515433 9.49695015 0.69371194
-1.12233973 9.10823536 1.19276214
-1.15029132 9.16300011 1.13311863
-1.03521264 9.48178387 1.32665825
-0.94993132 9.42290401 1.40882027
-0.97368336 9.51685143 1.38289976
-1.07578206 9.51439095 1.26529539
-1.08552420 9.55824184 1.24212277
-1.13158739 9.23732662 1.16329730
-1.11536920 9.53429508 1.20052624
-0.93477440 9.54564667 1.41378927
-0.90728939 9.37072277 1.45122743
-1.11536920 9.53429508 1.20052624
-1.16419601 9.29748535 1.11823213
-0.90027511 9.46599865 1.46208060
-1.20693064 9.77669811 0.95996493
-1.03650916 9.49367046 1.02879393
-1.04486513 9.31344414 1.05083358
-1.04616404 9.37444973 1.02181661
-0.96969414 9.34416676 1.14740968
-1.03650916 9.49367046 1.02879393
-1.04845679 9.21027660 1.03237617
-0.94649309 9.44138908 1.17956936
-1.02711129 9.15033722 1.10282171
-0.98823541 9.51679420 1.11097038
-1.01834476 9.21732712 1.09833944
-1.04486513 9.31344414 1.05083358
-1.00372779 9.26681328 1.12101936
-1.00372779 9.26681328 1.12101936
-0.97286040 9.16087532 1.16911566
-0.97286040 9.16087532 1.16911566
-0.97734147 9.23700237 1.16994464
-0.90821719 9.52492809 1.22704184
-0.97734147 9.23700237 1.16994464
-0.92308939 9.27849865 1.21687007
-0.76941007 9.26909351 1.38887036
-0.65137869 9.25384808 1.49383926
-0.70875806 9.20370293 1.44513571
-0.68189496 9.35025692 1.47183287
-0.84059393 9.30928612 1.52007663
-0.66685122 9.76213741 1.43823946
-0.78969687 9.71512604 1.33584881
-0.76137090 9.79579735 1.34235358
-0.85470504 9.36354828 1.29615736
-0.70483780 9.62591934 1.43232691
-0.84942877 9.47979736 1.29994643
-0.85065329 9.17281342 1.30600214
-0.86043990 9.25105095 1.29407001
-0.76371497 9.53469753 1.38800764
-0.84577870 9.60913563 1.29158807
-0.77307999 9.61302090 1.37096512
-0.89746183 9.62706280 1.22722483
-0.75435299 9.36039639 1.40392148
-0.74870199 9.44357872 1.40752399
-0.64528328 9.67886162 1.47453046
-0.81641430 9.40146637 1.54262900
-0.64528328 9.67886162 1.47453046
-0.66685122 9.76213741 1.43823946
-0.55480129 9.75624466 1.52059233
-0.65070516 9.48819733 1.49654591
-0.84462911 9.49841690 1.48741829
-0.78168643 9.16017628 1.53689456
-0.62241346 9.56004047 1.50625467
0.06594283 9.41466331 1.89842188
-0.02577443 9.39182281 1.89443243
0.10314094 9.30990982 1.90064931
-0.16682729 9.43349075 1.73697603
-0.27555925 9.53804588 1.69358408
-0.12307049 9.54524136 1.73590171
-0.33911523 9.44633484 1.81873989
-0.24736924 9.51680946 1.83749592
-0.28872734 9.54026604 1.83138812
-0.56636882 9.65396976 1.53474212
0.18065961 9.19670010 1.78856647
0.09446050 9.21608448 1.79118633
0.13873008 9.29282475 1.78716433
-0.57557094 9.43295765 1.68477547
-0.71280754 9.43685150 1.58600974
-0.61760360 9.38279438 1.65478134
0.16663353 9.42498112 1.90071929
0.02989765 9.48953629 1.89790261
-0.67519653 9.48818970 1.63506055
-0.41531980 9.36009026 1.76825106
-0.35491765 9.31016827 1.79523766
-0.36193824 9.39002037 1.80774784
-0.43659344 9.41803169 1.62782979
-0.54396272 9.33957767 1.56948853
-0.55459946 9.45202160 1.56175113
0.06032282 9.36992741 1.78507662
-0.64055943 9.53778267 1.67761767
-0.75740725 9.52019215 1.57828832
-0.23114796 9.63294029 1.69456506
0.12961036 9.52964211 1.91497028
0.06848793 9.55899048 1.91186082
-0.18700711 9.76605034 1.86866605
-0.30735499 9.77936363 1.83534336
-0.29122406 9.71924114 1.83307481
-0.48284060 9.45178509 1.75940204
-0.52324259 9.40143871 1.70714569
0.11755035 9.66945267 1.90630794
-0.09172301 9.64941788 1.88319552
0.01577993 9.60865116 1.90694845
0.00002932 9.74301147 1.89781451
-0.46333665 9.54829979 1.74947822
-0.50699949 9.50058842 1.74519861
0.18258753 9.39371395 1.77952027
0.26949543 9.28553677 1.77282608
-0.42935321 9.74617386 1.78552091
-0.37188268 9.56105900 1.80935454
-0.56636882 9.65396976 1.53474212
-0.73978460 9.61924362 1.60806406
-0.67100525 9.63367176 1.64682162
0.16663353 9.42498112 1.90071929
0.25406098 9.46688366 1.89519763
0.12961036 9.52964211 1.91497028
0.12776537 9.18745422 1.90712559
-0.53974974 9.57501030 1.56072390
-0.34409490 9.22196388 1.80450082
-0.73309249 9.15636921 1.59178340
-0.46693391 9.48245907 1.61176586
-0.64021170 9.70008755 1.66290569
0.06848793 9.55899048 1.91186082
0.15183815 9.60332394 1.91530418
-0.46693391 9.48245907 1.61176586
-0.53974974 9.57501030 1.56072390
-0.39409947 9.54166889 1.64442670
-0.75269812 9.23026371 1.57484877
0.24256727 9.14861870 1.92418647
-0.42559233 9.57779789 1.77177000
-0.15531626 9.19656658 1.87680829
-0.23505299 9.26692390 1.83920681
-0.23553923 9.62083626 1.84833431
0.21307267 9.23098183 1.91629994
0.09921989 9.26165199 1.91108298
-0.75494730 9.28796291 1.58326173
-0.44473717 9.67695713 1.77768254
0.02170493 9.34125710 1.91384351
-0.57890642 9.21754074 1.54382551
-0.25194323 9.32784939 1.84137464
0.14243373 9.32956982 1.90064561
-0.34932667 9.61384201 1.80621028
0.15783219 9.27965641 1.91918230
-0.36946696 9.69579601 1.80009091
0.21927680 9.31345367 1.89313877
-0.83276725 9.64430332 1.52822578
-0.78799134 9.69675350 1.54338658
-0.74470431 9.69231606 1.57221365
-0.15940887 9.67332649 1.87038922
-0.13300671 9.18820477 1.75082755
-0.25241321 9.22727299 1.70865107
-0.76936573 9.79083824 1.56290221
0.01430328 9.44186497 1.77298772
-0.06829520 9.39277458 1.76389837
0.23022507 9.65942097 1.74519944
0.11419914 9.60488892 1.75575411
0.06872875 9.70136261 1.73982275
-0.59227097 9.67353153 1.69264150
-0.51707035 9.73274231 1.73571622
0.19116257 9.75025272 1.72873509
-0.70166111 9.21795464 1.61507273
-0.03728895 9.17263031 1.77801049
-0.57079941 9.54545879 1.70887756
-0.45691898 9.21468830 1.61718571
-0.57890642 9.21754074 1.54382551
-0.14191349 9.28457642 1.74938989
-0.25182110 9.33143139 1.71188378
-0.56553733 9.60809612 1.69540417
-0.63559097 9.81853676 1.66317379
-0.62812418 9.36426258 1.51359761
-0.00123555 9.56207752 1.75445151
-0.13178308 9.25808716 1.87718356
-0.05742158 9.65967369 1.73069501
-0.03624665 9.27930355 1.77514315
-0.63872319 9.31049633 1.64229250
-0.72046334 9.36608315 1.58497405
-0.11139008 9.16690636 1.92832804
-0.54396272 9.33957767 1.56948853
-0.41395193 9.64169598 1.62327886
-0.11448719 9.21945095 1.91693056
-0.13225727 9.53444004 1.86905754
-0.04622344 9.44064617 1.88277841
-0.02174885 9.51598644 1.90599537
-0.59446502 9.18432999 1.66731167
-0.04098489 9.14990044 1.95104921
-0.63602459 9.15861130 1.64726329
-0.06969116 9.20180988 1.95202577
-0.06318994 9.56270981 1.90028811
-0.16033067 9.38073444 1.86934733
-0.29633540 9.42657185 1.69289780
-0.38709429 9.34262276 1.65377688
-0.43659344 9.41803169 1.62782979
-0.28061450 9.70292568 1.66939592
-0.16292934 9.74191189 1.69775200
0.01577993 9.60865116 1.90694845
-0.27358559 9.78190136 1.65618885
-0.09172301 9.64941788 1.88319552
-0.05323722 9.30173016 1.89609730
-0.52449799 9.15827274 1.73380363
-0.23038362 9.42986679 1.85190082
0.12163173 9.50938129 1.76910639
0.22325975 9.52454185 1.76434016
-0.15971586 9.48042393 1.86827159
-0.50102592 9.25211048 1.73163927
-0.79130679 9.43556881 1.53172016
-0.44092172 9.25902462 1.76773202
-0.57755995 9.26931095 1.67383265
-0.48462948 9.30521584 1.72689283
-0.35951632 9.24426174 1.66494310
-0.00350612 9.75750160 1.72270334
0.02179444 9.21334839 1.93038964
-0.03715060 9.23427963 1.92932951
0.02543438 9.26392078 1.91658366
1.14490545 0.44127101 -1.02604616
1.02301574 0.44169787 -1.09788787
1.04352152 0.34167367 -1.10811067
0.91295898 0.39266053 -1.16290045
0.53578168 0.25042969 -1.37427855
0.43039486 0.23191023 -1.38929391
0.43928346 0.33729556 -1.36294675
0.69203913 0.05911360 -1.38821089
0.63397658 0.02284641 -1.37703931
0.60545617 0.04682084 -1.40642631
0.62697047 0.45860291 -1.31646216
0.64115602 0.53579283 -1.30391037
0.78444469 0.41988015 -1.28229415
0.99619365 0.01936273 -1.24876034
0.88606566 0.02605537 -1.30339396
0.89062893 0.05425761 -1.32816792
0.61295187 0.15408938 -1.38561356
0.33717135 0.02413578 -1.42582917
1.15513027 0.58839691 -0.98794228
1.03062475 0.57645965 -1.06467772
0.50237125 0.36212993 -1.29432523
0.37435517 0.28259358 -1.32245934
0.48957622 0.22377025 -1.32000017
0.42357644 0.52527565 -1.27111316
0.29400298 0.58341980 -1.26780117
0.34384683 0.46232656 -1.28955734
0.44869980 0.41603342 -1.29093802
0.99619365 0.01936273 -1.24876034
0.88269222 0.02356263 -1.23872805
0.75325942 0.01405840 -1.30990374
0.61503571 0.04590577 -1.32074785
0.59908986 0.01297983 -1.34934330
0.70784599 0.04265917 -1.29631615
0.55547917 0.54799438 -1.24754155
0.95130968 0.03425433 -1.20549333
0.35224861 0.17400154 -1.34119785
0.48170936 0.14989974 -1.33523583
1.05485153 0.05474869 -1.14729249
0.88575858 0.12776481 -1.22015655
0.95130968 0.03425433 -1.20549333
0.88269222 0.02356263 -1.23872805
0.66744637 0.30602428 -1.26770294
0.56530631 0.29340336 -1.29511142
0.64466709 0.21857779 -1.29022515
0.76044691 0.11430033 -1.36080873
0.40123233 0.04686020 -1.43476975
0.76150882 0.02702378 -1.35945809
0.49415851 0.06432872 -1.42498231
0.36539632 0.14544573 -1.41642201
0.63397658 0.02284641 -1.37703931
1.28654766 0.48455539 -0.98946905
1.09457111 0.48282698 -1.12315714
1.13338256 0.62582731 -1.07630312
0.90817946 0.51550585 -1.21433091
1.02457213 0.46781451 -1.16673028
0.98747456 0.36948386 -1.20621431
1.07904947 0.03202945 -1.22028327
0.91648662 0.53094471 -1.13018632
0.75325942 0.01405840 -1.30990374
0.96866709 0.07153710 -1.29450738
0.75668418 0.54734915 -1.27025008
0.80527115 0.04540955 -1.35764301
1.29679751 0.34145558 -1.01613343
1.18850625 0.27798972 -1.11383212
1.13881791 0.36063075 -1.12686110
0.84335858 0.02870193 -1.26043415
0.91801631 0.61023057 -1.19886982
0.76238388 0.11004830 -1.26808977
0.61503571 0.04590577 -1.32074785
0.70784599 0.04265917 -1.29631615
1.23497593 0.43722039 -0.96357989
1.22382772 0.37288147 -0.98315495
1.08694839 0.07011422 -1.23424613
0.95708549 0.21794035 -1.26230800
1.24991798 0.28273517 -0.98579693
1.15472603 0.33574757 -1.04143834
1.08005333 0.01854145 -1.16093826
0.42732152 0.57284325 -1.33616471
0.43368074 0.41834399 -1.34957218
1.24393260 0.04683262 -1.12185001
1.21735668 0.02734895 -1.11075449
1.15294850 0.06169100 -1.18599570
0.82479250 0.20180556 -1.31860113
0.76338673 0.17523752 -1.26111257
0.69353318 0.27736989 -1.34000790
0.50062221 0.47559759 -1.33542967
0.87527543 0.33241451 -1.26854217
1.14235377 0.07226960 -1.09041142
1.17386019 0.01904342 -1.08922064
1.27327156 0.05342335 -0.99798888
1.23986816 0.15216394 -1.01351988
1.08005333 0.01854145 -1.16093826
1.31609166 0.41876268 -0.89897025
0.39516389 0.01168143 -1.38675392
0.48191643 0.02509325 -1.40984905
1.28320408 0.02451209 -1.01916313
0.47741571 0.02061865 -1.36173213
0.39516389 0.01168143 -1.38675392
0.34321156 0.03889151 -1.35774493
1.24393260 0.04683262 -1.12185001
1.15294850 0.06169100 -1.18599570
1.27008343 0.08875254 -1.11294925
0.59016109 0.36833724 -1.33960903
0.80419064 0.28280976 -1.22837269
0.91473484 0.24663047 -1.19131017
1.14235377 0.07226960 -1.09041142
1.23986816 0.15216394 -1.01351988
1.14043772 0.22678047 -1.07013595
0.79783183 0.41492468 -1.20426285
1.09594595 0.21001598 -1.19144523
1.37692618 0.03143091 -1.01659548
1.17386019 0.01904342 -1.08922064
0.33717135 0.02413578 -1.42582917
1.37692618 0.03143091 -1.01659548
0.51628977 0.06949581 -1.33787012
0.47741571 0.02061865 -1.36173213
1.34091580 0.04784753 -1.06184697
0.39516389 0.01168143 -1.38675392
0.98747456 0.36948386 -1.20621431
1.34091580 0.04784753 -1.06184697
1.05485153 0.05474869 -1.14729249
0.83635265 0.47948918 -1.17566156
1.02663994 0.15454267 -1.14873385
0.36634642 0.07807282 -1.35132134
0.31334737 0.31791294 -1.37660563
1.09594595 0.21001598 -1.19144523
1.26063919 0.54556280 -0.91849917
1.27908349 0.20060267 -1.06965566
1.33101797 0.13806653 -0.93858820
1.08694839 0.07011422 -1.23424613
0.78843516 0.32776129 -1.30321372
0.69354874 0.42207670 -1.23709190
0.69578701 0.53074163 -1.21387279
0.90817946 0.51550585 -1.21433091
1.34035897 0.26155895 -0.91029358
0.32546210 0.40226066 -1.35881937
1.33101797 0.13806653 -0.93858820
0.84335858 0.02870193 -1.26043415
0.81579435 0.60614282 -1.24270964
0.90655375 0.50297153 0.33845499
0.83404768 0.49046260 0.34095353
0.90140736 0.50291938 0.17582734
0.77912265 0.50293672 -0.08095127
0.71072209 0.48896611 0.01408212
0.56242216 0.47832039 -0.05050540
1.00685418 0.52288198 0.24388699
0.40909502 0.48481691 -0.24376824
0.55458492 0.49446595 -0.22343841
0.71950996 0.52949315 -0.35140255
0.81352895 0.55315381 -0.38881323
0.82740086 0.52870911 -0.24625605
1.01353395 0.52530092 0.13855448
0.65069056 0.47695941 0.10825794
0.48035228 0.45488247 0.32122812
0.48749125 0.45843801 0.15782417
0.64368963 0.47393730 0.30184516
0.86476940 0.50694442 0.02415095
0.89431030 0.52242506 -0.12104176
0.95581138 0.51970881 0.04005941
0.72687191 0.48006734 0.21406785
0.56349081 0.46355867 0.38339874
1.06323707 0.54923141 -0.00192071
1.08098686 0.54325342 0.14019424
0.64887571 0.49923864 -0.17985313
0.98411912 0.54423821 -0.16567191
0.69487554 0.47802532 0.40595883
0.79509526 0.48774856 0.17227437
0.47094184 0.46324265 0.05229129
1.15271056 0.55925554 0.31411108
0.72246051 0.51238549 -0.23230010
0.62581408 0.52193892 -0.40405381
0.57062536 0.53931963 -0.50700366
0.43034968 0.50495946 -0.39284128
0.44327518 0.52825648 -0.52856761
0.33133858 0.51069736 -0.49891305
1.57770181 0.06709679 -0.83021134
1.55189073 0.03075250 -0.78794158
1.51182604 0.05395204 -0.89364016
1.37692618 0.03143091 -1.01659548
1.46930075 0.05293218 -0.93778503
1.45391738 0.02609684 -0.88192862
1.40372479 0.19254802 -0.86207086
1.48573065 0.26102602 -0.76390499
1.40086472 0.37219745 -0.82938355
1.33860826 0.57605022 -0.92171794
1.46056533 0.46117008 -0.83189195
1.39694691 0.36907181 -0.92138332
1.55390477 0.15046763 -0.83082956
1.45170712 0.30053717 -0.88684505
1.52645671 0.31705379 -0.79617423
1.41331661 0.08604995 -0.99836028
1.45391738 0.02609684 -0.88192862
1.46449208 0.04540255 -0.80950147
1.39566946 0.04364058 -0.88980067
1.46663904 0.13670443 -0.92849535
1.39375949 0.53949940 -0.79778600
1.47598672 0.18001436 -0.78643060
1.42582321 0.46913546 -0.78387046
1.39566946 0.04364058 -0.88980067
1.45391738 0.02609684 -0.88192862
1.76424158 0.31864989 -0.27345788
1.75390267 0.44720978 -0.24473241
1.73772931 0.44448161 -0.30794451
1.78250325 0.10805789 -0.53078574
1.68877530 0.06544814 -0.67615259
1.71493971 0.18302718 -0.61208844
1.73369241 0.54911071 -0.24562231
1.59435558 0.39144993 -0.60283023
1.55235815 0.29895133 -0.68384135
1.60016966 0.24240461 -0.62715501
1.68436325 0.52024567 -0.37137404
1.71071696 0.63343531 -0.25019571
1.52162576 0.38496640 -0.70020103
1.91348708 0.08194516 -0.12265179
1.87056375 0.07100706 -0.23395982
1.87324238 0.11731493 -0.29590869
1.82413459 0.42218131 0.07182254
1.83260083 0.42606100 0.24181502
1.81690288 0.53407490 0.18658546
1.86100662 0.21343555 0.17992641
1.85216987 0.30102175 0.24896437
1.84152460 0.32243463 0.11979862
1.76653409 0.25730053 -0.47279981
1.65042436 0.41960427 -0.57846069
1.80740297 0.50450593 -0.00260948
1.83058774 0.47459209 -0.05605935
1.81129515 0.44607332 -0.18139604
1.78023660 0.54749978 -0.19200657
1.72436059 0.24782051 -0.39963129
1.65015852 0.18586290 -0.55453956
1.70430171 0.12601504 -0.44784760
1.52518940 0.45413011 -0.67739642
1.71084213 0.37758192 -0.38860315
1.65894973 0.30587566 -0.51606244
1.58730280 0.49865201 -0.57850808
1.50664771 0.60317260 -0.65790451
1.77708423 0.48971778 -0.15006778
1.85751688 0.46676221 0.10930277
1.83118784 0.52045333 0.02414884
1.84364605 0.54646409 0.17117661
1.91650808 0.14987242 -0.11602659
1.81848538 0.13140213 -0.44442883
1.82921696 0.23876521 -0.33028010
1.82324195 0.36968949 -0.01781987
1.82335269 0.29998365 -0.07786191
1.78255677 0.04997963 -0.39361617
1.75370014 0.06619381 -0.36958575
1.70763230 0.05277114 -0.49777132
1.69765675 0.03749660 -0.54521567
1.58468771 0.03688598 -0.70943362
1.46449208 0.04540255 -0.80950147
1.45391738 0.02609684 -0.88192862
1.55189073 0.03075250 -0.78794158
1.84717107 0.28872478 -0.21938570
1.78158581 0.44634306 -0.28199330
1.80608213 0.40822229 -0.10298280
1.44032311 0.61800241 -0.73291004
1.77513838 0.34463218 -0.38477555
1.54956579 0.46819523 -0.71696872
1.59465849 0.52442330 -0.62774247
1.81887829 0.53782409 0.28476411
1.52249897 0.05808769 -0.75055242
1.75798631 0.13345253 -0.32026106
1.68840337 0.07946552 -0.49651700
1.75370014 0.06619381 -0.36958575
1.86231792 0.34161791 -0.09495556
1.73577714 0.53276235 -0.34297383
1.71637654 0.43214461 -0.45073125
1.68552494 0.52778655 -0.46574977
1.80086493 0.23812465 -0.18170260
1.89453089 0.36186627 0.17161976
1.60492933 0.34381083 -0.68281168
1.62836921 0.19354333 -0.72190881
1.56689286 0.14296970 -0.68280929
1.78811646 0.09676921 -0.24359937
1.75723088 0.62745059 -0.11733451
1.89097202 0.31069833 0.01270802
1.78915906 0.60925424 0.02728709
1.52249897 0.05808769 -0.75055242
1.94718659 0.07754904 0.01752581
1.94515264 0.11932928 -0.00154420
1.92494047 0.19902268 -0.00043454
1.95074856 0.16735315 0.09010845
1.61661088 0.60946345 -0.47503603
1.54565394 0.62732923 -0.59644943
1.77395809 0.18628716 -0.27770677
1.81516874 0.09623262 -0.14105013
1.96536934 0.06297811 0.15867920
1.91692364 0.05901859 0.00812509
1.97498655 0.10173792 0.13963832
1.85517085 0.08736593 0.03709047
1.83347464 0.19570251 -0.04155120
1.84185529 0.09494285 -0.04391835
1.62836921 0.19354333 -0.72190881
1.65001452 0.41368365 -0.49817532
1.63204348 0.04250550 -0.72259134
1.68877530 0.06544814 -0.67615259
1.84854174 0.20680083 0.06022932
1.91334248 0.04570754 0.15716845
1.88081467 0.06239971 -0.00818820
1.69936323 0.13637307 -0.65386266
1.61655486 0.06986441 -0.61913157
1.85435796 0.05977261 -0.12469292
1.86947119 0.06951770 -0.16811067
1.88081467 0.06239971 -0.00818820
1.68840337 0.07946552 -0.49651700
1.91334248 0.04570754 0.15716845
1.82438016 0.06172288 -0.33067822
1.81215477 0.06180062 -0.24014577
1.81215477 0.06180062 -0.24014577
1.98011732 0.07288762 0.23678097
1.60492933 0.34381083 -0.68281168
1.98664153 0.11570284 0.25806248
1.86745965 0.10705065 0.15177841
1.74598706 0.05649439 -0.56152248
1.78072834 0.05979151 -0.47565237
1.64029670 0.03094103 -0.63666791
1.54956579 0.46819523 -0.71696872
1.63204348 0.04250550 -0.72259134
1.82706237 0.06863009 -0.40209889
1.85435796 0.05977261 -0.12469292
1.91621220 0.32270592 0.26659083
1.80269516 0.59982085 0.13977221
1.50313509 0.53058189 -0.75592101
1.61655486 0.06986441 -0.61913157
1.69936323 0.13637307 -0.65386266
1.83835447 0.39173970 0.32075402
1.89038122 0.06137278 0.20136946
1.88046336 0.07937980 0.29372385
1.64246011 0.52869236 -0.45993236
1.65093315 0.60681212 -0.49991217
0.34695819 2.51662612 -1.98884845
0.23168929 2.49237537 -1.98747659
0.23100515 2.61857653 -2.02262449
0.36154816 2.24220490 -1.90604258
0.32394367 2.09550190 -1.86172235
0.56203854 2.39694428 -1.93277752
0.51643050 2.27970052 -1.91122854
0.46833086 2.37366390 -1.94793701
0.73634434 2.69682956 -1.97591054
0.88701594 2.58957028 -1.90472364
0.74843651 2.46962690 -1.91287804
0.58214563 2.54842043 -1.96989083
0.45096639 2.59062171 -1.99868870
0.56271696 2.75309300 -2.02337241
0.31732994 2.40123224 -1.95860684
0.32666671 2.33388591 -1.93904757
0.48313472 2.48041368 -1.96785724
0.44294244 2.15668845 -1.87382936
0.87754017 2.80271220 -1.96376634
0.38281739 1.96029210 -1.81203663
0.20957944 2.03678942 -1.85005963
0.67502052 2.26628399 -1.86647165
0.53328663 2.15172982 -1.86670935
0.78964221 2.36211324 -1.86711144
0.65724933 2.39839649 -1.91367400
0.33002448 2.66251898 -2.02877259
1.01243162 2.76334548 -1.90566134
0.88701594 2.58957028 -1.90472364
0.87754017 2.80271220 -1.96376634
0.67051953 2.15418792 -1.82990611
0.68899578 2.56317830 -1.95223272
0.45946023 2.00804520 -1.82117093
0.99068475 2.58579850 -1.86557388
0.98641157 2.47949886 -1.83783412
0.53713769 2.00996590 -1.81288385
0.45164418 2.24471426 -1.90816236
0.96279621 2.38581920 -1.81768823
0.78964221 2.36211324 -1.86711144
0.74843651 2.46962690 -1.91287804
0.59044749 1.95350635 -1.79324400
1.07942367 2.58531451 -1.83095777
0.64944339 2.00230551 -1.79401028
0.28551784 1.89593768 -1.80058217
0.45284989 2.71029687 -2.02572036
0.30874035 2.75655031 -2.05339026
0.18403248 3.30941725 -2.18520236
0.42411169 2.85560775 -2.06390953
0.78772068 2.84599829 -2.00025249
0.68414128 2.83225703 -2.02130413
0.69559038 2.99029589 -2.05422068
0.27729553 3.79767680 -2.22656584
0.20996383 3.65519047 -2.22337389
0.17838691 3.83007097 -2.23266912
0.82545030 3.04202604 -2.03499198
0.33764416 3.64606404 -2.21298599
0.19228838 2.98927283 -2.11774278
1.05542922 3.17648220 -1.98060858
0.95632946 3.08340359 -1.99979901
0.92269129 3.20592260 -2.03712416
0.88209695 2.94969821 -1.99768507
0.28776687 2.89718175 -2.08937764
0.63869947 3.52216363 -2.15600276
0.81309277 3.43798470 -2.10462737
0.63804334 3.36064196 -2.13887715
0.37649956 3.46560287 -2.19471478
0.51697886 3.54045343 -2.18505311
0.79056215 3.34944963 -2.10065007
0.41218862 3.01563621 -2.10498691
0.95666450 3.55903006 -2.06959105
0.91232872 3.42191434 -2.07169962
0.84118301 3.59623098 -2.11083031
0.28371510 3.51684952 -2.20801830
0.22600642 3.38263249 -2.19536161
0.95632946 3.08340359 -1.99979901
1.07082415 3.03833055 -1.94618237
1.02604365 2.92596984 -1.93916464
0.55530387 2.94477677 -2.06948972
0.70460749 3.69473743 -2.15392613
0.55993307 3.64902544 -2.18210840
0.43727115 3.37405348 -2.17399096
0.44942570 3.21600103 -2.14470410
0.34305263 3.30746937 -2.17530704
0.76677823 3.55495739 -2.12825322
0.28527433 3.21016884 -2.16057372
0.51921993 3.31575394 -2.15362334
1.16974163 2.98213100 -1.89030766
1.01207769 3.73537993 -2.05841851
0.89403570 3.77472496 -2.10358548
1.18433070 3.11296773 -1.91186786
0.65291858 3.10426950 -2.08867335
0.63381642 3.81844544 -2.17498612
1.15725577 3.51792359 -1.98679793
0.95666450 3.55903006 -2.06959105
1.01207769 3.73537993 -2.05841851
1.12182522 3.66784883 -2.01016927
0.51900959 3.11956191 -2.11354709
0.34798360 3.13232446 -2.13708186
0.46432227 3.78944921 -2.20477581
1.13546896 3.29568458 -1.96797907
0.67901295 3.21793103 -2.10634494
1.11858284 3.85631442 -2.01974010
0.78748870 3.21003795 -2.07866025
0.78160489 3.75751114 -2.13894248
0.99299443 3.35519123 -2.03485298
0.92269129 3.20592260 -2.03712416
1.23193300 3.76981449 -1.96648180
0.99299443 3.35519123 -2.03485298
1.11698782 2.75645471 -1.85712302
0.88209695 2.94969821 -1.99768507
1.12520051 3.41007686 -1.98964334
1.11566901 2.86200523 -1.88420987
0.39863268 4.04799557 -2.21649623
0.23598011 3.97125101 -2.23167038
0.27188054 4.19385624 -2.22527671
0.76359439 4.53334999 -2.11256409
0.61933637 4.47117758 -2.15811396
0.57373732 4.58744860 -2.15458059
0.89748162 4.62328529 -2.08566308
0.83960366 4.55852795 -2.09704518
0.75147319 4.62525272 -2.11196518
1.07718587 4.07125282 -2.03417182
1.00207567 3.96949744 -2.06846619
0.89911908 4.08633232 -2.10265160
0.76414508 4.75957584 -2.10307407
0.39427719 4.25199938 -2.21339417
0.75598210 4.32942486 -2.13336635
0.66157025 4.35327482 -2.15892744
0.31099904 4.32005405 -2.21859336
1.20569038 4.47832727 -1.97793508
1.11445069 4.51627111 -2.02195883
1.09797275 4.63803959 -1.99629641
0.94801170 4.30920362 -2.07215166
0.96078551 4.53025484 -2.06960821
0.34077460 4.41755152 -2.21082807
1.02315784 4.21087551 -2.05100870
0.42891520 4.79079390 -2.15328526
0.28546080 4.66771412 -2.18500304
0.30528763 4.79318571 -2.16531563
0.80354947 4.18629980 -2.12917376
0.94801170 4.30920362 -2.07215166
0.89911908 4.08633232 -2.10265160
0.89107770 4.71344185 -2.07499743
0.47062883 4.18283939 -2.20674682
1.00207567 3.96949744 -2.06846619
0.75216937 3.96475315 -2.15342712
0.39679155 4.64532661 -2.17825770
0.50565797 4.35926962 -2.19431329
0.89110196 4.79371166 -2.06728339
0.78897405 4.85843515 -2.08942962
1.02316296 4.67532063 -2.03662086
0.30493292 4.55115843 -2.20198941
0.43057534 4.50664330 -2.19109106
0.41019839 3.90808344 -2.21559906
0.36353856 4.92633772 -2.13617611
0.83530211 4.92985582 -2.05910468
0.95550215 4.79212618 -2.03112721
0.65603131 4.66834116 -2.12642336
0.52196836 4.06060743 -2.20170283
0.90124846 4.41236496 -2.08501720
0.98215902 4.43718624 -2.06229115
0.16459191 4.71978903 -2.18150806
0.60718763 3.95353818 -2.18566656
0.61768693 4.12657833 -2.18270445
0.69844216 4.15317822 -2.16120362
0.63817984 4.24608946 -2.17251492
0.47456187 4.64059639 -2.16872811
1.16911626 4.14267206 -2.00006580
1.01438177 4.84036207 -1.98613524
0.95550215 4.79212618 -2.03112721
0.94728404 4.89687634 -2.00278282
0.63688290 4.75334167 -2.12442589
1.12598276 4.23607302 -2.02208090
1.09576988 4.29731750 -2.03093910
0.54213804 4.71937752 -2.14347553
1.04412401 4.70472765 -2.00412822
1.02316296 4.67532063 -2.03662086
0.17247495 4.94757652 -2.14414930
1.09576988 4.29731750 -2.03093910
0.71231151 4.73175621 -2.10850859
0.65709007 4.83652639 -2.10889935
1.06611216 4.41593981 -2.04196978
1.21639001 4.27240610 -1.99049520
1.16586363 4.69318676 -1.94882011
1.11445069 4.51627111 -2.02195883
1.22839546 4.37586451 -1.97993350
1.09356856 4.79321718 -1.96883690
0.24197565 4.86225605 -2.15677190
0.50499064 4.88155746 -2.12735987
0.51865518 4.97039175 -2.11900568
1.24200559 4.03422213 -1.96590662
1.36404395 3.48938107 -1.88256657
1.32279336 3.38726449 -1.89174426
1.24285185 3.34761477 -1.92646980
1.27543092 3.62839937 -1.93882334
1.32689118 3.21678805 -1.86006558
1.41437888 3.61370945 -1.86393499
1.37530077 3.78396511 -1.89541352
1.32211626 3.93983650 -1.92658186
1.26131439 4.13256025 -1.96810639
1.25780380 4.19769716 -1.96560955
1.39369595 4.09438658 -1.90120637
1.34240544 4.16884947 -1.93330693
1.29467034 4.46279716 -1.92320931
1.18598723 4.53569555 -1.96528280
1.26270723 4.53589201 -1.93370581
1.42283261 3.81656051 -1.86789167
1.36958647 4.63569832 -1.87318885
1.20388520 4.81482172 -1.92391276
1.24492180 4.81913280 -1.89079237
1.31053102 4.56343174 -1.90845549
1.42729890 4.27226210 -1.88352823
1.36043859 4.23789835 -1.92388082
1.30001783 4.37762165 -1.94223070
1.34216607 4.36781836 -1.91312456
1.21639001 4.27240610 -1.99049520
1.22839546 4.37586451 -1.97993350
1.38627851 4.46083069 -1.87689662
1.24519300 4.61078453 -1.92868114
1.23209906 4.68269491 -1.93634725
1.33520782 4.03106546 -1.92684293
1.44809222 4.00137043 -1.86334121
1.40031385 4.54235268 -1.86946046
1.43951607 3.93008375 -1.86825836
1.41247773 4.37538862 -1.86830139
1.13298857 4.83595419 -1.95397246
0.91801631 0.61023057 -1.19886982
0.74551213 0.66855001 -1.26968610
0.86419594 0.75767761 -1.23317790
0.46243384 0.77388918 -1.19460082
0.39893919 0.74474305 -1.21446848
0.52680534 0.74254996 -1.20372653
1.09088981 0.84363627 -1.14150012
1.00474393 0.85585296 -1.19914341
1.05371928 0.94211382 -1.21064222
0.31089422 0.65483624 -1.34538567
0.34097987 1.31365871 -1.58466518
0.37117356 1.46511173 -1.63866138
1.04964817 1.03792119 -1.25942683
0.92434657 0.98247808 -1.29658055
0.88512534 1.05960298 -1.35112846
0.59006405 1.26298225 -1.52727807
0.54298747 1.11324501 -1.47566962
0.46473956 1.22856867 -1.53435683
0.87971467 1.41956043 -1.50882256
0.82002634 1.51427650 -1.56450534
0.92892796 1.62815297 -1.57054794
0.56065816 0.87046796 -1.37040925
0.54755920 0.72761315 -1.33144951
0.42913410 0.73610538 -1.35019696
1.04446328 1.13662994 -1.30833948
0.66382736 0.77788866 -1.31543291
0.60297728 0.65576285 -1.30797327
0.79609889 0.66936821 -1.14560604
0.69805902 0.78057826 -1.05713105
0.76226568 0.79886055 -1.07151508
0.83186287 0.79449689 -1.00267053
0.73286116 1.47407913 -1.57727540
0.71425408 1.56385803 -1.61667120
0.79482943 0.74739945 -0.93047154
0.86599320 0.80519772 -1.04436386
1.39724863 0.82281762 -0.88487238
1.31325781 0.73331469 -0.93465799
1.21418190 0.75151861 -1.02046084
0.46166506 1.38961005 -1.59935582
0.83466351 1.62878144 -1.60329306
0.70233542 1.70300817 -1.66791797
0.50013030 0.72150832 -1.03457093
0.41571611 0.72791594 -1.06196439
0.42161998 0.76839828 -1.14872420
0.92180443 0.62648815 -1.10618329
1.16657686 0.84454805 -1.09063089
1.11780846 0.74004298 -1.08648074
0.89152080 0.79117632 -0.95387709
0.29130790 1.54240596 -1.67194891
0.53563273 1.36846662 -1.57893538
0.65625256 1.11526704 -1.45234823
0.71443808 1.24154365 -1.48846686
0.77231830 1.08506882 -1.40594602
1.31422186 0.62282014 -0.84797740
1.22880614 0.65118361 -0.91650027
0.80691814 1.26597357 -1.47036970
1.18498325 0.99333513 -1.15267849
0.39177290 1.61061740 -1.68962610
0.43238470 0.62581658 -0.84877276
0.40563685 0.65902936 -0.93076646
0.65625256 1.11526704 -1.45234823
0.56695539 0.99963856 -1.42263973
0.89564574 0.75046700 -0.87499893
0.99382311 1.55097008 -1.51403832
0.76204854 0.78637695 -1.10582483
0.71443808 1.24154365 -1.48846686
0.74307352 1.38069880 -1.53943729
0.42386022 0.88041258 -1.39696085
1.24670947 0.88879669 -1.05388546
1.24874628 0.74391091 -0.86816055
1.21020019 0.78661883 -0.88372421
0.90621245 0.71587753 -1.08414674
0.75607312 0.74149728 -1.13494563
0.89469379 0.76047856 -1.06954563
0.86537808 0.71388346 -0.81364727
0.77212590 0.69212896 -0.83523506
0.31348768 1.02527034 -1.46508980
0.32809153 1.18660307 -1.53056455
0.24970998 1.26238680 -1.56743205
0.63152671 1.37451851 -1.56255639
1.32432890 0.74604815 -0.78940248
1.29334724 0.79199314 -0.79095358
0.99665809 0.71194458 -1.15607440
0.86419594 0.75767761 -1.23317790
0.91347682 1.21162248 -1.40541172
0.43368036 1.03906536 -1.46007514
1.25402486 1.15873420 -1.18835449
1.15878594 1.14026999 -1.24460816
0.74307352 1.38069880 -1.53943729
1.18293905 0.81450772 -0.87298942
0.95634419 0.71776044 -0.75027931
1.01074517 0.82530689 -0.96956688
1.09141934 0.78437632 -0.95853043
1.08190703 0.81748581 -0.90823746
0.56919974 0.66158909 -0.87939727
1.16343975 0.81550509 -0.83343202
0.94253737 0.82391489 -1.21822274
0.94024646 1.34729612 -1.45257878
0.99561554 1.22169983 -1.37296677
0.72700495 0.89150184 -1.33524728
0.68456620 0.99496448 -1.39223254
0.77630293 0.79865652 -1.28483248
1.31378615 1.05099082 -1.08437276
0.97095197 0.79906136 -0.90546817
0.73286116 1.47407913 -1.57727540
1.00716865 0.77435899 -1.01212335
1.02834177 0.68165755 -1.03753304
0.31162462 0.90112805 -1.41527593
1.03628588 0.62177509 -1.13473177
0.31210774 0.69840616 -1.23570764
0.69633019 0.62927866 -1.18968439
0.46596730 0.59612024 -0.76840633
1.09918988 0.68563092 -0.99215984
0.65331292 0.69352430 -1.18724895
0.60739732 0.63942617 -0.81445205
0.60670847 0.75735992 -1.16899478
0.99652636 0.75917089 -0.81575996
0.50316125 1.53147495 -1.64897311
1.15350974 1.39494205 -1.36983693
1.12928224 1.26344585 -1.32406771
0.58243799 0.77345717 -1.11328804
0.58557707 1.53255224 -1.63424051
0.53310621 0.62396258 -1.23455930
0.44733852 0.62880087 -1.24430740
0.60125363 0.75714213 -1.05513036
0.32655671 0.77797538 -1.19488358
1.04068685 0.79372501 -0.85163754
0.68456620 0.99496448 -1.39223254
0.26948321 0.73637557 -1.09544444
0.55330873 1.64462483 -1.68841767
0.54251325 0.77108240 -1.17368364
0.77630293 0.79865652 -1.28483248
0.72700495 0.89150184 -1.33524728
0.82843333 0.92111164 -1.31087720
1.21577990 1.30151129 -1.28812230
1.07919240 1.49745536 -1.45424211
0.71425408 1.56385803 -1.61667120
1.11802340 0.78737801 -0.79581702
0.57816005 0.70806545 -0.97286165
0.60990179 1.65042937 -1.67795408
1.30203891 1.40474486 -1.28107870
0.28131694 1.69462907 -1.72946298
1.24297953 0.63789940 -0.99252295
1.07966530 1.61690235 -1.50368226
0.54590970 0.58189625 -0.68814486
0.64250112 0.62088722 -0.74662942
0.71528375 0.72601128 -0.92936021
0.69045842 0.67972142 -0.85824913
1.21026123 1.52128625 -1.39839852
0.73254669 0.62775999 -0.70922464
1.19468200 1.61134267 -1.44637883
1.28187227 1.66192627 -1.42028666
0.73998147 1.90792000 -1.72956848
0.74696612 1.76748908 -1.67853582
0.63045418 1.83917797 -1.74578369
0.53771359 1.81607914 -1.75424945
0.44956884 1.90879428 -1.79128909
0.84741038 1.86849797 -1.68161261
0.87704599 1.96753848 -1.71131516
0.46373540 1.70391107 -1.71728122
0.87071049 1.75753963 -1.63784719
0.63045418 1.83917797 -1.74578369
0.81421602 2.25479198 -1.82693660
1.09850013 2.42434764 -1.77613389
0.94223392 2.17595530 -1.76069891
0.78653651 2.12987828 -1.79211652
0.81421602 2.25479198 -1.82693660
1.08113492 1.86016452 -1.59650636
1.11048341 1.71463966 -1.52898836
0.96678686 1.87626445 -1.64740670
0.64944339 2.00230551 -1.79401028
0.75779116 2.00600076 -1.76053178
1.22014487 1.78621817 -1.50492632
0.78653651 2.12987828 -1.79211652
0.70233542 1.70300817 -1.66791797
1.15743768 2.52438927 -1.77925396
0.99029028 2.26353192 -1.77004051
1.13408005 2.23518872 -1.70476031
1.07745779 2.11007953 -1.68760812
0.38368151 1.80872011 -1.76015127
1.15925539 2.34997988 -1.72852910
1.22906911 2.45467591 -1.72608042
1.18230414 2.11740375 -1.64420760
1.16487527 1.96512508 -1.59857750
0.99848080 2.03613067 -1.69289088
1.14754701 2.63325071 -1.81311500
0.89856386 2.06315708 -1.73625982
1.28995919 1.88849854 -1.50475025
1.26206195 2.01964235 -1.56868291
1.31929612 2.35432553 -1.64784110
1.02821279 0.59947312 -0.35430017
0.92159891 0.56778318 -0.36515307
0.99402350 0.61605912 -0.46686521
1.18179750 0.57691771 0.13472834
1.17378974 0.70565486 -0.55536324
1.06588304 0.67647469 -0.57270569
1.07940114 0.71956033 -0.66860813
0.97215116 0.68233216 -0.66717350
0.78984654 0.61543524 -0.63263845
0.84169257 0.66338736 -0.71934634
1.25578892 0.70304263 -0.46349677
1.33966792 0.74110860 -0.45504943
1.38635349 0.75019050 -0.39556569
0.33754933 0.54164749 -0.64661086
0.93773460 0.64157224 -0.59361970
0.86673725 0.61000437 -0.55774647
0.58219135 0.56695068 -0.60380042
0.64287657 0.58711475 -0.64234656
0.71372473 0.56339365 -0.51136822
1.26835167 0.75692797 -0.58730078
1.32253850 0.79946655 -0.65983373
1.34030235 0.77357692 -0.54896909
1.23116386 0.59971064 0.21958260
1.23400819 0.59476632 0.32929695
1.14644241 0.75525719 -0.70134640
1.35234797 0.69880509 -0.25720590
1.24908853 0.63468194 -0.18640733
1.22783315 0.64175630 -0.28109723
1.18447375 0.65175474 -0.36848375
1.13638639 0.65983731 -0.45515853
1.37504888 0.68928176 -0.14989404
1.34171426 0.66172570 -0.06467866
1.26356220 0.81209856 -0.77477533
1.21454823 0.78764486 -0.73527986
1.37543118 0.66125166 0.13802120
1.26575398 0.61517793 0.08356126
1.27543807 0.62484694 0.00072121
1.11497331 0.57033479 -0.09110799
1.42140639 0.68101126 0.06044155
0.45603845 0.55610675 -0.64615566
1.07198203 0.57124192 -0.16328588
0.95788062 0.56374741 -0.28439295
1.35068512 0.64708096 0.21528554
1.37478399 0.82097340 -0.70263511
1.13806891 0.60760349 -0.21710746
1.12512052 0.63897598 -0.36813715
1.37464511 0.65131044 0.28411910
1.68264139 1.31980169 -0.84633470
1.66971469 1.45683038 -0.94845331
1.71851552 1.44445276 -0.87679875
1.47699249 1.62454486 -1.24963284
1.38936746 1.58064592 -1.30179095
1.39981449 1.67925501 -1.33881044
1.40802479 0.99896258 -0.96846712
1.33812428 0.91071850 -0.98536438
1.31392252 1.20869780 -1.16542089
1.38014412 0.64819759 -0.86924982
1.44372857 0.89362389 -0.86898249
1.47895527 1.06806314 -0.93612808
1.52565658 0.91307515 -0.78513205
1.44409120 1.52981770 -1.23107266
1.63294649 1.38550389 -0.94714159
1.58839393 1.35869980 -0.98044860
1.59734738 1.49200428 -1.05316627
1.45976520 1.19445527 -1.03717220
1.33473539 1.54549611 -1.32764542
1.40428913 1.28864026 -1.13642907
1.58139956 1.20407915 -0.89478683
1.68018270 1.22602129 -0.78609806
1.59287000 1.03733003 -0.77594322
1.67971206 1.57804453 -1.01194584
1.59740603 1.27285969 -0.92810845
1.54415607 1.68319380 -1.21505070
1.54323232 1.53608108 -1.13881207
1.44520915 0.69554436 -0.79723614
1.45495093 0.78414237 -0.80333865
1.77738261 1.48944831 -0.82789332
1.75862193 1.61592865 -0.93615776
1.54815340 1.29504728 -0.99579442
1.53297997 1.40581787 -1.07632327
1.42800677 1.41805542 -1.18306005
1.60260034 1.64302552 -1.13841820
1.85982025 1.64984488 -0.81490928
1.85582411 2.68121910 -1.33422267
1.94772744 2.59751010 -1.20607758
1.87014985 2.53738070 -1.26995087
2.10185432 2.38046026 -0.90827870
2.07594323 2.25096297 -0.87583864
2.01621819 2.43860507 -1.06121790
1.78083897 2.50154042 -1.35107911
1.70023465 2.36814380 -1.38380694
1.68913746 2.51919889 -1.44429636
1.58415866 1.80823028 -1.24019229
1.51699030 1.83148468 -1.31620860
1.65923011 1.89772618 -1.20773351
1.27240646 2.24159884 -1.63952625
1.42221141 2.05974984 -1.48429739
1.35273278 2.02792478 -1.51969171
1.32734442 2.14580035 -1.57591343
1.53904152 1.94969642 -1.34353268
1.83732319 1.85071313 -0.97633564
1.91428578 1.87193012 -0.87689239
1.82434249 1.71815348 -0.91365296
1.70266259 1.80228674 -1.11322021
1.77171111 1.91470313 -1.09177077
1.48534679 2.12930489 -1.46373355
1.42079079 2.16286731 -1.52337730
1.46657431 2.27559853 -1.53024948
1.90931141 2.40750957 -1.17686331
1.62318182 2.02257466 -1.30039680
1.43144357 2.46238923 -1.61675143
1.34774482 2.45231199 -1.66695273
1.37383878 2.26111603 -1.58651483
1.43371439 2.36834955 -1.58601260
1.26039481 2.58038521 -1.74636817
1.38491571 1.89623106 -1.44878578
1.72127056 2.03248549 -1.20948529
1.29902446 2.67778254 -1.75343466
1.53100836 2.45750570 -1.54926682
1.60543048 2.46693015 -1.49721026
1.53096187 2.36738801 -1.51826382
1.48632288 1.73255110 -1.29493964
1.57328093 2.15538216 -1.40594578
1.52078700 2.04279351 -1.39987803
1.55128825 2.55417085 -1.56705081
2.10205579 2.61194253 -1.01813972
2.02945304 2.62595272 -1.11882997
1.32161152 1.79456389 -1.44590533
1.63858104 2.60761619 -1.51565731
1.85560608 2.02974296 -1.05209863
1.53877532 2.69409633 -1.61375129
1.39833570 2.58488297 -1.67389059
1.75564229 2.17072034 -1.24312329
1.81503701 2.38406610 -1.27176166
1.84327137 2.17371368 -1.14621258
1.38259935 1.77422011 -1.39647186
1.91546571 2.25770187 -1.10110855
1.70485604 2.26614475 -1.33694720
2.11558342 2.49354148 -0.94762003
1.92185819 2.06379485 -0.98504645
1.45827127 1.92439353 -1.40902793
1.96998417 2.79083824 -1.24494660
1.56870914 2.22516441 -1.43967354
1.97062743 2.19077063 -0.99177825
2.07360268 2.76836276 -1.11541116
1.74212790 1.71134090 -1.01794004
1.64764559 2.80082965 -1.56051755
1.70996249 2.74604797 -1.49335361
1.97536314 2.32387018 -1.05780542
1.43709600 2.73992634 -1.69026244
2.10205579 2.61194253 -1.01813972
2.16846108 2.62745380 -0.92661721
2.11558342 2.49354148 -0.94762003
2.16235709 2.47889185 -0.86581534
2.10185432 2.38046026 -0.90827870
1.58661246 2.32960558 -1.46460736
1.78168929 2.67093706 -1.40510249
2.01138449 2.10071325 -0.87537223
2.00359774 1.95652616 -0.78776908
2.22629213 2.64932537 -0.84164369
2.21167183 2.82386208 -0.93833876
1.61215413 1.74697471 -1.18150234
1.92239785 1.10440433 -0.09433753
2.00294757 1.24426734 0.00738807
1.92286086 1.06330836 0.00935212
1.36440241 0.69367385 -0.77414739
1.61395144 0.71294147 -0.42302075
1.63269258 0.79091865 -0.31671637
1.58422637 0.74216551 -0.47312585
1.54445434 0.81687492 -0.42044449
1.56837034 0.80324972 -0.45338452
1.58161402 0.81374079 -0.35965434
1.94442594 1.07220733 0.13945055
2.00885653 1.20651674 0.16624209
1.50991166 0.76263922 -0.57677120
1.47694528 0.71810675 -0.63708144
1.55004776 0.71249491 -0.54578018
1.67697680 0.74627918 -0.25097626
1.70620108 0.75719512 -0.16417369
1.85142374 1.19148684 -0.44917271
1.92753410 1.28292823 -0.36234188
1.86845744 1.14212620 -0.34648684
1.88924253 1.13121450 -0.26919717
1.71320081 0.69065452 -0.32722005
1.73642361 0.62518489 -0.27305317
1.64906383 0.68303531 -0.49008083
1.77028525 0.68203306 -0.13998537
1.79233551 0.70587265 0.29800069
1.78704989 0.68952501 0.15428774
1.81964493 0.70559138 0.09708372
1.84265971 0.61533409 0.28152305
1.49853647 0.82229018 -0.52107358
1.44059443 0.81910485 -0.59018457
1.45015764 0.81065977 -0.62083429
1.84054017 0.70908642 0.28237215
1.60038519 0.80783564 -0.27553201
1.96199501 1.31086016 -0.29469922
1.67953360 0.80072176 -0.16398303
1.53300655 0.75031370 -0.07889979
1.45505416 0.71603376 -0.08203556
1.45183229 0.73517597 -0.20101288
1.58250153 0.64694810 -0.61254257
1.59571278 0.73058313 -0.59267837
1.54060483 0.77368540 -0.68755937
1.63289011 0.80305415 -0.18509170
1.68924654 1.15173352 -0.71520150
1.75627303 1.12994897 -0.58413929
1.64271486 1.00723016 -0.67833710
1.97982025 1.26011586 -0.14232305
1.89687967 1.09633946 -0.18588416
1.65737796 0.64269668 -0.36916882
1.83866274 0.77689844 0.14874461
2.05299258 1.31456554 0.15785594
1.63189423 0.77106059 -0.53954905
1.76499224 1.26678169 -0.68962759
1.91664827 1.41156590 -0.52603120
1.71075749 0.81052190 -0.38827556
1.73153722 0.76270258 -0.29500353
1.77932119 0.81614769 -0.18201205
1.82534325 0.80613273 0.01921447
1.83154058 0.91089368 -0.11580236
1.87517345 0.94041532 0.04445650
1.59324467 0.87486470 -0.66438305
1.81711733 0.97296846 -0.26229972
1.86343062 0.86755848 0.14198801
1.95933604 1.08452594 0.24845015
2.03846431 1.25914299 0.32050166
2.00658727 1.36478508 -0.22312908
1.73374510 0.77823400 -0.04788032
1.40299261 0.77417153 -0.69797468
1.76656592 0.67626572 -0.02587483
1.67130148 0.92329603 -0.56457990
1.71281743 0.88211870 -0.44562924
2.06826830 1.38334763 0.03818521
1.54060483 0.77368540 -0.68755937
1.73665774 1.00883198 -0.51118618
1.62058806 0.78349960 -0.08552357
1.69539154 0.79984045 -0.04513813
1.59324467 0.87486470 -0.66438305
2.11867547 1.46911383 0.13715896
1.78517497 1.00384820 -0.39632440
1.91086054 0.97239220 0.23924749
1.81199324 1.35499775 -0.68346643
1.54883170 0.78258806 -0.23363240
1.44948292 0.74881619 -0.27313653
1.46975231 0.77875584 -0.34370923
1.80320966 1.42062294 -0.74476779
1.98671436 1.47961736 -0.43173867
1.41881716 0.78739613 -0.48052689
1.96449399 1.57193649 -0.56907415
1.79197800 0.61708415 -0.07698418
2.14066434 1.58118367 -0.04952456
2.07098222 1.44367146 -0.09497292
1.78968847 0.74882114 -0.07780259
1.86118293 1.50056505 -0.70052397
2.02690172 1.64772177 -0.50198591
1.67130148 0.92329603 -0.56457990
2.14982796 1.56949961 0.04806590
1.95732772 1.66440296 -0.65370393
2.13180876 1.47168124 0.31250980
1.91664827 1.41156590 -0.52603120
1.83133447 1.31023455 -0.61121285
1.73665774 1.00883198 -0.51118618
1.81426561 1.20183384 -0.53673583
1.95732772 1.66440296 -0.65370393
2.03018022 1.46789277 -0.29460952
2.17196965 1.56668770 0.26616827
2.20499277 1.66299748 0.15877779
1.51049137 0.64572465 -0.71899366
2.20884132 1.73041606 -0.00857721
1.50681448 0.72442073 0.02318598
2.06182575 1.60310042 -0.37154821
2.06953287 1.51256704 -0.22402093
1.51049137 0.64572465 -0.71899366
1.61729097 0.76904494 -0.00610095
1.81426561 1.20183384 -0.53673583
2.13660550 1.69092524 -0.24765916
2.10346866 1.55415559 -0.15971382
1.70753729 0.79983211 0.05430293
1.51260626 0.71661025 0.17191626
1.65562963 0.77465755 0.10271912
1.73195994 0.80372691 0.13394992
1.74679840 0.77472991 0.05043444
1.46217251 0.68879443 0.25219172
1.57091999 0.74465448 0.11235704
1.64874327 0.77329278 0.20854208
1.73115408 0.79638350 0.28952324
1.76743031 0.76425338 0.16681445
1.76394510 0.78351605 0.28331450
1.81239581 0.66343772 0.04599307
2.38349724 2.13269019 0.21819536
2.33073997 2.00091434 0.10954426
2.39171767 2.18584371 0.12764266
2.27042818 1.89725935 -0.04144616
2.23210049 1.84374332 -0.12110925
2.31104231 2.07201028 -0.14075366
2.19646788 2.06338525 -0.49051073
2.28713608 2.28558278 -0.46363387
2.25326729 2.08908105 -0.36718148
2.11110401 1.90325081 -0.54105198
2.12195587 1.77046025 -0.39159563
2.28645396 2.71485114 -0.76195955
2.33034730 2.84671760 -0.73303944
2.29934502 2.61619878 -0.68402499
2.36850882 2.78251624 -0.62047660
2.19291520 2.41686606 -0.77028185
2.25676656 2.52486968 -0.71914274
2.21090531 2.31334233 -0.66159451
2.33413076 2.06469870 -0.01230269
2.16989017 1.90352726 -0.40479505
2.19333553 1.84101927 -0.26358232
2.26717377 1.82720459 0.10941351
2.29481101 1.87531054 0.19594303
2.23424029 1.70656860 0.29601359
2.36341906 2.63569117 -0.54784620
1.94272494 1.80217612 -0.78039086
2.08281827 1.93693650 -0.62652123
2.16286802 2.10239530 -0.59805590
2.22027230 2.21146488 -0.56174797
2.27326488 2.38723826 -0.58204472
2.37246513 2.25152969 -0.13270923
2.31558323 2.14681554 -0.23257202
2.33201647 2.27236557 -0.32112738
2.39304423 2.40604043 -0.25379202
2.35331726 2.39634871 -0.38091174
2.01138449 2.10071325 -0.87537223
2.09798098 2.10095787 -0.72800773
2.00359774 1.95652616 -0.78776908
2.02868915 1.90723991 -0.70536536
2.33371615 2.48659968 -0.51598579
2.26125121 2.00515890 -0.24335016
2.07594323 2.25096297 -0.87583864
2.14988542 2.20823669 -0.70921230
2.42545438 2.31636453 0.07510364
2.41895342 2.34847617 -0.03943858
2.34865284 2.01503181 0.27354226
1.94272494 1.80217612 -0.78039086
2.38662219 2.52856517 -0.40312529
1.21732700 2.81120324 -1.82540274
1.32126987 3.09260798 -1.83951128
1.42052531 3.13137841 -1.79204106
1.43658006 3.01163578 -1.75974202
1.76203454 2.96568584 -1.50312579
1.71640897 3.04110146 -1.56208456
1.83764541 3.07368922 -1.46114862
2.20768905 3.54294658 -1.12360013
2.14407992 3.61757946 -1.21938968
2.24033904 3.68962336 -1.09428227
1.53138709 3.61420655 -1.79237354
1.99763179 3.33688760 -1.35796762
2.06126213 3.45739126 -1.30306315
2.10055852 3.27729964 -1.22144461
1.52478755 2.86689019 -1.66600800
2.17824078 2.97608948 -1.04373312
2.30194092 3.01500320 -0.86144805
1.74372828 3.16764760 -1.56793404
1.31871283 2.80650258 -1.77749503
1.52493393 3.82305360 -1.81235802
1.99365497 3.89956284 -1.41283977
1.95919383 3.70217705 -1.44463801
1.91998839 3.83078098 -1.48777246
2.21614504 3.86326814 -1.14548731
1.44300699 3.27978921 -1.80747795
2.15374732 3.39085937 -1.17501104
2.20074368 3.21271515 -1.07363677
1.63260078 2.94487190 -1.60523248
1.58346272 3.81401157 -1.76679754
2.23061657 3.39197206 -1.06692934
2.26577401 3.24002767 -0.98135376
2.06670904 3.16966653 -1.23598397
1.97614372 3.17712641 -1.35026824
