3.65365887 0.31800267 2.69081092
3.74750972 0.36533973 2.48213601
3.61874866 0.36533973 2.66490865
3.90438056 0.31800267 2.31558323
3.86711216 0.36532721 2.29324961
3.96887302 0.27660456 2.35424876
3.97728229 0.36533973 2.09869885
4.01562357 0.31800267 2.11918569
4.08193827 0.27660456 2.15464473
4.22728014 0.17383309 2.50912333
4.07178164 0.23176293 2.41592169
4.34763145 0.17383309 2.29665565
4.18775368 0.23176293 2.21120238
4.07178164 0.23176293 2.41592169
4.18775368 0.23176293 2.21120238
4.29354477 0.23176293 2.00103021
4.38891745 0.23176293 1.78594267
4.45742750 0.17383309 2.07854891
4.55640602 0.17383309 1.85531366
4.18509626 0.27660456 1.94973826
4.27807331 0.27660456 1.74002802
4.29354477 0.23176293 2.00103021
4.38891745 0.23176293 1.78594267
4.20859003 0.31800267 1.71124387
4.11711025 0.31800267 1.91758537
4.16843939 0.36533973 1.69461238
4.07782078 0.36533973 1.89900744
4.28980112 0.31800267 1.50066042
4.24888992 0.36533973 1.48601258
4.36061954 0.27660456 1.52600074
4.36059475 0.31800267 1.28633380
4.24888992 0.36533973 1.48601258
4.31900978 0.36533973 1.27371967
4.28980112 0.31800267 1.50066042
4.43256140 0.27660456 1.30816817
4.36061954 0.27660456 1.52600074
4.64426804 0.17383309 1.62748706
4.47357225 0.23176293 1.56641316
4.72085047 0.17383309 1.39561808
4.54737282 0.23176293 1.34299088
4.47357225 0.23176293 1.56641316
4.54737282 0.23176293 1.34299088
4.47357225 0.23176293 1.56641316
4.61014366 0.23176293 1.11622488
4.66171026 0.23176293 0.88666409
4.78597927 0.17383309 1.16028047
4.83950472 0.17383309 0.92203581
4.49375963 0.27660456 1.08707905
4.54402876 0.27660456 0.86325759
4.61014366 0.23176293 1.11622488
4.66171026 0.23176293 0.88666409
4.47027874 0.31800267 0.84858489
4.37864876 0.36533973 1.05823267
4.42765760 0.36533973 0.84010059
4.42079544 0.31800267 1.06881297
4.50885725 0.31800267 0.62619823
4.46584940 0.36533973 0.61982262
4.58324385 0.27660456 0.63722771
4.53645563 0.31800267 0.40217710
4.49321127 0.36533973 0.39792249
4.61130381 0.27660456 0.40955091
4.88123989 0.17383309 0.68144554
4.70191050 0.23176293 0.65483248
4.91112185 0.17383309 0.43907103
4.73069477 0.23176293 0.42131650
4.70191050 0.23176293 0.65483248
4.73069477 0.23176293 0.42131650
4.92908859 0.17383309 0.19556116
4.74802446 0.23176293 0.18666518
4.75381422 0.23176293 -0.04856011
4.93508959 0.17383309 -0.04856011
4.62819719 0.27660456 0.18077613
4.63384962 0.27660456 -0.04856011
4.74802446 0.23176293 0.18666518
4.75381422 0.23176293 -0.04856011
4.55863953 0.31800267 -0.04856011
4.50966787 0.36533973 0.17494947
4.51517010 0.36533973 -0.04856011
4.55308723 0.31800267 0.17708299
4.50966787 0.36533973 -0.27205718
4.55308723 0.31800267 -0.27420321
4.62819719 0.27660456 -0.27788386
4.49321127 0.36533973 -0.49503025
4.53645563 0.31800267 -0.49929732
4.61130381 0.27660456 -0.50665861
4.92908859 0.17383309 -0.29266888
4.74802446 0.23176293 -0.28377295
4.91112185 0.17383309 -0.53620368
4.73069477 0.23176293 -0.51842427
4.74802446 0.23176293 -0.28377295
4.73069477 0.23176293 -0.51842427
4.66171026 0.23176293 -0.98377180
4.88123989 0.17383309 -0.77855331
4.70191050 0.23176293 -0.75194025
4.83950472 0.17383309 -1.01914358
4.54402876 0.27660456 -0.96036536
4.70191050 0.23176293 -0.75194025
4.58324385 0.27660456 -0.73433548
4.66171026 0.23176293 -0.98377180
4.47027874 0.31800267 -0.94569260
4.50884438 0.31800267 -0.72330600
4.42764521 0.36533973 -0.93722087
4.46584940 0.36533973 -0.71693027
4.37864876 0.36533973 -1.15535295
4.42079544 0.31800267 -1.16592073
4.49375963 0.27660456 -1.18418682
4.31899738 0.36533973 -1.37082744
4.36059475 0.31800267 -1.38345385
4.43256140 0.27660456 -1.40527582
4.78597927 0.17383309 -1.25738823
4.61014366 0.23176293 -1.21333265
4.54737282 0.23176293 -1.44009864
4.72085047 0.17383309 -1.49272585
4.61014366 0.23176293 -1.21333265
4.54737282 0.23176293 -1.44009864
4.64425516 0.17383309 -1.72459483
4.38891745 0.23176293 -1.88305044
4.55638075 0.17383309 -1.95242143
4.47357225 0.23176293 -1.66352093
4.47357225 0.23176293 -1.66352093
4.27806091 0.27660456 -1.83713579
4.38891745 0.23176293 -1.88305044
4.36060715 0.27660456 -1.62310851
4.20859003 0.31800267 -1.80835164
4.28980112 0.31800267 -1.59776807
4.16842747 0.36533973 -1.79173255
4.24887753 0.36533973 -1.58312035
4.11711025 0.31800267 -2.01469326
4.07782078 0.36533973 -1.99611521
4.18508387 0.27660456 -2.04684591
4.01562357 0.31800267 -2.21629357
3.97728229 0.36533973 -2.19580650
4.08193827 0.27660456 -2.25175238
4.45742750 0.17383309 -2.17565656
4.29354477 0.23176293 -2.09815049
4.34761906 0.17383309 -2.39376354
4.18774128 0.23176293 -2.30831003
4.29354477 0.23176293 -2.09815049
4.18774128 0.23176293 -2.30831003
4.22726774 0.17383309 -2.60623121
3.94591570 0.23176293 -2.71183491
4.09664774 0.17383309 -2.81254745
4.07178164 0.23176293 -2.51302958
4.07178164 0.23176293 -2.51302958
3.84616351 0.27660456 -2.64517117
3.94591570 0.23176293 -2.71183491
3.96888566 0.27660456 -2.45135641
3.78362989 0.31800267 -2.60338640
3.86708713 0.36533973 -2.39035749
3.74748468 0.36533973 -2.57924366
3.90436792 0.31800267 -2.41269088
3.65364647 0.31800267 -2.78791833
3.61873627 0.36533973 -2.76202893
3.71405911 0.27660456 -2.83272266
3.48119211 0.36533973 -2.93827653
3.51477957 0.31800267 -2.96585011
3.57292151 0.27660456 -3.01356149
3.95603442 0.17383309 -3.01217651
3.81041765 0.23176293 -2.90418983
3.80578852 0.17383309 -3.20468116
3.66564918 0.23176293 -3.08967018
3.81041765 0.23176293 -2.90418983
3.66564918 0.23176293 -3.08967018
3.64629769 0.17383309 -3.38957524
3.34973645 0.23176293 -3.43825960
3.47793555 0.17383309 -3.56644630
3.51197243 0.23176293 -3.26783895
3.51197243 0.23176293 -3.26783895
3.26491904 0.27660456 -3.35342979
3.34973645 0.23176293 -3.43825960
3.42308760 0.27660456 -3.18726373
3.36735344 0.31800267 -3.13677001
3.18101239 0.36533973 -3.26952338
3.21174264 0.31800267 -3.30025363
3.33515096 0.36533973 -3.10757422
3.04825926 0.31800267 -3.45586443
3.01907587 0.36533973 -3.42366171
3.09875274 0.27660456 -3.51158595
2.87733936 0.31800267 -3.60329056
2.84976554 0.36533973 -3.56970286
2.92505050 0.27660456 -3.66141987
3.30106425 0.17383309 -3.73480868
3.17932796 0.23176293 -3.60048318
3.11615801 0.17383309 -3.89429951
3.00115919 0.23176293 -3.75416017
3.17932796 0.23176293 -3.60048318
3.00115919 0.23176293 -3.75416017
2.92365313 0.17383309 -4.04453278
2.62332416 0.23176293 -4.03441429
2.72403693 0.17383309 -4.18514633
2.81567907 0.23176293 -3.89891601
2.62332416 0.23176293 -4.03441429
2.74419928 0.27660456 -3.80255747
2.55666041 0.27660456 -3.93467426
2.81567907 0.23176293 -3.89891601
2.69940782 0.31800267 -3.74215722
2.49073291 0.36533973 -3.83599544
2.51487565 0.31800267 -3.87214065
2.67350554 0.36533973 -3.70724702
2.32419252 0.31800267 -3.99287891
2.30184650 0.36532721 -3.95561051
2.36284566 0.27660456 -4.05737114
2.12778258 0.31800267 -4.10410929
2.10729575 0.36533973 -4.06578112
2.16324162 0.27660456 -4.17043638
2.51772022 0.17383309 -4.31577873
2.42451859 0.23176293 -4.16028023
2.30525255 0.17383309 -4.43613005
2.21978664 0.23176293 -4.27625179
2.42451859 0.23176293 -4.16028023
2.21978664 0.23176293 -4.27625179
1.86391056 0.17383309 -4.64489174
2.08714557 0.17383309 -4.54592562
1.79453957 0.23176293 -4.47741556
2.00963974 0.23176293 -4.38204288
1.79453957 0.23176293 -4.47741556
2.00963974 0.23176293 -4.38204288
1.74862492 0.27660456 -4.36657143
1.95833504 0.27660456 -4.27359486
1.71984076 0.31800267 -4.29708815
1.90759182 0.36533973 -4.16631889
1.70320928 0.36533973 -4.25693798
1.92618227 0.31800267 -4.20560837
1.50925732 0.31800267 -4.37829971
1.49460948 0.36533973 -4.33738852
1.53459764 0.27660456 -4.44911814
1.29493070 0.31800267 -4.44909334
1.28231657 0.36533973 -4.40750837
1.31676507 0.27660456 -4.52105951
1.63608396 0.17383309 -4.73276615
1.57501006 0.23176293 -4.56207085
1.40421498 0.17383309 -4.80934858
1.35158777 0.23176293 -4.63587093
1.57501006 0.23176293 -4.56207085
1.35158777 0.23176293 -4.63587093
0.93063271 0.17383309 -4.92800331
1.16886485 0.17383309 -4.87447739
0.89526093 0.23176293 -4.75020885
1.12482178 0.23176293 -4.69862938
0.89526093 0.23176293 -4.75020885
1.12482178 0.23176293 -4.69862938
0.87185448 0.27660456 -4.63252735
1.09567595 0.27660456 -4.58225822
0.85718179 0.31800267 -4.55877686
1.06684208 0.36533973 -4.46714735
0.84871000 0.36533973 -4.51614380
1.07740986 0.31800267 -4.50930643
0.63479513 0.31800267 -4.59734297
0.62841946 0.36533973 -4.55434752
0.64582461 0.27660456 -4.67174196
0.41077399 0.31800267 -4.62496662
0.40651938 0.36533973 -4.58170938
0.41814777 0.27660456 -4.69980240
0.69002992 0.17383309 -4.96973801
0.66342938 0.23176293 -4.79040909
0.44769287 0.17383309 -4.99962044
0.42992589 0.23176293 -4.81920528
0.66342938 0.23176293 -4.79040909
0.42992589 0.23176293 -4.81920528
0.19526206 0.23176293 -4.83652306
-0.03995074 0.23176293 -4.84231234
0.20415802 0.17383309 -5.01758671
-0.03995074 0.17383309 -5.02360058
0.19526206 0.23176293 -4.83652306
0.18937300 0.27660456 -4.71669579
0.18354633 0.36533973 -4.59816599
0.18569236 0.31800267 -4.64158535
-0.41480404 -2.22211337 -7.67880249
-0.03995074 -2.51150036 -7.71185350
-0.03995074 -2.22211337 -7.68803549
-0.41596434 -2.51150036 -7.70260811
-0.03995074 -2.83086944 -7.71317625
-0.41602674 -2.83086944 -7.70393085
-0.78874648 -2.22211337 -7.65119171
-0.79109210 -2.51150036 -7.67492247
-0.79120439 -2.83086944 -7.67623234
-0.03995074 -3.16320181 -7.68959522
-0.41238353 -3.49152899 -7.62960672
-0.03995074 -3.49152899 -7.63878965
-0.41486639 -3.16320181 -7.68036222
-0.78391790 -3.49152899 -7.60218287
-0.78889614 -3.16320181 -7.65275145
-1.16111684 -3.16320181 -7.60686159
-1.52073598 -3.49152899 -7.49293566
-1.15366817 -3.49152899 -7.55660486
-1.53064251 -3.16320181 -7.54278040
-1.16458535 -2.83086944 -7.63019323
-1.53524649 -2.83086944 -7.56589985
-1.16089225 -2.22211337 -7.60531473
-1.53033054 -2.22211337 -7.54124594
-1.16439831 -2.51150036 -7.62888336
-1.53498447 -2.51150036 -7.56460238
-1.89618814 -2.22211337 -7.45906115
-1.90197742 -2.51150036 -7.48216820
-1.90230167 -2.83086944 -7.48345375
-2.25756645 -2.22211337 -7.35903502
-2.26447845 -2.51150036 -7.38184214
-2.26486516 -2.83086944 -7.38310242
-1.88421035 -3.49152899 -7.41128731
-1.89656246 -3.16320181 -7.46057081
-2.24326801 -3.49152899 -7.31190968
-2.25801563 -3.16320181 -7.36053181
-2.61414099 -3.16320181 -7.24290037
-2.94461441 -3.49152899 -7.06101322
-2.59701037 -3.49152899 -7.19506454
-2.96404052 -3.16320181 -7.10795116
-2.62207627 -2.83086944 -7.26512194
-2.97307396 -2.83086944 -7.12974834
-2.61360455 -2.22211337 -7.24142838
-2.96345425 -2.22211337 -7.10651636
-2.62163973 -2.51150036 -7.26386166
-2.97257495 -2.51150036 -7.12851286
-3.30622983 -2.22211337 -6.95453644
-3.31642318 -2.51150036 -6.97607136
-3.31698465 -2.83086944 -6.97726917
-3.64115715 -2.22211337 -6.78592491
-3.65238619 -2.51150036 -6.80693579
-3.65301013 -2.83086944 -6.80810833
-3.28518128 -3.49152899 -6.91001940
-3.30690360 -3.16320181 -6.95594645
-3.61793780 -3.49152899 -6.74249315
-3.64189339 -3.16320181 -6.78730965
-3.96822405 -3.16320181 -6.60246611
-4.25685024 -3.49152899 -6.35959196
-3.94211030 -3.49152899 -6.55888462
-4.28508520 -3.16320181 -6.40183878
-3.98035169 -2.83086944 -6.62270355
-4.29818630 -2.83086944 -6.42146444
-3.96742582 -2.22211337 -6.60111856
-4.28421164 -2.22211337 -6.40054131
-3.97966552 -2.51150036 -6.62156773
-4.29746246 -2.51150036 -6.42035437
-4.59075451 -2.22211337 -6.18461704
-4.60495329 -2.51150036 -6.20375681
-4.60575199 -2.83086944 -6.20481777
-4.88635540 -2.22211337 -5.95390892
-4.90147686 -2.51150036 -5.97233725
-4.90231323 -2.83086944 -5.97334766
-4.56143427 -3.49152899 -6.14506626
-4.59169054 -3.16320181 -6.18586540
-4.85511351 -3.49152899 -5.91584206
-4.88735342 -3.16320181 -5.95511913
-5.17135048 -3.16320181 -5.71016216
-5.40706205 -3.49152899 -5.41565943
-5.13721371 -3.49152899 -5.67251968
-5.44298315 -3.16320181 -5.45158005
-5.18718338 -2.83086944 -5.72764206
-5.45966434 -2.83086944 -5.46826172
-5.17028999 -2.22211337 -5.70901394
-5.44187260 -2.22211337 -5.45046949
-5.18629789 -2.51150036 -5.72665644
-5.45872879 -2.51150036 -5.46732569
-5.71805906 -2.51150036 -5.19489431
-5.70041704 -2.22211337 -5.17888689
-5.71904469 -2.83086944 -5.19578028
-5.96373987 -2.51150036 -4.91006184
-5.94531202 -2.22211337 -4.89495230
-5.96475124 -2.83086944 -4.91090965
-5.70156479 -3.16320181 -5.17994738
-5.66392231 -3.49152899 -5.14581108
-5.94652224 -3.16320181 -4.89595032
-5.90724516 -3.49152899 -4.86370993
-6.17728090 -3.16320181 -4.60028744
-6.39324188 -3.16320181 -4.29368210
-6.13646889 -3.49152899 -4.57003117
-6.35100794 -3.49152899 -4.26545954
-6.19622040 -2.83086944 -4.61434841
-6.41286802 -2.83086944 -4.30678272
-6.17602062 -2.22211337 -4.59935141
-6.41176987 -2.51150036 -4.30605936
-6.19515991 -2.51150036 -4.61354971
-6.39194393 -2.22211337 -4.29280901
-6.61297131 -2.51150036 -3.98826241
-6.59253359 -2.22211337 -3.97602272
-6.61410618 -2.83086944 -3.98894858
-6.79835129 -2.51150036 -3.66098309
-6.77732801 -2.22211337 -3.64975405
-6.79952431 -2.83086944 -3.66160703
-6.59386873 -3.16320181 -3.97682118
-6.55028725 -3.49152899 -3.95069480
-6.77871323 -3.16320181 -3.65049028
-6.73389578 -3.49152899 -3.62654734
-6.94734907 -3.16320181 -3.31550026
-7.09935427 -3.16320181 -2.97263741
-6.90142202 -3.49152899 -3.29377818
-7.05241680 -3.49152899 -2.95321131
-6.96867228 -2.83086944 -3.32559419
-7.12115145 -2.83086944 -2.98167086
-6.94593954 -2.22211337 -3.31482673
-7.11992884 -2.51150036 -2.98117185
-6.96747446 -2.51150036 -3.32502007
-7.09791946 -2.22211337 -2.97205114
-7.25526476 -2.51150036 -2.63022399
-7.23283148 -2.22211337 -2.62220144
-7.25652456 -2.83086944 -2.63067317
-7.37324524 -2.51150036 -2.27307534
-7.35043764 -2.22211337 -2.26616311
-7.37450552 -2.83086944 -2.27346206
-7.23430347 -3.16320181 -2.62273788
-7.18646717 -3.49152899 -2.60560727
-7.35193491 -3.16320181 -2.26661253
-7.30330038 -3.49152899 -2.25186491
-7.45197392 -3.16320181 -1.90515924
-7.53418398 -3.16320181 -1.53923929
-7.40269041 -3.49152899 -1.89280713
-7.48433876 -3.49152899 -1.52933288
-7.47485638 -2.83086944 -1.91089857
-7.55730343 -2.83086944 -1.54384339
-7.45046425 -2.22211337 -1.90478492
-7.55600595 -2.51150036 -1.54358137
-7.47357130 -2.51150036 -1.91057408
-7.53263664 -2.22211337 -1.53892744
-7.62028599 -2.51150036 -1.17299509
-7.59671736 -2.22211337 -1.16948903
-7.62159634 -2.83086944 -1.17316973
-7.66632557 -2.51150036 -0.79967648
-7.64259434 -2.22211337 -0.79734337
-7.66763592 -2.83086944 -0.79980129
-7.59826469 -3.16320181 -1.16971374
-7.54800797 -3.49152899 -1.16226506
-7.64415407 -3.16320181 -0.79749304
-7.59358549 -3.49152899 -0.79251480
-7.67176580 -3.16320181 -0.42347577
-7.68099833 -3.16320181 -0.04854763
-7.62100983 -3.49152899 -0.42096791
-7.63019276 -3.49152899 -0.04854763
-7.69532156 -2.83086944 -0.42462361
-7.70457983 -2.83086944 -0.04854763
-7.67019367 -2.22211337 -0.42338842
-7.70325708 -2.51150036 -0.04854763
-7.69401169 -2.51150036 -0.42456123
-7.67943907 -2.22211337 -0.04854763
-7.67019367 -2.22211337 0.32630563
-7.69401169 -2.51150036 0.32746598
-7.69532156 -2.83086944 0.32754084
-7.64259434 -2.22211337 0.70024812
-7.66632557 -2.51150036 0.70259368
-7.66763592 -2.83086944 0.70270604
-7.62100983 -3.49152899 0.32388511
-7.67176580 -3.16320181 0.32638049
-7.59358549 -3.49152899 0.69543207
-7.64415407 -3.16320181 0.70041031
-7.59826469 -3.16320181 1.07263100
-7.48433876 -3.49152899 1.43223763
-7.54800797 -3.49152899 1.06516981
-7.53418398 -3.16320181 1.44214404
-7.62159634 -2.83086944 1.07608700
-7.55730343 -2.83086944 1.44674802
-7.59671736 -2.22211337 1.07240629
-7.53263664 -2.22211337 1.44184470
-7.62028599 -2.51150036 1.07589984
-7.55600595 -2.51150036 1.44648600
-7.45046425 -2.22211337 1.80768967
-7.47357130 -2.51150036 1.81347883
-7.47485638 -2.83086944 1.81380332
-7.35043764 -2.22211337 2.16906786
-7.37324524 -2.51150036 2.17599249
-7.37450552 -2.83086944 2.17637944
-7.40269041 -3.49152899 1.79571187
-7.45197392 -3.16320181 1.80807650
-7.30330038 -3.49152899 2.15478206
-7.35193491 -3.16320181 2.16951728
-7.23430347 -3.16320181 2.52564263
-7.05241680 -3.49152899 2.85611606
-7.18646717 -3.49152899 2.50852466
-7.09935427 -3.16320181 2.87555480
-7.25651217 -2.83086944 2.53359032
-7.12115145 -2.83086944 2.88457561
-7.23283148 -2.22211337 2.52511859
-7.09791946 -2.22211337 2.87495589
-7.25526476 -2.51150036 2.53315377
-7.11991644 -2.51150036 2.88407660
-6.94593954 -2.22211337 3.21774387
-6.96747446 -2.51150036 3.22792482
-6.96867228 -2.83086944 3.22849894
-6.77732801 -2.22211337 3.55267143
-6.79835129 -2.51150036 3.56390047
-6.79951191 -2.83086944 3.56451178
-6.90142202 -3.49152899 3.19668293
-6.94734907 -3.16320181 3.21840501
-6.73389578 -3.49152899 3.52945209
-6.77871323 -3.16320181 3.55339503
-6.59386873 -3.16320181 3.87972593
-6.35099554 -3.49152899 4.16836452
-6.55028725 -3.49152899 3.85359931
-6.39324188 -3.16320181 4.19658709
-6.61409378 -2.83086944 3.89186573
-6.41286802 -2.83086944 4.20970011
-6.59252119 -2.22211337 3.87892747
-6.39194393 -2.22211337 4.19572592
-6.61297131 -2.51150036 3.89117980
-6.41176987 -2.51150036 4.20896435
-6.17602062 -2.22211337 4.50226879
-6.19515991 -2.51150036 4.51645470
-6.19622040 -2.83086944 4.51725340
-5.94531202 -2.22211337 4.79786921
-5.96372747 -2.51150036 4.81297874
-5.96475124 -2.83086944 4.81382704
-6.13646889 -3.49152899 4.47294855
-6.17726803 -3.16320181 4.50319242
-5.90724516 -3.49152899 4.76661491
-5.94652224 -3.16320181 4.79885483
-5.70156479 -3.16320181 5.08285189
-5.40706205 -3.49152899 5.31856394
-5.66392231 -3.49152899 5.04872799
-5.44298315 -3.16320181 5.35449696
-5.71904469 -2.83086944 5.09869766
-5.45966434 -2.83086944 5.37117863
-5.70041704 -2.22211337 5.08180380
-5.44187260 -2.22211337 5.35338688
-5.71805906 -2.51150036 5.09781170
-5.45872879 -2.51150036 5.37024307
-5.18629789 -2.51150036 5.62957335
-5.17028999 -2.22211337 5.61191893
-5.18718338 -2.83086944 5.63055897
-4.90147686 -2.51150036 5.87524176
-4.88635540 -2.22211337 5.85682583
-4.90231323 -2.83086944 5.87626457
-5.17135048 -3.16320181 5.61307907
-5.13721371 -3.49152899 5.57543659
-4.88734055 -3.16320181 5.85803604
-4.85511351 -3.49152899 5.81875944
-4.59169054 -3.16320181 6.08878231
-4.28507280 -3.16320181 6.30475569
-4.56143427 -3.49152899 6.04797077
-4.25685024 -3.49152899 6.26250935
-4.60573912 -2.83086944 6.10773468
-4.29818630 -2.83086944 6.32436943
-4.59075451 -2.22211337 6.08753490
-4.29745007 -2.51150036 6.32325888
-4.60495329 -2.51150036 6.10667419
-4.28421164 -2.22211337 6.30345821
-3.97966552 -2.51150036 6.52447271
-3.96741343 -2.22211337 6.50403547
-3.98035169 -2.83086944 6.52560806
-3.65238619 -2.51150036 6.70986557
-3.64115715 -2.22211337 6.68884182
-3.65299749 -2.83086944 6.71102619
-3.96821165 -3.16320181 6.50538301
-3.94208527 -3.49152899 6.46178913
-3.64188075 -3.16320181 6.69022703
-3.61792541 -3.49152899 6.64541006
-3.30689096 -3.16320181 6.85886335
-2.96404052 -3.16320181 7.01085615
-3.28518128 -3.49152899 6.81293631
-2.94458938 -3.49152899 6.96391821
-3.31698465 -2.83086944 6.88017368
-2.97307396 -2.83086944 7.03266573
-3.30622983 -2.22211337 6.85744143
-2.97256231 -2.51150036 7.03143024
-3.31641078 -2.51150036 6.87898874
-2.96344185 -2.22211337 7.00942087
-2.62163973 -2.51150036 7.16676617
-2.61360455 -2.22211337 7.14433336
-2.62207627 -2.83086944 7.16802645
-2.26447845 -2.51150036 7.28474665
-2.25755382 -2.22211337 7.26195192
-2.26486516 -2.83086944 7.28601933
-2.61412859 -3.16320181 7.14580536
-2.59701037 -3.49152899 7.09798145
-2.25800323 -3.16320181 7.26343632
-2.24326801 -3.49152899 7.21482706
-1.89656246 -3.16320181 7.36347532
-1.53063011 -3.16320181 7.44568539
-1.88421035 -3.49152899 7.31419182
-1.52072346 -3.49152899 7.39584017
-1.90228915 -2.83086944 7.38637066
-1.53523397 -2.83086944 7.46881771
-1.89617550 -2.22211337 7.36196566
-1.53498447 -2.51150036 7.46751976
-1.90196478 -2.51150036 7.38508558
-1.53033054 -2.22211337 7.44415092
-1.16438580 -2.51150036 7.53180027
-1.16089225 -2.22211337 7.50821924
-1.16458535 -2.83086944 7.53311014
-0.79106712 -2.51150036 7.57782745
-0.78873396 -2.22211337 7.55410862
-0.79119194 -2.83086944 7.57913733
-1.16111684 -3.16320181 7.50976610
-1.15365565 -3.49152899 7.45950985
-0.78889614 -3.16320181 7.55565596
-0.78391790 -3.49152899 7.50509977
-0.41486639 -3.16320181 7.58326721
-0.03993827 -3.16320181 7.59250021
-0.41237101 -3.49152899 7.53251123
-0.03993827 -3.49152899 7.54169464
-0.41602674 -2.83086944 7.60683584
-0.03993827 -2.83086944 7.61609364
-0.41479152 -2.22211337 7.58170748
-0.03993827 -2.51150036 7.61477137
-0.41595185 -2.51150036 7.60551310
-0.03993827 -2.22211337 7.59094048
0.33490250 -2.22211337 7.58170748
-0.03993827 -2.51150036 7.61477137
-0.03993827 -2.22211337 7.59094048
0.33607534 -2.51150036 7.60551310
-0.03993827 -2.83086944 7.61609364
0.33613771 -2.83086944 7.60683584
0.70885742 -2.22211337 7.55410862
0.71119058 -2.51150036 7.57782745
0.71131533 -2.83086944 7.57913733
-0.03993827 -3.16320181 7.59250021
0.33248201 -3.49152899 7.53251123
-0.03993827 -3.49152899 7.54169464
0.33498982 -3.16320181 7.58326721
0.70402896 -3.49152899 7.50509977
0.70900714 -3.16320181 7.55565596
1.08122778 -3.16320181 7.50976610
1.44084680 -3.49152899 7.39584017
1.07377923 -3.49152899 7.45950985
1.45074093 -3.16320181 7.44568539
1.08469629 -2.83086944 7.53311014
1.45535743 -2.83086944 7.46880484
1.08100331 -2.22211337 7.50821924
1.45044160 -2.22211337 7.44415092
1.08450913 -2.51150036 7.53180027
1.45509541 -2.51150036 7.46750736
1.81629896 -2.22211337 7.36196566
1.82208824 -2.51150036 7.38508558
1.82241261 -2.83086944 7.38635826
2.17767739 -2.22211337 7.26193953
2.18458939 -2.51150036 7.28474665
2.18497634 -2.83086944 7.28600693
1.80432129 -3.49152899 7.31419182
1.81667340 -3.16320181 7.36347532
2.16337872 -3.49152899 7.21481466
2.17811418 -3.16320181 7.26343632
2.53425217 -3.16320181 7.14580536
2.86472535 -3.49152899 6.96391821
2.51712155 -3.49152899 7.09796906
2.88415170 -3.16320181 7.01085615
2.54218721 -2.83086944 7.16802645
2.89318490 -2.83086944 7.03265333
2.53371549 -2.22211337 7.14433336
2.88356543 -2.22211337 7.00942087
2.54175067 -2.51150036 7.16676617
2.89268589 -2.51150036 7.03141785
3.22634077 -2.22211337 6.85744143
3.23653412 -2.51150036 6.87897635
3.23709583 -2.83086944 6.88017368
3.56126809 -2.22211337 6.68882942
3.57249737 -2.51150036 6.70984030
3.57312107 -2.83086944 6.71101332
3.20529246 -3.49152899 6.81292391
3.22701430 -3.16320181 6.85885096
3.53804898 -3.49152899 6.64539766
3.56199193 -3.16320181 6.69021463
3.88832283 -3.16320181 6.50537062
4.17696095 -3.49152899 6.26249695
3.86219621 -3.49152899 6.46178913
4.20519638 -3.16320181 6.30474329
3.90046263 -2.83086944 6.52560806
4.21829700 -2.83086944 6.32436943
3.88753676 -2.22211337 6.50402308
4.20432329 -2.22211337 6.30344582
3.89977646 -2.51150036 6.52447271
4.21757317 -2.51150036 6.32325888
4.51086569 -2.22211337 6.08752203
4.52507639 -2.51150036 6.10666132
4.52586269 -2.83086944 6.10772228
4.80646610 -2.22211337 5.85681343
4.82158852 -2.51150036 5.87522888
4.82242393 -2.83086944 5.87625217
4.48154497 -3.49152899 6.04797077
4.51180124 -3.16320181 6.08876991
4.77522421 -3.49152899 5.81874704
4.80746460 -3.16320181 5.85802412
5.09146166 -3.16320181 5.61306667
5.32717371 -3.49152899 5.31856394
5.05732489 -3.49152899 5.57542419
5.36309433 -3.16320181 5.35448456
5.10729456 -2.83086944 5.63054657
5.37977552 -2.83086944 5.37116623
5.09040117 -2.22211337 5.61191893
5.36199617 -2.22211337 5.35337448
5.10640860 -2.51150036 5.62956095
5.37883949 -2.51150036 5.37023067
5.63817072 -2.51150036 5.09779930
5.62052774 -2.22211337 5.08179140
5.63915634 -2.83086944 5.09868479
5.88383865 -2.51150036 4.81296635
5.86542320 -2.22211337 4.79785681
5.88486195 -2.83086944 4.81381464
5.62167597 -3.16320181 5.08285189
5.58403349 -3.49152899 5.04871559
5.86663342 -3.16320181 4.79884243
5.82735634 -3.49152899 4.76661491
6.09737968 -3.16320181 4.50319242
6.31335306 -3.16320181 4.19657469
6.05658054 -3.49152899 4.47293615
6.27110624 -3.49152899 4.16835213
6.11633158 -2.83086944 4.51724100
6.33297873 -2.83086944 4.20968771
6.09613132 -2.22211337 4.50225592
6.33186817 -2.51150036 4.20895147
6.11525869 -2.51150036 4.51645470
6.31205559 -2.22211337 4.19571352
6.53308201 -2.51150036 3.89116716
6.51263237 -2.22211337 3.87891483
6.53420496 -2.83086944 3.89185333
6.71845007 -2.51150036 3.56388783
6.69743919 -2.22211337 3.55265880
6.71962261 -2.83086944 3.56449914
6.51397991 -3.16320181 3.87971354
6.47038603 -3.49152899 3.85359931
6.69882393 -3.16320181 3.55338240
6.65400743 -3.49152899 3.52942705
6.86746073 -3.16320181 3.21839261
7.01946545 -3.16320181 2.87554216
6.82153320 -3.49152899 3.19667053
6.97252750 -3.49152899 2.85610342
6.88877106 -2.83086944 3.22848630
7.04126215 -2.83086944 2.88456297
6.86603785 -2.22211337 3.21773148
7.04002714 -2.51150036 2.88406396
6.88758516 -2.51150036 3.22791243
7.01801825 -2.22211337 2.87494349
7.17536354 -2.51150036 2.53312874
7.15294218 -2.22211337 2.52509356
7.17662334 -2.83086944 2.53356528
7.29334402 -2.51150036 2.17596769
7.27054882 -2.22211337 2.16905546
7.29461670 -2.83086944 2.17635441
7.15441465 -3.16320181 2.52563024
7.10657883 -3.49152899 2.50851202
7.27204609 -3.16320181 2.16950464
7.22341108 -3.49152899 2.15476942
7.37208509 -3.16320181 1.80806398
7.45428181 -3.16320181 1.44214404
7.32278919 -3.49152899 1.79569948
7.40444994 -3.49152899 1.43222511
7.39496756 -2.83086944 1.81379092
7.47741413 -2.83086944 1.44673562
7.37056303 -2.22211337 1.80767727
7.47611666 -2.51150036 1.44647360
7.39368248 -2.51150036 1.81346655
7.45273495 -2.22211337 1.44181967
7.54039717 -2.51150036 1.07588744
7.51681614 -2.22211337 1.07238150
7.54170752 -2.83086944 1.07607448
7.58641148 -2.51150036 0.70258123
7.56270599 -2.22211337 0.70023561
7.58773422 -2.83086944 0.70269352
7.51836348 -3.16320181 1.07260597
7.46810627 -3.49152899 1.06515729
7.56425285 -3.16320181 0.70039779
7.51369667 -3.49152899 0.69540709
7.59186411 -3.16320181 0.32635555
7.60109663 -3.16320181 -0.04856011
7.54110813 -3.49152899 0.32387266
7.55029106 -3.49152899 -0.04856011
7.61543274 -2.83086944 0.32751590
7.62469053 -2.83086944 -0.04856011
7.59030437 -2.22211337 0.32629317
7.62336779 -2.51150036 -0.04856011
7.61410999 -2.51150036 0.32745349
7.59953737 -2.22211337 -0.04856011
7.59030437 -2.22211337 -0.42341337
7.61410999 -2.51150036 -0.42457369
7.61543274 -2.83086944 -0.42463610
7.56270599 -2.22211337 -0.79735577
7.58641148 -2.51150036 -0.79970145
7.58773422 -2.83086944 -0.79981375
7.54110813 -3.49152899 -0.42099288
7.59186411 -3.16320181 -0.42347577
7.51369667 -3.49152899 -0.79252732
7.56425285 -3.16320181 -0.79751801
7.51836348 -3.16320181 -1.16972625
7.40443754 -3.49152899 -1.52934527
7.46810627 -3.49152899 -1.16227758
7.45428181 -3.16320181 -1.53925180
7.54169512 -2.83086944 -1.17319477
7.47740173 -2.83086944 -1.54385579
7.51681614 -2.22211337 -1.16950154
7.45273495 -2.22211337 -1.53893995
7.54039717 -2.51150036 -1.17300761
7.47610378 -2.51150036 -1.54359376
7.37056303 -2.22211337 -1.90479743
7.39367008 -2.51150036 -1.91058660
7.39495516 -2.83086944 -1.91091108
7.27052402 -2.22211337 -2.26617575
7.29334402 -2.51150036 -2.27308774
7.29460430 -2.83086944 -2.27347469
7.32278919 -3.49152899 -1.89281964
7.37207270 -3.16320181 -1.90517175
7.22339869 -3.49152899 -2.25187731
7.27203369 -3.16320181 -2.26662469
7.15441465 -3.16320181 -2.62275052
6.97251511 -3.49152899 -2.95322371
7.10656595 -3.49152899 -2.60561991
7.01945257 -3.16320181 -2.97266245
7.17661095 -2.83086944 -2.63068557
7.04124975 -2.83086944 -2.98168325
7.15292978 -2.22211337 -2.62221384
7.01801825 -2.22211337 -2.97206378
7.17536354 -2.51150036 -2.63024902
7.04001474 -2.51150036 -2.98118424
6.86602545 -2.22211337 -3.31483912
6.88757277 -2.51150036 -3.32503247
6.88877106 -2.83086944 -3.32560658
6.69742680 -2.22211337 -3.64976668
6.71845007 -2.51150036 -3.66099572
6.71961021 -2.83086944 -3.66161942
6.82152081 -3.49152899 -3.29379082
6.86744785 -3.16320181 -3.31551266
6.65399456 -3.49152899 -3.62654734
6.69881153 -3.16320181 -3.65050268
6.51396751 -3.16320181 -3.97683358
6.27109385 -3.49152899 -4.26545954
6.47037363 -3.49152899 -3.95070696
6.31334066 -3.16320181 -4.29369450
6.53419256 -2.83086944 -3.98896098
6.33295393 -2.83086944 -4.30679512
6.51261997 -2.22211337 -3.97603512
6.31204271 -2.22211337 -4.29282141
6.53306913 -2.51150036 -3.98827505
6.33185625 -2.51150036 -4.30607176
6.09611893 -2.22211337 -4.59936428
6.11525869 -2.51150036 -4.61357498
6.11631918 -2.83086944 -4.61436081
5.86541080 -2.22211337 -4.89496469
5.88382626 -2.51150036 -4.91007423
5.88484955 -2.83086944 -4.91092205
6.05655527 -3.49152899 -4.57004356
6.09736681 -3.16320181 -4.60031223
5.82734346 -3.49152899 -4.86372232
5.86662054 -3.16320181 -4.89596272
5.62166357 -3.16320181 -5.17996025
5.32714844 -3.49152899 -5.41567183
5.58402109 -3.49152899 -5.14582348
5.36308193 -3.16320181 -5.45159245
5.63914347 -2.83086944 -5.19579315
5.37975073 -2.83086944 -5.46827412
5.62050295 -2.22211337 -5.17889929
5.36195850 -2.22211337 -5.45048189
5.63815784 -2.51150036 -5.19490671
5.37882710 -2.51150036 -5.46733809
5.10638332 -2.51150036 -5.72666883
5.09038877 -2.22211337 -5.70902634
5.10726976 -2.83086944 -5.72765446
4.82156324 -2.51150036 -5.97233725
4.80644131 -2.22211337 -5.95392132
4.82239914 -2.83086944 -5.97336006
5.09143686 -3.16320181 -5.71017456
5.05731249 -3.49152899 -5.67253208
4.80743933 -3.16320181 -5.95513153
4.77519894 -3.49152899 -5.91585445
4.51178885 -3.16320181 -6.18587780
4.20517111 -3.16320181 -6.40185118
4.48150778 -3.49152899 -6.14507866
4.17694855 -3.49152899 -6.35960436
4.52583742 -2.83086944 -6.20483017
4.21827173 -2.83086944 -6.42146444
4.51085329 -2.22211337 -6.18462992
4.21754837 -2.51150036 -6.42035437
4.52503920 -2.51150036 -6.20376968
4.20431042 -2.22211337 -6.40055370
3.89975166 -2.51150036 -6.62156773
3.88751173 -2.22211337 -6.60113096
3.90043759 -2.83086944 -6.62270355
3.57247233 -2.51150036 -6.80696106
3.56124330 -2.22211337 -6.78593731
3.57310867 -2.83086944 -6.80812120
3.88831043 -3.16320181 -6.60247850
3.86219621 -3.49152899 -6.55888462
3.56197929 -3.16320181 -6.78732204
3.53802395 -3.49152899 -6.74250555
3.22698951 -3.16320181 -6.95595884
2.88413906 -3.16320181 -7.10796356
3.20526743 -3.49152899 -6.91003180
2.86468792 -3.49152899 -7.06102610
3.23708320 -2.83086944 -6.97726917
2.89315987 -2.83086944 -7.12976074
3.22631574 -2.22211337 -6.95453644
2.89266086 -2.51150036 -7.12852526
3.23650932 -2.51150036 -6.97608376
2.88354039 -2.22211337 -7.10651636
2.54172564 -2.51150036 -7.26386166
2.53369045 -2.22211337 -7.24142838
2.54216218 -2.83086944 -7.26512194
2.18456459 -2.51150036 -7.38184214
2.17765236 -2.22211337 -7.35904741
2.18495131 -2.83086944 -7.38311481
2.53422713 -3.16320181 -7.24290037
2.51709652 -3.49152899 -7.19507694
2.17810154 -3.16320181 -7.36053181
2.16335416 -3.49152899 -7.31192207
1.81664836 -3.16320181 -7.46057081
1.45072854 -3.16320181 -7.54278040
1.80429637 -3.49152899 -7.41128731
1.44082201 -3.49152899 -7.49293566
1.82238770 -2.83086944 -7.48346615
1.45533252 -2.83086944 -7.56591272
1.81627417 -2.22211337 -7.45906115
1.45507050 -2.51150036 -7.56461477
1.82206333 -2.51150036 -7.48218107
1.45041656 -2.22211337 -7.54124594
1.08448422 -2.51150036 -7.62889576
1.08097827 -2.22211337 -7.60531473
1.08468390 -2.83086944 -7.63020563
0.71117812 -2.51150036 -7.67492247
0.70883250 -2.22211337 -7.65120411
0.71130294 -2.83086944 -7.67623234
1.08121538 -3.16320181 -7.60686159
1.07375419 -3.49152899 -7.55660486
0.70899469 -3.16320181 -7.65275145
0.70401645 -3.49152899 -7.60219526
0.33496490 -3.16320181 -7.68036222
-0.03995074 -3.16320181 -7.68959522
0.33246955 -3.49152899 -7.62960672
-0.03995074 -3.49152899 -7.63878965
0.33612525 -2.83086944 -7.70393085
-0.03995074 -2.83086944 -7.71317625
0.33489007 -2.22211337 -7.67880249
-0.03995074 -2.51150036 -7.71185350
0.33606288 -2.51150036 -7.70260811
-0.03995074 -2.22211337 -7.68803549
-0.40844083 -3.79930711 -7.54934359
-0.03995074 -3.79930711 -7.55842638
-0.40315068 -4.08911848 -7.44161892
-0.03995074 -4.08911848 -7.45055199
-0.77603257 -3.79930711 -7.52221918
-0.76547718 -4.08911848 -7.41486835
-0.03995074 -4.36322117 -7.31717491
-0.38890216 -4.62391186 -7.15168238
-0.03995074 -4.62391186 -7.16027880
-0.39660034 -4.36322117 -7.30837870
-0.73701763 -4.62391186 -7.12599277
-0.75238907 -4.36322117 -7.28212738
-1.10646844 -4.36322117 -7.23847151
-1.42737198 -4.62391186 -7.02362061
-1.08344865 -4.62391186 -7.08327246
-1.45799005 -4.36322117 -7.17749691
-1.12604451 -4.08910608 -7.37040091
-1.48400426 -4.08911848 -7.30832863
-1.50505257 -3.79930711 -7.41411972
-1.14187765 -3.79930711 -7.47712755
-1.86469650 -3.79930711 -7.33334494
-1.83847034 -4.08911848 -7.22870207
-2.21993613 -3.79930711 -7.23501492
-2.18863201 -4.08911848 -7.13178158
-1.76795137 -4.62391186 -6.94712496
-1.80606806 -4.36322117 -7.09931755
-2.10436344 -4.62391186 -6.85399818
-2.14991641 -4.36322117 -7.00414419
-2.76149225 -4.62391186 -6.61892319
-2.48867416 -4.36322117 -6.89225197
-2.82153058 -4.36322117 -6.76387835
-2.43582249 -4.62391186 -6.74452686
-2.53360319 -4.08911848 -7.01784420
-2.87257338 -4.08911848 -6.88709927
-2.91385913 -3.79930711 -6.98677683
-2.56994820 -3.79930711 -7.11939287
-3.25082016 -3.79930711 -6.83736658
-3.20469332 -4.08910608 -6.73986053
-3.58005834 -3.79930711 -6.67163706
-3.52920270 -4.08910608 -6.57648897
-3.08058667 -4.62391186 -6.47746086
-3.14767456 -4.36322117 -6.61928463
-3.39236951 -4.62391186 -6.32048988
-3.46633220 -4.36322117 -6.45885754
-3.99100685 -4.62391186 -5.96173143
-3.77675533 -4.36322117 -6.28302193
-4.07818222 -4.36322117 -6.09218931
-3.69609237 -4.62391186 -6.14844704
-3.84532785 -4.08911848 -6.39743471
-4.15228176 -4.08911848 -6.20308304
-4.21220827 -3.79930711 -6.29277897
-3.90078735 -3.79930711 -6.48994970
-4.51356030 -3.79930711 -6.08052349
-4.44930506 -4.08910608 -5.99387217
-4.80414581 -3.79930711 -5.85371971
-4.73571014 -4.08910608 -5.77033758
-4.27637672 -4.62391186 -5.76071787
-4.36984015 -4.36322117 -5.88674641
-4.55155230 -4.62391186 -5.54595470
-4.65108013 -4.36322117 -5.66722918
-5.06870365 -4.62391186 -5.07730055
-4.92124033 -4.36322117 -5.43422461
-5.17964745 -4.36322117 -5.18823195
-4.81587362 -4.62391186 -5.31796598
-5.01082373 -4.08911848 -5.53304100
-5.27395964 -4.08911848 -5.28255701
-5.35023069 -3.79930711 -5.35882711
-5.08326435 -3.79930711 -5.61296749
-5.60438299 -3.79930711 -5.09186125
-5.52444410 -4.08911848 -5.01942062
-5.84513569 -3.79930711 -4.81274223
-5.76174068 -4.08910608 -4.74430704
-5.42562771 -4.36322117 -4.92983723
-5.30936909 -4.62391186 -4.82447052
-5.65863228 -4.36322117 -4.65968943
-5.53735733 -4.62391186 -4.56014967
-5.87814903 -4.36322117 -4.37843704
-6.08359241 -4.36322117 -4.08677912
-5.75212097 -4.62391186 -4.28497314
-5.95313501 -4.62391186 -3.99960399
-5.98527527 -4.08910608 -4.45790195
-6.19448614 -4.08911848 -4.16087914
-6.07192659 -3.79930711 -4.52215767
-6.28419447 -3.79930711 -4.22080517
-6.48136568 -3.79930711 -3.90938401
-6.38883734 -4.08910608 -3.85392451
-6.66304064 -3.79930711 -3.58865523
-6.56789207 -4.08911848 -3.53781199
-6.27442503 -4.36322117 -3.78535223
-6.13985014 -4.62391186 -3.70470190
-6.45026112 -4.36322117 -3.47492909
-6.31189299 -4.62391186 -3.40096641
-6.61068773 -4.36322117 -3.15627146
-6.75528145 -4.36322117 -2.83012748
-6.46886349 -4.62391186 -3.08919597
-6.61032581 -4.62391186 -2.77008891
-6.73126364 -4.08911848 -3.21329021
-6.87850237 -4.08911848 -2.88117027
-6.82877016 -3.79930711 -3.25941706
-6.97817945 -3.79930711 -2.92245603
-7.11080790 -3.79930711 -2.57854509
-7.00923443 -4.08911848 -2.54220009
-7.22640610 -3.79930711 -2.22853303
-7.12318516 -4.08911848 -2.19722867
-6.88365555 -4.36322117 -2.49727106
-6.73592949 -4.62391186 -2.44441938
-6.99554729 -4.36322117 -2.15851331
-6.84540176 -4.62391186 -2.11296034
-7.09072065 -4.36322117 -1.81466496
-7.16890049 -4.36322117 -1.46658695
-6.93852854 -4.62391186 -1.77654827
-7.01502371 -4.62391186 -1.43596876
-7.22010469 -4.08911848 -1.84706724
-7.29973221 -4.08911848 -1.49260104
-7.32474804 -3.79930711 -1.87328100
-7.40552282 -3.79930711 -1.51364946
-7.46853065 -3.79930711 -1.15047455
-7.36181688 -4.08910608 -1.13464141
-7.51362181 -3.79930711 -0.78462946
-7.40627098 -4.08911848 -0.77406162
-7.22987413 -4.36322117 -1.11506534
-7.07467508 -4.62391186 -1.09204555
-7.27353048 -4.36322117 -0.76098597
-7.11739588 -4.62391186 -0.74561453
-7.29978228 -4.36322117 -0.40519723
-7.30857801 -4.36322117 -0.04854763
-7.14308548 -4.62391186 -0.39749902
-7.15168238 -4.62391186 -0.04854763
-7.43300915 -4.08911848 -0.41174755
-7.44195509 -4.08911848 -0.04854763
-7.54074621 -3.79930711 -0.41703770
-7.54982948 -3.79930711 -0.04854763
-7.54074621 -3.79930711 0.31994244
-7.43300915 -4.08911848 0.31465229
-7.51362181 -3.79930711 0.68754673
-7.40627098 -4.08911848 0.67697883
-7.14308548 -4.62391186 0.30041626
-7.29978228 -4.36322117 0.30810195
-7.11739588 -4.62391186 0.64853168
-7.27353048 -4.36322117 0.66389066
-7.22987413 -4.36322117 1.01798260
-7.01502371 -4.62391186 1.33888602
-7.07467508 -4.62391186 0.99496275
-7.16890049 -4.36322117 1.36950421
-7.36181688 -4.08911848 1.03754616
-7.29973221 -4.08911848 1.39550579
-7.40552282 -3.79930711 1.41656661
-7.46851826 -3.79930711 1.05337930
-7.32474804 -3.79930711 1.77619827
-7.22010469 -4.08911848 1.74998438
-7.22640610 -3.79930711 2.13145041
-7.12318516 -4.08911848 2.10013342
-6.93852854 -4.62391186 1.67945302
-7.09072065 -4.36322117 1.71758223
-6.84540176 -4.62391186 2.01586509
-6.99554729 -4.36322117 2.06141806
-6.61032581 -4.62391186 2.67299366
-6.88365555 -4.36322117 2.40017581
-6.75528145 -4.36322117 2.73304462
-6.73591757 -4.62391186 2.34732413
-7.00923443 -4.08911848 2.44511747
-6.87850237 -4.08911848 2.78408718
-6.97817945 -3.79930711 2.82536077
-7.11080790 -3.79930711 2.48144984
-6.82877016 -3.79930711 3.16233444
-6.73126364 -4.08911848 3.11620760
-6.66304064 -3.79930711 3.49157238
-6.56789207 -4.08910608 3.44071674
-6.46886349 -4.62391186 2.99210072
-6.61068773 -4.36322117 3.05917621
-6.31189299 -4.62391186 3.30388379
-6.45026112 -4.36322117 3.37783384
-5.95313501 -4.62391186 3.90252090
-6.27442503 -4.36322117 3.68826914
-6.08359241 -4.36322117 3.98969650
-6.13985014 -4.62391186 3.60760665
-6.38883734 -4.08911848 3.75682926
-6.19448614 -4.08911848 4.06378365
-6.28419447 -3.79930711 4.12372255
-6.48135328 -3.79930711 3.81228876
-6.07192659 -3.79930711 4.42507458
-5.98527527 -4.08910608 4.36080694
-5.84512329 -3.79930711 4.71564674
-5.76174068 -4.08911848 4.64721155
-5.75212097 -4.62391186 4.18789053
-5.87814903 -4.36322117 4.28135443
-5.53734541 -4.62391186 4.46305418
-5.65863228 -4.36322117 4.56259394
-5.06870365 -4.62391186 4.98020506
-5.42561531 -4.36322117 4.83274174
-5.17964745 -4.36322117 5.09114933
-5.30936909 -4.62391186 4.72738791
-5.52444410 -4.08911848 4.92232561
-5.27395964 -4.08911848 5.18547392
-5.35023069 -3.79930711 5.26174450
-5.60437059 -3.79930711 4.99476576
-5.08325195 -3.79930711 5.51588488
-5.01081133 -4.08911848 5.43595839
-4.80413342 -3.79930711 5.75663757
-4.73569775 -4.08911848 5.67324257
-4.92124033 -4.36322117 5.33712959
-4.81587362 -4.62391186 5.22087049
-4.65108013 -4.36322117 5.57014656
-4.55155230 -4.62391186 5.44885921
-4.36984015 -4.36322117 5.78965092
-4.07818222 -4.36322117 5.99509382
-4.27637672 -4.62391186 5.66363478
-3.99100685 -4.62391186 5.86464930
-4.44929266 -4.08910608 5.89677668
-4.15226984 -4.08911848 6.10600042
-4.51356030 -3.79930711 5.98342848
-4.21220827 -3.79930711 6.19568348
-3.90077448 -3.79930711 6.39286757
-3.84532785 -4.08911848 6.30033922
-3.58005834 -3.79930711 6.57454205
-3.52920270 -4.08910608 6.47940636
-3.77675533 -4.36322117 6.18593931
-3.69607997 -4.62391186 6.05136442
-3.46631980 -4.36322117 6.36176252
-3.39236951 -4.62391186 6.22340727
-3.14766192 -4.36322117 6.52218962
-2.82153058 -4.36322117 6.66678286
-3.08058667 -4.62391186 6.38035297
-2.76147985 -4.62391186 6.52184010
-3.20469332 -4.08910608 6.64277792
-2.87257338 -4.08911848 6.79001665
-3.25082016 -3.79930711 6.74028349
-2.91384649 -3.79930711 6.88968134
-2.56993580 -3.79930711 7.02230978
-2.53360319 -4.08911848 6.92074871
-2.21993613 -3.79930711 7.13791990
-2.18861961 -4.08911848 7.03468657
-2.48867416 -4.36322117 6.79515696
-2.43581009 -4.62391186 6.64743137
-2.14990377 -4.36322117 6.90704870
-2.10435128 -4.62391186 6.75691557
-1.80606806 -4.36322117 7.00222206
-1.45799005 -4.36322117 7.08041430
-1.76793885 -4.62391186 6.85002995
-1.42737198 -4.62391186 6.92652559
-1.83847034 -4.08911848 7.13160658
-1.48399174 -4.08911848 7.21123362
-1.86468410 -3.79930711 7.23624945
-1.50505257 -3.79930711 7.31703663
-1.14186513 -3.79930711 7.38003254
-1.12603199 -4.08910608 7.27331829
-0.77603257 -3.79930711 7.42513609
-0.76546472 -4.08910608 7.31777287
-1.10646844 -4.36322117 7.14137602
-1.08344865 -4.62391186 6.98618937
-0.75237656 -4.36322117 7.18503237
-0.73701763 -4.62391186 7.02889729
-0.39658785 -4.36322117 7.21129608
-0.03993827 -4.36322117 7.22007942
-0.38890216 -4.62391186 7.05458689
-0.03993827 -4.62391186 7.06318378
-0.40313819 -4.08911848 7.34452343
-0.03993827 -4.08910608 7.35345650
-0.40842834 -3.79930711 7.45226049
-0.03993827 -3.79930711 7.46134377
0.32855180 -3.79930711 7.45226049
-0.03993827 -3.79930711 7.46134377
0.32326165 -4.08911848 7.34452343
-0.03993827 -4.08910608 7.35345650
0.69614363 -3.79930711 7.42512369
0.68557572 -4.08911848 7.31777287
-0.03993827 -4.36322117 7.22007942
0.30901316 -4.62391186 7.05458689
-0.03993827 -4.62391186 7.06318378
0.31671131 -4.36322117 7.21129608
0.65712857 -4.62391186 7.02889729
0.67250001 -4.36322117 7.18503237
1.02657938 -4.36322117 7.14137602
1.34748292 -4.62391186 6.92652559
1.00355971 -4.62391186 6.98618937
1.37810099 -4.36322117 7.08041430
1.04615545 -4.08910608 7.27331829
1.40411520 -4.08911848 7.21123362
1.42516351 -3.79930711 7.31703663
1.06198859 -3.79930711 7.38003254
1.78479517 -3.79930711 7.23624945
1.75858128 -4.08911848 7.13160658
2.14004707 -3.79930711 7.13791990
2.10874295 -4.08911848 7.03468657
1.68806243 -4.62391186 6.85002995
1.72617912 -4.36322117 7.00222206
2.02447438 -4.62391186 6.75691557
2.07001495 -4.36322117 6.90704870
2.68159056 -4.62391186 6.52182770
2.40878534 -4.36322117 6.79515696
2.74164152 -4.36322117 6.66678286
2.35592103 -4.62391186 6.64743137
2.45371437 -4.08911848 6.92074871
2.79268408 -4.08911848 6.79001665
2.83396983 -3.79930711 6.88968134
2.49004674 -3.79930711 7.02229738
3.17093134 -3.79930711 6.74027157
3.12480450 -4.08911848 6.64276552
3.50016928 -3.79930711 6.57454205
3.44931364 -4.08911848 6.47939348
3.00071025 -4.62391186 6.38036537
3.06778550 -4.36322117 6.52218962
3.31248069 -4.62391186 6.22339439
3.38644290 -4.36322117 6.36176252
3.91111779 -4.62391186 5.86463642
3.69686604 -4.36322117 6.18592644
3.99829316 -4.36322117 5.99509382
3.61620355 -4.62391186 6.05135202
3.76543880 -4.08910608 6.30033922
4.07239342 -4.08911848 6.10598803
4.13231945 -3.79930711 6.19568348
3.82089806 -3.79930711 6.39285469
4.43367195 -3.79930711 5.98342848
4.36940336 -4.08910608 5.89677668
4.72424412 -3.79930711 5.75662470
4.65582132 -4.08911848 5.67324257
4.19648743 -4.62391186 5.66362238
4.28995132 -4.36322117 5.78965092
4.47166395 -4.62391186 5.44885921
4.57119131 -4.36322117 5.57013416
4.98880243 -4.62391186 4.98020506
4.84135151 -4.36322117 5.33711720
5.09974575 -4.36322117 5.09113693
4.73598480 -4.62391186 5.22087049
4.93093491 -4.08911848 5.43594599
5.19407082 -4.08911848 5.18546152
5.27034140 -3.79930711 5.26173210
5.00337505 -3.79930711 5.51587200
5.52448177 -3.79930711 4.99475336
5.44455528 -4.08911848 4.92231321
5.76523399 -3.79930711 4.71563482
5.68185139 -4.08911848 4.64719915
5.34572601 -4.36322117 4.83274174
5.22948027 -4.62391186 4.72737551
5.57874298 -4.36322117 4.56258154
5.45745611 -4.62391186 4.46305418
5.79826021 -4.36322117 4.28134155
6.00369120 -4.36322117 3.98967147
5.67223215 -4.62391186 4.18787813
5.87324572 -4.62391186 3.90250850
5.90537357 -4.08910608 4.36079454
6.11459732 -4.08910608 4.06377125
5.99203730 -3.79930711 4.42506218
6.20430565 -3.79930711 4.12371016
6.40146399 -3.79930711 3.81227636
6.30894852 -4.08911848 3.75681686
6.58315134 -3.79930711 3.49155998
6.48800325 -4.08910608 3.44071674
6.19453621 -4.36322117 3.68825674
6.05996132 -4.62391186 3.60758162
6.37037182 -4.36322117 3.37782145
6.23200417 -4.62391186 3.30387115
6.53079844 -4.36322117 3.05916357
6.67537975 -4.36322117 2.73303223
6.38894987 -4.62391186 2.99207568
6.53043652 -4.62391186 2.67298150
6.65137434 -4.08911848 3.11619496
6.79861355 -4.08910608 2.78407478
6.74888086 -3.79930711 3.16232181
6.89829063 -3.79930711 2.82534814
7.03090668 -3.79930711 2.48143744
6.92933321 -4.08910608 2.44510484
7.14651680 -3.79930711 2.13143778
7.04328346 -4.08910608 2.10012126
6.80375385 -4.36322117 2.40016341
6.65602827 -4.62391186 2.34731150
6.91564608 -4.36322117 2.06140542
6.76551247 -4.62391186 2.01585269
7.01081896 -4.36322117 1.71756971
7.08901119 -4.36322117 1.36947918
6.85862684 -4.62391186 1.67944050
6.93512201 -4.62391186 1.33887351
7.14020348 -4.08911848 1.74997199
7.21983051 -4.08910608 1.39549339
7.24484682 -3.79930711 1.77618575
7.32563400 -3.79930711 1.41655421
7.38862896 -3.79930711 1.05336678
7.28191519 -4.08910608 1.03753364
7.43373251 -3.79930711 0.68753421
7.32636976 -4.08910608 0.67696637
7.14997292 -4.36322117 1.01797009
6.99478626 -4.62391186 0.99495029
7.19362879 -4.36322117 0.66387820
7.03749418 -4.62391186 0.64850676
7.21989298 -4.36322117 0.30808949
7.22867680 -4.36322117 -0.04856011
7.06318426 -4.62391186 0.30040377
7.07178068 -4.62391186 -0.04856011
7.35312033 -4.08911848 0.31462732
7.36205387 -4.08911848 -0.04856011
7.46085739 -3.79930711 0.31992999
7.46992779 -3.79930711 -0.04856011
7.46085739 -3.79930711 -0.41705021
7.35312033 -4.08911848 -0.41176000
7.43372011 -3.79930711 -0.78464198
7.32636976 -4.08911848 -0.77408659
7.06318426 -4.62391186 -0.39751151
7.21989298 -4.36322117 -0.40520969
7.03749418 -4.62391186 -0.74562693
7.19362879 -4.36322117 -0.76099837
7.14997292 -4.36322117 -1.11507785
6.93512201 -4.62391186 -1.43598127
6.99477386 -4.62391186 -1.09205806
7.08899879 -4.36322117 -1.46659946
7.28191519 -4.08910608 -1.13465393
7.21983051 -4.08910608 -1.49261355
7.32563400 -3.79930711 -1.51367438
7.38862896 -3.79930711 -1.15048695
7.24484682 -3.79930711 -1.87330604
7.14020348 -4.08911848 -1.84707963
7.14651680 -3.79930711 -2.22854567
7.04328346 -4.08911848 -2.19724131
6.85862684 -4.62391186 -1.77656078
7.01081896 -4.36322117 -1.81467748
6.76550007 -4.62391186 -2.11297297
6.91564608 -4.36322117 -2.15852571
6.53042459 -4.62391186 -2.77010155
6.80375385 -4.36322117 -2.49728370
6.67537975 -4.36322117 -2.83013988
6.65601587 -4.62391186 -2.44443178
6.92933321 -4.08911848 -2.54221272
6.79860067 -4.08911848 -2.88118243
6.89827824 -3.79930711 -2.92246842
7.03090668 -3.79930711 -2.57855773
6.74886847 -3.79930711 -3.25942969
6.65136194 -4.08911848 -3.21330285
6.58313894 -3.79930711 -3.58866763
6.48799086 -4.08911848 -3.53781199
6.38893747 -4.62391186 -3.08920860
6.53078604 -4.36322117 -3.15628386
6.23199177 -4.62391186 -3.40097904
6.37035894 -4.36322117 -3.47494125
5.87323332 -4.62391186 -3.99961638
6.19452381 -4.36322117 -3.78536439
6.00367832 -4.36322117 -4.08679199
6.05994844 -4.62391186 -3.70470190
6.30893612 -4.08911848 -3.85393715
6.11458445 -4.08910608 -4.16089153
6.20428085 -3.79930711 -4.22081757
6.40145159 -3.79930711 -3.90939641
5.99201250 -3.79930711 -4.52217007
5.90536118 -4.08910608 -4.45791435
5.76522160 -3.79930711 -4.81274223
5.68182659 -4.08911848 -4.74431992
5.67221975 -4.62391186 -4.28498554
5.79823542 -4.36322117 -4.37844992
5.45744371 -4.62391186 -4.56016207
5.57873058 -4.36322117 -4.65968943
4.98879004 -4.62391186 -5.07730055
5.34571409 -4.36322117 -4.92985010
5.09973335 -4.36322117 -5.18824434
5.22945499 -4.62391186 -4.82448292
5.44454241 -4.08911848 -5.01943302
5.19405842 -4.08911848 -5.28256941
5.27031612 -3.79930711 -5.35883951
5.52446938 -3.79930711 -5.09187365
5.00335026 -3.79930711 -5.61298037
4.93090963 -4.08910608 -5.53305340
4.72423172 -3.79930711 -5.85373259
4.65579653 -4.08911848 -5.77034998
4.84132671 -4.36322117 -5.43422461
4.73597193 -4.62391186 -5.31797838
4.57117891 -4.36322117 -5.66724157
