2.96766853 5.35732603 -2.93595052
2.96972060 5.21249533 -2.93896079
2.83328128 5.21333838 -3.07063961
2.83151197 5.35723209 -3.06834888
2.69183397 5.21364021 -3.19615769
2.69002342 5.35739708 -3.19396043
2.54547048 5.21270275 -3.31480527
2.54289722 5.35776186 -3.31219482
2.39491796 5.21272182 -3.42788410
2.39024210 5.35650301 -3.42294312
2.23753572 5.21084976 -3.53133082
2.23478150 5.35508919 -3.52939916
2.07519650 5.20940924 -3.62848806
2.07359195 5.35473824 -3.62875390
1.90667772 5.35754061 -3.71897006
1.90824616 5.20959949 -3.71802807
1.73675454 5.35847712 -3.80197144
1.73795700 5.20853662 -3.79995060
1.56443620 5.20700359 -3.87326360
1.56242907 5.35664749 -3.87278628
1.38648200 5.35323000 -3.93973327
1.38739002 5.20454216 -3.93748331
1.20736778 5.34987259 -3.99820685
1.20835197 5.20216846 -3.99667907
1.02487957 5.34552670 -4.04876423
1.02582574 5.19966602 -4.04691029
1.02624691 5.48679590 -4.06174612
0.84091949 5.48257971 -4.10359478
0.83897537 5.34322405 -4.08730221
0.84604633 5.60231304 -4.13639927
0.65772384 5.59678459 -4.16745090
0.65369499 5.47758865 -4.13786459
0.46391836 5.47817516 -4.16050291
0.65154743 5.34162521 -4.12103415
0.46257681 5.33936739 -4.14770079
0.27382836 5.47661877 -4.17895222
0.27285019 5.33919477 -4.16506433
0.08243392 5.34014416 -4.17453432
0.08252355 5.47735882 -4.18746662
-0.10881770 5.34157944 -4.17221594
-0.10849143 5.19665956 -4.16826200
0.08259636 5.19572210 -4.17011166
-0.29995340 5.34424448 -4.16042662
-0.29958689 5.19844580 -4.15905285
-0.48997796 5.34713411 -4.13829184
-0.48946568 5.20060349 -4.13667917
-0.67828721 5.20336962 -4.10836935
-0.67771274 5.05354929 -4.10927343
-0.48928580 5.05140162 -4.13932800
-0.86490631 5.20552588 -4.06965923
-0.86449802 5.05542326 -4.07170534
-1.04977000 5.20697165 -4.02304935
-1.04929781 5.05642891 -4.02576447
-1.23193884 5.05696678 -3.97140074
-1.22978437 4.90422297 -3.96915317
-1.04773343 4.90317678 -4.02502441
-1.41277432 5.05750179 -3.90986371
-1.41048872 4.90492773 -3.90840721
-1.59147394 5.05801630 -3.84135032
-1.58946395 4.90483522 -3.84182072
-1.76937854 5.05851889 -3.76935148
-1.76510429 4.90461636 -3.76564121
-1.94224358 5.05716372 -3.68463659
-1.93882120 4.90337467 -3.68374062
-2.11289454 5.05463982 -3.59463811
-2.10874081 4.90118027 -3.59325862
-2.27932978 5.05222464 -3.49680209
-2.27529478 4.89837885 -3.49662352
-2.44173431 5.04885244 -3.39295220
-2.43580103 4.89541006 -3.39047337
-2.59327579 4.89176893 -3.28001070
-2.59837413 5.04446602 -3.28094864
-2.74421358 4.88789940 -3.16097760
-2.75033474 5.04081535 -3.16300511
-2.89097953 4.88415098 -3.03652430
-2.89678955 5.03784752 -3.03846049
-3.02942419 4.88091278 -2.90260959
-3.03676248 5.03442430 -2.90617299
-3.16877770 5.03257990 -2.76519871
-3.16116786 4.87873650 -2.76184988
-3.29425430 5.03093100 -2.61833405
-3.28476405 4.87743759 -2.61352563
-3.41122270 5.03041220 -2.46520925
-3.40291405 4.87723207 -2.46077180
-3.51369834 5.03194427 -2.30177402
-3.50995946 4.87956572 -2.30006409
-3.61237884 5.03674698 -2.13703156
-3.60561943 4.88343000 -2.13304472
-3.70155764 5.04310560 -1.96725500
-3.69544077 4.88898563 -1.96329200
-3.77842712 5.05025768 -1.79170597
-3.77327061 4.89520979 -1.78784454
-3.84804368 5.05669785 -1.61321950
-3.84573603 4.90134096 -1.60991406
-3.91015315 5.06331682 -1.43144941
-3.90799427 4.90757370 -1.42785823
-3.96560502 5.06915522 -1.24705482
-3.96255636 4.91387796 -1.24268174
-4.01287174 5.07602692 -1.05966485
-4.00879145 4.92046881 -1.05510068
-4.04898691 5.08230352 -0.86968273
-4.04700422 4.92700911 -0.86573762
-4.07904720 5.08778572 -0.67876619
-4.07656527 4.93315172 -0.67474759
-4.10019207 4.93888474 -0.48323202
-4.10282707 5.09277582 -0.48725209
-4.11911058 4.94433308 -0.29131404
-4.11838531 5.09814262 -0.29505706
-4.12894392 4.94992685 -0.09887456
-4.12734890 5.10387039 -0.10248762
-4.13144588 4.95504141 0.09419809
-4.12999630 5.10875082 0.09060866
-4.12051487 5.11367846 0.28386247
-4.12310648 4.95921421 0.28775358
-4.10385942 5.11685038 0.47776723
-4.12051487 5.11367846 0.28386247
-4.12310648 4.95921421 0.28775358
-4.10696173 4.96265984 0.48111683
-4.07817936 5.11965942 0.67082006
-4.08344364 4.96514177 0.67405200
-4.04238987 5.12171745 0.86184847
-4.04765797 4.96727037 0.86463553
-3.99925661 5.12245321 1.05080163
-4.00183821 4.96911907 1.05252254
-3.94719076 5.12207127 1.23701537
-3.95123076 4.96868944 1.23858178
-3.88739109 5.12073278 1.41999543
-3.89202046 4.96788788 1.42149186
-3.81951928 5.11813784 1.59986234
-3.82520986 4.96534824 1.60149801
-3.74559140 5.11514854 1.77720201
-3.74971175 4.96189213 1.77765620
-3.66474223 5.11026478 1.95159900
-3.66940069 4.95745897 1.95206845
-3.57725692 5.10513735 2.12284899
-3.57840466 4.95249128 2.12137270
-3.48455906 5.09996986 2.29185319
-3.48265243 4.94794226 2.28811359
-3.37993503 5.09510851 2.45343900
-3.38122272 4.94402266 2.45157170
-3.26835704 5.09172773 2.60987020
-3.27033281 4.94056749 2.60849547
-3.15045166 4.93842745 2.75854182
-3.15186834 5.08995247 2.76255608
-3.02925348 5.08905411 2.91032052
-3.02752161 4.93719673 2.90599680
-2.90085721 5.08933258 3.05297518
-2.90112162 4.93700647 3.05053711
-2.76425886 5.08946657 3.18795705
-2.76427531 4.93703270 3.18554688
-2.62121296 5.09082747 3.31661463
-2.61982512 4.93742085 3.31260228
-2.47056580 5.09248686 3.43642139
-2.46987820 4.93786097 3.43339443
-2.31287336 5.09353828 3.54691577
-2.31220007 4.93860960 3.54396486
-2.15027428 5.09503603 3.64971423
-2.14881444 4.93970966 3.64566231
-1.98494124 5.09616804 3.74741888
-1.98264182 4.94101715 3.74229050
-1.81523192 5.09704447 3.83598399
-1.81480765 4.94220495 3.83529258
-1.64182377 5.09844208 3.91675639
-1.64017832 4.94293308 3.91380358
-1.46536970 5.09839010 3.99048543
-1.46417403 4.94344234 3.98825598
-1.28565359 5.09844208 4.05460644
-1.28525174 4.94413662 4.05458450
-1.10380697 4.94455719 4.11304808
-1.10411501 5.09910250 4.11226654
-0.92048115 4.94485617 4.16470861
-0.92036188 5.10019207 4.16187906
-0.73477727 5.09942150 4.20500612
-0.73456258 4.94426727 4.20760107
-0.54643488 5.09834433 4.23717833
-0.54617137 4.94362926 4.23993683
-0.35683128 5.09761953 4.26339293
-0.35650393 4.94323683 4.26486349
-0.16601698 5.09790230 4.27949190
-0.16563603 4.94343996 4.27931881
0.02528700 4.94422054 4.28795815
0.02500967 5.09903336 4.28590631
0.21537289 5.10068941 4.28575182
0.21591170 4.94560146 4.28897047
0.40503785 5.10262632 4.27723837
0.40507743 4.94700766 4.27674341
0.59293550 5.10425854 4.25404072
0.59310871 4.94812632 4.25607586
0.77938175 5.10554028 4.22277689
0.77870208 4.94854498 4.22242546
0.96360821 5.10456324 4.18162680
0.96345776 4.94837284 4.18377924
1.14604056 5.10334396 4.13300657
1.14513242 4.94795275 4.13335943
1.32484531 4.94722128 4.07534790
1.32698250 5.10199070 4.07758713
1.50216854 4.94649649 4.00973082
1.50454330 5.10100842 4.01130819
1.67922461 5.10068846 3.93735957
1.67670369 4.94593954 3.93607163
1.85029113 5.10015488 3.85470819
1.84725368 4.94591475 3.85306954
2.01779509 5.09981060 3.76423454
2.01456332 4.94588614 3.76294136
2.17987680 5.09960318 3.66434240
2.17768955 4.94586802 3.66491818
2.33876967 5.09898758 3.55939579
2.33595634 4.94561958 3.55914640
2.49183416 5.09815502 3.44607973
2.48992300 4.94475603 3.44698453
2.63986945 5.09746838 3.32606506
2.63590860 4.94411945 3.32435298
2.78373885 5.09667969 3.20105195
2.77899075 4.94330835 3.19852257
2.92097473 5.09600258 3.06903219
2.91548657 4.94245243 3.06576228
3.05561781 5.09496593 2.93445730
3.04900241 4.94133615 2.93020058
3.18269968 5.09420776 2.79288673
3.17745328 4.94025517 2.78980136
3.30237699 5.09412622 2.64513803
3.29484200 4.93986082 2.64004970
3.41459608 5.09388924 2.49179673
3.40697026 4.93934298 2.48690987
3.51493549 5.09310341 2.33031511
3.51053762 4.93868399 2.32749176
3.61211419 5.09243917 2.16702676
3.60835052 4.93805885 2.16450763
3.70240045 5.09136868 1.99987125
3.69786859 4.93768358 1.99695563
3.78490162 5.09111452 1.82910609
3.78101707 4.93768024 1.82643688
3.86136603 5.09166718 1.65582454
3.85795355 4.93779278 1.65320659
3.93297195 5.09227848 1.48056912
3.92818570 4.93827152 1.47723806
3.99043894 5.09350395 1.30001962
3.99162102 4.93884230 1.29862857
4.04336596 5.09407282 1.11796927
4.04312897 4.93952560 1.11610472
4.08803129 5.09500408 0.93360394
4.08516979 4.94034958 0.93100798
4.12214518 5.09581852 0.74683791
4.11859417 4.94106722 0.74395192
4.14823151 5.09643412 0.55851829
4.14405394 4.94166565 0.55559027
4.16084528 5.09669018 0.36871493
4.16171980 4.94217300 0.36622608
4.16800928 5.09697294 0.17841569
4.16973162 4.94250250 0.17579095
4.16860008 5.09673405 -0.01251941
4.16885042 4.94282866 -0.01501749
4.15657616 5.09656906 -0.20336883
4.15865803 4.94285870 -0.20591089
4.13951445 5.09600973 -0.39388275
4.14153814 4.94259691 -0.39638692
4.11859035 5.09451962 -0.58418667
4.11854362 4.94206333 -0.58628559
4.08532524 5.09460354 -0.77227193
4.08773565 4.94167948 -0.77498257
4.04780769 5.09315348 -0.95953339
4.04860878 4.94091654 -0.96194088
4.00132847 5.09288549 -1.14470005
4.00390720 4.93970442 -1.14752960
3.94155121 5.09141397 -1.32605720
3.94644976 4.93810320 -1.32961845
3.87903309 5.08948231 -1.50618100
3.88393593 4.93572950 -1.50968254
3.80923915 5.08675051 -1.68364334
3.80910802 4.93245411 -1.68473089
3.72902465 5.08276892 -1.85614419
3.73008418 4.92878532 -1.85751915
3.64516854 5.07925129 -2.02682638
3.64166164 4.92511892 -2.02578831
3.54901195 5.07574940 -2.19083071
3.54906797 4.92167044 -2.19148278
3.44851303 5.07206488 -2.35175681
3.44794369 4.91829062 -2.35187793
3.33993554 5.06847191 -2.50734735
3.34002972 4.91482067 -2.50779462
3.22450018 5.06517076 -2.65806937
3.22333169 4.91214943 -2.65746045
3.10158515 5.06328392 -2.80289459
3.10085964 4.91065359 -2.80248046
2.97336793 5.06289387 -2.94297385
2.97282004 4.90936804 -2.94234276
2.83727336 5.06338167 -3.07498693
2.83671999 4.90892506 -3.07398844
2.69648075 5.06312418 -3.20112967
2.69580936 4.90820503 -3.19975948
2.54904842 5.06241417 -3.31854463
2.55002379 4.90789700 -3.31911302
2.39811516 5.06202316 -3.43126225
2.39657259 4.90699244 -3.42838621
2.24069953 5.06060600 -3.53495288
2.24071097 4.90576220 -3.53455019
2.07708430 5.05920696 -3.62934899
2.07767177 4.90461922 -3.62908626
1.91021800 5.05799627 -3.71848869
1.91104639 4.90325546 -3.71821475
1.73889494 5.05708265 -3.79805613
1.73894811 4.90197468 -3.79568100
1.56455946 5.05476236 -3.87011313
1.56490147 4.90048838 -3.86829972
1.38873243 5.05316305 -3.93791032
1.38888597 4.89890862 -3.93620229
1.20936072 5.05089474 -3.99703789
1.20990455 4.89776659 -3.99653172
1.02707016 5.04847193 -4.04901028
1.02742851 4.89637613 -4.04872036
0.84152651 5.04722500 -4.09146309
0.84151453 4.89519072 -4.08981562
0.84015834 5.19679022 -4.08799744
0.65322757 5.04688358 -4.12288523
0.65232092 5.19518948 -4.12125969
0.46381372 5.04663467 -4.14792013
0.46292642 5.19449282 -4.14575529
0.27315867 5.19440603 -4.16355705
0.27364564 5.04746199 -4.16401434
0.08288929 5.04724836 -4.16924477
0.08333414 4.89575434 -4.16876316
0.27409995 4.89512300 -4.16352320
-0.10812177 5.04808044 -4.16730595
-0.10761535 4.89676332 -4.16529751
-0.29906732 5.04922962 -4.15721560
-0.29833269 4.89791441 -4.15532732
-0.48812908 4.89899588 -4.13638306
-0.48669004 4.74578285 -4.13332176
-0.29725307 4.74485445 -4.15249586
-0.67632353 4.90058517 -4.10706663
-0.67509091 4.74679565 -4.10705423
-0.86316675 4.90210390 -4.07143259
-0.86032963 4.74786234 -4.06481838
-1.04494309 4.74880505 -4.02003145
-1.04369330 4.59387112 -4.02094936
-0.85926098 4.59313011 -4.06632853
-1.22748744 4.74950266 -3.96667051
-1.22632837 4.59426117 -3.96816897
-1.40812528 4.74986839 -3.90640116
-1.40665722 4.59438133 -3.90707040
-1.58747303 4.74984169 -3.84165478
-1.58508396 4.59430027 -3.84014964
-1.76223814 4.74953127 -3.76495337
-1.76073217 4.59394026 -3.76587605
-1.93514621 4.74845839 -3.68254018
-1.93352699 4.59303427 -3.68469882
-2.10499549 4.74639702 -3.59339809
-2.10153341 4.59108257 -3.59375787
-2.26940751 4.74374819 -3.49427462
-2.26522946 4.58852577 -3.49452686
-2.43030429 4.74063444 -3.38943100
-2.42609978 4.58564043 -3.39038157
-2.58648205 4.73712492 -3.27754402
-2.58095980 4.58227825 -3.27697349
-2.73674989 4.73334551 -3.15765524
-2.72985530 4.57850504 -3.15544343
-2.88341141 4.72967911 -3.03310871
-2.87641931 4.57520199 -3.03057742
-3.02079678 4.72675371 -2.89791846
-3.01371694 4.57244682 -2.89506125
-3.15410423 4.72440958 -2.75860286
-3.14778757 4.57013559 -2.75588965
-3.27742815 4.72332287 -2.61000085
-3.27010655 4.56909895 -2.60626483
-3.39308167 4.72355795 -2.45526242
-3.38620162 4.56925106 -2.45184588
-3.50081348 4.72519159 -2.29496169
-3.49249768 4.57067776 -2.29049635
-3.59834599 4.72844172 -2.12876797
-3.59162307 4.57353115 -2.12499142
-3.68756700 4.73338938 -1.95835650
-3.68227625 4.57782793 -1.95474112
-3.77017236 4.73892355 -1.78466380
-3.76420808 4.58287573 -1.78014767
-3.84100437 4.74467707 -1.60559559
-3.83382916 4.58840561 -1.60027122
-3.90097594 4.75086832 -1.42239773
-3.89525294 4.59450483 -1.41727912
-3.95570660 4.75740242 -1.23712969
-3.94950175 4.60103178 -1.23163307
-4.00367832 4.76402950 -1.04999650
-3.99694014 4.60768890 -1.04418242
-4.04272747 4.77067280 -0.86069733
-4.03881979 4.61436939 -0.85546446
-4.07251692 4.62085104 -0.66533691
-4.07398891 4.77716064 -0.67018509
-4.09672403 4.62676287 -0.47415718
-4.09922934 4.78305674 -0.47887343
-4.11653614 4.78864717 -0.28688335
-4.11281490 4.63232613 -0.28207377
-4.12708235 4.79385233 -0.09432648
-4.12534857 4.63728523 -0.08972498
-4.13168478 4.79852438 0.09870295
-4.12943459 4.64163971 0.10303121
-4.12528706 4.80251551 0.29193527
-4.12229633 4.64544868 0.29579589
-4.10543108 4.80584049 0.48453903
-4.12528706 4.80251551 0.29193527
-4.12229633 4.64544868 0.29579589
-4.10465908 4.64885187 0.48797113
-4.07892847 4.80858994 0.67624557
-4.07735634 4.65153360 0.67910409
-4.04385805 4.81089449 0.86611837
-4.04585361 4.65366554 0.86916828
-4.00267410 4.81252098 1.05420399
-4.00514841 4.65532684 1.05689311
-3.95463324 4.81289864 1.24041212
-3.95551777 4.65599442 1.24176383
-3.89455199 4.81186390 1.42259753
-3.89681888 4.65510893 1.42355037
-3.82945728 4.80970478 1.60233021
-3.82968497 4.65311909 1.60175061
-3.75292897 4.80645180 1.77761209
-3.75333405 4.65030289 1.77638984
-3.66840386 4.80262899 1.94930768
-3.67065740 4.64679861 1.94857097
-3.57832360 4.79837370 2.11848927
-3.58184886 4.64311838 2.11794853
-3.48124218 4.79398108 2.28421140
-3.48238659 4.63920307 2.28186846
-3.38072848 4.79009199 2.44797683
-3.37969851 4.63565874 2.44428921
-3.26784611 4.63254595 2.60060406
-3.26765490 4.78700924 2.60344291
-3.15046740 4.63020515 2.75267529
-3.15033054 4.78487778 2.75544715
-3.02666235 4.78354454 2.90232372
-3.02721763 4.62885714 2.89998102
-2.89888835 4.78266335 3.04574132
-2.89920330 4.62796211 3.04310656
-2.76366425 4.78229332 3.18229270
-2.76293588 4.62725830 3.17865229
-2.62112951 4.78229427 3.31154299
-2.61899996 4.62696791 3.30639029
-2.46918130 4.78264952 3.43018150
-2.46737790 4.62715816 3.42535543
-2.31093574 4.78315783 3.54028034
-2.30960250 4.62766218 3.53635335
-2.14789581 4.78413773 3.64295697
-2.14714789 4.62840414 3.64042449
-1.98207653 4.78512669 3.74039268
-1.98124242 4.62929296 3.73820019
-1.81350029 4.78600788 3.83269930
-1.81309140 4.62991285 3.83159542
-1.63852763 4.63052607 3.91128087
-1.63844454 4.78683710 3.91078043
-1.46248996 4.78746319 3.98523021
-1.46081781 4.63093853 3.98238850
-1.28393173 4.78797770 4.05287790
-1.28148663 4.63130760 4.04799175
-1.10345554 4.78814363 4.11459684
-1.10104549 4.63137770 4.10949564
-0.92005759 4.78800535 4.16654062
-0.91733783 4.63139153 4.15976286
-0.73321807 4.78806782 4.20504522
-0.73126584 4.63134909 4.20078993
-0.54467243 4.78772020 4.23560619
-0.54325658 4.63118315 4.23258829
-0.35526514 4.78746653 4.25994492
-0.35409501 4.63112354 4.25746727
-0.16499040 4.78758430 4.27768707
-0.16415645 4.63125134 4.27428579
0.02564207 4.78826666 4.28705311
0.02627793 4.63171387 4.28124762
0.21595190 4.63208485 4.28246784
0.21579619 4.78915453 4.28582907
0.40485930 4.63261604 4.27272606
0.40492907 4.78997183 4.27687502
0.59190238 4.63316488 4.25137138
0.59265321 4.79084063 4.25547886
0.77677739 4.63340092 4.21885729
0.77803767 4.79124117 4.22166061
0.96144432 4.79116392 4.17987299
0.95968634 4.63347530 4.17747211
1.14299643 4.79096603 4.13035965
1.14105415 4.63347960 4.12859583
1.32201409 4.79075003 4.07194614
1.31999159 4.63357496 4.07106924
1.49883294 4.79042387 4.00616455
1.49595189 4.63365364 4.00391912
1.67278051 4.79023695 3.93209767
1.67007494 4.63394070 3.93118286
1.84320891 4.79035568 3.84985471
1.83979905 4.63447237 3.84778953
2.01001883 4.79074287 3.75926924
2.00574565 4.63504648 3.75586462
2.17299438 4.79093313 3.66141033
2.16789031 4.63552380 3.65713239
2.33200192 4.79078627 3.55716372
2.32572556 4.63567352 3.55135727
2.48448682 4.79031754 3.44313145
2.47894335 4.63543320 3.43912721
2.63105106 4.78975296 3.32169151
2.62567806 4.63516855 3.31831002
2.77245760 4.78893232 3.19436693
2.76748514 4.63424826 3.19138265
2.91166186 4.78781605 3.06451464
2.90637541 4.63330078 3.06158042
3.04341316 4.78666878 2.92696857
3.03876400 4.63196564 2.92447805
3.17112136 4.78560162 2.78574085
3.16599274 4.63079643 2.78264785
3.29152274 4.78475142 2.63826299
3.28729534 4.62966633 2.63573718
3.40320325 4.78401232 2.48422980
3.39848089 4.62878704 2.48112535
3.50693440 4.78339386 2.32491016
3.50420976 4.62808943 2.32288241
3.60436797 4.78291225 2.16166687
3.60056186 4.62763357 2.15886974
3.69441509 4.78258801 1.99438584
3.69378662 4.62721777 1.99323893
3.77792382 4.78237820 1.82394338
3.77468872 4.62690830 1.82140648
3.85440016 4.78241968 1.65041196
3.85055876 4.62688065 1.64754736
3.92354369 4.78275061 1.47393990
3.91925287 4.62710190 1.47076595
3.98549104 4.78319502 1.29476798
3.97999024 4.62751675 1.29113948
4.03923512 4.78382969 1.11285579
4.03285694 4.62810755 1.10891163
4.08224773 4.78465986 0.92790115
4.07684517 4.62901020 0.92420149
4.11680603 4.78555298 0.74101233
4.11436987 4.62992859 0.73795819
4.14322662 4.78636408 0.55278844
4.13956642 4.63080263 0.54955906
4.16105986 4.78698349 0.36337122
4.15797663 4.63157654 0.36028796
4.16948414 4.78744602 0.17300384
4.16876698 4.63221645 0.17019895
4.16874933 4.78783321 -0.01774891
4.16868162 4.63265038 -0.02048685
4.16042614 4.78792667 -0.20863780
4.16128254 4.63288212 -0.21123968
4.14373493 4.78783941 -0.39912224
4.14383936 4.63288212 -0.40154260
4.11662102 4.78757477 -0.58832669
4.11964893 4.63264370 -0.59112209
4.08726311 4.78725243 -0.77713752
4.08705521 4.63223791 -0.77917397
4.04834795 4.78638744 -0.96402693
4.04909420 4.63141918 -0.96611428
4.00186014 4.78523827 -1.14894199
4.00157738 4.63005400 -1.15045810
3.94613814 4.78342438 -1.33107245
3.94565630 4.62806606 -1.33218098
3.88079596 4.78065825 -1.50963891
3.88126373 4.62523222 -1.51061261
3.80773091 4.77743483 -1.68483138
3.80850124 4.62200546 -1.68577445
3.72698522 4.77389717 -1.85655749
3.72696400 4.61854410 -1.85673773
3.63917232 4.77018690 -2.02473783
3.64247775 4.61495733 -2.02625251
3.54635906 4.76675415 -2.18999338
3.54551196 4.61149931 -2.18902540
3.44649506 4.76342869 -2.35095882
3.44444585 4.60817051 -2.34914660
3.33718276 4.76044178 -2.50577283
3.33537197 4.60535002 -2.50402355
3.22131348 4.75792408 -2.65574050
3.21942067 4.60296869 -2.65362144
3.09921670 4.75599575 -2.80071688
3.09902740 4.60077047 -2.79983068
2.97069263 4.75456810 -2.93965435
2.97197938 4.59923220 -2.93997169
2.83589768 4.75350618 -3.07227278
2.83559012 4.59775019 -3.07114720
2.69503498 4.75261307 -3.19812822
2.69326448 4.59657764 -3.19529557
2.54693818 4.75183296 -3.31471086
2.54578018 4.59541988 -3.31277370
2.39496565 4.75082827 -3.42575908
2.39446211 4.59429932 -3.42487597
2.23979354 4.74959612 -3.53245258
2.23934460 4.59312487 -3.53171039
2.07687593 4.74850416 -3.62722754
2.07783818 4.59205532 -3.62888360
1.91046453 4.74745178 -3.71560359
1.91093290 4.59111643 -3.71640730
1.73972261 4.74622297 -3.79566646
1.74040389 4.59017992 -3.79675865
1.56499743 4.74513102 -3.86658216
1.56576169 4.58928156 -3.86831951
1.38968563 4.58860683 -3.93659616
1.38882601 4.74402952 -3.93445015
1.20939195 4.74298906 -3.99441361
1.20918965 4.58799744 -3.99477816
1.02653754 4.74219799 -4.04504490
1.02628064 4.58754015 -4.04534483
0.84109372 4.74160576 -4.08723974
0.84069526 4.58741474 -4.08604717
0.65315711 4.74155807 -4.11829567
0.65327895 4.58765507 -4.11936760
0.65352160 4.89477730 -4.12168837
0.46414500 4.74187708 -4.14212799
0.46408248 4.89497709 -4.14550734
0.27424735 4.74235630 -4.15864801
0.27456173 4.58874369 -4.16044140
0.46435854 4.58811331 -4.14397383
0.08375616 4.74302626 -4.16687727
0.08409338 4.58958340 -4.16573477
-0.10700168 4.74386072 -4.16529369
-0.10629772 4.59036684 -4.16399860
-0.29619882 4.59101534 -4.15285206
-0.29509643 4.43678379 -4.15229225
-0.10569660 4.43623209 -4.16623354
-0.48546576 4.59168959 -4.13333511
-0.48399651 4.43727589 -4.13326311
-0.67339724 4.59240294 -4.10570049
-0.67166460 4.43770742 -4.10449409
-0.85786110 4.43814230 -4.06746817
-0.85569620 4.28294563 -4.06605673
-0.66980952 4.28267479 -4.10350943
-1.04240179 4.43856239 -4.02248240
-1.04009867 4.28323889 -4.02049255
-1.22471309 4.43888140 -3.96836090
-1.22352171 4.28342104 -3.96999645
-1.40577674 4.43891430 -3.90886497
-1.40351367 4.28348255 -3.90769172
-1.58437717 4.43870878 -3.84220362
-1.58198583 4.28298998 -3.84086657
-1.75933492 4.43810511 -3.76676130
-1.75635684 4.28226757 -3.76440763
-1.93168747 4.43705034 -3.68553329
-1.92935777 4.28103447 -3.68511438
-2.09665608 4.27933168 -3.59477401
-2.09864593 4.43518543 -3.59366488
-2.26217532 4.43299437 -3.49551392
-2.25853801 4.27736235 -3.49480772
-2.42028999 4.43051767 -3.38823199
-2.41604614 4.27523279 -3.38731861
-2.56828690 4.27243614 -3.27223468
-2.57414699 4.42742920 -3.27420139
-2.72497773 4.42403555 -3.15523505
-2.71746159 4.26951981 -3.15150309
-2.86984777 4.42090940 -3.02808309
-2.86341977 4.26662683 -3.02572155
-2.99881268 4.26436043 -2.88751078
-3.00788546 4.41819382 -2.89298844
-3.14007998 4.41618252 -2.75184035
-3.13582754 4.26220083 -2.75062847
-3.26482058 4.41492081 -2.60399961
-3.25793886 4.26108551 -2.60048127
-3.37950754 4.41484833 -2.44849014
-3.37410092 4.26078939 -2.44592285
-3.48767209 4.41600895 -2.28821802
-3.48016334 4.26202631 -2.28409433
-3.58653021 4.41871786 -2.12203026
-3.57935548 4.26422834 -2.11782527
-3.67520905 4.42266226 -1.95017350
-3.66696525 4.26789999 -1.94527972
-3.75650215 4.42724657 -1.77497411
-3.74785399 4.27236557 -1.76960397
-3.82740045 4.43264151 -1.59523404
-3.81840348 4.27749681 -1.58950043
-3.88991594 4.43853760 -1.41219652
-3.88622665 4.28305101 -1.40784335
-3.94455481 4.44500589 -1.22649622
-3.94135070 4.28948593 -1.22183061
-3.99094105 4.45163202 -1.03853285
-3.98923349 4.29612398 -1.03395092
-4.03311539 4.45828676 -0.84980291
-4.02984333 4.30242586 -0.84480560
-4.06927109 4.46454859 -0.66023970
-4.06481981 4.30844736 -0.65502656
-4.09303617 4.47043419 -0.46906766
-4.09273577 4.31407881 -0.46454039
-4.10933828 4.47583866 -0.27727163
-4.10832071 4.31927633 -0.27291849
-4.12081671 4.48065758 -0.08524793
-4.11821222 4.32392025 -0.08113678
-4.12332296 4.48490143 0.10702822
-4.12100887 4.32804680 0.11080298
-4.11775970 4.48861933 0.29947308
-4.11584473 4.33160877 0.30276850
-4.10800791 4.49179792 0.49187577
-4.11775970 4.48861933 0.29947308
-4.11584473 4.33160877 0.30276850
-4.10429621 4.33478260 0.49475846
-4.07868862 4.49444580 0.68240893
-4.08022213 4.33720350 0.68536031
-4.04679680 4.49623489 0.87198120
-4.04865074 4.33896399 0.87478000
-4.00569487 4.49776268 1.05929565
-4.00736856 4.33993006 1.06157303
-3.95775056 4.49837208 1.24392438
-3.95897126 4.34021091 1.24576402
-3.90081525 4.49745035 1.42547941
-3.90133381 4.33930206 1.42643082
-3.83196092 4.49580860 1.60246217
-3.83563209 4.33787823 1.60435534
-3.75493622 4.49346590 1.77620351
-3.75878358 4.33582640 1.77765691
-3.67289972 4.49060917 1.94791806
-3.67435074 4.33360720 1.94752347
-3.58281589 4.48726368 2.11628747
-3.58605886 4.33101416 2.11616135
-3.48668313 4.48400116 2.28188372
-3.48766160 4.32806396 2.28037786
-3.37982798 4.48067045 2.44149351
-3.38242435 4.32526541 2.44093537
-3.26820374 4.47769594 2.59797525
-3.26957226 4.32238436 2.59659982
-3.15066743 4.47527552 2.75004625
-3.15197039 4.31999445 2.74869299
-3.02619720 4.47353506 2.89635086
-3.02684355 4.31805515 2.89431977
-2.89789486 4.47241688 3.03906488
-2.89956760 4.31690550 3.03801608
-2.76190519 4.47178316 3.17477202
-2.76310682 4.31618452 3.17350316
-2.61823654 4.47152567 3.30264997
-2.61857080 4.31621075 3.30072927
-2.46604848 4.47178078 3.42100215
-2.46533012 4.31655550 3.41809487
-2.30884862 4.47226143 3.53338456
-2.30855441 4.31704378 3.53121710
-2.14572906 4.47292185 3.63668108
-2.14554310 4.31754732 3.63517141
-1.97986901 4.47354460 3.73501778
-1.97871220 4.31792831 3.73229313
-1.81134272 4.47396755 3.82788181
-1.81042469 4.31822348 3.82588315
-1.63795042 4.47425270 3.90995240
-1.63650191 4.31820297 3.90643501
-1.46010971 4.47451639 3.98125625
-1.45944130 4.31832218 3.98006773
-1.28096807 4.47457600 4.04772520
-1.28011465 4.31813812 4.04633617
-1.10015023 4.47452497 4.10891151
-1.09846628 4.31795073 4.10494900
-0.91642392 4.47448111 4.15980959
-0.91529495 4.31782675 4.15778875
-0.73028368 4.47442913 4.20053768
-0.72989124 4.31763363 4.20181465
-0.54238725 4.47441626 4.23330307
-0.54160225 4.31760550 4.23338223
-0.35313171 4.47441435 4.25731802
-0.35236821 4.31765175 4.25910759
-0.16304566 4.47442293 4.27423286
-0.16205058 4.31761360 4.27363157
0.02713303 4.47460556 4.28131485
0.02829915 4.31746578 4.28190660
0.21671607 4.47485542 4.28146601
0.21785264 4.31757975 4.28524971
0.40515831 4.47507524 4.27154541
0.40586200 4.31730318 4.27133369
0.59205729 4.47530079 4.25201893
0.59247160 4.31718683 4.25207901
0.77641046 4.47535181 4.21899605
0.77633369 4.31710958 4.21899843
0.95816481 4.31726503 4.17654181
0.95885420 4.47544765 4.17759895
1.13923895 4.47573996 4.12700653
1.13918269 4.31777239 4.12945604
1.31755948 4.47608662 4.06836939
1.31804299 4.31858921 4.07337332
1.49432015 4.47670937 4.00448132
1.49452031 4.31937742 4.00823689
1.66738093 4.47726440 3.92953873
1.66684377 4.32054663 3.93164945
1.83751380 4.47825003 3.84716606
1.83596802 4.32183981 3.84683847
2.00398564 4.47921944 3.75665593
2.00195909 4.32313728 3.75541949
2.16464257 4.47993469 3.65557647
2.16432071 4.32426691 3.65749979
2.32274652 4.48035049 3.55053639
2.32144785 4.32503653 3.55097318
2.47452521 4.48045254 3.43612647
2.47312593 4.32532167 3.43658471
2.62310481 4.48009014 3.31755924
2.62073255 4.32508707 3.31653166
2.76497316 4.32451105 3.19248080
2.76778889 4.47938395 3.19388700
2.90171909 4.32366896 3.06014657
2.90285015 4.47850180 3.05982947
3.03460550 4.47725153 2.92221546
3.03189969 4.32249737 2.92125797
3.16193676 4.47604942 2.78051209
3.15962481 4.32130337 2.77978873
3.28068328 4.47487879 2.63147306
3.27984810 4.32002544 2.63166809
3.39242887 4.47380400 2.47723198
3.38978577 4.31888390 2.47588086
3.49876642 4.47299623 2.31932449
3.49630189 4.31794214 2.31793213
3.59897947 4.47237730 2.15761781
3.59518075 4.31716776 2.15538502
3.68817616 4.47179699 1.98970246
3.68583012 4.31650162 1.98815024
3.77162886 4.47141409 1.81903327
3.76930642 4.31612015 1.81715655
3.84594607 4.47134495 1.64437604
3.84617209 4.31599665 1.64342272
3.91725397 4.47148323 1.46846235
3.91337991 4.31612730 1.46573138
3.97627378 4.47184563 1.28809965
3.97476721 4.31653214 1.28601718
4.02944899 4.47257090 1.10586178
4.02770281 4.31713152 1.10364044
4.07400799 4.47343063 0.92125028
4.07515287 4.31789875 0.91961187
4.11078167 4.47446394 0.73497891
4.10960722 4.31884241 0.73273540
4.13864279 4.47527552 0.54690433
4.13787127 4.31979942 0.54467976
4.15612698 4.47602463 0.35740212
4.15809488 4.32060289 0.35536966
4.17013025 4.47672749 0.16759570
4.16518164 4.32121515 0.16504802
4.17072725 4.47726011 -0.02312628
4.16782665 4.32184553 -0.02533175
4.16520977 4.47779274 -0.21382958
4.16132402 4.32229614 -0.21572901
4.14492273 4.47777033 -0.40380007
4.14677572 4.32246161 -0.40582398
4.12138176 4.47754622 -0.59330851
4.12061405 4.32223463 -0.59493500
4.09008455 4.47707844 -0.78162372
4.09052229 4.32169437 -0.78340667
4.04957771 4.47604704 -0.96781564
4.04967546 4.32061291 -0.96954024
4.00170517 4.47460985 -1.15197062
4.00187206 4.31899357 -1.15340948
3.94608068 4.47251558 -1.33337104
3.94712806 4.31671095 -1.33485663
3.88177443 4.46968126 -1.51161933
3.88117623 4.31374979 -1.51188421
3.80820608 4.46642208 -1.68593800
3.81066179 4.31061411 -1.68723953
3.72863889 4.46292639 -1.85757565
3.73089004 4.30709600 -1.85849047
3.64247680 4.45945978 -2.02590632
3.64349675 4.30363512 -2.02602744
3.54819250 4.45592690 -2.19002986
3.55059028 4.30023479 -2.19064331
3.44534063 4.45263720 -2.34900951
3.44596601 4.29702091 -2.34834456
3.33518624 4.44986343 -2.50292993
3.33529043 4.29415417 -2.50181127
3.22089171 4.44740772 -2.65373492
3.22213793 4.29170132 -2.65363932
3.09923887 4.44520712 -2.79895377
3.09892488 4.28960085 -2.79756975
2.97142243 4.44349480 -2.93860745
2.97092223 4.28776169 -2.93723536
2.83587885 4.44193888 -3.07062387
2.83713198 4.28603411 -3.07109380
2.69353938 4.44053602 -3.19499326
2.69431448 4.28451538 -3.19533610
2.54569793 4.43921947 -3.31233740
2.54558873 4.28298664 -3.31164336
2.39544225 4.43782520 -3.42619348
2.39371824 4.28152418 -3.42350936
2.23744226 4.43674660 -3.52877378
2.23722887 4.28029060 -3.52854967
2.07671809 4.43567991 -3.62706256
2.07504749 4.27925682 -3.62450194
1.91068220 4.43477869 -3.71616316
1.90821767 4.27845240 -3.71204996
1.74005234 4.43396854 -3.79647040
1.73857653 4.27789783 -3.79447508
1.56562197 4.43344831 -3.86913157
1.56491768 4.27757025 -3.86912131
1.38951933 4.43303633 -3.93807983
1.38737166 4.27760983 -3.93491411
1.20893693 4.43295145 -3.99555779
1.20820105 4.27776289 -3.99617791
1.02596414 4.43271589 -4.04577065
1.02478349 4.27783012 -4.04403877
0.84058851 4.43290043 -4.08776712
0.83977640 4.27827311 -4.08744907
0.65283781 4.43336725 -4.11883402
0.65243083 4.27893305 -4.11876678
0.46399456 4.27963734 -4.14489603
0.46396807 4.43403625 -4.14199209
0.27452639 4.28052425 -4.15952778
0.27471116 4.43474436 -4.16123676
0.08466322 4.28127146 -4.16869211
0.08445077 4.43556261 -4.16678810
-0.10490587 4.28173828 -4.16332817
-0.10436234 4.12683582 -4.16417885
0.08477898 4.12645817 -4.16690779
-0.29411694 4.28212881 -4.15183592
-0.29302433 4.12708235 -4.15198183
-0.48246798 4.28244972 -4.13175964
-0.48113024 4.12726545 -4.13316488
-0.66803640 4.12735224 -4.10339975
-0.66709238 3.97184396 -4.10758257
-0.48036703 3.97187066 -4.13855076
-0.85381937 4.12762690 -4.06573248
-0.85291523 3.97192907 -4.07028294
-1.03808105 4.12775326 -4.02004385
-1.03674805 3.97226810 -4.02170229
-1.22004414 4.12799168 -3.96448994
-1.21909320 3.97246385 -3.96633267
-1.40063477 4.12789965 -3.90411091
-1.39938533 3.97230315 -3.90462041
-1.57828045 4.12750483 -3.83543277
-1.57697248 3.97176361 -3.83536792
-1.75314057 3.97062683 -3.76373601
-1.75381064 4.12655544 -3.76212311
-1.92636120 4.12506914 -3.68277359
-1.92654252 3.96899700 -3.68619370
-2.09401941 4.12331438 -3.59384513
-2.09182644 3.96711636 -3.59363866
-2.25467634 3.96532774 -3.49701357
-2.25653982 4.12144995 -3.49584937
-2.41367722 4.11964417 -3.38900161
-2.41263533 3.96389318 -3.39194894
-2.56542706 4.11740446 -3.27357244
-2.56485772 3.96226883 -3.27726531
-2.71261835 4.11511517 -3.15060782
-2.71257138 3.96076298 -3.15463758
-2.85717297 4.11286545 -3.02288651
-2.85544729 3.95910454 -3.02451658
-2.99562979 4.11070347 -2.88755774
-2.99295521 3.95720053 -2.88771534
-3.12905550 4.10861206 -2.74708438
-3.12588763 3.95531130 -2.74619913
-3.25285935 4.10727358 -2.59808588
-3.25352836 3.95373178 -2.59964681
-3.36812353 3.95322776 -2.44377184
-3.36711168 4.10699940 -2.44211268
-3.47558475 4.10817719 -2.28184652
-3.47538543 3.95429182 -2.28222585
-3.57656264 4.11017466 -2.11633849
-3.57421231 3.95619917 -2.11512947
-3.66418219 4.11344147 -1.94323194
-3.66504121 3.95924377 -1.94309950
-3.74400544 4.11755896 -1.76657593
-3.74319768 3.96304226 -1.76497853
-3.81657100 4.12257957 -1.58669686
-3.81551433 3.96831346 -1.58415115
-3.87989593 4.12833548 -1.40287399
-3.88233733 3.97401428 -1.40062642
-3.93773532 4.13452435 -1.21716630
-3.93719554 3.97996807 -1.21360826
-3.98665595 4.14059353 -1.02932024
-3.98927426 3.98555875 -1.02625263
-4.03026676 4.14677572 -0.84075427
-4.03254890 3.99126339 -0.83730018
-4.07026339 3.99657083 -0.64773476
-4.06690025 4.15251112 -0.65110898
-4.09672499 4.00138855 -0.45696285
-4.09344387 4.15772295 -0.46047661
-4.11858463 4.00628853 -0.26627889
-4.11095381 4.16272783 -0.26914608
-4.12984419 4.01039314 -0.07497979
-4.12180519 4.16714668 -0.07770723
-4.13359070 4.01443672 0.11678683
-4.12537813 4.17118216 0.11402884
-4.12635088 4.01788139 0.30854446
-4.11941385 4.17468596 0.30591834
-4.10397816 4.17773914 0.49728951
-4.11941385 4.17468596 0.30591834
-4.12635088 4.01788139 0.30854446
-4.11192513 4.02082491 0.49989954
-4.08433437 4.18010187 0.68811852
-4.08890104 4.02301264 0.69027013
-4.05102348 4.18148994 0.87693352
-4.05785322 4.02416849 0.87971765
-4.01031446 4.18210030 1.06390262
-4.01911736 4.02441216 1.06700861
-3.96303749 4.18195868 1.24824417
-3.97144198 4.02385330 1.25150669
-3.90534210 4.18103695 1.42882156
-3.91222596 4.02255964 1.43207788
-3.83899307 4.17965794 1.60628140
-3.84499931 4.02115822 1.60928869
-3.76044917 4.17787266 1.77825344
-3.77211523 4.01987410 1.78412366
-3.67901731 4.17614937 1.94941366
-3.68680477 4.01847506 1.95326805
-3.58928728 4.17428493 2.11698890
-3.59526181 4.01703978 2.11992383
-3.48979449 4.17192364 2.28013325
-3.49550796 4.01553392 2.28291845
-3.38358593 4.16946936 2.43998432
-3.38989997 4.01348495 2.44312811
-3.27027464 4.16682196 2.59515214
-3.27752090 4.01103401 2.59913564
-3.15505052 4.16450691 2.74896884
-3.16177773 4.00866032 2.75275111
-3.03149581 4.16242266 2.89623237
-3.03629947 4.00651073 2.89861107
-2.90206194 4.16124964 3.03848982
-2.90675282 4.00529289 3.04096723
-2.76617956 4.16056681 3.17462897
-2.77083564 4.00520658 3.17777920
-2.62054586 4.16094923 3.30114102
-2.62654257 4.00581074 3.30688167
-2.46692419 4.16138077 3.41844821
-2.47272801 4.00649309 3.42494702
-2.30797768 4.16188383 3.52883554
-2.31316042 4.00712776 3.53569102
-2.14854121 4.00731373 3.63879824
-2.14575601 4.16233206 3.63477731
-1.98273683 4.00738525 3.73871493
-1.97983241 4.16255665 3.73372102
-1.81400979 4.00738192 3.83253336
-1.81084228 4.16265488 3.82643175
-1.64017439 4.00695753 3.91499019
-1.63731861 4.16252136 3.90877247
-1.46192491 4.00624704 3.98605728
-1.45970893 4.16209650 3.98097181
-1.28087723 4.00525999 4.04925060
-1.28035784 4.16173983 4.04776192
-1.09990442 4.00478506 4.10984278
-1.09805465 4.16128826 4.10379934
-0.91629726 4.00457048 4.16264200
-0.91468918 4.16111946 4.15612173
-0.72956795 4.00443459 4.20317984
-0.72937524 4.16095352 4.20131779
-0.54087132 4.00464916 4.23531103
-0.54101562 4.16095877 4.23322868
-0.35145134 4.16104031 4.25765800
-0.35096213 4.00481176 4.26028204
-0.16093408 4.16102028 4.27339935
-0.15997191 4.00454473 4.27441692
0.02940034 4.16062737 4.28480864
0.03104231 4.00369263 4.28181601
0.21900153 4.16021919 4.28721142
0.22063024 4.00296164 4.28650379
0.40754831 4.15973234 4.27758360
0.40908375 4.00201416 4.28028584
0.59401703 4.15921164 4.25720787
0.59548211 4.00109005 4.26100540
0.77745700 4.15865088 4.22224569
0.77948946 4.00044441 4.22875118
0.95897353 4.15890789 4.17938185
0.96103621 4.00052977 4.18587732
1.13947988 4.15959215 4.13136482
1.14107966 4.00146055 4.13595486
1.31807399 4.16067076 4.07505798
1.31929958 4.00267410 4.07857609
1.49382460 4.16202116 4.00801897
1.49594700 4.00474310 4.01243114
1.66644740 4.16363001 3.93195152
1.66949117 4.00671244 3.93781638
1.83656073 4.16536856 3.84929442
1.83952439 4.00893641 3.85392404
2.00293541 4.16696310 3.75803494
2.00685620 4.01090050 3.76405978
2.16503477 4.16836739 3.65948105
2.16962528 4.01244116 3.66624236
2.32307029 4.16947412 3.55436683
2.32703686 4.01377964 3.55990624
2.47511864 4.17011118 3.44026923
2.48058653 4.01485443 3.44757700
2.62230539 4.17008400 3.31967688
2.62781572 4.01511669 3.32683849
2.76506233 4.16955853 3.19385195
2.76899314 4.01453304 3.19918227
2.90124583 4.16879749 3.06100154
2.90580034 4.01385927 3.06662679
3.03856492 4.01301813 2.92999792
3.03348637 4.16777897 2.92397165
3.16549611 4.01197910 2.78737378
3.15977955 4.16659498 2.78110218
3.28511310 4.01069117 2.63805890
3.28224301 4.16535139 2.63456368
3.39733768 4.00926208 2.48316240
3.39151907 4.16396523 2.47783613
3.50213647 4.00793743 2.32319689
3.49834275 4.16285849 2.31982255
3.60287714 4.00718594 2.16037369
3.59587765 4.16197968 2.15588522
3.69234920 4.00650167 1.99125016
3.68805289 4.16141129 1.98906827
3.77547431 4.00604486 1.81921422
3.77141333 4.16097975 1.81760418
3.85147882 4.00577927 1.64440846
3.84711051 4.16082430 1.64300120
3.92115951 4.00587559 1.46727204
3.91695452 4.16087437 1.46603668
3.98300099 4.00612259 1.28726089
3.97917843 4.16131544 1.28628504
4.03948021 4.00684595 1.10507452
4.03214455 4.16174030 1.10357738
4.08546972 4.00740147 0.91977543
4.08168840 4.16274881 0.91979051
4.12460566 4.00837660 0.73282057
4.11506271 4.16348553 0.73204696
4.15029716 4.00924826 0.54342896
4.14667559 4.16469145 0.54397184
4.17109871 4.01026154 0.35335210
4.16263342 4.16522503 0.35396034
4.17148447 4.16599703 0.16341038
4.18111753 4.01094389 0.16241094
4.17128134 4.16630936 -0.02714678
4.18261242 4.01120806 -0.02868583
4.16486788 4.16680145 -0.21753092
4.17284775 4.01143122 -0.21925297
4.14920235 4.16707039 -0.40765694
4.15688515 4.01186132 -0.40970564
4.12534332 4.16702127 -0.59713256
4.13415194 4.01191950 -0.59965396
4.09398651 4.16646481 -0.78543967
4.10310507 4.01139593 -0.78830636
4.05483770 4.16522598 -0.97205919
4.06563473 4.01016331 -0.97556913
4.00806570 4.16337585 -1.15629196
4.02041960 4.00799179 -1.16065013
3.95161963 4.16069174 -1.33715868
3.95977020 4.00467205 -1.34049356
3.89010048 4.15778017 -1.51594043
3.89614773 4.00150728 -1.51865447
3.81623602 4.15459442 -1.68965971
3.82549167 3.99840093 -1.69361305
3.73798966 4.15112162 -1.86160624
3.74663639 3.99501491 -1.86542726
3.64814663 4.14766169 -2.02780223
3.65586710 3.99160028 -2.03131413
3.55116940 4.14424992 -2.19000196
3.55707550 3.98820376 -2.19262958
3.44729209 4.14105892 -2.34804440
3.45342851 3.98513246 -2.35104799
3.33918715 4.13839674 -2.50345445
3.34453034 3.98266244 -2.50630522
3.22294521 4.13602638 -2.65308881
3.22822905 3.98042846 -2.65631604
3.09913468 4.13388729 -2.79672098
3.10450673 3.97840381 -2.80056000
2.97249341 4.13201952 -2.93793774
2.97425604 3.97644186 -2.93922901
2.83853126 3.97480893 -3.07201314
2.83532929 4.13031769 -3.06883597
2.69681215 3.97312808 -3.19845104
2.69275331 4.12855148 -3.19327283
2.54821515 3.97102809 -3.31568599
2.54528046 4.12680721 -3.31141376
2.39568520 3.96961474 -3.42769170
2.39255881 4.12532902 -3.42223597
2.23817205 3.96825600 -3.53185487
2.23583150 4.12406349 -3.52708721
2.07446313 3.96703362 -3.62591267
2.07395601 4.12292194 -3.62354279
1.90784895 3.96619630 -3.71407747
1.90686738 4.12220001 -3.71053553
1.73738778 3.96631074 -3.79571652
1.73743129 4.12199831 -3.79359865
1.56276810 3.96652579 -3.86938715
1.56263053 4.12194586 -3.86606407
1.38582683 3.96666193 -3.93736577
1.38600159 4.12206411 -3.93429875
1.20569110 3.96715260 -3.99588370
1.20600355 4.12231302 -3.99209833
1.02311254 3.96781015 -4.04707575
1.02330732 4.12289190 -4.04227066
0.83824611 3.96841669 -4.08921671
0.83874428 4.12348461 -4.08576918
0.65122944 3.96935797 -4.12198639
0.65187490 4.12419176 -4.11981678
0.46311268 3.97026539 -4.14801979
0.46330741 4.12504530 -4.14273691
0.27411917 3.97103333 -4.16560507
0.27413702 4.12584686 -4.15937948
0.08483580 3.97148776 -4.17276669
0.08476677 3.81620073 -4.18070507
0.27414697 3.81608081 -4.17535877
-0.10427186 3.81628418 -4.17934370
-0.10423739 3.97174025 -4.17143440
-0.29248112 3.81628633 -4.16683006
-0.29269034 3.97186637 -4.15918779
-0.47987631 3.81627417 -4.14605093
-0.29306054 3.66096544 -4.18183804
-0.48037320 3.66066718 -4.15908670
-0.66645044 3.81620932 -4.11438894
-0.66711617 3.66059971 -4.12657356
-0.85186678 3.81620145 -4.07363129
-0.85295618 3.66086125 -4.08497763
-1.03615141 3.81677055 -4.02614355
-1.03832233 3.66162920 -4.03855562
-1.21944654 3.81701899 -3.97266459
-1.22257948 3.66225481 -3.98456645
-1.40027356 3.81687951 -3.91032529
-1.40402246 3.66206145 -3.92247009
-1.57797992 3.81610203 -3.84047723
-1.58293486 3.66107655 -3.85506821
-1.75370133 3.81470180 -3.76774478
-1.75740707 3.65911937 -3.77952075
-1.92592800 3.81288075 -3.68762589
-1.92840922 3.65694952 -3.69645429
-2.09359789 3.81074572 -3.59963083
-2.09602451 3.65453911 -3.60745645
-2.25437093 3.80930877 -3.50033307
-2.25832844 3.65278959 -3.50997424
-2.41430163 3.80805755 -3.39849043
-2.41618323 3.65212750 -3.40385461
-2.56548595 3.80738831 -3.28219271
-2.56886029 3.65260887 -3.28981757
-2.71296740 3.80660915 -3.15891314
-2.71692348 3.65296340 -3.16736364
-2.85560870 3.80552793 -3.02812839
-2.85900903 3.65246272 -3.03514600
-2.99356246 3.80400515 -2.89123130
-2.99900460 3.65162516 -2.89951849
-3.12636542 3.80225539 -2.74888515
-3.12899470 3.64959025 -2.75429821
-3.25513077 3.64800906 -2.60498333
-3.25256824 3.80050588 -2.60087013
-3.37298465 3.64706826 -2.44950509
-3.36801028 3.79974794 -2.44449759
-3.47529721 3.80056667 -2.28276420
-3.47982121 3.64727926 -2.28625846
-3.57395315 3.80258846 -2.11515522
-3.57882333 3.64911890 -2.11815023
-3.66405916 3.80546856 -1.94200981
-3.66871643 3.65249205 -1.94350791
-3.74437547 3.80938911 -1.76402211
-3.75030565 3.65624094 -1.76486349
-3.81838894 3.81452179 -1.58245754
-3.82482672 3.66131830 -1.58249962
-3.88426638 3.82010937 -1.39821374
-3.89175892 3.66611385 -1.39754939
-3.94412875 3.82553530 -1.21212959
-3.95459199 3.67155004 -1.21188319
-4.00486708 3.67624092 -1.02326274
-3.99497557 3.83077407 -1.02419782
-4.04098511 3.83610392 -0.83534378
-4.04862309 3.68106985 -0.83386892
-4.08614397 3.68530369 -0.64388168
-4.07704592 3.84097385 -0.64527416
-4.11659336 3.68899202 -0.45319879
-4.10572004 3.84532714 -0.45461151
-4.13655329 3.69269371 -0.26258951
-4.12530708 3.84949398 -0.26377431
-4.13963461 3.85363793 -0.07271747
-4.14777708 3.69666266 -0.07077622
-4.14424467 3.85773921 0.11899925
-4.15184069 3.70085454 0.12062924
-4.13640690 3.86115241 0.31087464
-4.14587116 3.70442104 0.31255439
-4.11971140 3.86381483 0.50198817
-4.13640690 3.86115241 0.31087464
-4.13147402 3.70706034 0.50389427
-4.14587116 3.70442104 0.31255439
-4.09710979 3.86605096 0.69225800
-4.11088610 3.70946383 0.69455254
-4.06679058 3.86716366 0.88166368
-4.07926989 3.71048236 0.88396680
-4.02964354 3.86717248 1.06991506
-4.04234934 3.71077561 1.07251942
-3.98030400 3.86591506 1.25473452
-3.99377918 3.70922685 1.25813901
-3.92172146 3.86433196 1.43653703
-3.93361020 3.70681667 1.44074094
-3.85467625 3.86272883 1.61420727
-3.86642241 3.70428014 1.62020874
-3.78166342 3.86147451 1.78924644
-3.78979754 3.70300889 1.79441357
-3.69684529 3.86061978 1.95890296
-3.70705009 3.70260048 1.96553576
-3.60366368 3.85966301 2.12506509
-3.61492896 3.70248246 2.13226652
-3.50400138 3.85889339 2.28806901
-3.51441431 3.70193624 2.29488754
-3.39772439 3.85730028 2.44766545
-3.41185951 3.70136952 2.45723987
-3.28507519 3.85493279 2.60328436
-3.29533339 3.69894314 2.60955882
-3.16583514 3.85233521 2.75427079
-3.17512083 3.69610620 2.75977707
-3.04061389 3.85026908 2.90041947
-3.04998875 3.69420433 2.90617990
-2.91015196 3.84907675 3.04234552
-2.91786838 3.69265819 3.04748774
-2.77381420 3.84935379 3.17907262
-2.78209877 3.69426227 3.18701935
-2.63006592 3.85073209 3.30953765
-2.63847613 3.69660211 3.31920767
-2.47773361 3.85177851 3.43026614
-2.48449469 3.69785976 3.43916988
-2.32272625 3.69815207 3.54895687
-2.31744194 3.85257792 3.54141521
-2.15888476 3.69818974 3.65534425
-2.15319037 3.85256839 3.64591074
-1.99357963 3.69787097 3.75870538
-1.98663080 3.85233092 3.74586582
-1.82272601 3.69686890 3.85023332
-1.81749594 3.85197783 3.83942103
-1.64891541 3.69606590 3.93340015
-1.64311576 3.85127735 3.92092466
-1.47067261 3.69467258 4.00560141
-1.46608353 3.85044909 3.99556780
-1.28974545 3.69319868 4.07106400
-1.28440607 3.84897208 4.05752230
-1.10617149 3.69206119 4.12831163
-1.10238600 3.84834480 4.11746788
-0.92089808 3.69255495 4.18181658
-0.91777021 3.84803128 4.16920805
-0.73252785 3.69228959 4.22287512
-0.73084003 3.84813905 4.21113491
-0.54257071 3.69300103 4.25439358
-0.54149687 3.84854364 4.24151468
-0.35182452 3.69425702 4.27982903
-0.35104677 3.84898853 4.26601076
-0.15944032 3.69429636 4.29598188
-0.15931776 3.84879971 4.28151703
0.03255002 3.84718966 4.28498888
0.03270308 3.69283199 4.30449772
0.22243243 3.84592891 4.28840208
0.22368582 3.69010925 4.30499697
0.41070336 3.84444761 4.28469992
0.41283384 3.68725920 4.29541874
0.59664679 3.84293318 4.26408863
0.59938389 3.68519354 4.27868414
0.78058201 3.84200501 4.23316765
0.78387350 3.68443394 4.24884510
0.96248746 3.84189081 4.19084644
0.96678364 3.68460035 4.20734406
1.14329934 3.84303355 4.14237976
1.14861321 3.68570614 4.15780258
1.32222593 3.84500289 4.08499384
1.32870352 3.68836522 4.10002375
1.49943995 3.84754753 4.01912832
1.50748765 3.69169593 4.03629827
1.67418742 3.85007977 3.94544125
1.68278313 3.69457865 3.96114445
1.84432840 3.85251737 3.86068964
1.85459530 3.69727564 3.87715816
2.01107430 3.85463285 3.76943374
2.02300382 3.69954681 3.78721499
2.17434359 3.85631156 3.67224550
2.18686724 3.70146585 3.68908191
2.33298373 3.85804057 3.56723070
2.34720182 3.70371675 3.58522987
2.48589945 3.85939550 3.45392299
2.49915743 3.70436168 3.46959162
2.63463736 3.85979319 3.33512068
2.64723301 3.70503974 3.34981942
2.77711797 3.85963154 3.20882344
2.79056382 3.70559168 3.22377062
2.91461706 3.85909152 3.07638431
2.92880225 3.70510721 3.09142494
3.06062794 3.70410061 2.95252943
3.04580951 3.85818362 2.93807197
3.18570828 3.70302844 2.80748725
3.17151213 3.85718608 2.79403806
3.30493307 3.70162988 2.65716410
3.29226279 3.85608673 2.64528441
3.41669178 3.70059729 2.49982452
3.40537906 3.85469723 2.49021626
3.52450180 3.69973302 2.33937669
3.51069832 3.85333395 2.32971239
3.62689209 3.69958043 2.17462993
3.61062145 3.85273957 2.16524291
3.71892953 3.69870710 2.00476646
3.69992375 3.85202742 1.99523962
3.80093813 3.69717884 1.83107221
3.78425407 3.85132241 1.82315874
3.87919927 3.69716072 1.65611863
3.86210918 3.85103559 1.64880085
3.94743633 3.69686317 1.47742641
3.92952371 3.85081601 1.47029293
3.99224758 3.85129118 1.29046297
4.01117086 3.69748545 1.29718554
4.04700375 3.85201979 1.10739040
4.06288195 3.69787931 1.11246467
4.09217691 3.85245252 0.92140579
4.10950756 3.69857955 0.92594343
4.12804508 3.85310221 0.73319447
4.14445066 3.69906855 0.73671627
4.15523958 3.85407066 0.54371095
4.17398500 3.70023942 0.54609716
4.19563532 3.70160389 0.35426843
4.17916536 3.85535598 0.35337606
4.20737553 3.70197964 0.16212599
4.19216967 3.85623336 0.16215961
4.19253874 3.85626173 -0.02949890
4.21053743 3.70239425 -0.03016193
4.18418694 3.85633278 -0.22090618
4.20156956 3.70211005 -0.22257937
4.16951561 3.85700369 -0.41208583
4.18664694 3.70245910 -0.41467729
4.14719582 3.85703087 -0.60255992
4.16369677 3.70260334 -0.60599524
4.11652088 3.85660768 -0.79177254
4.13160610 3.70182729 -0.79524350
4.07765102 3.85512567 -0.97900343
4.09424829 3.70023251 -0.98291731
4.02990294 3.85253286 -1.16328204
4.04698944 3.69759440 -1.16796350
3.97349262 3.84925437 -1.34500718
3.99024272 3.69388056 -1.35002661
3.90963888 3.84561205 -1.52348435
3.92608809 3.69006371 -1.52923250
3.83631301 3.84207320 -1.69809043
3.85182500 3.68643785 -1.70447958
3.75548983 3.83877015 -1.86937416
3.77052402 3.68329072 -1.87675369
3.66640782 3.83568358 -2.03650331
3.67941451 3.67993093 -2.04355907
3.56743050 3.83232474 -2.19812346
3.58067131 3.67684627 -2.20588398
3.46324205 3.82959294 -2.35673809
3.47676802 3.67419982 -2.36520839
3.35342932 3.82717299 -2.51179647
3.36485195 3.67216134 -2.51957059
3.23391938 3.82490635 -2.66011024
3.24666548 3.67045188 -2.67001271
3.11151147 3.82315922 -2.80608845
3.12339759 3.66879439 -2.81645203
2.98087049 3.82143021 -2.94518757
2.99262929 3.66737366 -2.95671844
2.85518670 3.66515875 -3.09072781
