-4.00256157 -9.02512360 -2.19643641
-3.87686086 -8.99025822 -2.10979891
-4.19846773 -9.06758881 -2.14714289
-4.12650585 -9.06630421 -2.28252220
-4.05006075 -9.06679630 -2.41595960
-3.92883873 -9.02637863 -2.32649970
-4.25116396 -9.09944439 -2.37062311
-4.17184639 -9.09962463 -2.50743413
-4.08765364 -9.10181904 -2.64293337
-3.96925473 -9.06898403 -2.54737115
-4.29357862 -9.12436962 -2.60123134
-4.20647335 -9.12628078 -2.74037528
-4.11533356 -9.12871552 -2.87726450
-3.99935794 -9.10464764 -2.77655816
-4.32638693 -9.14013004 -2.83858275
-4.23232937 -9.14213085 -2.97871041
-4.13410234 -9.14228344 -3.11647487
-4.02027655 -9.12948036 -3.01199293
-4.35032082 -9.12663364 -3.07833409
-4.24781466 -9.12519360 -3.21980047
-4.14092493 -9.12596798 -3.35911608
-4.03084040 -9.14281464 -3.25200510
-4.35496187 -9.08012009 -3.31910110
-4.24469042 -9.08005047 -3.46157217
-4.13050365 -9.08174038 -3.60027885
-4.02987003 -9.12851238 -3.49449039
-4.33701944 -9.00349045 -3.55497360
-4.21968794 -9.00398350 -3.69676805
-4.09706545 -9.00441170 -3.83430815
-4.01178026 -9.08404636 -3.73488235
-4.29182768 -8.89511299 -3.77891731
-4.16578484 -8.89418697 -3.91888404
-4.03284454 -8.89133358 -4.05203485
-3.96809077 -9.00282383 -3.96682906
-4.20874262 -8.75569916 -3.97486830
-4.33703184 -8.75791168 -3.83420920
-4.07168102 -8.75185490 -4.10706139
-3.92752123 -8.74797630 -4.23250055
-3.89324999 -8.88777542 -4.17892170
-4.08197498 -8.60095119 -4.12989330
-4.20874262 -8.75569916 -3.97486830
-4.07168102 -8.75185490 -4.10706139
-3.93621469 -8.59832382 -4.25506735
-3.92752123 -8.74797630 -4.23250055
-3.78701019 -8.59638214 -4.37592459
-3.78003860 -8.74555397 -4.35464907
-3.92458415 -8.44758797 -4.25032902
-3.77540541 -8.44579506 -4.37040567
-3.62487054 -8.44394016 -4.48865891
-3.63656616 -8.59446430 -4.49507380
-3.74847674 -8.29729748 -4.34433460
-3.59754419 -8.29626751 -4.45887566
-3.44419384 -8.29479122 -4.57037640
-3.47211051 -8.44196129 -4.60321617
-3.57045937 -8.14777946 -4.43119574
-3.41950893 -8.14596558 -4.54375315
-3.26425481 -8.14460564 -4.65066099
-3.28622866 -8.29365826 -4.67575359
-3.41112089 -7.99443102 -4.54076481
-3.25753880 -7.99346352 -4.65047932
-3.09971786 -7.99313593 -4.75489283
-3.10471177 -8.14376831 -4.75274277
-3.26189828 -7.84172058 -4.66595411
-3.10483170 -7.84192324 -4.77315855
-2.94346309 -7.84188414 -4.87311554
-2.93770123 -7.99276161 -4.85349083
-3.11599851 -7.69249821 -4.80095863
-2.95361638 -7.69308996 -4.90238380
-2.78658605 -7.69410419 -4.99780560
-2.77761936 -7.84228563 -4.96781349
-2.96426630 -7.54548073 -4.93416643
-2.79608750 -7.54699039 -5.03049946
-2.62326002 -7.54904699 -5.12107849
-2.61563659 -7.69564772 -5.08760834
-2.80518055 -7.40082026 -5.06594276
-2.63213611 -7.40320683 -5.15746975
-2.45518589 -7.40494156 -5.24086332
-2.44749022 -7.55099773 -5.20468569
-2.64141297 -7.25721741 -5.19376183
-2.46444201 -7.25980043 -5.28031111
-2.28411222 -7.26187229 -5.35949707
-2.27584028 -7.40686798 -5.31887341
-2.47297859 -7.11449957 -5.31909704
-2.29231358 -7.11709070 -5.40048075
-2.10827184 -7.11953354 -5.47452784
-2.10154104 -7.26448536 -5.43344021
-2.29996848 -6.97204542 -5.44067812
-2.11510158 -6.97457790 -5.51556349
-1.92760932 -6.97726774 -5.58405495
-1.92156887 -7.12187195 -5.54175949
-2.12238812 -6.83014631 -5.55824471
-1.93395710 -6.83308983 -5.62776184
-1.74280524 -6.83544636 -5.68920326
-1.73735309 -6.97932577 -5.64434624
-1.94178963 -6.69059849 -5.67679548
-1.74931085 -6.69300270 -5.73869991
-1.55472076 -6.69523668 -5.79353380
-1.54943848 -6.83750343 -5.74329281
-1.75708520 -6.55204010 -5.79228401
-1.56074607 -6.55431652 -5.84765959
-1.36300027 -6.55659914 -5.89620876
-1.35837960 -6.69745588 -5.84169292
-1.56824803 -6.41445255 -5.90421200
-1.36853874 -6.41675472 -5.95326614
-1.16747570 -6.41908598 -5.99549913
-1.16377747 -6.55895567 -5.93821812
-1.37533486 -6.27795267 -6.01271343
-1.17250526 -6.28027630 -6.05523252
-0.96840066 -6.28264236 -6.09097815
-0.96549553 -6.42155552 -6.03119230
-1.17808867 -6.14334345 -6.11946487
-0.97220743 -6.14571190 -6.15534592
-0.76518434 -6.14848661 -6.18467617
-0.76324356 -6.28543139 -6.11988163
-0.97665876 -6.01029539 -6.22291040
-0.76795846 -6.01308537 -6.25267792
-0.55766869 -6.01600695 -6.27382374
-0.55677587 -6.15127707 -6.20556116
-0.77119201 -5.87926054 -6.32360125
-0.55908298 -5.88230228 -6.34527779
-0.34624961 -5.88477612 -6.35836267
-0.34681952 -6.01859570 -6.28713274
-0.56081069 -5.75045586 -6.42036152
-0.34587428 -5.75270033 -6.43306589
-0.13069843 -5.75396204 -6.43657589
-0.13314465 -5.88638353 -6.36241865
-0.34580091 -5.62188911 -6.51019621
-0.12805559 -5.62299109 -6.51357031
0.08918782 -5.62399721 -6.50904560
0.08442263 -5.75515556 -6.43232679
-0.12663122 -5.49284554 -6.59192324
0.09351125 -5.49365568 -6.58726358
0.31277585 -5.49538183 -6.57629776
0.30612716 -5.62590313 -6.49837589
0.09650251 -5.36411476 -6.66679907
0.31852263 -5.36557770 -6.65551043
0.53996915 -5.36846828 -6.63871288
0.53140539 -5.49850178 -6.55992651
0.32403877 -5.23638058 -6.73587370
0.54780030 -5.23908472 -6.71876335
0.76050133 -5.37326336 -6.61585951
0.77121770 -5.24377251 -6.69572210
0.55552167 -5.10999441 -6.79938221
0.78117412 -5.11455107 -6.77615833
0.99366158 -5.24971151 -6.66564226
1.00607824 -5.12003899 -6.74511051
0.79082519 -4.98554802 -6.85702229
1.01802576 -4.99107838 -6.82585812
1.22964454 -5.12563372 -6.70604324
1.24367750 -4.99607325 -6.78555775
1.02977455 -4.86269903 -6.90762758
1.25763416 -4.86745167 -6.86673260
1.46765864 -5.00101519 -6.73684120
1.48368680 -4.87174702 -6.81667376
1.27181625 -4.73794317 -6.94658566
1.50023174 -4.74245548 -6.89652681
1.70798719 -4.87651396 -6.75889206
1.72687447 -4.74742413 -6.83860540
1.51629722 -4.61316824 -6.97651482
1.74534464 -4.61833954 -6.91849470
1.74534464 -4.61833954 -6.91849470
1.95176125 -4.75338554 -6.77364445
1.72687447 -4.74742413 -6.83860540
1.97263086 -4.62451458 -6.85333061
1.76324022 -4.48916101 -6.99840498
1.76324022 -4.48916101 -6.99840498
1.99302888 -4.49557400 -6.93309975
2.19765925 -4.63101244 -6.77769995
2.22064948 -4.50257349 -6.85731459
1.77968740 -4.36011600 -7.07887316
2.01276159 -4.36645222 -7.01255703
2.24331403 -4.37377405 -6.93641758
2.44507861 -4.50892401 -6.77169657
2.47043824 -4.38079786 -6.85102844
2.26517200 -4.24451733 -7.01480198
2.49572778 -4.25202656 -6.92919540
2.69437885 -4.38768768 -6.75664854
2.72213840 -4.25919056 -6.83431005
2.51891255 -4.12226677 -7.00628805
2.74882340 -4.12974691 -6.91075802
2.94552732 -4.26691484 -6.73138475
2.97463799 -4.13752985 -6.80684423
2.77342224 -3.99936152 -6.98629856
3.00250411 -4.00728035 -6.88139629
3.19766974 -4.14674711 -6.69618654
3.22810030 -4.01646709 -6.76931763
3.02890420 -3.87581038 -6.95407295
3.25765681 -3.88544202 -6.84139585
3.45076418 -4.02788496 -6.64992809
3.48335934 -3.89740443 -6.72067451
3.28694153 -3.75459886 -6.91301107
3.51547575 -3.76690030 -6.79149389
3.70430517 -3.90933728 -6.59166241
3.73973441 -3.77958059 -6.66179466
3.54726672 -3.63646793 -6.86229134
3.77422595 -3.64951873 -6.73203611
3.95874691 -3.79167676 -6.52333307
3.99634981 -3.66244841 -6.59311008
3.80860639 -3.51953053 -6.80220890
4.03335476 -3.53289580 -6.66277361
4.21339130 -3.67486787 -6.44548941
4.25306368 -3.54603934 -6.51471519
4.07134342 -3.40326500 -6.73147821
4.29320669 -3.41675353 -6.58285332
4.46790552 -3.55888772 -6.35825300
4.50992107 -3.42997384 -6.42566156
4.33340931 -3.28668356 -6.64969921
4.55195808 -3.30017924 -6.49168539
4.72106171 -3.44245148 -6.25860357
4.76439524 -3.31282997 -6.32305479
4.59410477 -3.16983199 -6.55703163
4.80791330 -3.18272090 -6.38694382
4.97213316 -3.32559896 -6.14550447
5.01665163 -3.19550610 -6.20764399
4.85186625 -3.05227304 -6.45038462
5.06163311 -3.06513262 -6.26947546
5.22175837 -3.20899105 -6.02116394
5.26730061 -3.07839322 -6.08066320
5.10790348 -2.93429637 -6.32957935
5.31413651 -2.94760394 -6.13880301
5.46911478 -3.09212685 -5.88461828
5.51633692 -2.96132565 -5.94065475
5.36167288 -2.81646538 -6.19619894
5.56449938 -2.83032966 -5.99586916
5.76299381 -2.84437871 -5.78844690
5.71415758 -2.97501063 -5.73531008
5.61294413 -2.69875050 -6.05049944
5.81245756 -2.71342015 -5.84141684
6.00752068 -2.72824883 -5.62472153
5.95666361 -2.85800433 -5.57417774
5.86191177 -2.58171654 -5.89259529
6.05863428 -2.59831023 -5.67399406
6.25009203 -2.61497545 -5.44855642
6.19738388 -2.74350071 -5.40066338
6.11037970 -2.46806645 -5.72152233
6.30293703 -2.48600197 -5.49465799
6.49010277 -2.50234222 -5.26207590
6.43615818 -2.63034248 -5.21697950
6.35698032 -2.35673428 -5.54057217
6.54512644 -2.37404847 -5.30725670
6.72703409 -2.38857961 -5.06824970
6.67121267 -2.51618719 -5.02384520
6.59929895 -2.24423313 -5.35116625
6.78075790 -2.25865364 -5.11078501
6.95616245 -2.26993847 -4.86561251
6.90207100 -2.39964199 -4.82356167
6.83302879 -2.12687659 -5.15240860
7.00847006 -2.13831902 -4.90702820
7.17780066 -2.14644098 -4.65710211
7.12470675 -2.27766657 -4.61541080
7.05969334 -2.00510693 -4.94839191
7.22903872 -2.01327133 -4.69866896
7.38899183 -2.01589441 -4.44254160
7.33815432 -2.14963102 -4.40088654
7.27974749 -1.87838852 -4.74213648
7.43994188 -1.88106203 -4.48670673
7.59280491 -1.87954175 -4.22632504
7.54180384 -2.01473665 -4.18181658
7.48922920 -1.74425638 -4.53156948
7.64227724 -1.74268055 -4.27166176
7.78899765 -1.73788548 -4.00726557
7.74005985 -1.87563133 -3.96210098
7.68982172 -1.60371053 -4.31729507
7.83780956 -1.59960842 -4.05345106
7.97876787 -1.59322524 -3.78438473
7.92976665 -1.73159933 -3.73850131
7.88583899 -1.45974469 -4.09976625
8.02684593 -1.45319140 -3.83058548
8.15836525 -1.44406319 -3.55540061
8.11049652 -1.58449554 -3.50951767
8.07310772 -1.31129813 -3.87578630
8.20454025 -1.30211461 -3.60047150
8.32777405 -1.29206073 -3.32025194
8.28155708 -1.43413270 -3.27541542
8.24918556 -1.15871847 -3.64462090
8.37207317 -1.14853728 -3.36422420
8.48775005 -1.13907993 -3.07943296
8.44341755 -1.28277957 -3.03570557
8.41415405 -1.00288928 -3.40633750
8.52939796 -0.99329114 -3.12136912
8.63610554 -0.98400837 -2.83189678
8.59490204 -1.12990224 -2.79036140
8.56971836 -0.84618193 -3.16190505
8.67603970 -0.83708817 -2.87234426
8.77460098 -0.82831782 -2.57958627
8.73357105 -0.97471303 -2.53876925
8.71530437 -0.68923134 -2.91154170
8.81241131 -0.68048024 -2.61779428
8.90021610 -0.67177165 -2.32066798
8.86179447 -0.81934166 -2.28263164
8.85103607 -0.53216231 -2.65411258
8.93917370 -0.52377331 -2.35676217
9.01886654 -0.51588565 -2.05661058
8.97955990 -0.66373038 -2.02082348
8.97843170 -0.37536395 -2.39097667
9.05766487 -0.36753234 -2.09018993
9.12963390 -0.36035499 -1.78723681
9.09108639 -0.50885820 -1.75430834
9.09567547 -0.21864976 -2.12159276
9.16761875 -0.21150796 -1.81824398
9.23092556 -0.20430803 -1.51261985
9.19295883 -0.35328603 -1.48224795
9.20479584 -0.06215695 -1.84699643
9.26812267 -0.05496823 -1.54071617
9.32033539 -0.04683287 -1.23207736
9.28302574 -0.19622068 -1.20498061
9.30457211 0.09480561 -1.56575096
9.35766697 0.10262177 -1.25642467
9.40051937 0.11154544 -0.94519281
9.36178780 -0.03756588 -0.92167848
9.39345837 0.25248247 -1.27796042
9.43662071 0.26121745 -0.96565592
9.46664143 0.27150005 -0.65094572
9.43074894 0.12192973 -0.63229990
9.46987915 0.41137993 -0.98159426
9.49975872 0.42149583 -0.66543132
9.51707840 0.43278366 -0.34811774
9.48336124 0.28318515 -0.33498594
9.53364182 0.57121330 -0.67399150
9.55115795 0.58219165 -0.35502729
9.55623627 0.59398305 -0.03467806
9.52277660 0.44501072 -0.03008560
9.58292484 0.73203403 -0.35549596
9.58792591 0.74328643 -0.03412096
9.58209515 0.75526142 0.28698850
9.55124378 0.60640138 0.28534311
9.61778545 0.89299589 -0.02897130
9.61076736 0.90457708 0.29329404
9.59248352 0.91629755 0.61553860
9.56568909 0.76774639 0.60692638
9.63696480 1.05413520 0.30466071
9.61717415 1.06512976 0.62720722
9.58678627 1.07484794 0.94832188
9.56357479 0.92670643 0.93660635
9.64113331 1.21430135 0.64027137
9.60871983 1.22324491 0.96081841
9.60871983 1.22324491 0.96081841
9.56692600 1.22984076 1.27885067
9.54648304 1.08187854 1.26730168
9.58678627 1.07484794 0.94832188
9.62806511 1.37221682 0.97324216
9.62806511 1.37221682 0.97324216
9.58492565 1.37851834 1.29013920
9.53642845 1.38294911 1.60495341
9.51902008 1.23432767 1.59461772
9.64321613 1.52207291 0.98504621
9.59892082 1.52812016 1.30079246
9.54951954 1.53272998 1.61436236
9.49059391 1.53626347 1.92519867
9.47921753 1.38620567 1.91733098
9.55800056 1.68341565 1.62248504
9.49883556 1.68704653 1.93213952
9.43019199 1.69002700 2.23949218
9.42143250 1.53926802 2.23351979
9.50411797 1.83846521 1.93820024
9.43473530 1.84156120 2.24420953
9.35634422 1.84436941 2.54779792
9.35182190 1.69286573 2.54441857
9.43644905 1.99365854 2.24783349
9.35860538 1.99650395 2.55053663
9.27284908 1.99966204 2.85118294
9.26978016 1.84756255 2.84923553
9.36068249 2.14927530 2.55315042
9.27536297 2.15243840 2.85307312
9.18079853 2.15679693 3.15052247
9.17888832 2.00402403 3.14958501
9.27472401 2.30573225 2.85407281
9.18025875 2.31000876 3.15102744
9.07488441 2.31724095 3.44511819
9.07547665 2.16434979 3.44501424
9.17720795 2.46357894 3.15106392
9.07141399 2.47049332 3.44467068
8.95642090 2.48015380 3.73552775
8.96098423 2.32754397 3.73678279
9.06438541 2.62391329 3.44337916
8.94920158 2.63289857 3.73379898
8.82780933 2.64447808 4.02234459
8.83527851 2.49258947 4.02466679
8.93953037 2.78572321 3.73137259
8.81733608 2.79644632 4.01899672
8.68954182 2.80940890 4.30434513
8.70093441 2.65847993 4.30910444
8.80255222 2.94826150 4.01359177
8.67494869 2.96041417 4.29798746
8.54085827 2.97480178 4.57937336
8.55540657 2.82454824 4.58696508
8.65651321 3.11139989 4.28976059
8.52239323 3.12500668 4.56969929
8.37518978 3.14015412 4.84274340
8.39531803 2.99087262 4.85521412
8.49803352 3.27469468 4.55657768
8.35260487 3.28939629 4.82888269
8.18899441 3.30370569 5.09098768
8.21068668 3.15515327 5.10580111
8.32311058 3.43761683 4.81133032
8.16098785 3.45117807 5.07247210
7.98808622 3.46576238 5.32679272
8.01196861 3.31838512 5.34481859
8.13049698 3.59855437 5.05236292
7.96084452 3.61293101 5.30700636
7.78238535 3.62837672 5.55597973
7.80591202 3.48142934 5.57521915
7.93153906 3.75990939 5.28609514
7.75511026 3.77494669 5.53485012
7.57035017 3.79095840 5.77779818
7.59566736 3.64518499 5.79961014
7.72471809 3.92060566 5.51153326
7.54124928 3.93597579 5.75401878
7.35190296 3.95258403 5.99256229
7.37907362 3.80801296 6.01645660
7.50884819 4.08000469 5.72822380
7.32028484 4.09586525 5.96579361
7.12389612 4.11110735 6.19713593
7.15539694 3.96894526 6.22569609
7.28419971 4.23733616 5.93574953
7.08903027 4.25198078 6.16636324
6.88678694 4.26608992 6.39107752
6.92018557 4.12568188 6.42234993
7.05077982 4.39140606 6.13331509
6.84959412 4.40479279 6.35682106
6.64121008 4.41714859 6.57344866
6.67755413 4.27932549 6.60929823
6.80769587 4.54108620 6.31838369
6.60042143 4.55270720 6.53378296
6.38522530 4.56344843 6.74101734
6.42530251 4.42866135 6.78233433
6.55497265 4.68568659 6.49008131
6.33952332 4.69465590 6.69411421
6.11736822 4.70248556 6.89046049
6.16169834 4.57195997 6.93896294
6.28905392 4.82246399 6.64300251
6.06925488 4.83031178 6.83870888
5.84353828 4.83750153 7.02782440
5.88960409 4.70968866 7.08031988
6.01666784 4.95508242 6.78314686
5.79354954 4.96207762 6.97073078
5.56441784 4.96823692 7.15132618
5.61237812 4.84388161 7.20981455
5.73886251 5.08304358 6.90930939
5.51304960 5.08974791 7.08925390
5.28048086 5.09539318 7.26142120
5.32981968 4.97407198 7.32484055
5.45710135 5.20773888 7.02363729
5.22736597 5.21293068 7.19354296
4.99096775 5.21728420 7.35498428
5.04140711 5.09968424 7.42415285
5.16964865 5.32602119 7.12139702
4.93631029 5.33082962 7.28177023
4.69817781 5.33551836 7.43597174
4.74942684 5.22121811 7.50988817
4.87776709 5.44034529 7.20481062
4.64240646 5.44472361 7.35661316
4.40300131 5.44965696 7.50273418
4.45488071 5.33945465 7.58287954
4.58335447 5.54991245 7.27374554
4.34646416 5.55477905 7.41811275
4.10556126 5.56003904 7.55657339
4.15880251 5.45484066 7.64299250
4.28663635 5.65558863 7.33020973
4.04809284 5.65970373 7.46523523
3.80521107 5.66317606 7.59225655
3.85934377 5.56447363 7.68591833
3.98856497 5.75522375 7.37053108
3.74840331 5.75842381 7.49567938
3.50392675 5.76272631 7.61313629
3.55728269 5.66685581 7.71109915
3.69033813 5.85080528 7.39641476
3.44889450 5.85398531 7.51110220
3.20412636 5.85759544 7.61866617
3.25607324 5.76645088 7.72288847
3.39373732 5.94115353 7.40530348
3.15210366 5.94469976 7.51117992
2.90729451 5.94803524 7.60989809
2.95598054 5.86088228 7.71901894
3.09892583 6.02478695 7.39874268
2.85897470 6.02832365 7.49484634
2.61659074 6.03214264 7.58399868
2.66053581 5.95065069 7.70036697
2.81162643 6.10400581 7.37605619
2.57315850 6.10876417 7.46377182
2.32913637 6.11153412 7.54135847
2.36870241 6.03464317 7.66320133
2.53030372 6.18054581 7.33988857
2.29217553 6.18321276 7.41474247
2.08463717 6.11381531 7.61066866
2.05286384 6.18613672 7.48225498
2.25541472 6.24885988 7.28402996
2.02084804 6.25145817 7.34954834
1.78509879 6.25265169 7.40675116
1.81208491 6.18742704 7.54115057
1.98888493 6.31326580 7.21439743
1.76152766 6.31708288 7.26947594
1.52933764 6.31885910 7.31725454
1.54945731 6.25393963 7.45475864
1.73465431 6.37717581 7.13096762
1.50811422 6.37941551 7.17740154
1.27999163 6.37972355 7.21425772
1.29671383 6.31861305 7.35375452
1.48770154 6.43526363 7.03469181
1.26286077 6.43597126 7.07217073
1.03601038 6.43446541 7.10335970
1.04935086 6.37815380 7.24499369
1.24667227 6.48654699 6.92850256
1.02316070 6.48444891 6.95961380
0.79801965 6.48125458 6.98451805
0.80738026 6.43231153 7.12845659
1.01090443 6.52848101 6.81454420
0.78943425 6.52578688 6.83963680
0.56712031 6.52507782 6.85838604
0.57189530 6.48064470 7.00349140
0.78039831 6.56615734 6.69399357
0.56191158 6.56552029 6.71256685
0.34355548 6.56673384 6.72354841
0.34493291 6.52638531 6.86941957
0.55635661 6.60223007 6.56612825
0.34189463 6.60335159 6.57703114
0.12715898 6.60411835 6.58125401
0.12484822 6.56760550 6.72783327
0.34160733 6.63638592 6.43001461
0.13077316 6.63683701 6.43410730
-0.08000452 6.63670301 6.43137360
-0.08762466 6.60428858 6.57857800
0.13541989 6.66802788 6.28691864
-0.07113799 6.66745138 6.28412771
-0.27734584 6.66633511 6.27451086
-0.29049152 6.63597393 6.42175627
-0.06233154 6.69784117 6.13697529
-0.26418999 6.69640875 6.12737942
-0.46401569 6.69484901 6.10970688
-0.48155892 6.66434860 6.25652075
-0.25114468 6.72673225 5.98046160
-0.44649473 6.72587776 5.96317959
-0.64048004 6.72430468 5.93904066
-0.66236383 6.69280815 6.08504200
-0.42804635 6.76114368 5.81791735
-0.61739671 6.75979137 5.79445505
-0.80620813 6.75694466 5.76444817
-0.83346689 6.72197676 5.90863752
-0.59710622 6.80840683 5.65413427
-0.78012538 6.80170345 5.62308073
-0.99390268 6.75330210 5.72831726
-0.96344995 6.79745197 5.58730936
-0.75838739 6.86399651 5.48853445
-0.93523335 6.85542440 5.45157576
-0.93523335 6.85542440 5.45157576
-1.14563453 6.79360056 5.54598236
-0.96344995 6.79745197 5.58730936
-1.11313701 6.85221291 5.41122723
-0.91224021 6.93323851 5.32406425
-0.91224021 6.93323851 5.32406425
-1.08401871 6.92813301 5.28350782
-1.28747761 6.84588289 5.36203814
-1.25411057 6.92242289 5.23580217
-0.89412570 7.04010344 5.21884346
-1.06236291 7.03424788 5.17750025
-1.22876954 7.02913570 5.13174200
-1.42257154 6.91557980 5.18037462
-1.39405322 7.02466583 5.07911587
-1.21070707 7.15069580 5.04512024
-1.37333822 7.14709187 4.99516487
-1.53545249 7.14505863 4.94061756
-1.55938256 7.02178764 5.02240229
-1.35852706 7.28008986 4.92569971
-1.51851749 7.27815437 4.87288094
-1.67785084 7.27763319 4.81603765
-1.69727564 7.14456129 4.88154507
-1.50698841 7.41850996 4.81957293
-1.66454661 7.41766930 4.76372385
-1.82087648 7.41778135 4.70343828
-1.83529925 7.27694893 4.75235176
-1.65620482 7.56202412 4.72541666
-1.81116605 7.56195068 4.66564655
-1.96351540 7.56191254 4.59860229
-1.97364628 7.41708612 4.63378525
-1.80382514 7.70699978 4.63314486
-1.95567727 7.70731211 4.56807423
-2.10590529 7.70898342 4.49922895
-2.11415696 7.56326342 4.52807522
-1.94988608 7.85300589 4.54220152
-2.09951138 7.85477924 4.47434521
-2.24633789 7.85685158 4.39997530
-2.25294876 7.71069574 4.42326021
-2.09448957 7.99953318 4.45373106
-2.24151349 8.00218487 4.38113642
-2.38509035 8.00521469 4.30151796
-2.39026380 7.85930395 4.31957531
-2.24085665 8.14331055 4.37143612
-2.38432121 8.14697742 4.29236889
-2.52415228 8.15111446 4.20646572
-2.52506280 8.00848103 4.21531773
-2.38941050 8.28359985 4.29382181
-2.52934980 8.28834152 4.20791292
-2.66592073 8.29355526 4.11629772
-2.66042805 8.15543652 4.11452770
-2.54284620 8.41853714 4.22374725
-2.68006873 8.42431259 4.13184023
-2.81431460 8.43013000 4.03507566
-2.79853916 8.29886436 4.01861620
-2.70466256 8.54478264 4.16512823
-2.84149837 8.55017567 4.06953478
-2.97734380 8.55231857 3.97260308
-2.94800615 8.43431091 3.93763876
-2.87526059 8.65671253 4.11410570
-3.01259613 8.65886021 4.01570034
-3.14931273 8.65844822 3.91500449
-3.11257601 8.55329037 3.87331820
-3.04601312 8.75781631 4.05681467
-3.18262601 8.75781631 3.95248890
-3.31554675 8.75872326 3.84341478
-3.28222394 8.65835953 3.80887747
-3.20173883 8.85975933 3.97287917
-3.33384037 8.86184120 3.86147761
-3.46092415 8.86506462 3.74596763
-3.44307876 8.76082134 3.72903991
-3.33240151 8.96399593 3.85904598
-3.46025491 8.96796608 3.74381709
-3.58569932 8.96929646 3.62695885
-3.58230066 8.86579418 3.62578225
-3.44465661 9.06551456 3.72854018
-3.57116914 9.06854439 3.61078620
-3.69172740 9.06969452 3.48978829
-3.70597053 8.96946907 3.50493026
-3.52869391 9.14128304 3.56788635
-3.64829159 9.14389229 3.44757605
-3.80596352 9.06750393 3.36333346
-3.76081038 9.14038944 3.32248521
-3.57570505 9.16126537 3.37770963
-3.68600798 9.15680981 3.25563407
-3.86623144 9.13181496 3.19045401
-3.79092813 9.14698124 3.12785673
-3.61126566 9.14066029 3.18704343
-3.71494889 9.13104820 3.06477523
-3.89062572 9.13693523 2.99812150
-3.81404257 9.12139034 2.93933058
-3.64507818 9.08524418 3.00704122
-3.54199076 9.09395885 3.12577415
-3.74239874 9.07832146 2.88412714
-3.90725327 9.11529541 2.80994940
-3.83439541 9.07320690 2.75779223
-3.64507818 9.08524418 3.00704122
-3.68080878 9.00917339 2.83655691
-3.74239874 9.07832146 2.88412714
-3.77221680 9.00433826 2.71264291
-3.83439541 9.07320690 2.75779223
-3.92116022 9.07134724 2.62716651
-3.85864854 9.00120068 2.58477712
-3.72462153 8.91232681 2.67752242
-3.81093645 8.90812778 2.55169249
-3.93840027 9.00104713 2.45326662
-3.89325142 8.90599537 2.42218137
-3.78059316 8.79845428 2.52846456
-3.86351943 8.79627132 2.39984393
-3.97063398 8.90735054 2.28962421
-3.94149613 8.79606819 2.26856232
-3.84060979 8.67577362 2.38423347
-3.91875291 8.67485714 2.25383186
-4.01466560 8.79678822 2.13528132
-3.99236631 8.67456150 2.12131119
-3.89909983 8.54743576 2.24096584
-3.97337914 8.54632568 2.10896564
-4.06147242 8.67456818 1.98666584
-4.04356050 8.54527855 1.97486699
-3.95842195 8.41391182 2.09852052
-4.02891588 8.41230297 1.96461999
-4.10883427 8.54406929 1.83837855
-4.09461546 8.41059399 1.82838666
-4.01696968 8.27610397 1.95575273
-4.08310699 8.27381325 1.81977975
-4.15549660 8.40854740 1.68994033
-4.14476299 8.27124691 1.68159902
-4.07434845 8.13325596 1.81257331
-4.13616753 8.13080502 1.67438221
-4.20165300 8.26906872 1.54143453
-4.19316721 8.12859917 1.53413963
-4.13079309 7.98635626 1.66881597
-4.18738365 7.98438501 1.52813089
-4.24568033 8.12670135 1.39223599
-4.23935604 7.98273802 1.38578999
-4.18732119 7.83733273 1.52463186
-4.23907804 7.83573580 1.38166082
-4.28719282 7.98161077 1.24207938
-4.28671360 7.83458042 1.23738801
-4.24502945 7.68754196 1.38012481
-4.29285574 7.68642521 1.23499286
-4.33024454 7.83406639 1.09188652
-4.33632326 7.68579721 1.08875716
-4.30523825 7.53761244 1.23531580
-4.34930658 7.53696585 1.08784592
-4.37495899 7.68578529 0.94117278
-4.38785839 7.53681469 0.93929315
-4.36844540 7.38803434 1.08986628
-4.40797615 7.38777828 0.93967849
-4.42246819 7.53760719 0.78953755
-4.44333935 7.38849258 0.78881902
-4.43548250 7.23932028 0.94290143
-4.47009134 7.23971605 0.78995925
-4.49923468 7.24066162 0.63592356
-4.47261906 7.38970804 0.63659006
-4.50844002 7.09352541 0.79488498
-4.53758621 7.09425545 0.63821983
-4.56352758 7.09569693 0.48152864
-4.52458143 7.24241495 0.48156509
-4.59069061 6.95343924 0.64474410
-4.56064177 6.95274162 0.80377316
-4.61567974 6.95386505 0.48481938
-4.63737965 6.95531702 0.32511863
-4.58459854 7.09768867 0.32485828
4.85134220 -6.79496431 0.14429864
4.80818605 -6.94604349 0.27365881
4.84683418 -6.79796076 0.28643137
4.80179739 -6.94931459 0.41430756
4.83628273 -6.80121422 0.42869943
4.82519054 -6.80486345 0.57115495
4.78953171 -6.95286942 0.55544055
4.77419376 -6.95607424 0.69593835
4.81169987 -6.80827904 0.71340227
4.79436827 -6.81172466 0.85550380
4.75614882 -6.95933342 0.83625895
4.73483276 -6.96289301 0.97684526
4.77024269 -6.81526804 0.99753231
4.74240828 -6.81953096 1.13950884
4.70700979 -6.96653986 1.11683798
4.67623806 -6.97173023 1.25659633
4.71080732 -6.82458162 1.28078234
4.67556000 -6.82979441 1.42155612
4.64214373 -6.97744989 1.39621413
4.60407686 -6.98307896 1.53598809
4.63665009 -6.83483553 1.56182992
4.59339046 -6.83956051 1.70194221
4.56175375 -6.98826647 1.67522049
4.51309729 -6.99240589 1.81290662
4.54335499 -6.84336758 1.84047198
4.48885775 -6.84666157 1.97798610
4.45863342 -6.99521589 1.94910860
4.39970541 -6.99770594 2.08445668
4.43256140 -6.84997654 2.11554193
4.36903191 -6.85304785 2.25095248
4.33874559 -7.00089025 2.21963811
4.27138281 -7.00306511 2.35220599
4.30016947 -6.85519695 2.38433766
4.22694874 -6.85671043 2.51599407
4.19888449 -7.00419855 2.48290420
4.12243700 -7.00518322 2.61204052
4.15042353 -6.85824490 2.64641666
4.07224941 -6.85985231 2.77677631
4.04323769 -7.00675774 2.74078107
3.96183491 -7.00959110 2.86853218
3.98940587 -6.86133957 2.90463710
3.87443471 -7.01171255 2.99248767
3.89921665 -6.86195660 3.02783751
3.78049183 -7.01166630 3.11205912
3.80366349 -6.86164284 3.14747119
3.68061018 -7.01005125 3.22725630
3.70316386 -6.86065960 3.26354313
3.57476163 -7.00788021 3.33821535
3.59942150 -6.86018276 3.37743354
3.46778607 -7.00661230 3.44771123
3.49110579 -6.85851669 3.48677874
3.52169204 -7.13702250 3.27153611
3.41548181 -7.13521576 3.37815261
3.35769129 -7.00529766 3.55351043
3.30755663 -7.13425589 3.48263383
3.33871078 -7.23240328 3.28348589
3.23340082 -7.23146725 3.38559318
3.19571829 -7.13146973 3.58284068
3.12449813 -7.22875309 3.48383164
3.14201832 -7.28603125 3.27053094
3.03714204 -7.28534079 3.36685872
2.92898107 -7.28259659 3.45954132
3.01187181 -7.22360802 3.57789946
2.94300818 -7.29161739 3.24152350
2.83901787 -7.28838062 3.33175373
2.73190093 -7.28585243 3.41826105
2.81727242 -7.27487993 3.54793906
2.75067568 -7.26363373 3.20565319
2.64794660 -7.25968361 3.28956747
2.54129696 -7.26200104 3.36943603
2.62143707 -7.28507519 3.50147247
2.56712961 -7.21357584 3.16412807
2.46502733 -7.21197701 3.24221587
2.35924244 -7.21318007 3.31701303
2.43140817 -7.26358080 3.44659162
2.31798077 -7.26375294 3.52089429
2.39099312 -7.28540754 3.65750790
2.50756741 -7.28593969 3.58124208
2.25079179 -7.21334314 3.38863897
2.13988996 -7.21129465 3.45708871
2.20344567 -7.26232052 3.59072924
2.18664718 -7.15723133 3.25605583
2.08057857 -7.15354824 3.32315183
1.97303224 -7.14556885 3.38677502
2.02719903 -7.20619583 3.52278948
2.01870441 -7.10976505 3.18498683
1.91530716 -7.10259485 3.24646974
1.80933535 -7.09657574 3.30458403
1.86242282 -7.14040565 3.44621658
1.85392118 -7.07919741 3.10312390
1.75237930 -7.07357597 3.15949392
1.64730215 -7.07055378 3.21285939
1.69954538 -7.09433317 3.35915756
1.69423425 -7.06387568 3.01335192
1.59395421 -7.06019831 3.06533241
1.49101305 -7.06029797 3.11392307
1.53967285 -7.07118559 3.26239252
1.54006743 -7.05823088 2.91761255
1.44248211 -7.05735683 2.96442270
1.34305251 -7.05816984 3.00768661
1.38662827 -7.06153679 3.15816092
1.39353108 -7.06156301 2.81428170
1.29923141 -7.06159735 2.85628581
1.20313394 -7.06191254 2.89482212
1.24188387 -7.05852699 3.04705095
1.25533795 -7.07037258 2.70470262
1.16402972 -7.07052660 2.74230170
1.07098508 -7.07071495 2.77659416
1.10543096 -7.06168938 2.92976546
1.12502241 -7.08131695 2.59002042
1.03699219 -7.08159685 2.62359977
0.94712329 -7.08199644 2.65335727
0.97670090 -7.07089615 2.80739808
1.00287616 -7.09368753 2.47015262
0.91810536 -7.09417152 2.49917078
0.83214021 -7.09510565 2.52533531
0.85672188 -7.08313227 2.67993855
0.89006346 -7.10728884 2.34510899
0.80717206 -7.10809612 2.37111735
0.72733152 -7.10897064 2.39317369
0.74464720 -7.09650087 2.54876637
0.78506362 -7.12167311 2.21651411
0.70772988 -7.12238836 2.23762798
0.62975001 -7.12324858 2.25583148
0.64386714 -7.11005497 2.41239762
0.68736881 -7.13661814 2.08404016
0.61465883 -7.13727570 2.10159278
0.54174775 -7.13830614 2.11727047
0.55031258 -7.12421083 2.27182698
0.60018313 -7.15171671 1.94828069
0.53002387 -7.15258455 1.96329224
0.46170506 -7.15355921 1.97558570
0.46635929 -7.13911581 2.12976718
0.52013385 -7.16714716 1.81159961
0.45381775 -7.16807175 1.82457006
0.38829258 -7.16902542 1.83558786
0.39015457 -7.15456676 1.98680651
0.44735587 -7.18250513 1.67633998
0.38595077 -7.18349648 1.68644130
0.32286128 -7.18452454 1.69493902
0.32216996 -7.17007160 1.84336698
0.38220048 -7.19758797 1.54228842
0.32407650 -7.19861841 1.55059862
0.26562172 -7.19971800 1.55699790
0.26063022 -7.18559074 1.70154655
0.32419223 -7.21200752 1.41164732
0.26958135 -7.21314526 1.41768730
0.21521673 -7.21438599 1.42155612
0.20714858 -7.20089054 1.56136131
0.27338028 -7.22570181 1.28318274
0.22336893 -7.22701502 1.28633809
0.17304716 -7.22840834 1.28740036
0.16082770 -7.21572399 1.42327440
0.22972836 -7.23852491 1.15741014
0.18382387 -7.23995113 1.15806615
0.13795862 -7.24144411 1.15659261
0.12284761 -7.22988224 1.28649426
0.19269344 -7.25078917 1.03513134
0.15116207 -7.25231457 1.03299129
0.10964569 -7.25385904 1.02914333
0.09203468 -7.24297523 1.15323937
0.16232975 -7.26243877 0.91674203
0.12469430 -7.26400566 0.91212350
0.08735080 -7.26556635 0.90589607
0.06801986 -7.25540209 1.02333772
0.02783478 -7.25687408 1.01551688
0.04638087 -7.24452734 1.14812100
0.00187393 -7.24606419 1.14088345
0.05089051 -7.26691532 0.89759630
-0.01185759 -7.25826550 1.00617576
0.01474679 -7.26815605 0.88809365
-0.08601108 -7.24890280 1.12058699
-0.05153103 -7.25956917 0.99509543
-0.04205774 -7.24754190 1.13171923
-0.01983861 -7.26910496 0.87654477
-0.08951096 -7.26058531 0.98183876
-0.05386969 -7.26985645 0.86315262
0.00671423 -7.27502489 0.76763725
-0.02436987 -7.27484655 0.75439620
-0.08720075 -7.27041817 0.84866184
-0.05231879 -7.27400303 0.73928052
0.00087168 -7.27492857 0.65547550
-0.02547645 -7.27376842 0.64161992
-0.08066782 -7.27341032 0.72288918
-0.04983855 -7.27287006 0.62533271
-0.00524962 -7.27447796 0.55782014
-0.02838316 -7.27360964 0.54305857
-0.07373816 -7.27200413 0.60876960
-0.04973179 -7.27294254 0.52789086
-0.01204124 -7.27510881 0.47338507
0.00912681 -7.27572775 0.48599094
-0.03425298 -7.27439308 0.46380436
-0.07341821 -7.27222967 0.51656067
-0.05513423 -7.27391005 0.45034453
-0.02111375 -7.27598763 0.40660655
-0.00016933 -7.27659464 0.41571343
-0.04065561 -7.27563667 0.39172006
-0.07494761 -7.27357578 0.43577042
-0.06128538 -7.27511597 0.38241011
-0.03005566 -7.27685690 0.34689906
-0.00971886 -7.27741003 0.35649538
-0.05056366 -7.27628326 0.33812022
-0.04085485 -7.27722454 0.29946420
-0.07078075 -7.27587557 0.32588404
-0.06177465 -7.27665663 0.28746754
-0.08084974 -7.27481127 0.36879408
-0.01965155 -7.27787638 0.30886787
-0.00932975 -7.27872658 0.27653304
-0.03092775 -7.27803993 0.26631710
0.00133336 -7.27851486 0.31730828
0.01217303 -7.27945089 0.28353631
0.02548732 -7.28053713 0.25602308
0.00206878 -7.27962494 0.24870215
0.03433531 -7.28023672 0.29132062
0.02212138 -7.27912426 0.32633704
0.04832488 -7.28137922 0.26449990
0.07192036 -7.28215551 0.27147716
0.05729442 -7.28103304 0.29649109
0.04350074 -7.27980471 0.33037236
0.03140265 -7.27851915 0.37409469
0.01043278 -7.27789688 0.36732051
0.02087423 -7.27719784 0.42536703
-0.02075915 -7.27880335 0.23818421
-0.04415845 -7.27793598 0.22741117
-0.05325765 -7.27727795 0.25586689
-0.07567348 -7.27658510 0.24430755
-0.06885169 -7.27711439 0.21534157
-0.08308832 -7.27603149 0.27590302
-0.10575026 -7.27551270 0.26279202
-0.09939574 -7.27599716 0.23067069
-0.11208201 -7.27497768 0.29780844
-0.09114624 -7.27539492 0.31243461
-0.11962985 -7.27421379 0.33746937
-0.10015412 -7.27452040 0.35363159
-0.13024114 -7.27316141 0.38426897
-0.11218573 -7.27326870 0.40238899
-0.09386192 -7.27330446 0.41961339
-0.13037914 -7.27167606 0.46209130
-0.11268283 -7.27177143 0.48158070
-0.09385633 -7.27202320 0.50001317
-0.14089370 -7.27082491 0.55777848
-0.12108283 -7.27094507 0.57797080
-0.09894590 -7.27142954 0.59566909
-0.15827809 -7.27145433 0.66984135
-0.13116306 -7.27202225 0.68534225
-0.10608641 -7.27261972 0.70479006
-0.17735696 -7.26928663 0.79437995
-0.14870399 -7.26983261 0.81380689
-0.11813267 -7.27021170 0.83178627
-0.19838788 -7.26113844 0.93295634
-0.16305724 -7.26145792 0.95098257
-0.12660252 -7.26124859 0.96712923
-0.21197680 -7.25097084 1.07659900
-0.17146318 -7.25076294 1.09309971
-0.12935176 -7.25003815 1.10776234
-0.17143580 -7.23900318 1.23834097
-0.21837647 -7.23984528 1.22329307
-0.12378102 -7.23772907 1.25152481
-0.16301015 -7.22557354 1.38628983
-0.21576588 -7.22712946 1.37254870
-0.10974217 -7.22383356 1.39794803
-0.07547643 -7.23621273 1.26280296
-0.05600995 -7.22208118 1.40748703
-0.02618336 -7.23459625 1.27195668
-0.00187283 -7.22036791 1.41486526
0.02319795 -7.23298979 1.27883506
0.05238672 -7.21872663 1.41997838
0.07286466 -7.23141432 1.28364623
0.10651783 -7.21717548 1.42275369
0.08956877 -7.20360231 1.56285560
0.03034237 -7.20513868 1.55983043
0.14863983 -7.20218182 1.56332433
0.13490057 -7.18803787 1.70736790
0.07077030 -7.18945551 1.70625877
0.19813450 -7.18676567 1.70561838
0.18824951 -7.17237949 1.85259879
0.11924118 -7.17368603 1.85380673
0.25536245 -7.17118216 1.84927690
0.24843369 -7.15674305 1.99969363
0.17566107 -7.15797186 2.00245857
0.32031181 -7.15561056 1.99451804
0.31580102 -7.14144564 2.14767361
0.23983660 -7.14261436 2.15242767
0.39206362 -7.14024734 2.13982677
0.39180192 -7.12643385 2.29479456
0.31125018 -7.12780380 2.30264139
0.47142836 -7.12529230 2.28478694
0.47488797 -7.11244011 2.44123864
0.39029586 -7.11386871 2.45133996
0.55946493 -7.11128283 2.42850780
0.56981391 -7.09938812 2.58508444
0.47978985 -7.10131407 2.59838295
0.65772182 -7.09790564 2.56851602
0.67074323 -7.08743858 2.72464490
0.57716084 -7.08977604 2.74189019
0.76399940 -7.08504248 2.70391107
0.78334302 -7.07494974 2.85914946
0.68528038 -7.07853842 2.88044572
0.88061285 -7.07222795 2.83467197
0.90404654 -7.06284285 2.98955107
0.80193424 -7.06716824 3.01475239
1.00512779 -7.06075668 2.96091843
1.03336132 -7.05685377 3.11546946
0.92793608 -7.05946255 3.14473224
1.13761890 -7.05751038 3.08318162
1.17058706 -7.06141520 3.23696208
1.06163430 -7.06134129 3.27026534
1.27845073 -7.06191349 3.20027423
1.31910908 -7.07205200 3.35074329
1.20425165 -7.07187033 3.39019060
1.43012059 -7.07224989 3.30829668
1.47316432 -7.09427881 3.45697951
1.35709465 -7.09263802 3.50071216
1.58736622 -7.09457350 3.40968037
1.51406765 -7.13153172 3.60283518
1.63240409 -7.13429642 3.55427551
1.74863338 -7.13684225 3.50222754
1.67520952 -7.18693829 3.69579411
1.79532313 -7.19223928 3.64222550
1.91310203 -7.19839573 3.58445501
1.84484076 -7.24513292 3.78139019
1.96749318 -7.25152254 3.72209907
2.08598924 -7.25956678 3.65859580
2.02592492 -7.27859306 3.86510682
2.15050697 -7.28084517 3.80048895
2.27189612 -7.28320169 3.73067498
2.21593142 -7.26891899 3.94192410
2.34142208 -7.27351141 3.87056351
2.46493578 -7.27717686 3.79587555
2.40648961 -7.22182274 4.00219917
2.53435636 -7.22528839 3.92631912
2.65912724 -7.22623301 3.84601307
2.58560729 -7.27766275 3.71730375
2.77974296 -7.22286034 3.76016688
2.70291209 -7.27464342 3.63439441
2.89693570 -7.22060871 3.66953588
2.84479761 -7.13225555 3.86947536
2.96368837 -7.12860632 3.77475667
3.08066177 -7.12864828 3.67959523
3.01118827 -7.00469303 3.85531259
3.12883401 -7.00301409 3.75641274
3.24435234 -7.00350809 3.65596652
3.14913440 -6.85624027 3.79926538
3.26505065 -6.85625362 3.69665337
3.37901592 -6.85717010 3.59245253
-4.66341972 6.95960140 0.00653452
-4.61329031 7.10762548 -0.14628795
-4.60950422 7.10291195 0.01073648
-4.66822910 6.96410847 -0.15295801
-4.60012627 7.10005856 0.16786507
-4.65323782 6.95723581 0.16588123
-4.56928730 7.25102520 0.01645365
-4.56072569 7.24765539 0.17166089
-4.54534626 7.24478006 0.32675880
-4.53171253 7.39713049 0.17660746
-4.51709223 7.39403296 0.33016410
-4.49727440 7.39156675 0.48362702
-4.49435186 7.54367065 0.33475658
-4.47531843 7.54097795 0.48677200
-4.45133543 7.53897429 0.63852179
-4.46008587 7.69049358 0.49161437
-4.43688345 7.68823671 0.64217186
-4.40865278 7.68669462 0.79220867
-4.40204811 7.83538151 0.79681158
-4.42958975 7.83723021 0.64761311
-4.36913252 7.83427048 0.94510919
-4.37059641 7.98146248 0.95109719
-4.40291023 7.98278999 0.80322129
-4.33116150 7.98110628 1.09719765
-4.33738899 8.12529182 1.10416436
-4.37596416 8.12607765 0.95811081
-4.29390287 8.12543201 1.24889529
-4.30153179 8.26666069 1.25616419
-4.34420538 8.26708412 1.11132383
-4.25409842 8.26730251 1.39962459
-4.26283216 8.40598965 1.40721107
-4.30984259 8.40564823 1.26366210
-4.21177387 8.40672112 1.54957283
-4.22340727 8.54194260 1.55837774
-4.27408743 8.54128551 1.41568267
-4.16850758 8.54299355 1.69941175
-4.18556738 8.67362690 1.71061194
-4.23998213 8.67301464 1.56911957
-4.12619781 8.67424107 1.84990156
-4.14744043 8.79884624 1.86280417
-4.20641088 8.79872799 1.72322297
-4.08343458 8.79787064 2.00009990
-4.10952091 8.91291523 2.01780319
-4.17412996 8.91602802 1.87861252
-4.04227924 8.90997696 2.15473437
-4.08623362 9.00789165 2.18246102
-4.15335369 9.01285934 2.04311395
-4.01477003 9.00328636 2.31960559
-4.14978695 9.08298874 2.21857619
-4.07768631 9.07744408 2.35720444
-4.00196648 9.07353592 2.49306297
-4.15536642 9.12243652 2.40214515
-4.07771444 9.11778831 2.54002404
-4.00196648 9.07353592 2.49306297
-4.07768631 9.07744408 2.35720444
-3.99482560 9.11413860 2.67665815
-3.92116022 9.07134724 2.62716651
-4.15906525 9.13133430 2.58999443
-4.07418585 9.12869358 2.72899270
-3.98524976 9.13037491 2.86504889
-4.15270996 9.11364079 2.78018689
-4.06184626 9.11517143 2.91903925
-3.96606040 9.12143993 3.05613160
-4.11174631 9.04990578 2.95540428
-4.01568604 9.05543041 3.09585524
-3.91340709 9.06160259 3.23163009
-4.03823948 8.96214581 3.11400628
-3.93416166 8.96552181 3.24971890
-3.82303357 8.96819115 3.37989664
-3.82182384 8.86496449 3.38073468
-3.93300796 8.86330318 3.25106764
-3.70331049 8.86585045 3.50449800
-3.68319154 8.76349449 3.48802853
-3.79957247 8.76262379 3.36351585
-3.56427455 8.76178074 3.61011457
-3.52977419 8.66141033 3.57795167
-3.64713979 8.66280556 3.45627689
-3.40947151 8.65967274 3.69641900
-3.48924208 8.55743694 3.54001403
-3.37042713 8.55493927 3.65812206
-3.24444842 8.55354881 3.76921105
-3.33812094 8.43901443 3.62743235
-3.21248889 8.43768406 3.73661089
-3.08146453 8.43662739 3.83908272
-3.19203091 8.31047249 3.71827745
-3.06257200 8.30792141 3.82086897
-2.93112445 8.30379581 3.92074227
-3.05528164 8.16995049 3.81800508
-2.92493224 8.16499710 3.91884708
-2.79307461 8.15984058 4.01742411
-2.92597389 8.02037239 3.92664719
-2.79436922 8.01584053 4.02583838
-2.66117096 8.01169777 4.12268686
-2.66785932 7.86428070 4.14027596
-2.80182648 7.86748743 4.04293299
-2.53133321 7.86208010 4.23398924
-2.53958678 7.71489334 4.25559282
-2.67712045 7.71676111 4.16185284
-2.39752841 7.71265841 4.34200668
-2.40743971 7.56601095 4.36811924
-2.55018115 7.56780148 4.28081989
-2.26166630 7.56433821 4.45004988
-2.27359295 7.41857338 4.48172331
-2.41994739 7.41988754 4.39862633
-2.12469053 7.41754055 4.55988932
-2.14237380 7.27589703 4.60641289
-2.29252219 7.27661610 4.52695036
-1.99010348 7.27589655 4.68163157
-2.01347542 7.14176702 4.74368238
-2.16704178 7.14094400 4.66647959
-1.85733974 7.14416170 4.81684446
-1.88626921 7.02081919 4.89584875
-2.04395485 7.01666307 4.82005167
-1.72398412 7.02196646 4.96245003
-1.92379475 6.91361284 4.99408197
-1.75868011 6.91504574 5.06231833
-1.59102404 6.91391039 5.12307262
-1.80225241 6.83573484 5.18215513
-1.63124633 6.83741522 5.24698639
-1.45949316 6.83929205 5.30576706
-1.67702723 6.77888584 5.37750769
-1.50027323 6.78129721 5.43915224
-1.32416582 6.78708124 5.49580336
-1.54673588 6.74072313 5.57765055
-1.36400366 6.74346066 5.63526487
-1.18047667 6.74924278 5.68610525
-1.40662479 6.71338367 5.77730894
-1.21708417 6.71593857 5.82901335
-1.02537274 6.71914673 5.87209034
-0.99390268 6.75330210 5.72831726
-1.05730999 6.68786287 6.01663923
-1.25449765 6.68620634 5.97261429
-1.02537274 6.71914673 5.87209034
-0.85967922 6.69037390 6.05411816
-1.05730999 6.68786287 6.01663923
-0.88772732 6.65957355 6.19961452
-1.09035230 6.65770006 6.16128159
-0.68422735 6.66200256 6.23140764
-0.70831972 6.63122749 6.37766409
-0.91628951 6.62881708 6.34515762
-0.49940267 6.63374901 6.40347528
-0.51752526 6.60223293 6.55045033
-0.73058593 6.59924889 6.52410841
-0.30297849 6.60411453 6.56901789
-0.31558368 6.56806469 6.71554995
-0.53438497 6.56709576 6.69692516
-0.09514941 6.56796217 6.72521448
-0.10363360 6.52808762 6.87114286
-0.32815829 6.52860594 6.86140156
0.12089816 6.52719355 6.87368441
0.11610805 6.48321724 7.01889849
-0.11235613 6.48457384 7.01630068
0.34431747 6.48173380 7.01454639
0.34455600 6.43297100 7.15873575
0.11271078 6.43448400 7.16305304
0.57592267 6.43176222 7.14773321
0.57990766 6.37904692 7.29097080
0.34487173 6.38121510 7.30223179
0.81524134 6.37789011 7.27075672
0.82258368 6.32042408 7.41215086
0.58361942 6.32316351 7.43321180
1.06050277 6.31886959 7.38540268
1.07109320 6.25665188 7.52492666
0.82965350 6.25980568 7.55252314
1.31067157 6.25473881 7.49230576
1.32567120 6.18676281 7.62942839
1.08322680 6.18937540 7.66250229
1.56982613 6.18617105 7.59041786
1.34287727 6.11447430 7.76347017
1.59222841 6.11392021 7.72236729
1.83922350 6.11517811 7.67135954
1.61586225 6.03748703 7.85081053
1.86758137 6.03840876 7.79803324
2.11897564 6.03730536 7.73519182
1.89925516 5.95774460 7.92036343
2.15553260 5.95595551 7.85525656
2.40878439 5.95252800 7.78107977
2.19090533 5.86820984 7.97036076
2.44879770 5.86472511 7.89454842
2.70454884 5.86322165 7.81167459
2.48761392 5.77202702 8.00326252
2.74727631 5.76975965 7.91828680
3.00364685 5.76881123 7.82464123
2.78835368 5.67211676 8.02047634
3.04822373 5.67124748 7.92561865
3.30447626 5.66950130 7.82244349
3.09078240 5.56911612 8.02208614
3.35071111 5.56772947 7.91715717
3.60704064 5.56636047 7.80525494
3.39437413 5.46177435 8.00823689
3.65419674 5.46174097 7.89606428
3.91026902 5.46174669 7.77685118
3.69819736 5.35180378 7.98147726
3.95614815 5.34990597 7.85837126
4.20773697 5.34404850 7.72404814
3.99898243 5.23392010 7.93539095
4.25363398 5.22930479 7.80091238
4.50362062 5.22534609 7.65884304
4.29661036 5.11109400 7.87367964
4.54936218 5.10739803 7.73015642
4.79756546 5.10353136 7.58021355
4.59215689 4.98679733 7.79861593
4.84316063 4.98329639 7.64787245
5.08912134 4.97924614 7.49021149
4.88515472 4.85992718 7.71134424
5.13372803 4.85565519 7.55197668
5.37583780 4.84990263 7.38459539
5.17339659 4.72843313 7.60859013
5.41815710 4.72278595 7.44033051
5.65667152 4.71646261 7.26396656
5.45592022 4.59248161 7.49118042
5.69656706 4.58591795 7.31349945
5.93203259 4.57929611 7.12954044
5.73233032 4.45298815 7.35898209
5.96974897 4.44618988 7.17442417
6.20182228 4.43857193 6.98309183
6.00301027 4.31054449 7.21445942
6.23524475 4.30176401 7.02085733
6.46049643 4.29142809 6.81934023
6.26475906 4.16327047 7.05517054
6.49014235 4.15198660 6.85178375
6.70877695 4.13924265 6.64076376
6.51587439 4.01094484 6.88057756
6.73574257 3.99775887 6.66905880
6.94908571 3.98382950 6.45066500
6.97422028 3.84086633 6.47635078
6.75964212 3.85535622 6.69510841
7.18056297 3.82488132 6.24972057
7.20258045 3.68002653 6.27178764
6.99532223 3.69662857 6.49889660
7.40248013 3.66270065 6.03835201
7.42441893 3.51713037 6.05998135
7.22357702 3.53506351 6.29414558
7.61782408 3.49876165 5.81957340
7.63730192 3.35201049 5.83804750
7.44313765 3.37085938 6.07946539
7.82674885 3.33421063 5.59295368
7.84480906 3.18677664 5.60909986
7.65400839 3.20503306 5.85512066
8.03229427 3.17047668 5.36042356
8.04965115 3.02249575 5.37478971
7.85966396 3.03932571 5.62377310
8.23023510 3.00665355 5.11981821
8.24708366 2.85814929 5.13259602
8.06356239 2.87469912 5.38807249
8.41005039 2.84122229 4.86450291
8.42031288 2.69173121 4.87170458
8.25769424 2.70947385 5.14207792
8.56658268 2.67440367 4.59287500
8.42613983 2.54259658 4.87690115
8.57374287 2.52469897 4.59725904
8.70866394 2.50764441 4.31221771
8.57607841 2.37529206 4.59942007
8.71199512 2.35726810 4.31405067
8.83972645 2.34096813 4.02619267
8.71209431 2.20728183 4.31512880
8.84039307 2.18983579 4.02692652
8.96126366 2.17537308 3.73701668
8.83841515 2.03912902 4.02750969
8.95858383 2.02390027 3.73682976
9.07267475 2.01214695 3.44435835
8.95506668 1.87303138 3.73728251
9.06909370 1.86066043 3.44415498
9.17425442 1.85225844 3.14818978
9.06299019 1.71003306 3.44320226
9.16817856 1.70127046 3.14634132
9.26406670 1.69631112 2.84660077
9.16059685 1.55110919 3.14386797
9.25637436 1.54585707 2.84310174
9.34316158 1.54225433 2.53948236
9.24675465 1.39626586 2.83833766
9.33423138 1.39235640 2.53396297
9.41183281 1.38924372 2.22696948
9.31962109 1.24366820 2.52661633
9.39648724 1.24041605 2.21876884
9.46253586 1.23751080 1.90793240
9.37766647 1.09266496 2.20970345
9.44313145 1.08973408 1.89809155
9.49911976 1.08651745 1.58398521
9.42151356 0.94286251 1.88834417
9.47719288 0.93947470 1.57337368
9.52417088 0.93439680 1.25595582
9.45292377 0.79344076 1.56429279
9.49957752 0.78762442 1.24636483
9.56357479 0.92670643 0.93660635
9.53811455 0.77904373 0.92724961
9.47306442 0.64136583 1.24066317
9.51047421 0.63159716 0.92215717
9.53811455 0.77904373 0.92724961
9.51047421 0.63159716 0.92215717
9.53608608 0.61924154 0.60436982
9.48000622 0.48406714 0.92418271
9.50327206 0.47138646 0.60674936
9.51807213 0.45802286 0.28859222
9.48324394 0.30994514 0.29817811
9.46888447 0.32394901 0.61468464
9.48799229 0.29617593 -0.01831280
9.45212460 0.14744878 -0.00259839
9.44687939 0.16192923 0.31265330
9.44752121 0.13395679 -0.31788650
9.40999508 -0.01507915 -0.29699641
9.41540813 -0.00123147 0.01666715
9.39188004 -0.02707227 -0.60985816
9.35338783 -0.17612992 -0.58436513
9.37159920 -0.16398399 -0.27249795
9.32366085 -0.18677248 -0.89532638
9.28451061 -0.33564427 -0.86649573
9.31410408 -0.32492909 -0.55647182
9.24432468 -0.34514034 -1.17519188
9.20454597 -0.49367106 -1.14345598
9.24260616 -0.48373196 -0.83527517
9.15420723 -0.50188601 -1.44991326
9.11409950 -0.65000343 -1.41543305
9.16230583 -0.64140779 -1.10960066
9.05116367 -0.65676373 -1.71898997
9.00971127 -0.80372697 -1.68145335
9.07220936 -0.79741949 -1.37870884
8.94020081 -0.81115127 -1.98309958
8.89683056 -0.95717359 -1.94327199
8.96597862 -0.94999641 -1.64282870
8.82019711 -0.96561694 -2.24224687
8.77682018 -1.11124313 -2.20139885
8.85222054 -1.10262930 -1.90303302
8.69157791 -1.12057781 -2.49750471
8.64597797 -1.26442325 -2.45483947
8.73037338 -1.25522935 -2.15944672
8.55013084 -1.27367926 -2.74713373
8.50300884 -1.41602528 -2.70321894
8.59800816 -1.40689945 -2.41162729
8.39693546 -1.42504489 -2.99123836
8.34857941 -1.56609499 -2.94639659
8.45387936 -1.55739605 -2.65931416
8.23338318 -1.57480919 -3.22982883
8.18363571 -1.71416652 -3.18474746
8.29833031 -1.70605397 -2.90209627
8.06126881 -1.72321045 -3.46398306
8.01124001 -1.86128092 -3.41950560
8.13309956 -1.85274982 -3.14083266
7.87964582 -1.86903083 -3.69322729
7.82880354 -2.00572705 -3.64899468
7.95985794 -1.99825394 -3.37590337
7.68840981 -2.01104712 -3.91721749
7.63582993 -2.14503765 -3.87446380
7.77515030 -2.14011025 -3.60592318
7.49008179 -2.14848256 -4.13950014
7.43590164 -2.28013182 -4.09764194
7.58029270 -2.27693367 -3.83237100
7.28419399 -2.28069949 -4.35896587
7.22745180 -2.40942502 -4.31656599
7.37779617 -2.40892673 -4.05545568
7.06947327 -2.40681744 -4.57318258
7.01117754 -2.53327632 -4.52995491
7.16843557 -2.53619099 -4.27419758
