-30.05910000 53.59340000 7.03990000
-31.85770000 54.47230000 16.24350000
-33.64080000 54.54940000 13.35670000
-33.08700000 57.37080000 13.74970000
-30.52730000 58.40440000 17.51400000
-33.01570000 58.50430000 13.73380000
-28.96800000 55.51470000 19.79850000
-31.79900000 59.58430000 15.67120000
-26.29030000 50.07070000 14.43020000
-29.12420000 58.35820000 19.30290000
-29.80940000 60.64340000 18.45690000
-27.67180000 57.18170000 21.02830000
-27.98180000 58.89100000 20.60140000
-29.25040000 62.87890000 19.50210000
-28.08650000 62.28100000 20.75840000
-28.64210000 63.98290000 20.48740000
-25.44090000 63.90060000 23.81370000
-25.23330000 57.11990000 23.49570000
-26.37650000 58.85000000 22.26380000
-25.60700000 61.09120000 23.16830000
-23.85350000 61.05270000 24.73790000
-23.86580000 70.01960000 27.66730000
-24.99830000 70.21590000 26.84160000
-22.51150000 68.88030000 28.11760000
-24.37250000 68.08700000 26.25160000
-26.67930000 66.17330000 23.31950000
-24.10560000 66.11650000 25.70270000
-28.12700000 66.03080000 21.76900000
-21.62670000 70.53540000 29.61340000
-23.13820000 67.77750000 27.14190000
-23.31190000 64.41740000 25.82650000
-21.19310000 66.91310000 28.22040000
-19.78220000 68.28150000 29.71720000
-19.11730000 66.03710000 29.23200000
-22.07510000 64.09700000 26.72620000
-16.59730000 64.88870000 30.27620000
-24.62380000 75.02520000 30.30160000
-21.62810000 75.04520000 32.34330000
-21.95670000 76.10380000 32.65630000
-20.46520000 76.64780000 33.72830000
-22.10770000 77.23340000 32.77090000
-23.62540000 76.69250000 31.71200000
-21.52060000 77.79290000 33.08690000
-20.11880000 75.52110000 33.48460000
-19.30750000 70.92940000 31.32670000
-15.74850000 74.91990000 35.38360000
-16.80140000 70.17260000 32.26360000
-16.00870000 72.02460000 33.59680000
-17.59520000 66.57770000 30.29290000
-15.12420000 67.34850000 31.81120000
-13.31940000 72.68760000 35.10150000
-15.48900000 70.10200000 32.83980000
-12.73100000 71.56410000 34.70730000
-20.44990000 77.77920000 33.74700000
-17.32030000 78.32300000 35.12610000
-20.08380000 78.80970000 33.40600000
-21.46670000 78.63920000 32.72170000
-18.77910000 77.19510000 34.67240000
-18.12790000 76.62410000 34.92400000
-17.59330000 77.18300000 35.26150000
-19.17770000 79.25120000 33.35490000
-17.51690000 78.90400000 34.59410000
-17.30180000 79.50010000 33.80330000
-16.72080000 77.51750000 35.65860000
-16.55970000 79.33120000 34.49080000
-14.85550000 78.30050000 36.23540000
-15.42860000 76.36260000 36.16730000
-14.45300000 77.72380000 36.63000000
-13.76990000 78.87720000 36.23370000
-14.59300000 79.61860000 34.61190000
-17.58470000 79.73210000 32.89420000
-13.32880000 74.97460000 36.44140000
-13.18840000 76.58450000 37.14160000
-12.45040000 79.68840000 34.99340000
-13.19490000 78.49960000 36.76930000
-13.14320000 77.71520000 37.13190000
-17.13070000 79.74540000 32.11620000
-12.53400000 77.14620000 37.40170000
-12.71930000 79.29270000 36.05370000
-11.47380000 79.22370000 36.52430000
-11.82240000 74.89970000 36.89990000
-13.26280000 79.66840000 33.72480000
-15.14610000 79.54110000 32.42960000
-45.00840000 31.85770000 -16.51780000
-44.20620000 32.92150000 -18.19660000
-43.89900000 38.13570000 -7.37520000
-45.60110000 32.59670000 -11.79780000
-44.01730000 37.31250000 -10.27120000
-43.57230000 37.94160000 -12.53940000
-41.86180000 43.68610000 -9.64200000
-44.56760000 34.37980000 -14.42270000
-42.36040000 41.95230000 -2.21880000
-41.43330000 44.78490000 -2.06730000
-41.39300000 43.57230000 0.56160000
-42.27430000 42.81330000 -5.82750000
-41.57460000 44.69950000 -3.17980000
-42.84440000 41.00630000 -8.63610000
-41.60130000 44.89840000 -5.97700000
-41.44450000 44.34250000 -11.92880000
-39.99720000 47.50350000 1.79100000
-39.38230000 50.64050000 0.49740000
-38.29630000 52.57610000 2.85260000
-39.30020000 51.76680000 -0.81360000
-40.28540000 48.75170000 -2.02310000
-38.60300000 53.19610000 1.04890000
-39.27300000 53.17220000 -3.69850000
-40.16360000 49.64930000 -3.75050000
-40.46500000 48.70530000 -5.74730000
-38.59290000 55.53750000 -1.57680000
-41.23730000 45.84240000 -8.55330000
-36.67590000 53.58760000 7.21210000
-35.49980000 55.79630000 9.20710000
-36.21570000 56.81310000 7.20930000
-37.85150000 54.47490000 3.04860000
-37.00590000 55.33610000 5.45580000
-36.50250000 59.28540000 5.91480000
-36.77330000 57.60240000 5.37060000
-37.32760000 58.80010000 3.07400000
-37.73610000 55.98210000 2.58810000
-35.55880000 64.84280000 9.48410000
-34.11880000 64.75840000 12.59080000
-35.37060000 65.63690000 10.35630000
-34.17690000 63.07930000 11.91100000
-32.99930000 60.76640000 13.78390000
-32.56160000 62.99950000 14.90610000
-33.81050000 60.24130000 12.27400000
-34.64810000 57.45370000 10.72060000
-35.60240000 63.16600000 8.79790000
-35.57380000 57.51170000 8.62780000
-35.30460000 61.45640000 9.23290000
-36.50880000 61.54770000 5.97850000
-33.00190000 69.29920000 17.19600000
-31.06770000 68.53440000 19.46720000
-32.27300000 66.98160000 16.75470000
-33.42650000 67.01040000 14.95880000
-31.37740000 67.45790000 18.25580000
-34.25130000 67.32760000 13.68150000
-33.19040000 65.83010000 14.71080000
-30.03720000 65.70780000 19.40750000
-29.36180000 68.19360000 21.39650000
-32.19870000 65.23050000 16.07580000
-31.67630000 63.52600000 16.36860000
-31.40090000 62.12310000 16.47460000
-26.97700000 69.38910000 14.72410000
-26.55190000 72.03200000 16.68500000
-24.90090000 67.85780000 16.46450000
-29.17200000 72.20170000 12.90780000
-28.20540000 66.53750000 10.88300000
-27.42010000 67.01080000 12.46920000
-29.96740000 71.82870000 22.88040000
-32.34870000 71.43210000 19.79270000
-28.24370000 75.09570000 27.24160000
-27.77120000 71.21330000 24.82120000
-27.82500000 69.77900000 23.86950000
-27.13510000 75.37210000 18.48660000
-26.12010000 76.68720000 20.85580000
-23.91150000 73.06290000 20.39980000
-25.96050000 72.87020000 17.97860000
-25.22970000 77.18010000 22.27080000
-22.92860000 76.36830000 23.88190000
-28.69930000 74.14990000 15.21300000
-27.85740000 72.18980000 14.97060000
-22.91310000 72.89560000 21.27730000
-23.71320000 72.15610000 19.99960000
-24.96090000 70.31540000 17.63800000
-21.41930000 70.78310000 21.43520000
-23.40110000 69.50380000 18.89150000
-27.40720000 76.75960000 28.76060000
-27.27870000 77.89430000 28.70890000
-26.88160000 76.18800000 29.07910000
-28.11500000 79.22480000 26.76230000
-25.66450000 78.44330000 29.71020000
-26.09200000 77.36750000 29.87270000
-29.17440000 79.56060000 25.10890000
-25.59340000 76.72370000 30.28660000
-26.67690000 79.50920000 27.54650000
-26.47940000 75.05660000 28.80340000
-25.45030000 77.85850000 30.22680000
-25.23030000 78.74100000 29.79350000
-25.02280000 76.15560000 30.57300000
-25.10970000 77.28060000 30.66350000
-28.35500000 79.84720000 24.91810000
-23.31580000 78.74610000 31.30710000
-24.75910000 79.52370000 29.06870000
-25.83500000 79.81880000 27.38260000
-23.54080000 77.82720000 31.69740000
-27.86150000 79.92390000 24.20220000
-22.34100000 79.30140000 31.35970000
-23.93770000 79.79640000 28.87240000
-25.98390000 79.89800000 25.66580000
-25.14370000 79.62100000 25.47820000
-26.74930000 79.19950000 23.03870000
-22.05100000 79.76690000 30.34980000
-23.49260000 79.85830000 28.08600000
-23.69540000 79.29160000 26.25600000
-24.66600000 78.89400000 24.70590000
-21.60510000 79.83360000 29.55950000
-22.69460000 79.62970000 27.85000000
-25.63330000 78.47190000 23.17370000
-27.71690000 78.87850000 21.40020000
-21.47160000 79.09670000 27.72110000
-21.32870000 79.47280000 28.49530000
-27.09080000 77.85640000 20.86200000
-19.95830000 79.31070000 29.14440000
-18.99030000 79.69890000 30.69560000
-22.08840000 77.74100000 25.72300000
-22.00440000 76.34510000 24.63730000
-18.44590000 78.50250000 29.13150000
-18.88230000 76.84990000 27.35560000
-18.27860000 75.73250000 26.94200000
-20.92620000 72.67650000 22.90350000
-16.60290000 77.36860000 29.27310000
-20.97790000 79.44490000 32.01970000
-20.73840000 79.81200000 30.92270000
-20.17770000 79.70590000 31.80320000
-17.53310000 79.57130000 31.26540000
-16.80460000 79.28930000 31.12760000
-16.21800000 78.56780000 30.51940000
-39.97450000 50.33730000 -7.87640000
-40.71110000 47.16540000 -10.67430000
-39.04160000 54.51530000 -5.34100000
-38.77660000 55.92450000 -5.78700000
-38.47910000 57.88280000 -4.27120000
-39.03340000 54.32630000 -7.73220000
-37.16150000 60.48100000 3.68040000
-37.70850000 59.41710000 1.31620000
-37.59550000 62.77290000 2.67800000
-38.02780000 60.03540000 -0.48170000
-38.10200000 57.50630000 -0.19350000
-38.03330000 61.86440000 0.07250000
-38.23960000 63.96860000 0.43610000
-38.79570000 65.16590000 -1.86290000
-39.11980000 67.63920000 0.07120000
-37.89630000 65.02670000 2.92680000
-38.26490000 59.52430000 -2.35300000
-38.38470000 57.40660000 -2.14660000
-38.41210000 62.36780000 -2.85370000
-38.34680000 60.83010000 -3.43780000
-38.61570000 63.02850000 -6.06290000
-38.43650000 59.05500000 -5.60940000
-37.03110000 69.52970000 9.40070000
-37.80420000 70.38920000 8.21350000
-37.59940000 67.76250000 6.16700000
-36.81970000 67.54260000 8.15280000
-35.36190000 68.02520000 11.96090000
-36.14200000 69.31260000 11.31660000
-38.33130000 67.27890000 3.26550000
-37.19060000 64.96360000 5.15940000
-36.25420000 63.77430000 7.21290000
-38.58140000 68.95340000 4.14550000
-39.14770000 69.55860000 2.50040000
-36.97760000 62.53650000 4.74870000
-39.62850000 69.62880000 0.12720000
-34.95730000 70.35280000 14.61510000
-39.54400000 72.81060000 5.58250000
-33.79580000 77.83310000 10.71950000
-31.91120000 75.91230000 11.72110000
-33.37800000 76.43790000 9.43540000
-33.10450000 74.53850000 7.50870000
-31.78120000 72.26700000 7.94630000
-29.92720000 74.17800000 13.28510000
-31.12330000 73.88310000 10.92530000
-29.75520000 75.71630000 15.10300000
-34.32570000 75.71850000 5.63380000
-30.20480000 72.44500000 11.29260000
-31.83400000 71.17550000 6.60970000
-32.20150000 70.89120000 5.10630000
-30.98890000 70.56910000 8.06700000
-30.21940000 69.41870000 8.88910000
-32.79680000 79.93040000 19.43120000
-36.84080000 79.71160000 13.07600000
-31.98100000 80.01700000 19.22070000
-36.84670000 79.88720000 11.57150000
-35.51820000 79.77780000 12.17150000
-31.50140000 79.86940000 18.70420000
-32.29850000 79.28060000 15.70570000
16.19700000 59.39570000 23.76760000
15.36740000 60.97010000 24.27680000
17.32470000 60.97280000 23.09540000
-30.44520000 79.29250000 18.68840000
-34.00300000 78.91610000 12.22180000
-34.59960000 79.33010000 12.11400000
-29.63420000 78.73780000 18.82720000
-32.12660000 78.36440000 14.43270000
-28.93020000 77.62710000 18.34880000
-29.54140000 79.95190000 23.05490000
-27.62400000 79.64590000 23.07300000
-39.43660000 67.45190000 -2.73690000
-38.95050000 65.50800000 -2.72040000
-39.53240000 67.26650000 -5.05850000
-41.22570000 72.74240000 -6.02300000
-39.41710000 66.75980000 -6.39810000
-39.08520000 65.46060000 -5.90640000
-39.37330000 66.77940000 -7.79870000
-40.23890000 70.05690000 -9.04460000
-40.98050000 75.70930000 4.49340000
-40.05560000 72.38470000 2.48420000
-40.39240000 75.10660000 6.12960000
-41.48920000 76.87450000 3.51590000
-41.68790000 76.36120000 1.60800000
-41.84890000 77.44660000 1.69020000
-42.10240000 77.24820000 0.22480000
-41.93090000 77.95690000 1.04980000
-41.60280000 78.63300000 1.62120000
-42.03280000 76.43420000 -0.85040000
-41.03870000 72.56120000 -3.59510000
-42.50730000 76.54630000 -4.56190000
-42.19710000 75.42170000 -4.79240000
-40.37250000 76.74160000 8.17100000
-39.05060000 79.39500000 9.57410000
-40.39070000 77.87230000 8.21250000
-40.90420000 78.56980000 5.15390000
-40.43690000 76.19200000 7.52170000
-40.99120000 76.80680000 5.88290000
-40.98150000 77.93850000 5.90660000
-38.02190000 79.87370000 9.73120000
-40.41840000 79.08450000 5.57830000
-39.00280000 79.69920000 8.18260000
-41.45680000 78.00460000 3.53270000
-40.09080000 79.45060000 4.96900000
-39.08200000 79.79200000 6.56930000
-37.98890000 79.97250000 8.29010000
-36.76040000 79.89760000 10.21750000
-41.37490000 78.59780000 2.81800000
-40.57990000 79.41980000 2.71180000
-39.55440000 79.73200000 4.33200000
-38.16820000 79.91700000 6.51600000
-36.98000000 79.81070000 8.38940000
-37.02530000 79.58620000 6.82120000
-34.98900000 78.82210000 9.97180000
-40.57710000 79.58390000 1.22850000
-38.20270000 79.76980000 4.96860000
-38.84620000 79.73920000 2.58100000
-40.02310000 79.79220000 0.62260000
-37.17070000 79.30230000 5.08020000
-35.83140000 78.66690000 7.14700000
-38.25240000 79.51660000 1.90220000
-36.72850000 78.59600000 3.88930000
-34.30290000 77.04360000 8.01850000
-36.07490000 77.71880000 3.74520000
-37.77620000 79.16710000 1.13620000
-38.74270000 79.67220000 -0.34490000
-35.43880000 76.52740000 3.21860000
-36.59470000 77.82800000 1.44920000
-34.57280000 75.20690000 3.76480000
-35.64670000 76.39100000 1.79590000
-37.39000000 78.56670000 -1.26810000
-33.88360000 73.00060000 1.92400000
-34.95180000 74.73370000 0.64020000
-36.37600000 77.04310000 -1.07330000
-35.27130000 74.80310000 -1.84150000
-41.50230000 79.25580000 -1.72770000
-41.98690000 78.74760000 -2.15830000
-42.37740000 77.05860000 -2.59890000
-42.29840000 78.18870000 -2.64130000
-40.50410000 79.78500000 -1.62850000
-42.50340000 77.49080000 -3.37590000
-41.91570000 79.25360000 -5.36190000
-41.02500000 79.64460000 -2.44870000
-42.48130000 78.30410000 -6.54640000
-42.59780000 77.12940000 -5.16680000
-42.62870000 77.09290000 -6.57320000
-41.49190000 79.57300000 -4.67950000
-39.77110000 79.89670000 -2.19070000
-40.43940000 80.00280000 -4.49920000
-39.30260000 79.81950000 0.19150000
-42.06990000 74.92250000 -6.89270000
-41.89250000 79.36790000 -6.79640000
-42.45740000 76.04020000 -6.62790000
-42.59930000 77.75310000 -7.14560000
-41.06510000 79.90120000 -5.48660000
-39.23470000 79.83890000 -2.61950000
-38.38060000 79.47540000 -1.28560000
-42.23350000 78.90050000 -7.36450000
-41.43710000 73.43150000 -7.80150000
-42.34900000 77.23150000 -10.60200000
-39.69570000 80.05220000 -4.82280000
-41.42880000 79.79240000 -7.55850000
-42.41740000 78.27460000 -9.14840000
-37.79170000 78.97530000 -1.87580000
-38.67890000 79.63110000 -3.23820000
-42.07570000 78.97750000 -10.13690000
-42.10870000 76.17120000 -10.86450000
-40.41410000 80.11760000 -5.94770000
-38.25970000 79.37610000 -3.83940000
-41.69140000 79.53230000 -9.69780000
-39.21880000 79.97880000 -5.22480000
-41.25060000 73.60860000 -10.48560000
-42.03010000 78.47410000 -12.19050000
-37.22710000 78.22730000 -3.18860000
-7.34870000 -74.48900000 36.78520000
-7.84480000 -74.45690000 35.75890000
-5.32910000 -77.31790000 37.43610000
-4.87750000 -76.21710000 38.51940000
-7.76280000 -75.07620000 34.92370000
-6.40890000 -77.81540000 34.75420000
-8.35910000 -73.87990000 34.04270000
-6.09170000 -77.83540000 35.87950000
-5.50980000 -78.49970000 36.03410000
-5.04710000 -78.67060000 36.46560000
-6.84770000 -76.98430000 33.30720000
-8.85220000 -72.64370000 31.75080000
-5.86430000 -78.68700000 34.72860000
-4.17910000 -78.17700000 37.74610000
-4.13460000 -76.78900000 38.70650000
-3.17810000 -77.37160000 38.84260000
-4.83600000 -79.44070000 35.37610000
-5.88480000 -78.69880000 33.29670000
-7.95660000 -74.22370000 31.68020000
-3.50250000 -78.61980000 37.68540000
-2.65570000 -78.34980000 38.26500000
-4.15390000 -79.23580000 36.51570000
-6.00790000 -77.88300000 31.61730000
-2.20040000 -79.12360000 37.50260000
-3.04970000 -79.79910000 36.21420000
-5.44680000 -79.28280000 33.41230000
-3.92740000 -80.36270000 33.94160000
-3.54830000 -80.25020000 34.88410000
-5.45800000 -79.14670000 32.44680000
-4.39850000 -80.12390000 32.31480000
-4.35980000 -80.19830000 33.27670000
-2.09660000 -79.93820000 36.21660000
-5.64530000 -77.66920000 30.25400000
-1.38610000 -79.28750000 37.27420000
-0.38630000 -78.47170000 38.30330000
-4.87830000 -79.38610000 31.22520000
-2.71500000 -80.80150000 33.67990000
-2.72660000 -80.93320000 32.62490000
-3.68980000 -80.11640000 30.60990000
-0.72590000 -80.27810000 35.35280000
0.94050000 -79.26510000 36.84740000
-3.70880000 -79.35180000 29.29710000
-1.60460000 -80.84520000 33.94460000
-2.84770000 -80.53970000 30.69020000
-4.95210000 -76.27210000 27.37350000
-2.83890000 -79.60860000 28.82400000
1.71410000 -79.91680000 35.27720000
-1.41270000 -81.05970000 32.75420000
-1.88860000 -81.05870000 32.10350000
-1.70020000 -80.86890000 30.81630000
-3.56630000 -78.37210000 27.98250000
0.70990000 -80.41990000 34.62350000
-2.28290000 -79.56260000 28.42100000
-0.81820000 -81.05180000 31.41660000
1.40710000 -78.75040000 37.44410000
-5.67990000 -72.29100000 39.79710000
-4.56360000 -68.78510000 41.66820000
-4.24440000 -72.59790000 40.56430000
-4.70300000 -73.96990000 39.78580000
-3.22610000 -67.87760000 42.35090000
-2.62470000 -70.98530000 41.65050000
-3.25180000 -73.72140000 40.55150000
-3.91630000 -74.55280000 39.95520000
-1.99030000 -66.70540000 42.93910000
-2.41060000 -72.89110000 41.07750000
-1.29920000 -68.84310000 42.33540000
-2.46750000 -76.26020000 39.70180000
-1.51360000 -76.79960000 39.71260000
-0.57480000 -75.89180000 40.22400000
-0.94110000 -72.70540000 41.25100000
0.63850000 -72.31070000 41.16700000
1.96780000 -69.85110000 41.47480000
-1.04480000 -77.53210000 39.30250000
0.05710000 -76.49130000 39.92480000
0.02260000 -77.55520000 39.23140000
0.39530000 -75.35280000 40.30160000
1.26230000 -76.58970000 39.48750000
1.47370000 -73.41620000 40.58630000
-2.80730000 -71.52030000 33.04450000
-2.48930000 -70.99050000 34.33010000
-2.01050000 -72.07220000 33.12470000
1.78540000 -76.04020000 39.46590000
2.66490000 -70.18940000 41.06930000
1.28090000 -77.80430000 38.55860000
-2.01430000 -71.26620000 34.17480000
-2.02040000 -70.36900000 34.79090000
-2.38780000 -71.81020000 32.67040000
-1.77830000 -71.78960000 33.39660000
-30.22030000 56.30170000 -17.81440000
-30.89870000 58.80380000 -15.02350000
-31.01790000 56.62810000 -15.47600000
-1.15160000 -69.44980000 34.83630000
-17.01910000 56.14450000 22.19000000
-18.72570000 56.08890000 20.95960000
-18.93680000 57.32450000 20.65230000
-19.92930000 57.47480000 19.84190000
2.31490000 -76.64100000 38.77730000
2.40390000 -78.05030000 37.53780000
3.34500000 -74.18360000 39.00560000
3.07290000 -71.81450000 40.15610000
-19.72490000 55.05350000 20.35090000
-1.22850000 -70.96720000 33.42220000
-2.71260000 -64.46990000 43.48880000
-1.52100000 -64.11390000 43.65350000
-0.90240000 -66.23570000 43.07200000
0.80270000 -65.00940000 43.24560000
-0.22610000 -60.79190000 44.33840000
1.45010000 -63.31690000 43.54670000
1.85000000 -65.31730000 42.95680000
2.57530000 -65.69790000 42.58920000
3.03490000 -61.42850000 43.47580000
3.43890000 -64.61270000 42.50110000
4.75530000 -61.01440000 42.84420000
3.89650000 -66.42360000 41.65890000
5.17720000 -61.96320000 42.35090000
-10.41190000 -69.82580000 32.15990000
-9.56540000 -71.02940000 34.25700000
-12.27010000 -65.81260000 30.09750000
-10.40430000 -69.66670000 30.96490000
-10.49030000 -68.75600000 29.38430000
-7.72940000 -74.11420000 30.54580000
-7.01360000 -75.16240000 30.14190000
-9.40980000 -68.89500000 26.61220000
-10.77860000 -67.06780000 27.52110000
-7.78630000 -71.05210000 26.08950000
-5.97090000 -73.57840000 25.87430000
-9.25830000 -66.90040000 23.94060000
-8.03770000 -67.46330000 22.86750000
-5.75740000 -72.70660000 24.75760000
-5.14120000 -74.41450000 25.65940000
-5.60740000 -64.30410000 34.72710000
-6.83480000 -59.40460000 35.79740000
-5.52360000 -59.15910000 37.27950000
-7.76580000 -58.78370000 34.96850000
-6.68330000 -63.02810000 33.88350000
-4.49760000 -63.49990000 36.19280000
-5.61970000 -65.29380000 34.02470000
-7.99600000 -61.03980000 32.27570000
-6.25730000 -64.42560000 33.08570000
-7.38440000 -62.57510000 31.63520000
-4.38890000 -68.57220000 33.03810000
-4.00600000 -69.37130000 33.84670000
-3.92580000 -68.73300000 34.54090000
-2.96460000 -69.45600000 35.05030000
-7.27030000 -62.63940000 30.85560000
-3.44930000 -64.28210000 36.55580000
-2.89440000 -61.49750000 37.58000000
-2.48710000 -64.35760000 36.80390000
-3.06270000 -66.37270000 36.11340000
-5.45550000 -66.25890000 31.63460000
-7.07140000 -62.44720000 30.10570000
-2.36790000 -68.91720000 35.50900000
-4.28940000 -68.47080000 32.18720000
-3.08120000 -70.69290000 34.12220000
-3.31540000 -70.78040000 33.10770000
-2.26790000 -66.57070000 36.20660000
-3.51630000 -69.32820000 31.35990000
-1.84070000 -68.55420000 35.61730000
-1.39800000 -66.25790000 36.19300000
-1.24970000 -68.32290000 35.47910000
-1.16900000 -61.85290000 37.47520000
-0.50790000 -62.49290000 37.13450000
-2.94240000 -70.87720000 32.11060000
-5.70990000 -63.56050000 28.25380000
-20.91100000 64.33670000 19.41460000
-22.26690000 65.77560000 18.48600000
-18.91810000 64.92560000 21.28460000
-2.55140000 -70.45480000 30.94940000
-0.09810000 -66.38590000 35.37520000
-4.64830000 -65.78480000 28.87200000
-0.27440000 -65.71710000 35.88670000
-0.94260000 -69.97770000 34.10980000
-3.09000000 -68.79450000 29.52340000
-2.01400000 -71.62560000 32.21710000
1.07420000 -65.62140000 34.20180000
-1.09690000 -70.82150000 32.30440000
-18.18060000 53.66140000 21.85480000
-1.66030000 -71.56600000 32.41780000
-3.07580000 -66.85200000 27.52670000
0.13400000 -67.97400000 33.30860000
-3.20950000 -59.41510000 44.61980000
-2.51520000 -55.86610000 45.40640000
-1.89250000 -59.10460000 44.74950000
1.04160000 -56.29650000 45.00740000
-5.24680000 -58.64100000 37.61300000
-4.62400000 -59.72920000 37.61310000
-6.18170000 -55.89540000 37.86140000
-4.19460000 -59.31800000 37.85600000
-4.58290000 -61.88330000 36.87430000
0.82340000 -58.39960000 44.59110000
-3.33330000 -56.08080000 38.79190000
-5.12990000 -54.97770000 38.69830000
-1.81500000 -58.18010000 38.34950000
-1.81390000 -56.30010000 38.65990000
-0.29870000 -56.10090000 38.39320000
-0.13220000 -54.26200000 38.75030000
-0.64460000 -60.27300000 37.74430000
0.47400000 -58.27320000 37.80030000
4.10940000 -57.25170000 43.83470000
1.76570000 -58.10680000 37.21370000
3.11730000 -55.51480000 37.11050000
3.10250000 -52.77190000 37.66300000
2.34690000 -58.81190000 36.54390000
-0.41650000 -52.76550000 45.83200000
-0.65410000 -55.67620000 45.35290000
0.45330000 -53.11740000 45.69110000
-0.07020000 -47.82110000 46.56530000
1.53100000 -49.38270000 46.04300000
2.10840000 -52.62030000 45.44570000
3.97480000 -49.00850000 45.42390000
3.34700000 -57.41630000 44.11380000
4.57760000 -51.82010000 44.77740000
6.09950000 -51.38550000 44.20540000
6.33170000 -56.83920000 42.87220000
5.78790000 -45.36510000 45.43900000
-13.88330000 -59.00490000 24.42560000
-13.29700000 -59.67670000 23.84190000
-10.78550000 -66.03010000 26.05020000
-11.65050000 -61.61880000 22.43430000
-9.79170000 -66.65250000 24.60600000
-12.16150000 -59.57500000 21.16440000
-12.12360000 -58.47260000 19.75230000
-11.33870000 -59.38940000 19.46650000
-10.51700000 -60.23970000 19.23950000
-8.62510000 -58.57950000 33.26350000
-9.43770000 -55.99660000 33.87460000
-9.16340000 -55.95170000 34.59330000
-10.62090000 -54.36070000 31.38730000
-9.91410000 -56.49450000 30.47640000
-11.51120000 -52.50190000 29.58400000
-8.77120000 -59.30300000 31.47570000
-10.29860000 -54.85110000 28.94960000
-8.49680000 -59.50160000 30.24030000
-7.92140000 -61.42720000 31.07730000
-29.37440000 -70.33800000 -22.28450000
-29.97300000 -69.79810000 -23.27190000
-30.25270000 -70.13540000 -22.35030000
-8.93560000 -55.56550000 25.73210000
-6.98350000 -61.04590000 28.08390000
-7.36560000 -58.68420000 25.93980000
-5.86400000 -61.23420000 26.00890000
-6.76710000 -57.58080000 23.72750000
-7.21800000 -53.15190000 38.08910000
-10.11940000 -53.17960000 34.64270000
-34.95570000 62.28940000 -20.41430000
-33.42820000 61.88150000 -23.48110000
-34.94110000 60.08740000 -20.55100000
-7.16260000 -51.08480000 38.75690000
-8.30420000 -56.07120000 35.92140000
-5.51300000 -49.70760000 39.67520000
-4.50160000 -52.46600000 39.41940000
-2.76810000 -53.83260000 39.23200000
-5.93090000 -44.62170000 40.41980000
-3.00600000 -44.79020000 40.64970000
-4.64220000 -47.72480000 40.08960000
-2.13080000 -50.36260000 39.78960000
-2.18300000 -45.35960000 40.56610000
-1.15270000 -44.91880000 40.52870000
-1.56540000 -41.47490000 41.02700000
-0.69150000 -49.18160000 39.83160000
0.78990000 -49.70100000 39.33390000
1.82660000 -43.90860000 39.95040000
3.13810000 -42.09700000 39.80770000
1.87310000 -49.88430000 38.89450000
-0.29060000 -38.61790000 48.06620000
-0.71230000 -43.42100000 47.21960000
2.16200000 -40.49500000 47.38040000
1.79470000 -45.19190000 46.62040000
0.17360000 -35.01410000 48.93100000
-2.82880000 -39.71940000 41.38510000
2.89610000 -41.71110000 46.99190000
3.18760000 -38.90180000 47.55640000
2.82250000 -35.02290000 48.62420000
3.54020000 -43.87340000 46.43740000
0.19720000 -41.27240000 40.82510000
6.26980000 -39.61120000 46.48390000
5.66820000 -38.40220000 47.00910000
6.10630000 -41.48730000 46.08830000
2.26030000 -38.78250000 40.78740000
3.63690000 -38.02270000 40.48520000
0.53530000 -38.24720000 41.32310000
8.13470000 -37.13800000 46.46070000
1.35700000 -32.59840000 49.39790000
4.05560000 -31.58100000 49.20530000
5.58340000 -32.76270000 48.57980000
7.07500000 -33.61160000 47.91170000
7.49940000 -29.56130000 48.73220000
-14.81160000 -55.37810000 21.25290000
-13.95960000 -54.89320000 18.51120000
-12.86280000 -57.00540000 19.29980000
-14.98350000 -54.31280000 19.92060000
-15.61100000 -52.14440000 17.50380000
-12.59280000 -55.97940000 17.62790000
-14.26750000 -53.24750000 16.60940000
-12.01910000 -57.21050000 18.48220000
-11.32930000 -57.89840000 18.54290000
-10.94250000 -57.17050000 17.50160000
-10.29500000 -58.80890000 18.18220000
-8.58380000 -62.54640000 19.21730000
-8.93820000 -59.84990000 17.27530000
-10.23020000 -56.53220000 15.35610000
-15.90600000 -53.58080000 21.45990000
-15.99370000 -52.68850000 19.85840000
-12.47110000 -49.53790000 27.18640000
-12.29400000 -49.50920000 26.26380000
-11.17560000 -51.51750000 25.71920000
-14.13320000 -44.71750000 24.52900000
-11.09400000 -50.17470000 23.30810000
-9.46830000 -54.91150000 26.17250000
-16.09980000 -51.81950000 18.23820000
-10.72730000 -50.38850000 22.62120000
-11.49000000 -48.82200000 22.16140000
-8.85130000 -53.36960000 22.57840000
-8.39630000 -55.07110000 24.00070000
-9.02230000 -51.77630000 21.03910000
-9.84600000 -49.67880000 19.64220000
-11.13130000 -48.12150000 19.61300000
-8.49860000 -53.23610000 21.94290000
-7.63740000 -54.95000000 22.35410000
-12.27490000 -50.46770000 30.55560000
-14.48610000 -45.03340000 26.91150000
-12.38860000 -50.34070000 29.73600000
-4.20690000 -38.80420000 41.51230000
-4.67780000 -34.43260000 42.33900000
-2.42310000 -35.71620000 42.14450000
-2.50310000 -28.94070000 43.72290000
-1.13350000 -30.58760000 43.34990000
0.15150000 -37.28040000 41.60460000
1.06300000 -29.69350000 43.33340000
1.90030000 -32.76930000 42.43370000
2.62380000 -35.83270000 41.39450000
4.57260000 -30.65210000 42.25270000
3.87190000 -35.11960000 41.20760000
1.64730000 -29.78700000 49.95930000
-3.03800000 -26.23240000 44.28490000
2.65980000 -26.16680000 50.47820000
-0.21350000 -27.32980000 43.98190000
-0.62100000 -23.41610000 44.73040000
0.73030000 -24.90670000 44.31100000
5.12380000 -28.94790000 49.49420000
2.56650000 -27.42870000 43.52660000
2.83560000 -30.27910000 42.85620000
4.74720000 -25.24380000 43.40550000
2.85630000 -22.86030000 44.26120000
1.39400000 -20.52300000 51.40980000
3.00550000 -23.47160000 50.84620000
2.92990000 -21.09070000 51.10920000
2.28690000 -16.71960000 51.47210000
5.60170000 -21.22270000 50.53450000
5.02610000 -23.88620000 50.36470000
4.81230000 -18.45960000 50.89000000
7.68790000 -19.33720000 50.11890000
6.52370000 -23.30140000 50.07190000
7.25920000 -17.21080000 50.32760000
9.10160000 -24.95800000 49.08480000
11.16650000 -22.36580000 48.80860000
-17.53820000 -47.67450000 14.66740000
-17.23830000 -47.78760000 12.93370000
-15.69530000 -49.19270000 11.52410000
-15.78260000 -49.26440000 12.88950000
-18.29970000 -46.87940000 11.99780000
-13.24120000 -51.69640000 12.30940000
-15.88070000 -50.42420000 15.66950000
-14.61570000 -50.59620000 13.18060000
-14.06330000 -51.63810000 14.00880000
-18.18450000 -47.57560000 16.61290000
-16.96060000 -48.39390000 9.56790000
-14.44660000 -50.39840000 11.96500000
-12.59270000 -52.78710000 13.28940000
-12.56390000 -53.79960000 14.78090000
-17.91340000 -48.50980000 18.04010000
-19.08340000 -45.78360000 15.29200000
-17.32150000 -49.03690000 16.98360000
-13.89020000 -43.70960000 21.14650000
-13.45890000 -43.86530000 19.08260000
-14.83990000 -41.92190000 21.01220000
-15.43740000 -40.49600000 18.30480000
-14.09880000 -41.96040000 16.44900000
-11.95690000 -46.61170000 19.15880000
-12.90790000 -44.28750000 17.90120000
-11.36700000 -45.31490000 16.04050000
-11.08080000 -46.18650000 16.86090000
-9.86890000 -47.16060000 16.26040000
-11.87620000 -44.11940000 14.74380000
-16.48440000 -40.27770000 25.33420000
-16.67100000 -39.54820000 23.55170000
-15.79400000 -41.84640000 25.98120000
-15.99660000 -40.66320000 23.32880000
-17.00660000 -38.62850000 21.87820000
-2.10000000 -23.60470000 44.78210000
-1.27040000 -20.28920000 45.24830000
0.19760000 -20.92000000 45.01950000
3.05110000 -20.13310000 44.58990000
-2.52250000 -16.76800000 45.64280000
0.54160000 -14.05150000 51.80010000
-1.78370000 -18.14290000 45.51850000
2.26180000 -14.15400000 51.52790000
-1.70490000 -13.10260000 45.69400000
-1.09710000 -16.52220000 45.55940000
1.86040000 -17.75100000 45.01350000
0.27610000 -13.28860000 45.45010000
0.26130000 -12.32880000 45.43880000
-1.04180000 -12.11810000 45.61200000
3.13240000 -17.15680000 44.78170000
4.37160000 -21.40160000 44.12390000
4.45200000 -19.96800000 44.27230000
6.00100000 -17.35580000 44.06130000
1.09440000 -9.88490000 51.34530000
1.33060000 -12.56770000 51.61610000
2.26370000 -4.28180000 50.41370000
4.24340000 -14.85850000 51.09640000
5.12190000 -6.12480000 50.36800000
5.36290000 -9.10350000 50.62270000
10.37440000 -9.85330000 49.52760000
9.21520000 -4.71480000 49.39070000
5.75340000 -3.90490000 49.96010000
7.64840000 -8.61350000 43.76660000
-36.96830000 -72.40960000 -18.75810000
-38.24280000 -69.59120000 -18.54210000
-36.81090000 -74.62470000 -20.25830000
-38.84190000 -69.42750000 -19.65670000
-37.97940000 -72.35260000 -20.79560000
-36.88920000 -75.48470000 -21.28470000
-36.24550000 -72.43480000 -17.87570000
-34.04940000 -75.26550000 -17.33900000
-35.16930000 -72.64370000 -16.99860000
-36.21720000 -74.65970000 -19.29560000
-35.66910000 -77.97050000 -20.72050000
-34.03940000 -76.93580000 -18.06690000
-36.56580000 -76.82480000 -21.73370000
-34.80850000 -76.91930000 -18.91250000
-37.43340000 -74.56420000 -22.54940000
-33.24070000 -75.94540000 -17.07080000
-34.92120000 -78.29170000 -19.82460000
-36.32440000 -77.80500000 -22.90460000
-35.79160000 -78.60570000 -21.95090000
-33.95600000 -78.40760000 -18.85790000
-37.22550000 -75.10480000 -23.36900000
-36.42100000 -77.35000000 -23.94710000
-37.43490000 -73.22730000 -25.04050000
-33.31880000 -77.51330000 -17.85950000
-35.53620000 -79.05790000 -22.35430000
-35.18700000 -79.29770000 -23.78910000
-34.15550000 -79.69810000 -20.33160000
-34.06980000 -80.35100000 -21.62560000
-36.10250000 -67.98340000 -15.16740000
-36.85660000 -69.64160000 -16.74160000
-32.74750000 -65.24790000 -11.20330000
-35.68640000 -65.20500000 -13.34700000
-33.22850000 -69.58810000 -13.82660000
-34.22140000 -71.07480000 -15.44500000
-37.61990000 -69.61310000 -17.59900000
-32.23330000 -74.17410000 -15.77850000
-31.32820000 -71.71410000 -13.90090000
-31.80180000 -75.29450000 -16.08290000
-30.39540000 -75.36880000 -15.56320000
-29.06740000 -69.08690000 -11.74000000
-33.38610000 -62.46230000 -10.04360000
-32.73380000 -61.35080000 -9.09480000
-35.00000000 -58.12530000 -8.73150000
-35.11570000 -61.88540000 -10.93210000
-31.53190000 -62.88290000 -9.40640000
-31.54220000 -65.26580000 -10.62070000
-30.32890000 -59.54600000 -7.39620000
-27.94300000 -62.42030000 -8.22340000
-28.98410000 -65.61220000 -9.98390000
-27.88220000 -68.91500000 -11.35800000
-31.85030000 -57.03010000 -6.69100000
-31.30170000 -55.77590000 -5.84100000
-27.58420000 -58.57320000 -6.27430000
-28.21180000 -56.65960000 -5.43480000
-27.94500000 -56.04200000 -4.99300000
-31.74760000 -54.01970000 -4.94080000
-27.72430000 -53.26170000 -3.05640000
-26.53250000 -53.10830000 -2.65830000
-30.33110000 -51.61120000 -2.60900000
-23.71250000 -55.79850000 -3.95790000
-24.94740000 -59.89660000 -6.39140000
-25.16580000 -46.11330000 4.22820000
-24.45420000 -48.23810000 2.28550000
-23.67440000 -47.46270000 3.53550000
-28.54690000 -48.85790000 0.29110000
-22.50910000 -49.73790000 1.48390000
-23.61130000 -53.03310000 -1.93000000
-28.41100000 -50.44850000 -1.04210000
-21.01020000 -51.63870000 0.10810000
-21.17930000 -49.19870000 2.66230000
-20.94080000 -54.79360000 -2.88200000
-22.65190000 -43.13150000 11.26200000
-23.93580000 -43.72960000 8.58780000
-23.43400000 -42.20510000 11.55420000
-20.99820000 -44.82000000 10.82560000
-22.15040000 -42.71970000 12.84350000
-21.71060000 -42.73700000 13.90870000
-23.56970000 -46.20180000 5.24070000
-24.34990000 -44.43630000 7.04550000
-26.43130000 -44.36350000 5.28580000
-22.09090000 -45.40280000 8.03920000
-19.50080000 -46.36710000 10.13380000
-19.97110000 -45.22480000 12.40430000
-20.56620000 -45.98870000 9.06470000
-18.77910000 -46.61540000 11.26350000
-19.22090000 -45.57710000 14.25320000
-23.24500000 -47.15140000 4.22140000
-19.18910000 -47.63250000 7.47300000
-19.82770000 -47.65470000 6.59060000
-20.21500000 -48.67160000 4.07490000
-18.18110000 -49.24210000 4.77500000
-14.36080000 -50.44030000 7.67750000
-21.60880000 -31.76750000 15.78250000
-14.95830000 -40.40990000 13.08360000
-18.99430000 -35.43330000 13.31490000
-17.69010000 -36.95980000 17.79980000
-14.76540000 -40.62240000 14.98800000
-18.74640000 -35.32850000 15.51050000
-15.16230000 -40.05050000 14.17520000
-17.63280000 -36.79500000 15.87940000
-19.58460000 -35.07680000 12.24400000
-17.49120000 -38.38920000 10.33080000
-16.05880000 -39.52070000 11.52520000
-13.65410000 -41.91020000 14.23150000
-18.92700000 -37.73220000 8.74890000
-16.34540000 -39.93900000 9.17230000
-15.30090000 -40.42250000 11.06820000
-19.39130000 -34.54520000 19.11120000
-20.52300000 -32.95030000 16.99790000
-4.29920000 -9.33780000 45.24960000
-1.69160000 -4.53680000 44.46200000
-0.35490000 -8.18170000 45.08450000
0.95270000 -8.49970000 45.00920000
3.12180000 -8.55250000 44.68510000
-1.38170000 0.20890000 49.33060000
-2.56360000 -3.32690000 44.17480000
2.86820000 -2.11070000 49.95780000
2.43640000 0.40160000 49.36620000
1.51430000 -3.77620000 44.30750000
2.03880000 -0.94270000 43.70520000
1.87700000 0.66270000 43.30380000
3.77610000 -4.45000000 44.15370000
3.68580000 -1.92870000 43.77090000
4.91310000 2.21130000 42.70720000
6.78440000 -3.29460000 43.48150000
0.23910000 6.84190000 47.65980000
3.58840000 -0.86850000 49.64950000
2.95920000 2.53950000 48.77530000
5.45320000 -1.41730000 49.57460000
6.50310000 3.01960000 48.41410000
6.50970000 6.76050000 47.53560000
7.94580000 -1.11530000 49.05550000
-39.01240000 -70.08870000 -21.43510000
-40.43200000 -66.67850000 -21.76770000
-38.98630000 -70.13450000 -22.89920000
-41.11350000 -64.97500000 -21.95250000
-40.76250000 -65.31410000 -24.00550000
-41.12660000 -64.76830000 -23.07450000
-38.70090000 -70.34390000 -23.91960000
-40.34440000 -65.75870000 -24.84720000
-41.03420000 -63.76580000 -24.66510000
-38.61420000 -69.17980000 -25.25180000
-39.56160000 -65.62080000 -26.59110000
-37.96930000 -70.23630000 -25.76440000
-41.40510000 -58.90190000 -16.91220000
-40.43750000 -63.94950000 -18.33530000
-40.80890000 -58.38800000 -15.26900000
-39.78530000 -61.21000000 -15.32420000
-40.91380000 -63.92190000 -19.37320000
-41.50350000 -62.21940000 -19.62260000
-38.41080000 -65.69990000 -16.31850000
-38.21320000 -60.70330000 -12.95840000
-37.37640000 -65.17750000 -14.94540000
-39.02740000 -67.89480000 -18.66810000
-41.53580000 -63.08080000 -20.68160000
-40.93110000 -65.01320000 -20.73290000
-41.56040000 -63.27410000 -22.30490000
-39.02340000 -58.46590000 -12.38090000
-38.23070000 -58.47330000 -11.55140000
-37.39080000 -56.27280000 -9.34580000
-39.93010000 -59.54190000 -14.51670000
-36.23660000 -60.10350000 -10.74780000
-37.40340000 -60.72310000 -12.13370000
-34.21560000 -56.26370000 -7.40490000
-33.31620000 -51.93990000 -13.82820000
-32.07140000 -54.77930000 -14.59840000
-34.21740000 -54.23450000 -16.12580000
-33.63790000 -56.48420000 -16.98820000
-34.43160000 -56.64530000 -18.15970000
-33.98710000 -54.09330000 -6.08570000
-32.27650000 -53.00100000 -4.46260000
-31.12900000 -50.87600000 -2.35640000
-31.34400000 -48.97300000 -10.96070000
-30.45350000 -49.74570000 -10.96980000
-32.59700000 -49.41310000 -11.98860000
-29.43360000 -52.20360000 -11.94120000
-29.36700000 -46.59860000 -8.16480000
-28.34440000 -46.81030000 -7.88590000
-28.80250000 -50.13580000 -10.51460000
-30.88340000 -53.47220000 -13.24950000
-27.21030000 -49.55510000 -9.54360000
-27.95700000 -45.85000000 3.04350000
-27.53950000 -47.39290000 1.92610000
-26.07870000 -41.38810000 -2.44040000
-29.09830000 -42.54860000 -4.78340000
-28.33770000 -39.45000000 -2.02990000
-27.45250000 -44.81830000 -5.91920000
-25.16650000 -43.06170000 -3.54790000
-22.16160000 -46.49780000 -5.71140000
-27.54980000 -42.28510000 6.58170000
-27.12120000 -45.01110000 4.18490000
-26.03670000 -39.17570000 -0.54880000
-26.75720000 -35.95710000 1.80450000
-25.40870000 -37.70170000 1.21580000
-24.58770000 -37.14330000 2.44860000
-27.85140000 -36.06760000 0.90070000
-23.27640000 -37.65890000 3.15960000
-24.24260000 -40.62160000 -0.83790000
-23.67510000 -38.88990000 1.34240000
-22.26100000 -37.23480000 4.76650000
-22.60760000 -38.40990000 2.92460000
-20.72510000 -38.70050000 4.55850000
-21.99540000 -40.96610000 0.14050000
-20.90030000 -43.42170000 -2.22460000
-19.29800000 -41.38020000 1.78120000
-25.26490000 -29.21090000 11.62210000
-24.64580000 -30.96250000 9.94550000
-26.49220000 -30.23970000 8.19870000
-20.01620000 -34.93570000 11.45320000
-22.48280000 -30.89990000 14.99250000
-20.50160000 -36.81030000 7.80000000
-26.40500000 -32.73140000 5.31590000
-20.28960000 -35.26720000 10.34590000
-20.64650000 -37.87030000 5.96900000
-17.91390000 -39.76650000 6.39280000
-5.47880000 -0.75410000 43.16750000
-3.56250000 -2.16250000 43.81230000
-3.54550000 3.09340000 42.40240000
-6.07110000 7.72700000 40.65340000
-2.16320000 5.61410000 41.83140000
1.57160000 2.89240000 42.68910000
0.15490000 7.05820000 41.58870000
-3.15610000 8.58750000 40.84560000
-1.62910000 -57.12310000 20.78790000
-3.14450000 -56.00070000 19.76940000
-1.91640000 -58.25930000 21.38440000
-3.16730000 12.42510000 45.82180000
-0.62180000 10.96990000 46.46620000
1.32850000 10.96500000 46.54910000
0.47920000 16.99910000 44.96630000
3.30240000 10.47850000 46.67350000
1.66020000 17.56800000 44.87780000
1.35050000 10.16260000 40.75930000
-1.29690000 10.60330000 40.51020000
3.96240000 9.61560000 40.91030000
5.99180000 11.13360000 46.43090000
5.93110000 16.65140000 45.06210000
4.33580000 6.94320000 41.62210000
-39.87310000 -63.94740000 -27.04090000
-40.96770000 -62.30890000 -25.67490000
-41.95940000 -60.33630000 -19.73430000
-43.08630000 -55.97790000 -20.46180000
-42.63050000 -56.59200000 -18.75490000
-43.34910000 -54.30650000 -19.57500000
-43.66820000 -53.16950000 -20.65680000
-43.17130000 -55.93980000 -21.74850000
-43.50030000 -53.64560000 -22.81920000
-42.87970000 -56.47130000 -24.00490000
-42.49590000 -58.77190000 -21.58610000
-43.92340000 -50.88780000 -20.45650000
-42.05470000 -60.67280000 -22.87620000
-43.07720000 -54.72620000 -24.46010000
-42.52450000 -57.05660000 -24.97140000
-42.92050000 -54.13630000 -25.21060000
-41.88650000 -56.91890000 -26.61870000
-41.98140000 -58.41740000 -25.65550000
-42.52990000 -53.71540000 -26.33680000
-41.62700000 -54.51610000 -27.93700000
-40.61410000 -61.78400000 -26.62120000
-41.28710000 -57.31410000 -27.50880000
-41.12520000 -54.80710000 -28.64380000
-40.48490000 -56.84550000 -28.85780000
-40.13430000 -54.29510000 -30.04920000
-39.15300000 -61.62460000 -28.78740000
-36.78000000 -50.38930000 -18.37200000
-37.56070000 -45.49600000 -16.53410000
-37.02740000 -47.44700000 -16.39230000
-36.86250000 -46.68190000 -15.09010000
-35.90930000 -53.50080000 -18.63930000
-36.95620000 -52.25890000 -21.19600000
-37.59000000 -47.93160000 -19.83310000
-36.23410000 -47.77910000 -14.71650000
-37.24870000 -50.83650000 -21.56060000
-34.55350000 -50.26780000 -14.03560000
-37.87690000 -45.64320000 -19.36740000
-35.00350000 -50.35320000 -14.65760000
-35.70450000 -49.99390000 -15.49630000
-35.00280000 -53.85740000 -16.96770000
-37.26120000 -49.97430000 -22.48890000
-37.88910000 -45.35050000 -20.54630000
-36.31050000 -54.98510000 -21.50850000
-37.15780000 -48.22760000 -23.37270000
-35.14270000 -56.20160000 -19.03150000
-35.16820000 -57.96880000 -20.38540000
-36.95070000 -52.00150000 -23.21320000
-35.80240000 -57.63810000 -22.33760000
-35.75190000 -57.49490000 -21.61830000
-36.48360000 -54.52090000 -23.34090000
-36.63550000 -42.96220000 -11.23290000
-38.00280000 -39.21920000 -10.27210000
-37.59420000 -39.14750000 -9.56280000
-36.79750000 -40.72790000 -9.77360000
-38.51680000 -38.27850000 -10.62530000
-37.66910000 -43.92670000 -14.60050000
-35.43400000 -42.37520000 -9.58200000
-34.19370000 -47.88420000 -11.97830000
-33.40550000 -46.52970000 -10.64170000
-33.45740000 -44.22910000 -9.12010000
-35.53950000 -46.31670000 -12.28920000
-37.99900000 -43.95090000 -16.88200000
-30.60710000 -45.04800000 -7.64690000
-33.71880000 -50.67680000 -13.45970000
-36.16290000 -40.05670000 -8.67390000
-37.21020000 -36.86410000 -7.46720000
-34.77950000 -38.79790000 -6.15060000
-33.37540000 -38.70130000 -4.82890000
-33.03500000 -41.06520000 -6.31830000
-31.33470000 -42.41490000 -6.01830000
-33.06970000 -34.74840000 -1.84070000
-30.42110000 -41.72570000 -4.88760000
-29.19580000 -38.94590000 -2.13560000
-28.91330000 -33.92360000 1.80940000
-7.30850000 9.61180000 39.83040000
-7.75240000 12.13870000 39.04010000
-8.31440000 15.29500000 38.04090000
-4.12520000 11.69460000 39.84980000
-5.40070000 19.56240000 43.75860000
-4.31240000 19.33200000 43.96930000
-5.15550000 18.34600000 38.04630000
0.68870000 19.70390000 44.36840000
-2.75500000 14.35720000 39.34360000
-0.56140000 17.04560000 38.89140000
-0.82900000 20.10290000 38.18360000
1.18900000 17.04920000 39.00740000
-1.26970000 24.34580000 42.96400000
-0.58240000 21.15120000 43.92120000
1.05150000 22.85150000 43.58030000
3.13580000 21.95460000 43.85050000
3.15880000 26.48060000 42.56090000
-43.70190000 -49.67170000 -23.25230000
-43.32010000 -51.08540000 -24.49770000
-42.84540000 -48.29690000 -26.61830000
-43.31390000 -47.90560000 -25.46750000
-42.05790000 -48.31120000 -28.36970000
-42.48580000 -48.01400000 -27.54410000
-41.14470000 -48.09260000 -29.91750000
-40.33970000 -51.23240000 -30.24800000
-44.52580000 -46.13180000 -20.23840000
-44.22000000 -48.34660000 -19.85160000
-44.36610000 -45.33720000 -22.93320000
-43.99410000 -48.09670000 -22.46900000
-45.75720000 -39.16030000 -23.39980000
-45.01640000 -41.51350000 -23.81250000
-44.57810000 -42.38500000 -24.64590000
-44.31020000 -41.98230000 -25.70620000
-43.64200000 -44.25780000 -26.23080000
-43.42130000 -42.78590000 -27.31390000
-38.15060000 -43.96780000 -19.61660000
-38.12850000 -43.85050000 -18.49620000
-42.57080000 -42.52860000 -28.94910000
-38.33130000 -42.18430000 -21.81540000
-38.04100000 -43.00050000 -22.52880000
-37.46140000 -46.46300000 -22.74540000
-38.61680000 -38.82080000 -23.80340000
-38.14460000 -40.14860000 -24.23420000
-37.33280000 -45.40340000 -23.79930000
-40.97590000 -32.54290000 -13.74640000
-39.02340000 -38.32610000 -12.45490000
-39.31900000 -38.65780000 -14.33170000
-39.95530000 -37.28160000 -15.67190000
-40.88150000 -34.46350000 -16.69380000
-40.07610000 -37.13530000 -16.53190000
-40.39110000 -36.11860000 -17.49310000
-39.49540000 -38.76270000 -18.29000000
-41.25300000 -32.77920000 -19.18950000
-38.59390000 -42.04520000 -18.74880000
-39.29180000 -38.76080000 -20.43110000
-40.31420000 -34.70250000 -21.46670000
-38.89450000 -39.43640000 -22.11740000
-6.84910000 18.12100000 37.74850000
-9.04030000 23.51550000 35.37850000
-5.80270000 22.12680000 36.81540000
-8.04480000 27.82920000 34.39880000
-4.77410000 21.24540000 37.31040000
-4.03460000 26.89050000 35.71320000
-6.06730000 27.35500000 35.09380000
-1.61670000 23.90070000 37.04230000
-4.51630000 28.97070000 41.07790000
-3.09610000 27.62020000 41.72250000
-6.57880000 33.22230000 39.45130000
-2.40510000 33.70650000 40.04960000
-1.49010000 29.68360000 41.34490000
0.70250000 30.69630000 41.15960000
-1.40500000 33.89250000 40.13760000
2.70980000 30.70670000 41.22800000
0.31450000 35.04290000 39.92370000
-47.29250000 -33.44190000 -24.11120000
-45.95540000 -36.84500000 -25.11070000
-46.99270000 -33.47650000 -25.12160000
-46.85870000 -30.60610000 -27.79100000
-44.27280000 -40.51740000 -26.67480000
-44.79240000 -36.94890000 -27.75850000
-46.45750000 -30.61770000 -28.64370000
-44.94410000 -34.79760000 -28.77560000
-43.28290000 -40.57570000 -28.50640000
-43.50840000 -34.72360000 -31.03500000
-42.02670000 -39.41390000 -30.95890000
-42.06550000 -42.83090000 -29.66140000
-48.26340000 -28.36500000 -25.43400000
-41.73110000 -31.35310000 -18.46530000
-42.00380000 -29.78520000 -20.00840000
-41.09920000 -31.56060000 -22.38570000
-42.35670000 -27.76810000 -21.08650000
-41.28580000 -29.79750000 -23.68430000
-39.93670000 -33.90320000 -24.00000000
-39.65350000 -33.91230000 -24.76520000
-41.17190000 -27.53580000 -25.85310000
-40.60120000 -28.07760000 -26.74720000
-38.79750000 -36.61690000 -24.87150000
-39.11000000 -33.38810000 -26.15050000
-43.03520000 -25.94150000 -17.62290000
-42.77610000 -26.76170000 -19.76960000
-43.43900000 -22.57480000 -21.77000000
-12.50770000 28.00470000 32.68850000
-13.20160000 30.90510000 31.33960000
-9.40440000 29.57100000 33.46150000
-9.32380000 34.15290000 32.20150000
-12.47090000 34.40800000 30.77860000
-9.12290000 34.41890000 38.47840000
-10.10010000 37.90120000 37.09080000
-7.36060000 38.11280000 37.77420000
-4.12010000 38.11450000 38.40280000
-4.26480000 36.70610000 38.76970000
-7.82680000 36.11910000 32.04850000
-6.45960000 32.50920000 33.54340000
-3.18330000 31.87150000 34.41000000
-5.12760000 36.93390000 32.43740000
-1.44220000 36.54490000 33.21620000
-1.87300000 33.59010000 34.13080000
-2.26760000 31.57590000 34.64670000
-0.25440000 37.42590000 39.12730000
-4.55010000 44.37390000 36.79390000
-0.57270000 39.12020000 38.67990000
-1.05980000 41.41560000 37.99540000
-45.32610000 -29.24600000 -31.28290000
-44.64010000 -30.35490000 -31.74010000
-42.36950000 -34.41530000 -32.79590000
-47.50950000 -26.56760000 -28.64990000
-48.13240000 -24.86370000 -28.07570000
-48.05530000 -22.17640000 -29.34140000
-46.84010000 -25.24060000 -30.53370000
-46.48510000 -27.78920000 -30.06900000
-46.47910000 -24.43710000 -31.42300000
-42.72220000 -24.62800000 -23.17640000
-42.16880000 -23.72130000 -25.73290000
-44.89440000 -25.18870000 -33.42860000
-41.28160000 -23.17750000 -27.88060000
-42.07480000 -22.40740000 -26.62570000
-40.14400000 -26.24880000 -28.44990000
-43.54130000 -27.43260000 -34.36890000
-40.68670000 -22.26520000 -29.18990000
-44.22480000 -20.24950000 -18.92350000
-44.77000000 -16.18520000 -20.93500000
-43.94930000 -21.18830000 -20.01490000
-44.01200000 -18.21640000 -23.41820000
-44.86080000 -14.29730000 -22.12060000
-44.23840000 -16.47640000 -23.65200000
-43.63920000 -17.56670000 -25.00370000
-43.62580000 -19.51670000 -23.94800000
-43.16570000 -15.87680000 -26.75660000
-14.20350000 36.57400000 29.33370000
-14.50600000 41.71270000 27.71710000
-13.55390000 40.75410000 28.52590000
-12.51600000 40.74590000 29.02000000
-10.77870000 36.67700000 30.82620000
-10.30090000 45.53040000 35.14010000
-8.93200000 37.19070000 31.36720000
-9.81640000 44.70160000 29.14060000
-12.76710000 45.72540000 27.48680000
-8.64790000 46.56600000 29.11990000
-7.29550000 38.36780000 31.54510000
-6.97600000 47.81460000 29.31050000
-4.46260000 43.99690000 30.81570000
-3.94930000 40.57580000 31.74330000
-9.63700000 47.80830000 34.77690000
-7.72050000 48.09110000 35.24700000
-7.15910000 45.34910000 36.02860000
-5.61900000 48.38130000 35.58410000
-5.73750000 53.77740000 34.11540000
-1.01280000 46.22180000 36.76430000
-3.36660000 52.47860000 34.81040000
-1.75250000 49.51520000 35.83150000
-49.30900000 -17.89190000 -28.17830000
