35.03780000 58.30830000 -9.28240000
34.71530000 58.77450000 -9.35530000
34.08530000 58.10530000 -9.53710000
35.52100000 58.90800000 -9.25400000
35.64620000 59.28090000 -9.20430000
36.01020000 59.22900000 -9.16380000
36.15410000 59.76900000 -9.09550000
36.48100000 59.58710000 -9.07840000
35.51540000 58.50490000 -9.22020000
36.20410000 59.08230000 -9.11480000
36.91740000 59.51560000 -8.96210000
35.00610000 54.70830000 -6.38080000
34.72690000 54.69840000 -6.93050000
34.35430000 54.99260000 -7.65890000
34.41270000 55.06230000 -7.55160000
33.97290000 55.30510000 -8.40650000
33.58950000 55.63450000 -9.13480000
33.87310000 55.56230000 -8.65740000
34.87020000 54.34130000 -6.82780000
34.29530000 54.89090000 -7.86050000
33.71240000 55.29510000 -9.05980000
32.45810000 53.82330000 -11.04010000
32.12630000 54.24460000 -11.03580000
32.49900000 54.40240000 -10.63810000
32.80030000 54.15850000 -10.54170000
32.87950000 54.55160000 -10.21560000
33.15950000 54.69490000 -9.86580000
33.46520000 54.27020000 -9.87170000
32.75390000 54.91570000 -9.99110000
32.28200000 54.62320000 -10.62970000
31.74490000 54.42230000 -11.19850000
33.43930000 54.58560000 -9.62160000
33.27020000 54.92630000 -9.68280000
33.36290000 55.16660000 -9.52220000
33.49010000 55.03980000 -9.43320000
33.44870000 55.41050000 -9.37090000
32.95660000 54.94770000 -9.89740000
33.18120000 55.26540000 -9.61610000
32.39920000 55.42890000 -10.05270000
32.51720000 55.66920000 -9.89040000
32.87960000 55.67670000 -9.63730000
32.90970000 55.48840000 -9.66460000
33.24340000 55.67190000 -9.39750000
33.22430000 55.47340000 -9.47710000
33.49840000 56.01930000 -9.32770000
32.93020000 55.92240000 -9.64670000
32.43760000 56.05420000 -10.02080000
32.19710000 56.51920000 -9.94480000
32.09620000 56.80770000 -9.89960000
32.46910000 56.85430000 -9.87410000
33.04710000 56.83710000 -9.85300000
-49.87410000 41.49520000 -1.95500000
-49.38140000 42.57000000 -3.54930000
-49.23930000 41.84120000 -4.56420000
-48.73120000 42.47070000 -5.55220000
-49.26740000 41.32740000 -5.23070000
-49.71050000 40.79860000 -4.26350000
-48.52920000 42.19500000 -6.21760000
-48.16270000 43.05910000 -6.05330000
-47.59620000 43.60860000 -6.58180000
-47.96070000 42.76910000 -6.74220000
-48.88380000 43.18140000 -4.52660000
-46.96120000 43.81010000 -7.20130000
-47.33410000 42.91800000 -7.32960000
-47.81870000 45.16330000 -6.37290000
-48.38970000 44.58090000 -5.83180000
-46.36970000 44.58210000 -7.41390000
-47.00500000 44.42070000 -6.82060000
-47.81110000 47.10690000 -2.00790000
-47.52050000 47.37190000 -1.19760000
-47.49600000 47.65850000 -1.50300000
-47.51470000 47.91680000 -1.82810000
-46.95760000 47.71740000 0.87780000
-46.72020000 47.64020000 0.37910000
-47.37520000 47.16560000 0.33970000
-47.12290000 47.73010000 1.21220000
-46.94480000 47.57250000 -0.10130000
-47.19160000 47.45290000 -0.41290000
-47.30140000 47.45530000 -0.82480000
-47.70000000 47.02230000 -0.49000000
-41.93800000 48.27710000 -4.69990000
-42.23700000 47.88290000 -6.46020000
-30.73210000 56.82230000 -6.24270000
-31.76740000 55.46520000 -6.11460000
-48.51340000 41.32200000 6.23140000
-48.15050000 41.28740000 6.88260000
-47.28710000 42.58780000 7.31310000
-47.62380000 42.61230000 6.73320000
-48.44080000 41.99500000 5.65770000
-33.57560000 55.82620000 -2.05460000
-33.67430000 55.34090000 -2.23890000
-33.71930000 55.32220000 -1.02060000
-33.71530000 55.29480000 0.48170000
-33.66820000 55.82240000 -0.82940000
-47.44230000 43.69430000 6.62460000
-46.64170000 43.91270000 6.96380000
-45.62990000 45.18000000 7.22500000
-46.46950000 44.92300000 6.86770000
-46.29310000 43.86960000 7.58580000
-46.19670000 45.94830000 7.05560000
-45.30180000 45.86360000 7.15390000
-44.92630000 46.56170000 7.08390000
-45.82160000 46.68900000 6.99150000
-45.25510000 47.45500000 7.08700000
-45.58730000 48.28540000 7.09940000
-46.14550000 47.55140000 6.99330000
-45.15430000 56.11070000 5.24030000
-44.79600000 58.08710000 4.79220000
-45.84140000 56.39600000 4.92150000
-46.21430000 54.45710000 5.36690000
-45.55530000 54.17920000 5.68520000
-45.10180000 55.45890000 5.34620000
-44.70890000 57.41090000 4.90540000
-30.92160000 57.85700000 7.77280000
-31.59200000 59.29750000 7.45150000
-31.44350000 57.94870000 7.65170000
-30.76090000 56.53530000 7.98870000
-30.23670000 56.40340000 8.10830000
-30.02450000 57.75150000 7.69690000
-29.82640000 59.09040000 7.24350000
-30.71650000 59.19740000 7.34480000
-29.45570000 58.32230000 7.68990000
-29.65270000 57.04950000 8.09710000
-35.32260000 61.33490000 5.86380000
-34.60220000 61.97870000 5.98900000
-37.30120000 61.68280000 5.46020000
-40.02550000 61.44720000 4.92180000
-38.00350000 61.05640000 5.33140000
-30.32680000 54.30940000 9.70710000
-29.72630000 55.20830000 9.26200000
-30.49020000 54.63890000 9.00030000
-41.29210000 48.78330000 2.75050000
-41.68500000 48.64000000 1.68710000
-41.81390000 48.73330000 1.95070000
-41.85760000 48.82930000 2.30260000
-42.02360000 48.90570000 2.43670000
-42.07440000 49.01610000 2.76300000
-41.52080000 48.93770000 3.31200000
-42.01950000 49.06410000 3.19760000
-41.86370000 48.99500000 3.70110000
-41.78120000 48.86580000 4.51190000
-41.33310000 48.88860000 4.19840000
-42.12680000 49.31190000 3.70000000
-42.18290000 49.33840000 3.37970000
-33.08260000 60.61240000 6.71480000
-33.65650000 60.75550000 6.54680000
-32.13620000 59.42990000 7.27080000
-33.06900000 61.69190000 6.29190000
-31.58740000 60.37030000 7.00400000
-41.90310000 48.50770000 0.88320000
-41.18190000 48.85030000 1.28270000
-41.92510000 48.47420000 0.25370000
-41.31530000 48.74620000 -0.41080000
-42.29660000 48.35220000 -1.25780000
-42.17960000 48.36750000 -0.43220000
-40.74850000 60.10090000 4.88340000
-42.37810000 59.77620000 4.85170000
-43.11700000 58.43840000 4.82260000
-43.63570000 59.74550000 4.50330000
-41.24860000 61.39190000 4.58540000
-44.70900000 45.68080000 7.49660000
-44.33180000 46.39430000 7.41570000
-43.66520000 46.71190000 7.36910000
-43.58200000 47.22350000 6.96860000
-44.23990000 46.90970000 7.02270000
-44.45550000 47.43850000 6.91670000
-44.80340000 48.28300000 6.92180000
-43.76870000 47.74380000 6.86450000
-42.99060000 47.66880000 6.58080000
-42.39240000 48.12950000 6.18030000
-43.18870000 48.20310000 6.46150000
-42.86590000 47.37760000 7.13130000
-42.24910000 47.85120000 6.74600000
-42.53400000 48.43280000 5.99610000
-42.09470000 48.50240000 5.35230000
-42.22710000 48.79140000 5.16350000
-41.71980000 48.29990000 6.22520000
-41.38530000 48.68870000 5.35210000
-42.15210000 49.36340000 4.26740000
-45.40640000 49.49760000 6.95090000
-44.58880000 49.48280000 6.77320000
-45.21660000 50.74910000 6.82460000
-45.99300000 48.89440000 6.99020000
-45.82560000 50.12900000 6.84720000
-45.67680000 51.72910000 6.46540000
-45.38610000 52.48550000 6.23340000
-45.83080000 53.44040000 5.90370000
-44.93040000 52.16390000 6.30140000
-45.08560000 53.82670000 5.74700000
-39.16780000 62.13750000 4.74340000
-36.47570000 62.43450000 5.25740000
-32.63540000 54.16780000 7.40480000
-32.41940000 54.68470000 7.35890000
-32.69380000 54.80460000 6.03960000
-33.06430000 54.98730000 4.47710000
-32.93490000 54.22940000 6.10210000
-31.50100000 53.76150000 8.99300000
-31.66910000 54.12820000 8.26990000
-31.08390000 54.78670000 8.51300000
-31.71320000 54.89320000 8.00160000
-32.26100000 54.27510000 7.76250000
-32.05470000 54.82120000 7.64500000
-30.38350000 55.51690000 8.55100000
-30.99120000 55.67910000 8.05140000
-30.83080000 55.31120000 8.36460000
-31.49080000 55.79130000 7.93930000
-32.72290000 55.50300000 5.25290000
-32.45270000 55.40270000 6.51290000
-32.22910000 55.76120000 7.34490000
-31.87600000 55.90070000 7.68350000
-41.71580000 48.43610000 -2.43960000
-40.97250000 48.81370000 -1.47110000
-41.85460000 48.45170000 -3.72080000
-42.31040000 48.33810000 -1.93020000
-33.39400000 54.31960000 4.25790000
-33.38530000 55.06210000 2.57500000
-33.78380000 54.53130000 2.06670000
-33.58620000 55.57150000 1.28010000
-33.29480000 55.42470000 3.02110000
-32.85300000 54.58330000 -5.29910000
-33.03520000 53.95140000 -5.90100000
-34.00100000 53.76500000 -4.83670000
-33.76240000 54.41670000 -4.27390000
-32.24780000 55.32020000 -5.83160000
-33.18390000 55.12250000 -4.79840000
-33.96560000 54.76680000 -1.65260000
-33.70960000 54.95440000 -3.16260000
-34.11800000 54.24850000 -2.58030000
-34.03300000 54.73340000 -0.35290000
-33.39770000 55.55800000 -4.34940000
-33.43380000 55.84440000 -3.19840000
-28.91490000 59.64020000 7.38770000
-29.36030000 60.06620000 6.76940000
-29.60610000 59.59580000 6.99480000
-29.14440000 59.10030000 7.64290000
-28.84400000 60.08740000 7.04840000
-29.27650000 61.03630000 6.02580000
-29.34580000 60.56470000 6.39400000
-30.70720000 60.25490000 6.91960000
-30.46420000 60.75430000 6.67830000
-29.84520000 60.73350000 6.17630000
-29.81360000 61.22720000 5.79510000
-28.90970000 61.57800000 5.86790000
-29.32810000 61.56050000 5.20590000
-28.86640000 61.02440000 6.66480000
-29.62770000 61.44920000 5.06730000
-29.66820000 61.97520000 4.29200000
-29.94830000 62.09820000 2.81650000
-30.66690000 62.29580000 -0.79650000
-30.52170000 62.19000000 0.74420000
-30.49760000 62.59270000 -2.20450000
-30.48620000 62.66480000 -3.20350000
-29.68930000 61.20200000 -5.35890000
-30.08600000 61.87800000 -4.38200000
-47.52510000 48.18170000 -2.17370000
-47.52830000 48.43640000 -2.50470000
-47.67080000 48.04440000 -2.59900000
-47.60770000 47.74910000 -1.98690000
-47.47550000 47.57890000 1.52530000
-47.35660000 47.89850000 2.00600000
-47.23810000 47.80640000 1.57810000
-47.28220000 47.57260000 1.17110000
-47.27370000 47.55690000 -1.17980000
-47.05950000 47.55390000 -0.57070000
-46.64460000 47.66920000 -0.14410000
-47.19800000 48.02790000 1.90520000
-47.03750000 47.86750000 1.30480000
-46.78220000 47.83510000 0.83270000
-47.29990000 48.30230000 -2.18710000
-47.36450000 47.91670000 -1.71680000
-47.27390000 48.25000000 2.08390000
-47.18460000 48.61500000 2.18360000
-47.10980000 48.56340000 2.07130000
-47.11480000 48.95100000 2.28810000
-47.03220000 49.28090000 2.34250000
-46.95380000 49.03210000 2.15760000
-47.12270000 49.45670000 2.74340000
-47.21870000 48.82620000 2.46330000
-47.35670000 48.39770000 2.48020000
-42.60300000 48.22590000 -0.69440000
-42.18210000 48.36450000 0.17860000
-42.09220000 48.46950000 1.12980000
-42.42360000 49.52440000 2.83420000
-42.50630000 49.82710000 2.82040000
-42.31270000 49.55700000 3.26370000
-42.23950000 49.18810000 2.81520000
-42.04500000 49.14390000 3.37110000
-41.97900000 48.60960000 1.63150000
-42.03680000 48.78520000 2.09470000
-42.27150000 48.90640000 2.33500000
-43.10960000 50.19000000 1.76280000
-43.04940000 50.58400000 1.76960000
-42.91030000 50.39650000 2.03390000
-42.78820000 50.20890000 2.26510000
-42.86900000 49.99410000 2.16080000
-42.67030000 50.04570000 2.48490000
-42.67680000 49.65480000 2.47600000
-43.41590000 48.99820000 -2.49050000
-43.59500000 49.24360000 -2.36520000
-43.67520000 48.94470000 -2.18240000
-43.36420000 48.73350000 -2.36340000
-43.24540000 48.82970000 -2.56820000
-43.12100000 48.45990000 -2.35360000
-42.90920000 48.51780000 -2.68790000
-43.09000000 48.66340000 -2.64840000
-42.89540000 48.25430000 -1.38520000
-42.51890000 48.34070000 -1.75740000
-42.63790000 48.37300000 -2.08400000
-42.87280000 48.34190000 -1.94060000
-42.75810000 48.42020000 -2.39690000
-42.73290000 48.48130000 -2.93140000
-42.51960000 48.38540000 -2.32190000
-42.94280000 48.62670000 -3.04150000
-43.20670000 48.87650000 -2.81460000
-43.44760000 49.17060000 -2.80680000
-44.59650000 50.69150000 -0.21220000
-44.95350000 50.70080000 -0.48770000
-44.63930000 50.59570000 -0.59870000
-44.45170000 50.54800000 -0.70060000
-44.32950000 50.60270000 -0.49660000
-44.29540000 50.51520000 -0.80980000
-44.10010000 50.50370000 -0.93070000
-44.02320000 50.61020000 -0.55140000
-44.19160000 50.58470000 -0.55430000
-43.96260000 50.67610000 -0.23170000
-44.12200000 50.63410000 -0.29650000
-43.91740000 50.72710000 0.07890000
-43.90880000 50.71210000 0.46130000
-44.16810000 50.70290000 0.18130000
-43.63130000 50.88570000 0.44230000
-43.78630000 50.79230000 -0.12750000
-43.80940000 50.75170000 -0.61400000
-47.48590000 48.87810000 -2.47050000
-47.36320000 48.53350000 -2.37610000
-47.33490000 49.24960000 -2.33540000
-47.43330000 49.33010000 -2.41900000
-47.23130000 49.88400000 -2.26280000
-47.35190000 50.22090000 -2.35980000
-47.39330000 49.77980000 -2.38980000
-47.60220000 48.65460000 -2.86220000
-47.50520000 49.34130000 -2.64880000
-47.47050000 49.99650000 -2.74650000
-43.78870000 49.13200000 -2.15610000
-43.75200000 49.41770000 -2.13820000
-43.88770000 49.52870000 -1.99090000
-43.95020000 49.37970000 -1.99620000
-44.05040000 49.61320000 -1.85140000
-44.34460000 49.65380000 -1.69430000
-44.28640000 49.38960000 -1.78970000
-44.14590000 50.30730000 -1.19060000
-44.36970000 50.34810000 -1.09690000
-44.34110000 50.09420000 -1.38150000
-44.17520000 50.14270000 -1.36880000
-44.54980000 49.78120000 -1.61100000
-44.22570000 49.96500000 -1.52680000
-44.02710000 49.95050000 -1.65970000
-43.81670000 49.72420000 -1.93360000
-43.58940000 49.62570000 -2.19260000
-44.03240000 50.23020000 -1.37260000
-43.93480000 50.56030000 -1.07190000
-44.57070000 50.46240000 -0.87200000
-44.95060000 50.51790000 -0.82320000
-42.43380000 49.89840000 3.16330000
-42.23130000 49.48760000 3.63980000
-42.50680000 50.28930000 2.72500000
-42.72120000 50.45130000 2.31090000
-42.87630000 50.88420000 1.95500000
-46.81350000 49.32380000 2.18150000
-47.01990000 49.72020000 2.29560000
-47.00050000 50.12160000 2.22890000
-46.85570000 50.00350000 2.10650000
-46.97920000 50.51250000 2.15320000
-46.94360000 51.04030000 1.95380000
-46.76770000 50.53660000 1.93240000
-47.11540000 50.86680000 2.44390000
-47.09120000 50.15780000 2.46230000
-46.48240000 51.61050000 1.09390000
-46.30570000 51.75810000 0.81670000
-46.35410000 51.42680000 1.09000000
-46.62250000 51.28710000 1.42950000
-46.65320000 51.45550000 1.36360000
-46.76460000 50.90630000 1.79520000
-46.80280000 51.30170000 1.61650000
-46.40850000 51.99920000 0.80530000
-46.67780000 51.65440000 1.27780000
-46.94460000 51.55540000 1.64890000
-43.26350000 50.63380000 1.40610000
-43.30580000 50.41140000 1.61420000
-43.55530000 50.53970000 1.14120000
-43.45190000 50.66940000 1.08760000
-43.93420000 50.56630000 0.75670000
-43.64150000 50.69970000 0.79600000
-43.02460000 50.84350000 1.45930000
-43.36030000 50.81780000 0.98910000
-45.14710000 50.86610000 -0.26010000
-44.88410000 50.76540000 -0.05460000
-45.18610000 50.93640000 0.08500000
-45.27970000 50.97940000 -0.10840000
-45.39410000 51.04400000 0.40300000
-45.59090000 51.22190000 0.22250000
-45.41540000 51.08750000 0.03590000
-46.20190000 51.52840000 -0.87710000
-46.15590000 51.26110000 -1.05500000
-45.95010000 51.29000000 -0.69620000
-46.12830000 51.64030000 -0.55400000
-46.25470000 51.72560000 -0.71580000
-45.68560000 51.27280000 -0.13290000
-45.78920000 51.46760000 0.06570000
-45.96010000 51.68650000 -0.07370000
-45.97940000 51.63320000 -0.24580000
-46.15520000 51.92140000 -0.24220000
-46.35680000 52.15180000 -0.39550000
-46.30600000 51.93720000 -0.56010000
-46.14630000 51.80070000 -0.40020000
-46.31980000 50.95000000 -1.31550000
-46.45550000 51.06820000 -1.37550000
-46.75100000 50.78960000 -1.69950000
-46.74410000 50.65470000 -1.73150000
-47.06550000 50.48160000 -2.04620000
-47.20330000 50.20580000 -2.24400000
-46.32730000 51.70960000 -1.08340000
-46.36510000 51.91280000 -0.79690000
-46.48330000 52.34870000 -0.58620000
-46.52070000 51.43090000 -1.32960000
-47.23890000 50.88650000 -2.07140000
-46.12030000 51.62930000 0.67230000
-46.31870000 51.86220000 0.52280000
-46.33320000 51.94660000 0.22540000
-46.20700000 51.81900000 0.22060000
-46.34440000 52.04600000 -0.09700000
-46.00560000 51.69940000 0.08810000
-45.75330000 51.35700000 0.39360000
-46.44460000 52.29310000 -0.11700000
-46.40240000 52.07640000 0.31540000
-45.30240000 50.84000000 -0.62500000
-45.40870000 51.03170000 -0.29220000
11.82200000 60.27790000 32.39010000
11.88570000 60.55260000 33.32090000
12.14480000 59.59970000 32.46710000
12.17200000 59.17380000 32.95530000
11.55110000 60.75570000 34.57850000
11.17790000 60.93780000 35.87230000
11.79870000 59.39760000 34.23170000
11.07730000 61.49490000 35.76830000
11.44260000 61.30300000 34.47680000
11.45320000 61.31980000 33.50490000
11.35570000 61.00220000 32.60450000
8.45180000 53.05990000 34.96780000
9.74260000 53.35020000 34.49120000
8.44330000 53.74090000 34.69110000
7.37220000 54.27240000 34.81770000
6.78120000 53.54270000 35.20620000
8.68210000 54.38190000 34.42130000
9.79150000 53.97080000 34.25220000
10.32200000 59.95920000 39.82720000
10.42720000 60.93590000 39.02260000
10.23920000 60.10270000 41.09150000
10.02840000 59.17550000 43.24960000
10.12130000 59.07910000 41.95250000
10.89600000 60.37540000 36.70630000
10.81360000 60.97450000 37.39030000
10.52360000 60.35840000 38.26760000
10.14070000 61.62320000 39.19810000
10.51900000 61.61180000 37.62930000
9.91620000 59.90440000 43.10680000
10.11450000 60.78770000 40.98310000
10.84730000 53.54990000 34.14920000
10.68180000 52.70430000 34.56060000
11.86440000 52.90150000 34.18040000
11.58570000 53.87650000 33.86400000
12.26560000 52.74870000 33.91560000
12.16220000 53.53920000 33.61490000
13.02140000 54.38930000 31.19700000
12.73910000 55.08430000 31.16690000
12.66520000 54.18620000 32.19690000
12.42240000 54.14400000 33.07880000
12.55610000 54.93570000 32.16280000
10.78900000 54.25130000 33.95410000
12.04010000 54.35990000 33.50160000
12.56830000 55.73770000 30.16900000
12.28230000 56.42640000 30.07420000
12.60120000 56.40040000 31.87160000
12.56200000 56.00220000 30.78590000
12.40830000 57.35090000 31.52980000
12.30820000 56.60480000 30.13780000
12.10740000 57.37430000 29.77420000
0.87590000 55.89230000 48.47980000
0.97690000 57.16290000 47.57290000
0.50660000 55.76790000 48.10410000
0.03150000 54.46550000 48.48460000
0.39490000 54.49540000 48.98550000
0.12710000 54.99500000 46.91300000
-0.21730000 53.97770000 47.66710000
-0.10220000 54.21060000 48.10670000
0.24610000 55.20940000 47.34970000
0.36480000 55.86310000 47.57150000
0.84430000 57.26350000 47.08130000
0.76640000 58.89680000 45.18890000
0.56970000 60.55880000 42.85330000
0.64750000 59.02090000 44.65750000
1.10110000 58.45110000 46.46730000
0.87170000 60.17270000 44.06220000
0.31580000 62.37560000 39.81550000
-0.31290000 62.23370000 38.51230000
0.12710000 61.42240000 40.70710000
0.75060000 61.52120000 41.99480000
0.20360000 60.50460000 41.52120000
-0.25570000 61.35830000 39.29190000
-0.75260000 61.59330000 37.55950000
-0.77710000 62.13670000 37.13820000
-1.20980000 61.95980000 35.78180000
-1.20050000 61.43660000 36.21790000
-0.74810000 62.50080000 36.30810000
-0.28060000 62.65320000 37.69040000
-2.61320000 43.52860000 47.99490000
-2.45400000 43.23860000 48.58650000
-2.22040000 43.68850000 48.86920000
-2.37240000 44.03510000 48.25560000
-2.73220000 43.67420000 47.35100000
-2.49410000 44.14910000 47.61630000
-2.58790000 44.68650000 46.38120000
-2.53370000 45.10400000 45.75900000
-3.17170000 44.63500000 45.87420000
-3.18830000 44.21790000 46.51100000
-1.21850000 46.09880000 45.79370000
-0.54420000 46.46580000 45.15260000
-1.54310000 45.77610000 45.44690000
-2.22770000 45.39480000 46.11570000
-2.43630000 44.79620000 48.51960000
-2.28790000 44.47590000 49.11180000
-2.50760000 45.61700000 48.74400000
-2.33780000 44.82210000 47.79240000
-2.41460000 45.61000000 48.03740000
-2.40020000 46.92870000 48.38590000
-2.25390000 48.26940000 48.03880000
-2.29850000 46.93490000 47.68160000
1.14030000 47.30940000 45.26790000
1.61340000 47.24070000 45.04920000
0.50520000 46.87120000 45.08480000
-0.00530000 46.89160000 45.31590000
2.12750000 47.18760000 44.82910000
2.98190000 47.55330000 45.03160000
3.58310000 47.44480000 44.71690000
2.87770000 47.19080000 44.35310000
-3.22650000 45.36020000 45.04990000
-1.76410000 45.64860000 45.13110000
-0.74000000 46.34020000 44.81490000
0.43360000 46.75970000 44.79920000
0.91590000 46.71450000 44.53230000
-2.30030000 48.17260000 48.70100000
-2.43020000 46.83420000 49.05230000
-1.95100000 48.16400000 47.41580000
-1.82390000 49.38780000 47.90300000
-1.34270000 50.53280000 47.73760000
-1.48550000 49.29930000 47.26670000
-1.50090000 50.66430000 48.54360000
-1.96660000 49.51750000 48.69660000
-0.78370000 52.28850000 47.73080000
-0.92090000 52.41370000 48.50090000
-0.52200000 52.99680000 48.79430000
-0.41320000 53.19190000 49.22100000
-0.81270000 51.73680000 47.29130000
-0.23740000 53.49660000 47.24570000
5.33190000 47.53530000 44.27300000
6.20070000 47.38640000 43.66630000
4.54440000 47.30230000 44.10790000
3.73540000 47.25660000 43.85330000
5.48630000 47.32320000 43.46100000
12.00510000 44.80990000 45.37640000
11.75060000 45.55510000 45.34000000
11.86110000 48.36060000 47.11190000
11.93750000 47.40730000 46.09190000
11.65860000 48.66590000 46.82130000
11.56820000 49.62080000 47.82120000
11.16600000 50.97630000 47.88750000
11.41640000 50.08600000 47.58290000
10.98830000 51.49420000 47.61810000
10.72330000 52.39570000 47.86760000
10.96810000 51.26180000 48.25890000
10.53200000 52.66800000 48.29220000
-1.96380000 59.29910000 32.85010000
-1.75430000 60.48540000 33.85660000
-1.37390000 61.72830000 34.95890000
-1.61310000 60.73840000 34.69350000
-1.02700000 62.10710000 34.29370000
-0.90510000 62.38590000 35.12770000
12.00800000 47.43400000 47.04300000
11.75250000 48.69080000 47.75890000
10.42230000 54.18270000 47.36740000
10.12410000 55.91800000 46.79880000
10.23190000 54.45310000 47.73310000
10.44830000 53.40250000 47.14270000
10.14430000 55.19520000 46.60020000
10.07860000 57.55890000 45.04870000
9.79280000 58.41090000 45.22590000
9.84530000 56.77860000 47.00330000
10.00130000 58.03820000 43.64680000
10.04770000 56.40870000 45.43430000
5.85090000 54.15800000 35.06410000
4.34130000 54.21350000 35.20150000
5.47570000 53.50820000 35.41850000
2.82160000 54.14220000 35.24920000
2.78280000 54.68920000 34.99790000
1.29940000 55.14010000 34.80970000
1.32550000 54.53850000 35.03530000
0.08350000 54.79190000 34.77880000
-0.08320000 55.46000000 34.53280000
-1.09630000 55.89020000 34.20730000
-1.08730000 55.13920000 34.47110000
0.56770000 55.65220000 34.64910000
-0.53610000 56.02130000 34.37910000
-1.50130000 55.49200000 33.92180000
-1.53030000 56.05430000 33.71120000
-1.21060000 56.65380000 34.18990000
-1.59750000 56.80740000 33.69370000
5.20650000 54.69660000 35.04780000
6.44570000 54.69590000 34.93020000
4.19530000 54.85720000 35.00480000
2.82610000 55.24530000 34.87570000
7.07630000 47.31270000 43.18580000
7.61050000 47.24040000 42.80160000
6.07930000 47.26480000 43.04220000
7.65740000 47.39130000 43.25520000
6.95220000 47.48430000 43.68170000
12.05680000 45.44690000 44.53270000
11.91730000 45.40950000 44.10260000
11.12710000 46.05700000 43.88330000
11.26050000 46.06680000 44.34030000
12.16380000 45.49190000 43.51590000
11.37070000 46.10670000 43.30810000
10.65660000 46.49650000 42.81700000
9.74850000 46.77050000 42.95730000
10.42900000 46.41050000 43.40580000
11.93230000 46.39910000 45.84930000
10.51360000 46.63240000 43.91480000
9.85460000 46.97550000 43.43470000
8.69500000 47.20900000 42.34740000
8.69720000 46.99300000 42.87110000
9.68660000 47.01040000 42.39410000
8.65890000 47.15850000 43.34160000
6.97700000 43.62960000 -47.00940000
-19.62270000 -29.92760000 -48.58880000
11.39020000 35.95730000 51.21300000
-8.23980000 42.96780000 46.28280000
49.65350000 41.21420000 2.52070000
51.69750000 38.65770000 0.16130000
-31.54400000 52.80240000 -11.77360000
-38.77200000 49.87350000 -6.93260000
-50.02370000 -24.37600000 -13.88810000
14.69290000 52.95330000 -24.45570000
-31.19550000 -19.86500000 -43.73730000
-28.83750000 -60.24970000 1.14580000
-0.25160000 -53.81320000 27.29240000
30.97020000 -29.96320000 -43.22260000
55.97750000 -8.22530000 -21.45810000
47.88640000 39.74870000 16.74560000
46.11990000 37.46710000 24.17300000
49.82260000 35.15680000 19.77940000
28.37480000 53.09790000 17.02240000
47.41080000 57.71300000 -2.68380000
47.72550000 57.30680000 -2.59290000
-41.57010000 47.40730000 9.84640000
-44.06460000 44.23220000 13.45160000
-40.26140000 46.87390000 15.41360000
-29.40910000 52.58860000 15.26400000
-31.66760000 53.39630000 9.44910000
-30.74360000 62.49560000 -1.38850000
-34.32940000 62.31020000 5.84810000
35.30810000 54.62390000 -5.65480000
35.78320000 58.75620000 -9.19260000
-19.38320000 56.15890000 22.83080000
30.94500000 60.78590000 1.82250000
21.26190000 59.30030000 16.62730000
4.47160000 47.43400000 44.40180000
11.19380000 49.92380000 48.25790000
-2.44390000 45.82780000 49.19120000
51.17410000 40.37360000 -8.11110000
46.92140000 54.81080000 -11.27450000
46.61600000 55.60430000 -10.90420000
7.08270000 47.42200000 42.39210000
43.83670000 -38.46710000 17.52050000
31.68410000 59.73990000 1.22440000
-19.19240000 -41.22720000 -40.31470000
3.24300000 60.38990000 -38.31250000
-7.40390000 58.42920000 -34.59220000
2.09500000 58.16930000 -27.98860000
5.13820000 58.89340000 -27.51450000
5.32530000 61.25350000 -31.68200000
3.06570000 62.98570000 -36.59330000
-46.43310000 47.83870000 0.65950000
-44.20380000 50.67350000 0.53260000
1.60950000 58.46740000 47.13890000
9.14330000 61.44850000 31.15160000
10.93890000 60.22760000 30.73920000
10.44900000 61.66660000 32.09630000
44.58750000 46.73560000 0.84520000
7.09130000 50.67550000 -38.58000000
-7.31460000 48.36110000 -42.18330000
-17.24990000 -31.98630000 -45.14850000
-14.53140000 -46.49600000 -31.99020000
40.50430000 47.23730000 -17.31090000
17.09130000 49.83650000 29.74700000
18.99730000 47.83610000 33.17260000
13.99670000 49.18930000 32.80260000
27.94440000 52.87240000 -3.45950000
45.08060000 -8.41670000 -35.94470000
33.19010000 -20.10290000 -43.40440000
31.79310000 48.14100000 -22.63760000
-3.46760000 32.98530000 53.63840000
-2.47860000 25.84570000 56.81290000
2.86950000 28.12740000 56.02900000
-51.04400000 -30.02810000 7.85370000
-32.45290000 -29.21270000 40.81000000
-10.53590000 -1.49410000 59.23380000
-11.07880000 -11.28760000 57.58320000
-7.75210000 -6.66200000 58.93620000
1.63660000 51.38250000 -32.14640000
-1.78110000 51.40490000 -32.01650000
0.43120000 48.78310000 -38.75040000
3.92970000 -63.34190000 -4.59780000
12.26520000 -63.94720000 -7.53870000
10.52630000 -63.79560000 0.84430000
15.31670000 -55.31380000 -23.76790000
-2.99740000 -30.53870000 -52.49400000
-18.32170000 -12.91660000 -54.88210000
-17.02350000 -20.67210000 -53.45920000
-21.08970000 -17.12110000 -52.91950000
41.94000000 58.65310000 -9.30800000
48.38580000 52.10060000 -1.10100000
-25.26470000 52.96990000 -6.44480000
-46.95580000 42.36560000 -10.29740000
-53.34390000 34.28530000 -2.88970000
-44.15140000 35.87020000 27.39100000
-44.79620000 31.74810000 30.45530000
-41.19600000 35.96160000 31.67370000
-57.45950000 24.41520000 5.96230000
-59.40600000 19.93670000 1.46050000
-59.42030000 17.75310000 7.21430000
-47.11530000 51.50690000 2.07080000
-47.41930000 50.78200000 -2.41020000
-43.51560000 49.42920000 -2.61600000
-43.81020000 50.76610000 -0.37290000
-33.78920000 56.00560000 0.06240000
-39.28010000 56.08170000 1.70570000
-39.22410000 55.90030000 1.08330000
-38.18530000 56.52020000 0.83500000
-45.57800000 -31.27760000 -17.04440000
42.75250000 48.00940000 -7.44550000
44.85790000 50.68190000 -3.73900000
44.95700000 51.05980000 -3.34720000
44.79380000 51.29540000 -3.46750000
-39.88570000 55.19550000 0.40190000
-41.19740000 53.96850000 1.32870000
-40.78650000 54.49070000 0.09970000
-43.87720000 51.69550000 -5.69510000
-43.60310000 52.76850000 -5.12870000
-43.57750000 51.42010000 -5.06580000
1.79640000 55.64090000 34.83310000
8.52210000 55.13040000 42.40420000
7.69120000 54.94310000 41.86590000
7.77050000 55.47310000 41.08100000
-46.98160000 55.62340000 -1.73190000
-46.77470000 56.72310000 -1.79650000
-47.24370000 55.76550000 -2.48670000
-47.52660000 51.87240000 4.12540000
-47.70460000 53.71430000 4.21400000
-47.54280000 53.18130000 3.31250000
26.35020000 -31.74190000 -41.88890000
12.59520000 -48.48740000 -30.08860000
43.67030000 60.23030000 -1.76330000
36.91810000 60.23480000 -8.87480000
49.15570000 46.16080000 -8.17160000
50.02900000 44.82960000 -7.01400000
49.60990000 44.90680000 -8.13120000
29.24820000 -48.71110000 15.42720000
-34.96090000 -34.35600000 29.95760000
-38.69540000 -33.14620000 26.50300000
7.26910000 -52.28540000 21.97350000
34.21240000 56.23290000 2.20800000
35.85890000 54.10040000 -2.76560000
-49.83430000 41.51830000 2.61570000
-49.83500000 40.39320000 3.56410000
2.30240000 47.71460000 45.22660000
-0.82950000 50.74610000 46.87560000
34.12510000 -6.71160000 -49.60670000
37.94570000 -2.70070000 -47.46310000
40.21080000 -8.56290000 -44.46060000
7.36750000 40.34540000 -49.40190000
12.55280000 39.15120000 -49.33630000
8.19360000 36.73150000 -51.57900000
-12.80470000 15.36520000 -58.51390000
-11.92260000 20.02970000 -57.74900000
-5.44480000 20.06430000 -58.74090000
15.98610000 36.23750000 -50.26510000
13.94660000 32.31680000 -53.00340000
-29.77340000 -39.69070000 33.91520000
27.96730000 56.54660000 -14.94040000
31.37330000 57.55110000 -9.65200000
16.87060000 56.60760000 -22.21980000
26.27520000 64.61380000 -15.90040000
1.15350000 53.98510000 -45.23340000
-1.82260000 48.48300000 -45.06890000
43.63970000 51.69440000 -6.04940000
43.79010000 51.29600000 -6.21360000
43.90650000 51.16330000 -5.85370000
-18.49010000 36.34210000 48.41720000
-16.78540000 41.45240000 45.12800000
-22.53390000 37.91360000 45.46440000
-1.36010000 64.60170000 27.74780000
-1.37310000 64.28030000 29.07630000
2.83930000 64.58490000 28.12800000
-1.05780000 50.07710000 50.44510000
-1.49900000 46.49310000 50.34850000
0.04150000 50.05410000 50.61870000
-34.11390000 -39.96170000 24.17370000
-30.98210000 -40.16520000 27.75210000
-31.79290000 -43.51850000 21.55360000
-6.59190000 53.77300000 -48.77960000
-23.93660000 -53.03000000 -6.79380000
-14.19140000 -53.55370000 -10.15620000
-11.87220000 -53.49980000 -7.50330000
-10.83440000 -53.54040000 -11.98080000
-10.09890000 57.96210000 -30.27460000
-10.29970000 56.12180000 -30.78120000
1.31700000 49.04690000 50.56290000
-0.28510000 44.67760000 50.57400000
1.38640000 45.66000000 50.41060000
-29.59930000 56.12550000 8.78310000
-5.77880000 58.04260000 -35.38060000
-6.25680000 56.82330000 -34.75410000
28.78130000 62.39080000 11.67390000
28.64880000 59.07200000 11.84920000
29.86840000 59.63380000 8.42760000
5.02970000 57.41510000 -32.67270000
-42.36080000 48.29240000 -0.28440000
-45.43050000 48.23940000 0.90150000
-45.59440000 48.43590000 1.17160000
-45.20160000 48.45190000 1.07130000
9.85240000 -50.32050000 -32.95550000
-43.74440000 48.58930000 -5.80350000
-44.28100000 48.62280000 -6.49090000
-43.90810000 49.35980000 -5.75250000
4.02980000 53.43760000 35.69800000
-3.43910000 52.47440000 34.42830000
-26.84310000 55.26960000 13.69210000
-27.03140000 57.31120000 11.87060000
2.94090000 -32.73420000 47.26120000
4.75810000 -35.98960000 44.87270000
14.72950000 51.06320000 33.89040000
15.03740000 45.39660000 42.56130000
14.82480000 57.30500000 26.89660000
-48.57930000 45.70320000 -1.69750000
-49.04740000 44.62200000 -0.59530000
-48.46550000 45.63000000 -0.16430000
-49.03270000 44.27780000 -2.03480000
-14.33630000 64.62240000 -27.92670000
-11.30290000 64.62880000 -29.49670000
-14.44270000 61.76660000 -27.95880000
-28.58550000 64.86740000 -0.95980000
44.40630000 49.60960000 -6.22730000
44.46630000 49.73870000 -5.83570000
44.36500000 49.97830000 -6.10180000
44.67480000 47.61910000 -2.46840000
-44.34390000 50.82270000 6.40420000
-27.53920000 55.28420000 -13.77540000
-28.73570000 60.45280000 -8.18110000
-28.79870000 63.62520000 -7.94820000
30.64590000 60.10870000 -7.52190000
30.97500000 59.98670000 -7.05780000
-10.52040000 50.91900000 -37.51540000
-8.93580000 49.38870000 -40.12640000
-12.80520000 47.30890000 -41.90080000
0.50700000 50.29720000 -40.43250000
4.10730000 48.55090000 -42.01830000
-2.05020000 49.29570000 -41.56810000
42.36130000 -25.16430000 -31.33090000
46.59100000 47.37690000 -14.54860000
47.92640000 48.82930000 -11.32270000
47.99400000 49.12850000 -11.06620000
48.04500000 48.71710000 -10.44000000
-45.94260000 40.62330000 16.96610000
-43.63050000 40.23680000 22.50670000
-42.81220000 43.88010000 17.56630000
-45.80300000 51.08010000 -0.86090000
-46.02370000 50.97700000 -1.14930000
-45.22430000 50.64170000 -0.82450000
2.51560000 47.21840000 43.84780000
-6.60350000 49.18800000 39.26960000
-13.26470000 48.54460000 38.40470000
-7.17580000 46.38960000 42.95690000
50.11880000 50.27890000 -3.85460000
50.28590000 49.93490000 -3.30060000
50.12090000 49.78900000 -3.89000000
-34.05580000 51.54670000 11.44890000
-35.81880000 51.26040000 8.83880000
-37.25680000 48.98160000 15.14540000
-30.50560000 50.57630000 21.25210000
15.58300000 48.32470000 38.36990000
21.46530000 47.29540000 37.36890000
5.93940000 49.49660000 39.53490000
9.65940000 47.21810000 41.89120000
11.29280000 50.09960000 37.29710000
-47.50640000 47.54250000 2.48500000
-48.50490000 45.50850000 1.67320000
-48.29580000 45.91710000 1.16770000
-13.12270000 -51.66620000 -24.06060000
-8.33980000 -53.36700000 -17.92480000
-3.27200000 -53.30240000 -15.38190000
-4.22150000 -53.20890000 -20.71310000
-47.21530000 49.35940000 2.97240000
-47.38730000 47.90860000 2.52060000
48.33790000 51.30180000 -11.60560000
48.30870000 51.39430000 -11.81710000
48.54910000 52.24200000 -11.58620000
36.90810000 50.65060000 -12.12970000
-4.83700000 48.46330000 -42.83890000
-5.00870000 50.97030000 -38.96220000
33.26760000 55.94150000 -9.43610000
33.37050000 56.84910000 -9.63620000
35.60120000 52.68710000 -7.89050000
35.68660000 52.95620000 -6.78220000
-38.20770000 50.44120000 3.70900000
-40.90170000 48.88260000 3.93840000
-40.95420000 48.68740000 5.08580000
19.82090000 58.15310000 -19.47020000
18.54190000 62.39300000 -20.56090000
16.93220000 59.50480000 -22.02770000
-40.78130000 48.97810000 2.43580000
-41.47270000 48.68200000 0.38470000
-39.97700000 49.48670000 0.37490000
-24.37910000 51.35780000 19.39640000
-20.41590000 51.10900000 24.08340000
-24.95680000 49.34180000 24.80870000
-2.91640000 52.39570000 27.27930000
1.35930000 52.37540000 27.62900000
1.33630000 51.19790000 31.27350000
-3.72750000 -18.13670000 54.14060000
-48.83100000 21.06300000 27.69960000
-46.65200000 28.03690000 26.27890000
-44.76210000 26.12630000 30.89280000
43.01080000 12.80010000 39.24870000
43.26440000 18.75750000 37.46870000
46.42990000 13.82690000 35.02530000
40.19310000 23.49940000 42.21810000
36.32810000 26.80490000 44.00230000
35.63490000 22.62720000 46.34620000
6.77920000 51.33400000 -31.50050000
6.82050000 49.08550000 -37.13290000
13.13000000 51.30060000 -31.14050000
-43.64110000 31.95480000 -29.29760000
-42.46830000 28.05080000 -34.23800000
-39.22170000 35.39020000 -32.17860000
-55.32540000 23.80370000 5.74970000
-57.21310000 17.38980000 6.95520000
-57.19930000 19.49200000 1.41570000
-32.16190000 51.37810000 -17.53150000
-36.80970000 49.45300000 -15.97330000
-35.37020000 51.27750000 -9.96710000
-37.07930000 -28.16390000 -37.98370000
-34.09600000 -26.31520000 -41.65450000
-8.02560000 14.64950000 57.10160000
-13.09230000 17.24020000 55.70770000
-8.31680000 19.15960000 56.13640000
19.91090000 18.10130000 53.52310000
15.52210000 20.99510000 54.16260000
23.05620000 20.87780000 51.55410000
-50.71380000 21.56850000 28.76160000
-46.48740000 26.82770000 32.07830000
-48.45050000 28.81220000 27.28590000
-39.98080000 1.20720000 45.53150000
-41.52470000 -4.53770000 42.89590000
-37.21790000 -3.19920000 46.98790000
51.43230000 34.67460000 2.16250000
51.20400000 35.16610000 -4.86490000
52.97980000 31.78980000 -3.86090000
7.88160000 35.66110000 -49.64770000
3.88020000 30.35540000 -52.91860000
10.77180000 28.33950000 -53.03020000
-41.46760000 -26.05800000 29.62680000
-30.36720000 21.26940000 47.00350000
-28.61190000 28.04830000 45.11040000
-26.10120000 21.64210000 49.39080000
-1.73360000 -63.32380000 3.64320000
-0.22370000 -63.42000000 7.67260000
-7.44570000 -63.91640000 10.51000000
0.00750000 28.54350000 -53.90410000
-4.02220000 25.67390000 -54.90790000
0.43480000 24.32750000 -55.44670000
-19.74530000 38.40230000 -44.64380000
-18.69040000 34.96970000 -47.19560000
-14.38720000 38.77100000 -46.24170000
-4.44160000 -14.71570000 57.68930000
1.88320000 -11.28080000 58.65270000
-4.78740000 -10.85260000 58.55010000
-39.91790000 56.44420000 -2.71220000
-39.73960000 56.90060000 -3.01250000
-39.15070000 57.23570000 -2.82170000
-35.45710000 63.45710000 -0.72240000
-35.05870000 63.97330000 -1.60090000
-35.77470000 63.78750000 -1.24860000
-44.61780000 34.87290000 -24.55700000
-40.63690000 37.06570000 -28.61210000
-34.01760000 49.68410000 -9.51110000
-29.13010000 51.30110000 -7.12530000
-35.59760000 49.56960000 -3.24930000
-24.82420000 27.68460000 -50.99890000
-20.54000000 24.29350000 -54.07150000
-25.31230000 23.36670000 -52.37340000
-36.72960000 39.84480000 -34.71670000
-32.43060000 40.90710000 -37.68030000
-36.81180000 35.38970000 -38.35780000
30.74650000 34.80970000 -44.22600000
34.82390000 35.59980000 -40.60390000
33.96730000 30.44250000 -44.64900000
-51.20360000 7.09990000 -32.52900000
-49.58020000 10.51040000 -34.92100000
-47.92090000 3.78500000 -36.69770000
-58.73940000 -9.98370000 -2.84800000
-56.52600000 -18.17620000 -2.98960000
-57.80940000 -13.79150000 1.15800000
54.01330000 -20.73720000 2.35890000
52.84730000 -21.58260000 8.91960000
55.33290000 23.48680000 9.92220000
55.35410000 25.38830000 4.89090000
57.08780000 19.97060000 3.89120000
-15.27950000 -63.80670000 -1.08240000
-17.88880000 -64.40690000 7.11720000
-23.32850000 -64.93100000 2.06140000
-18.52190000 -56.18800000 -22.27030000
-20.79760000 24.22870000 50.87840000
-24.78870000 28.72520000 47.03680000
-20.48250000 31.04760000 47.97410000
-12.77720000 47.03410000 36.98340000
-12.00040000 45.08830000 39.85330000
-18.12230000 45.50670000 36.84000000
60.17030000 -1.16370000 -8.82020000
49.77230000 3.47960000 34.87570000
52.03510000 -3.33900000 29.91630000
53.79750000 4.98700000 28.42400000
39.85700000 60.24930000 -0.25370000
39.65660000 55.17080000 -5.34000000
40.58720000 54.73600000 -5.15580000
40.38400000 54.89020000 -4.82090000
20.29630000 -3.40810000 56.27200000
22.35270000 3.67010000 56.35520000
17.49900000 2.98010000 58.06820000
24.67480000 26.64600000 51.25310000
29.53460000 25.71650000 49.13710000
27.75760000 30.55210000 47.94820000
29.92290000 -18.07060000 -49.36650000
33.41600000 -12.81250000 -48.55550000
33.92240000 -19.06460000 -46.57380000
2.10090000 -19.33600000 -56.61310000
-3.19100000 -20.23740000 -56.29350000
0.06130000 -12.98940000 -58.14900000
31.90920000 60.42150000 -0.86370000
37.51260000 61.77390000 -3.85890000
37.22350000 61.67940000 -3.95430000
36.71930000 61.72670000 -3.72470000
-50.51800000 -16.97060000 20.31440000
-52.89470000 -8.76530000 20.15700000
-49.82550000 -14.52070000 23.81920000
-58.24000000 1.21250000 5.71270000
-56.31270000 -8.40000000 6.95040000
-56.98710000 -7.17210000 1.32450000
26.94740000 50.74730000 18.73760000
31.49440000 50.25940000 11.74170000
31.93930000 49.13320000 16.50620000
34.30050000 22.08220000 44.62910000
38.68890000 22.92200000 40.65480000
39.90890000 18.33160000 41.02500000
-36.56250000 63.93300000 -3.37480000
-36.91210000 63.96830000 -3.00730000
-36.36420000 64.09590000 -2.82090000
-45.60190000 57.76180000 4.54050000
-44.69670000 58.94510000 4.50110000
-48.05550000 24.92450000 -32.72550000
-43.85150000 23.24250000 -38.82300000
-47.49790000 19.75880000 -35.98740000
-55.95820000 28.77330000 -6.87650000
-52.67150000 34.51730000 -7.75800000
36.02330000 49.41150000 4.21960000
40.25620000 46.39740000 7.95490000
36.82420000 47.77360000 11.77410000
34.26970000 49.08300000 -12.50760000
35.20860000 48.19160000 -15.22310000
40.94610000 55.71270000 -8.12170000
40.57490000 55.59740000 -7.71770000
40.40100000 55.97810000 -7.95230000
35.95510000 56.08200000 -6.53650000
35.61540000 56.17460000 -6.94850000
35.80060000 56.39800000 -7.35340000
-7.79180000 11.56510000 -57.53130000
-6.76090000 5.22610000 -57.81670000
-3.19900000 8.21170000 -58.18570000
-26.57020000 -18.37310000 -47.34170000
-26.43870000 -13.53540000 -48.66680000
-31.26660000 -15.36310000 -45.29150000
28.80130000 -17.09920000 -47.51760000
32.65190000 -18.05610000 -44.82900000
32.16430000 -12.03700000 -46.73680000
24.52490000 32.87150000 -46.09460000
20.91840000 28.41490000 -50.07540000
27.93060000 28.57040000 -46.62330000
28.48650000 8.86050000 50.88020000
29.24020000 15.74850000 49.67010000
33.42880000 11.35000000 47.65930000
48.98730000 53.93950000 -10.25330000
49.07750000 53.86920000 -9.83080000
48.94260000 53.40330000 -10.47420000
46.69600000 58.32770000 -7.51180000
46.75210000 58.17740000 -7.39760000
47.17290000 57.68990000 -7.62990000
4.83670000 52.95010000 42.98420000
3.53450000 53.23880000 42.85850000
4.42220000 53.79710000 42.25680000
-52.49210000 -7.27030000 27.37320000
-52.33300000 0.25060000 30.35420000
-55.51530000 -1.06690000 23.91490000
-46.65510000 -29.51810000 22.25410000
-25.94070000 -24.01070000 44.96130000
-34.05890000 1.65890000 47.37690000
-35.83790000 -2.78190000 45.24690000
-38.49780000 1.46040000 43.84470000
-2.15500000 49.28940000 -45.17760000
-0.07680000 50.18990000 -45.34300000
-2.24810000 52.55920000 -44.07200000
-3.79550000 57.08730000 -40.07460000
-3.47030000 55.68320000 -41.89980000
-2.09910000 56.50780000 -40.33040000
-56.17230000 -0.10330000 -15.35490000
-55.43810000 -8.57250000 -11.76140000
-54.53470000 -7.07540000 -16.41050000
-49.30250000 7.13350000 -31.30740000
-46.14210000 3.94210000 -35.32080000
-47.73960000 10.41700000 -33.61030000
-43.99670000 -6.91210000 -39.21050000
-40.14180000 -12.50250000 -41.72850000
-44.78030000 -13.04250000 -36.57020000
-24.05050000 -6.00350000 -53.93720000
-10.88640000 -63.64040000 5.84250000
-11.61290000 -64.24320000 11.87370000
48.64210000 -7.36120000 34.17740000
46.62550000 -17.90220000 32.21180000
50.66980000 -10.66240000 29.76610000
26.30110000 -22.24060000 48.64950000
23.43580000 -28.73840000 47.64170000
28.17210000 -28.93580000 44.97580000
-31.53550000 21.78290000 48.81250000
-27.10440000 22.16990000 51.29220000
-29.71220000 28.82410000 46.84620000
-35.37000000 1.41340000 49.20040000
-46.94010000 56.70250000 -2.50530000
-47.12750000 56.71570000 -3.19940000
-47.40900000 55.78610000 -3.18640000
-42.81860000 61.73640000 -1.44330000
-42.54250000 61.97510000 -1.83080000
-42.87110000 61.79970000 -2.18620000
-40.03400000 45.93280000 9.46480000
-38.76800000 45.42560000 14.84890000
-42.42950000 42.88230000 12.96000000
-29.55570000 51.27840000 3.72430000
-32.11820000 50.97500000 7.92480000
-34.79930000 49.58000000 2.63550000
35.24090000 56.22320000 0.10160000
35.17110000 56.68810000 0.69730000
35.00840000 56.31900000 0.68690000
40.47490000 56.24300000 -2.31450000
40.13530000 56.03070000 -2.64230000
40.82270000 55.97960000 -2.46060000
16.87020000 -64.43760000 -11.78560000
18.82200000 -64.52270000 -5.54410000
6.01230000 -55.39040000 -27.91110000
25.48100000 33.83400000 -47.88840000
29.01840000 29.36640000 -48.43760000
21.73490000 29.20490000 -52.02340000
15.02060000 -16.39810000 -55.60170000
13.36450000 -20.19530000 -55.03830000
9.19230000 -14.99990000 -57.07970000
57.50320000 26.06110000 5.07020000
55.66120000 29.87070000 8.55740000
57.48120000 24.08610000 10.29620000
57.11790000 1.09560000 20.22450000
57.14790000 -6.70710000 17.60370000
58.47150000 1.45110000 16.16100000
29.09560000 45.95570000 29.26000000
30.60880000 47.67620000 23.80490000
35.41080000 45.36240000 22.99820000
24.90630000 47.30830000 30.25790000
22.55600000 50.57770000 24.07390000
26.72330000 49.34800000 23.41860000
-32.24280000 48.05700000 -21.35790000
-26.32890000 50.86180000 -20.60290000
-30.96570000 49.76340000 -16.86800000
-3.96200000 61.97170000 -33.79830000
-3.59170000 62.31860000 -41.82970000
-4.23460000 61.72380000 -43.52160000
-4.67530000 62.91750000 -39.87540000
48.55410000 55.15810000 -8.09770000
48.79720000 54.56330000 -8.49320000
48.49120000 55.50620000 -8.43850000
50.08570000 48.06870000 -4.80430000
49.87280000 49.06670000 -5.10600000
49.99050000 49.25800000 -4.85880000
-0.74750000 59.35460000 -46.52390000
-1.90710000 59.60040000 -45.56860000
-0.91250000 60.51260000 -45.18790000
-6.35480000 56.01990000 -48.16760000
42.80230000 61.18730000 -2.82160000
42.68220000 61.27970000 -3.32390000
42.10730000 61.49710000 -2.86250000
44.80070000 59.72900000 -4.24530000
45.28930000 59.09880000 -4.75420000
43.92340000 60.43750000 -3.94820000
-52.46610000 -17.93710000 21.09060000
-51.74680000 -15.39230000 24.73100000
-54.93480000 -9.41420000 20.92710000
-54.45280000 -22.64270000 7.37270000
-54.58660000 -23.58820000 2.48470000
-52.58050000 -27.38610000 7.94620000
-5.49970000 58.66010000 -39.73990000
-4.93200000 56.78440000 -41.84000000
-6.04140000 55.98610000 -44.66270000
-10.81510000 51.46170000 -29.74180000
-13.66740000 51.34450000 -28.47810000
-14.61080000 49.61760000 -33.62730000
47.91120000 3.64810000 33.58600000
51.78640000 5.09930000 27.37470000
50.08980000 -2.91650000 28.81130000
58.86400000 4.99500000 0.67340000
58.42440000 -0.44890000 -1.89120000
58.16250000 -0.92620000 4.38540000
36.74440000 61.29810000 -4.86100000
37.78940000 61.56330000 -5.26380000
37.33460000 61.58510000 -5.27320000
31.12100000 59.83230000 -7.36660000
46.43900000 41.42230000 5.43710000
44.03610000 43.38920000 8.49560000
44.81150000 43.28750000 4.41620000
54.17490000 18.94930000 18.68490000
52.14850000 22.12210000 21.76500000
53.46030000 24.09780000 16.50790000
25.72080000 50.03570000 -24.91030000
13.16710000 47.53280000 -37.79740000
-7.93950000 41.66510000 44.56800000
-6.86580000 44.95120000 41.37840000
-3.91670000 41.27160000 45.62310000
6.80230000 39.71200000 46.52980000
2.77250000 41.46450000 45.51200000
8.53640000 43.34950000 42.77660000
10.74880000 2.04250000 -57.42290000
7.23940000 -1.99370000 -57.46210000
11.55700000 -6.92210000 -56.13300000
19.05180000 14.14490000 -55.10410000
15.63020000 9.90890000 -56.43350000
19.76640000 9.81090000 -55.20960000
-17.49510000 -64.31030000 -13.75340000
-18.77970000 -64.80850000 -17.24720000
-11.70720000 -63.85450000 -13.61090000
-22.81290000 -56.22390000 -17.79710000
-24.04610000 35.54370000 -44.35370000
-27.68530000 30.97180000 -45.10690000
-22.84130000 30.45920000 -48.00210000
-30.81680000 -6.69470000 -47.53700000
46.24150000 18.32790000 -38.44870000
42.05340000 16.50600000 -43.49750000
41.85470000 23.82390000 -40.97490000
-59.86190000 -0.73830000 -9.05110000
-58.33920000 -0.41690000 -15.95910000
-57.57660000 -9.21390000 -12.22650000
-56.11060000 23.15460000 -17.18980000
-56.97320000 17.91720000 -19.28540000
-58.91280000 17.46960000 -12.54580000
-43.90700000 23.32180000 33.76290000
-47.07970000 17.80030000 32.30890000
-50.54300000 -6.70130000 26.36300000
-53.45360000 -0.72900000 23.03350000
-50.38990000 0.53940000 29.23290000
11.26570000 60.12590000 35.48710000
7.45880000 54.88530000 34.80490000
8.30570000 54.83110000 34.47430000
-39.83020000 60.66410000 -4.48480000
-39.03430000 61.19330000 -4.56240000
-37.44820000 61.51580000 -4.75220000
-30.35950000 62.29020000 -3.99540000
1.70650000 62.94530000 40.76200000
3.24770000 62.39960000 41.74020000
2.97710000 63.22800000 39.17780000
2.44520000 60.38780000 45.39950000
3.59850000 59.42430000 46.34670000
3.50940000 61.13330000 43.98920000
26.87870000 -55.99840000 -1.64280000
22.89570000 -65.10920000 -16.71320000
24.49080000 -64.11770000 -15.96000000
25.22050000 -64.99880000 -13.18160000
5.26780000 63.60910000 -31.72180000
51.62000000 33.38330000 -9.01650000
51.75900000 30.33240000 -14.96900000
54.02780000 28.56400000 -8.10020000
43.95660000 40.65500000 -16.90670000
39.18040000 -45.87310000 9.89510000
40.10150000 -45.89940000 3.79250000
42.87980000 -42.65820000 8.07590000
58.81540000 4.79220000 -4.22400000
7.22460000 -64.47190000 15.87510000
12.61380000 -65.13390000 17.68550000
4.56090000 -65.14920000 22.57680000
48.29060000 56.83190000 -4.11710000
47.79850000 57.33220000 -4.25420000
47.73700000 57.46590000 -4.13910000
48.73480000 53.75410000 -5.71970000
48.41910000 54.08020000 -5.82990000
48.75870000 54.30170000 -5.51680000
41.20640000 54.69240000 -7.38320000
41.66450000 54.42510000 -7.52540000
41.79990000 54.18160000 -7.32710000
43.75630000 50.79860000 -8.92660000
43.64630000 51.15040000 -8.47600000
