24.61480000 93.32750000 40.32730000
42.03630000 94.07560000 -32.11850000
50.12020000 110.70530000 4.09180000
30.42940000 96.68590000 36.40400000
-46.34600000 115.71640000 13.65070000
-10.84430000 125.64860000 7.04260000
-16.71740000 125.16040000 24.47860000
37.13410000 96.43180000 -36.15640000
-46.62360000 112.43510000 13.63750000
-45.83810000 114.06520000 14.76770000
38.61230000 94.24550000 -35.70710000
-47.46930000 112.81760000 10.90390000
50.35050000 109.21570000 4.74470000
49.84700000 107.36680000 8.15810000
50.39130000 106.31130000 6.64010000
30.74950000 96.50710000 37.86770000
-47.35060000 109.80730000 12.50950000
31.69100000 95.82980000 37.37810000
48.83120000 107.44400000 12.13950000
34.02670000 95.00000000 36.22560000
-45.16760000 110.37400000 13.85960000
32.51350000 90.90410000 -37.62670000
25.23110000 125.63500000 -24.70390000
-48.07070000 114.51090000 5.90120000
49.31170000 104.25040000 10.91570000
-48.00500000 114.93470000 6.97060000
34.78130000 89.85740000 -35.48790000
34.60420000 89.15870000 -35.96600000
50.12900000 104.43890000 7.47690000
38.86790000 90.37860000 -31.14910000
-48.64710000 111.40200000 4.35850000
39.42250000 88.39590000 -37.26730000
38.47450000 89.04750000 -39.18550000
42.51330000 89.11190000 -34.27800000
47.73630000 108.70210000 16.08420000
47.90400000 107.50820000 15.40760000
35.46370000 88.15530000 -40.78990000
29.49930000 96.61460000 39.10180000
37.68110000 87.67470000 -36.94920000
34.04840000 87.62330000 -40.34740000
34.37640000 88.41240000 -37.02730000
37.86510000 88.25260000 -33.49290000
-48.15180000 112.24520000 8.37900000
-48.15640000 112.14320000 7.13640000
36.86170000 87.68550000 -35.93300000
29.90650000 95.26720000 39.96690000
28.67050000 95.87200000 39.98480000
40.25490000 87.60800000 -33.40320000
31.71890000 125.79540000 -29.68420000
27.82280000 95.30160000 41.67480000
46.69280000 101.76400000 13.40920000
34.18330000 125.59020000 -26.82080000
28.15440000 92.46870000 38.29430000
43.71470000 88.33880000 -31.37990000
45.00050000 89.21330000 -31.17860000
30.50270000 92.30800000 36.42170000
40.22190000 87.82250000 -34.82090000
37.60220000 125.13810000 -23.67740000
34.69800000 125.78700000 -25.78330000
48.08800000 104.48140000 14.54940000
48.65650000 101.67050000 13.92960000
35.54800000 125.00720000 -27.88710000
-48.64760000 110.95310000 5.39240000
47.58650000 102.40260000 16.33490000
32.37120000 93.61510000 40.05320000
30.25160000 93.12430000 42.06320000
34.04330000 92.34800000 39.24600000
38.69940000 124.22030000 -24.82300000
38.66110000 123.82900000 -26.23410000
32.39630000 91.38190000 40.70630000
33.25730000 90.25230000 39.71960000
34.52610000 90.73000000 33.19290000
30.65770000 90.64750000 36.59300000
30.98010000 89.80100000 36.66540000
49.27410000 99.11570000 11.15280000
35.96320000 122.68370000 -29.14500000
31.62060000 123.94550000 -30.85390000
32.11110000 123.30360000 -32.39170000
-49.24620000 108.58640000 3.53320000
26.09600000 90.69730000 39.53800000
36.66100000 123.85120000 -28.91340000
-47.51190000 107.14430000 4.49950000
33.39190000 87.77810000 -39.10230000
45.14640000 101.18660000 21.67810000
36.08170000 123.49980000 -27.03640000
-48.21580000 109.79690000 9.50960000
20.86260000 96.53000000 42.07750000
-46.93490000 110.30640000 7.80980000
-46.05520000 107.15110000 11.43660000
45.71720000 100.26680000 16.21660000
24.16120000 97.00620000 42.24800000
-48.63120000 109.61930000 7.70150000
-48.15100000 109.49550000 8.91230000
21.87170000 96.91430000 43.43280000
-47.81220000 109.03510000 11.45300000
21.04560000 96.47840000 43.56040000
23.27380000 95.72820000 43.66820000
-48.35550000 107.15470000 9.23960000
-48.91220000 108.95460000 5.76260000
-48.76820000 107.67610000 6.44120000
26.21980000 96.18890000 41.28720000
48.07130000 98.03490000 15.02620000
24.38390000 96.11360000 42.39390000
-49.07790000 106.44520000 5.47970000
-49.37780000 106.66410000 5.04970000
-47.30590000 103.38800000 6.73460000
24.99260000 95.14450000 43.55150000
-38.62980000 125.65890000 -21.59640000
-37.64750000 126.16680000 -22.12050000
-38.58280000 124.96380000 -23.63200000
-0.85230000 92.20680000 -49.57380000
-48.95160000 106.73770000 7.35720000
-4.57400000 90.19610000 -49.08700000
-0.69180000 89.70270000 -49.38230000
46.38560000 100.24350000 19.19850000
-49.38190000 104.30530000 5.84440000
-7.14330000 87.23890000 -52.75510000
-0.03710000 87.91820000 -54.03430000
-0.93930000 87.24480000 -52.92540000
-39.76980000 123.09010000 -19.50050000
-37.14910000 123.08000000 -24.39650000
-4.46690000 87.07470000 -52.44390000
21.05110000 96.02120000 43.80620000
-45.53340000 114.25970000 16.41900000
20.35010000 95.44040000 45.24980000
-45.35900000 113.07280000 16.95950000
20.19690000 94.52740000 42.74530000
-38.54340000 124.14040000 -26.13820000
-46.28520000 112.18600000 15.08000000
-39.03410000 122.47050000 -26.95330000
16.08860000 93.26820000 44.24680000
-8.37370000 88.71060000 -48.84640000
-45.13530000 109.79160000 18.50960000
-38.53210000 122.33810000 -23.80910000
-3.13200000 88.68660000 -49.44610000
-8.14100000 87.91680000 -49.27820000
-45.64660000 110.80450000 16.36030000
-39.98220000 120.74570000 -23.69210000
-40.37780000 123.73650000 -23.07440000
-40.45460000 122.33610000 -24.77050000
22.56560000 92.85280000 46.49360000
26.75560000 93.99980000 43.80940000
21.75580000 93.84370000 46.53320000
26.69210000 93.09150000 44.27620000
21.90700000 91.94490000 41.95370000
50.51930000 110.68290000 -6.21370000
-40.05890000 125.29850000 -19.92370000
-1.74180000 87.94250000 -50.10890000
-46.56060000 110.04410000 14.99980000
-42.07720000 123.79800000 -19.09160000
50.57920000 110.89100000 -2.16000000
20.81780000 90.58160000 42.59230000
16.44910000 90.48840000 44.37460000
-41.33010000 125.28820000 -17.15720000
50.57230000 112.22330000 -0.97800000
24.89700000 89.76890000 40.84760000
-2.12540000 87.41380000 -50.97880000
21.44340000 89.53350000 43.12580000
50.55750000 110.62620000 0.59010000
20.87330000 89.12450000 44.10110000
-46.12450000 108.81550000 16.17600000
29.02170000 91.83690000 42.95090000
-47.64930000 105.35020000 12.59420000
-42.13120000 122.63080000 -20.92870000
-47.05360000 105.40230000 14.13850000
-42.61270000 120.35430000 -22.80400000
-41.28120000 120.18980000 -25.14090000
50.69170000 108.65660000 -3.43780000
3.68370000 89.80820000 -49.38170000
50.60070000 107.90830000 -6.34550000
48.84350000 109.17300000 -3.05690000
-45.99240000 106.11430000 16.77170000
-46.51130000 105.57890000 15.91090000
48.60070000 106.97670000 -7.32670000
2.57030000 88.63510000 -49.73050000
-48.02260000 108.30580000 10.20950000
30.23810000 90.20640000 42.16680000
35.49400000 120.88960000 -31.98370000
25.20910000 91.12260000 44.98940000
4.26670000 88.03300000 -50.02470000
0.99740000 87.39970000 -50.94670000
50.86990000 105.71260000 -2.98410000
27.50090000 89.78990000 43.37730000
34.03730000 119.83610000 -34.18090000
32.30690000 119.61770000 -35.84480000
27.01350000 88.97850000 41.42880000
27.65260000 89.14270000 39.94340000
32.88180000 88.81160000 36.86470000
-48.33650000 105.76780000 10.29080000
32.90590000 89.11350000 35.93510000
6.89600000 87.57300000 -50.21860000
49.61540000 111.48080000 -12.30520000
49.57180000 111.42070000 -10.77180000
49.66110000 109.51900000 -12.01420000
-41.00320000 122.23550000 -19.10260000
29.27400000 89.33420000 41.96070000
50.39290000 107.34450000 -8.96840000
33.14010000 88.83030000 37.77760000
33.41380000 89.14010000 38.66570000
-39.06510000 120.18730000 -28.52230000
-38.42830000 120.42750000 -26.83010000
-49.13680000 101.82430000 6.45880000
-48.60110000 102.42470000 8.79860000
-39.58770000 117.90690000 -29.04360000
-38.32100000 117.16860000 -31.56410000
-0.55290000 87.01180000 -52.24160000
22.53400000 89.60470000 45.60420000
-41.17590000 118.05020000 -23.99770000
24.27140000 89.05830000 43.76000000
46.89380000 106.39130000 -15.81310000
23.05200000 90.32890000 45.90300000
48.50960000 111.29900000 -15.14020000
48.55050000 109.73070000 -16.20180000
49.80530000 107.62820000 -12.32170000
-43.25250000 118.95620000 -22.21270000
49.48530000 106.76040000 -14.28940000
47.93180000 102.11930000 -11.99900000
-42.13210000 116.46650000 -25.53110000
-7.01350000 87.81860000 -53.48910000
-19.64520000 125.63800000 29.46080000
-11.92690000 124.25650000 38.02320000
50.21320000 105.33740000 -9.42600000
-40.13250000 114.06520000 -26.87860000
49.95670000 104.65490000 -11.14310000
50.02300000 103.53680000 -11.81500000
49.31580000 103.09670000 -14.73890000
48.48100000 107.57160000 -16.15140000
-43.30830000 117.58280000 -22.47930000
43.14250000 96.28740000 -24.17880000
43.24160000 94.77160000 -24.73760000
41.86150000 92.38430000 -27.01850000
-41.94300000 115.91680000 -23.83780000
49.91240000 98.87350000 -12.10470000
-41.00380000 114.08640000 -27.99720000
43.81600000 97.72250000 19.92240000
42.90680000 96.70030000 21.74380000
41.43660000 97.25510000 24.11600000
41.86480000 89.42760000 -27.12520000
44.56440000 97.01530000 22.58060000
39.47940000 89.03190000 -30.84160000
46.53630000 96.87770000 18.52440000
44.87290000 95.87070000 21.44270000
43.56670000 96.95720000 19.97580000
40.85030000 87.70000000 -31.38480000
-37.84920000 115.28190000 -32.50010000
50.82040000 102.43490000 -5.90550000
-18.87370000 123.23650000 31.76940000
-15.17510000 122.46310000 37.81240000
-24.70780000 123.31070000 31.77320000
-38.83250000 116.40990000 -30.71940000
-20.09200000 122.34530000 37.33410000
-38.67400000 114.06790000 -31.44060000
48.96740000 99.82890000 -5.26990000
-20.05580000 123.22690000 38.02990000
-48.58590000 100.40510000 9.57720000
-46.76650000 98.44780000 9.35050000
-38.21430000 112.56050000 -32.23370000
-21.06710000 120.88150000 38.26080000
-17.76530000 121.81180000 39.25370000
44.99030000 92.40740000 -21.29650000
44.22320000 87.97670000 -29.57690000
45.17090000 87.83910000 -26.97190000
-39.67220000 112.83540000 -30.61450000
-47.90600000 100.89350000 11.70480000
42.48460000 95.93210000 22.99040000
41.10290000 88.26940000 -29.58100000
43.87300000 88.59610000 -24.45820000
42.85750000 87.95330000 -27.77040000
45.44070000 87.72680000 -25.02510000
48.81870000 97.96040000 -8.01180000
-46.63590000 102.70920000 15.73220000
48.46060000 89.18740000 -24.35940000
47.31400000 89.46790000 -26.82520000
48.15620000 90.49350000 -25.88820000
46.49470000 88.38950000 -27.25730000
46.31790000 89.50280000 -29.11350000
48.13080000 88.11720000 -22.66990000
42.43710000 96.03430000 25.67850000
44.79260000 95.07670000 21.84640000
42.41250000 93.94790000 23.10800000
43.93430000 95.89620000 20.14070000
50.81260000 100.72790000 -7.80110000
50.48150000 97.63660000 -8.90860000
41.46520000 95.34280000 27.29460000
42.69950000 94.55420000 26.34140000
-41.50680000 111.17030000 -28.09640000
44.45480000 89.74980000 -22.48250000
49.12560000 103.23860000 -0.37600000
45.39990000 88.00130000 -23.10350000
46.14110000 89.54570000 -18.65670000
-22.26710000 119.91960000 40.56410000
-19.36780000 120.70280000 41.34090000
39.51840000 95.84470000 29.64740000
50.72640000 107.49810000 0.89560000
-23.54630000 117.38020000 40.76330000
-21.74020000 117.91630000 41.38450000
-22.81770000 121.25620000 39.12400000
48.85750000 104.85610000 3.24790000
46.06010000 88.58910000 -19.89120000
38.85370000 92.63970000 28.17990000
-19.33550000 118.64800000 40.18640000
43.76080000 123.18920000 -16.29120000
40.41420000 124.68420000 -19.57580000
41.11210000 124.74580000 -17.08300000
39.12780000 94.40060000 31.87000000
40.21950000 123.95850000 -22.72100000
41.11130000 124.10900000 -20.87740000
-25.16560000 117.62970000 39.63750000
-49.59960000 107.48770000 -1.24140000
-42.91110000 122.17440000 -14.98040000
41.95630000 122.82750000 -22.32590000
-42.43490000 120.88200000 -18.53120000
41.80990000 122.08490000 -23.38360000
-21.60850000 115.61450000 39.99320000
-49.45330000 105.38750000 0.06210000
-43.42240000 121.79500000 -19.54640000
-44.40550000 120.11650000 -18.51710000
-49.53520000 106.99960000 0.94400000
39.67450000 122.98590000 -22.92800000
42.60140000 122.59110000 -16.80640000
-49.43460000 105.94230000 2.10490000
-15.70720000 117.47780000 42.09800000
41.45200000 121.87300000 -21.93300000
36.80520000 91.14730000 30.57010000
-19.89670000 117.46550000 42.51850000
-42.59380000 118.19300000 -21.13110000
43.54360000 90.84300000 29.70000000
40.36790000 90.76020000 33.28440000
41.60700000 89.77350000 31.42000000
-17.46300000 118.47590000 43.56930000
45.27080000 121.64570000 -15.69900000
44.45360000 121.50370000 -18.94750000
43.67060000 122.57480000 -18.77730000
46.83900000 119.72980000 -13.88080000
43.38010000 121.08570000 -21.96020000
-47.87650000 104.53790000 0.91330000
-18.16600000 115.32940000 41.64800000
-49.63130000 103.74380000 -3.45810000
39.48320000 88.61130000 31.24810000
43.37610000 88.66130000 27.23670000
39.14740000 88.89000000 33.12810000
42.07590000 120.19170000 -22.88870000
40.70330000 121.31370000 -24.23500000
43.52220000 89.41400000 28.73970000
45.95660000 90.03780000 26.25700000
45.86780000 91.45570000 26.48440000
47.11290000 90.48710000 24.58070000
45.41100000 89.08270000 25.62560000
41.85200000 120.69700000 -25.21300000
43.95810000 118.28860000 -23.21250000
44.46660000 119.07700000 -21.37950000
-49.60020000 102.16510000 -1.72090000
51.00280000 106.29850000 -1.14570000
43.84800000 121.03270000 -17.68380000
-43.98670000 119.25710000 -16.59550000
-49.60970000 105.89870000 3.67950000
43.01300000 120.46040000 -20.85950000
37.08190000 90.48140000 36.57570000
37.62230000 92.44470000 35.80660000
-24.09270000 113.95170000 39.11600000
44.67570000 119.98540000 -20.62750000
45.56260000 118.88700000 -19.14100000
50.86580000 104.79210000 0.42700000
43.77220000 119.28960000 -20.26090000
-49.54390000 103.32480000 2.51460000
37.43910000 90.11800000 30.39440000
42.90640000 117.92210000 -22.56200000
36.47990000 89.50640000 32.11090000
46.07310000 119.55140000 -17.11510000
-49.36130000 103.44560000 4.16860000
50.97540000 101.59580000 -1.81730000
14.29440000 125.92360000 -42.62190000
38.03550000 88.80350000 31.78910000
45.98250000 116.98230000 -20.10590000
-49.63040000 103.20930000 5.07020000
-44.21930000 116.27510000 -18.21010000
40.31880000 91.92830000 33.48250000
45.54720000 116.12170000 -21.14610000
50.55210000 106.56260000 4.97140000
-29.78340000 127.60920000 6.71270000
39.51610000 89.54050000 33.75460000
48.35400000 104.36650000 5.93890000
40.63830000 88.60560000 28.75150000
-28.00380000 115.66550000 38.45460000
-30.39010000 115.91170000 36.42540000
36.27850000 89.47430000 36.75010000
9.19080000 125.24400000 -45.79200000
-48.05930000 101.25130000 -0.97300000
-47.90510000 99.11450000 -2.61980000
12.66980000 125.60730000 -44.23920000
13.77830000 124.43970000 -45.24020000
11.21170000 124.67680000 -45.55430000
-29.95230000 113.25220000 37.34420000
41.60500000 123.68270000 -12.47740000
50.81450000 103.34660000 2.61160000
10.67630000 123.91240000 -46.77720000
-33.32890000 111.75750000 34.69860000
-30.94730000 111.03740000 36.76320000
46.23160000 121.94080000 -8.71960000
43.34120000 123.87550000 -13.32930000
-44.61460000 115.66760000 -20.93330000
-47.37950000 100.07190000 4.81850000
8.14730000 122.46480000 -48.16700000
11.43680000 122.58220000 -47.47030000
44.37700000 123.59420000 -7.66910000
-37.39180000 110.51960000 30.64060000
14.30920000 123.43300000 -46.19320000
-43.73390000 113.06230000 -23.65420000
-41.72430000 110.30830000 -24.83540000
-34.91250000 110.50470000 33.30420000
44.53190000 96.96820000 18.46260000
45.66530000 96.79630000 15.86930000
-47.87160000 94.86830000 2.85310000
45.86280000 95.47300000 15.90590000
-49.35710000 102.08580000 3.40780000
47.11290000 95.65970000 16.94020000
45.07860000 93.45240000 17.51920000
50.78320000 98.77710000 2.27860000
-49.67100000 99.65510000 -1.50070000
46.83240000 93.44840000 21.92610000
46.82860000 94.66260000 18.71400000
-49.41130000 99.83430000 3.80410000
50.31250000 100.55940000 5.86660000
-49.51550000 97.91560000 -0.14350000
43.81930000 90.88040000 20.18950000
41.61510000 90.99800000 24.09330000
-47.89680000 94.23900000 0.48240000
-36.17890000 109.75720000 32.02530000
-49.47590000 99.05720000 -5.51800000
-9.16860000 127.23910000 -41.04980000
-5.64330000 127.63680000 -40.05650000
45.53750000 122.75170000 -1.69440000
-44.77060000 108.59160000 -22.74950000
46.09370000 90.77900000 14.41570000
45.43560000 89.68830000 16.81770000
45.02740000 88.89260000 19.48340000
46.71190000 89.05630000 14.44300000
46.03250000 88.43650000 19.80060000
50.32720000 89.17320000 16.14010000
50.58620000 90.07670000 17.11040000
49.45480000 89.51750000 19.12430000
50.17440000 90.92170000 18.18220000
48.38240000 88.42760000 17.03490000
48.54200000 88.80520000 19.67650000
-40.23480000 108.82920000 -27.50730000
48.69850000 89.64360000 21.12130000
-36.93590000 108.16560000 31.77160000
-43.76410000 108.91090000 -24.42800000
-49.77770000 97.90680000 -3.14690000
-49.59100000 96.96320000 -4.46770000
-11.90030000 127.91020000 -36.53920000
-49.07710000 97.04340000 -9.01790000
47.86220000 88.54340000 12.40570000
-38.86690000 109.79390000 29.28980000
48.56350000 88.21500000 13.15610000
44.89100000 121.06270000 -14.30240000
45.27260000 121.53850000 -9.62220000
-47.65020000 96.05430000 -4.79050000
-40.25210000 106.62480000 27.95620000
42.75600000 89.66260000 22.74380000
42.70080000 88.97490000 23.78460000
43.60640000 88.45740000 24.03930000
47.56690000 89.43330000 22.80480000
46.95790000 88.64990000 21.71880000
-49.63830000 96.16230000 -6.70350000
-49.75540000 95.95370000 -7.84060000
-49.67390000 96.15130000 -4.25490000
-44.53000000 104.53060000 -23.41460000
-51.35060000 95.32720000 -5.93550000
-50.14780000 95.99330000 -10.35680000
50.82690000 99.14560000 -7.42080000
50.93380000 99.00810000 -5.16820000
-39.34010000 106.98810000 28.78900000
-39.08600000 105.74220000 29.43670000
39.54420000 90.74260000 27.24090000
-36.16940000 113.29470000 -34.76930000
39.64620000 89.53380000 27.94120000
40.16430000 88.84020000 28.18140000
50.93870000 97.23040000 -2.58410000
50.67700000 95.53500000 -6.30420000
-36.54150000 111.02560000 -35.01010000
-49.37590000 96.22440000 -2.28200000
45.34280000 119.66180000 -15.59080000
-49.38940000 96.04240000 0.80960000
-49.66260000 95.80940000 -1.51650000
47.27140000 120.34720000 -10.96960000
-38.14100000 110.73080000 -33.01900000
-51.13350000 95.41000000 -1.69390000
50.79520000 95.40700000 0.35650000
50.94820000 95.73010000 -2.56770000
-47.99670000 92.35650000 -1.50040000
-39.80640000 108.74640000 -31.19540000
-40.42730000 106.94910000 -30.13700000
-15.51440000 116.15540000 44.60640000
49.12850000 93.42740000 -6.04610000
-49.39500000 101.91470000 4.76900000
49.29720000 94.01330000 0.38410000
-15.79720000 114.40830000 44.71410000
-49.08670000 100.78940000 5.32400000
-39.03060000 109.58370000 -31.78010000
-13.89260000 113.47030000 45.53390000
-11.74540000 113.34320000 46.23070000
46.41890000 119.51270000 -11.15570000
-38.36610000 108.16360000 -32.59180000
48.37180000 118.32650000 -10.05330000
-38.73040000 107.47020000 -31.93670000
-9.68510000 112.43980000 46.87740000
0.47300000 100.10440000 46.68110000
51.29980000 94.63740000 -5.67490000
5.58370000 98.53300000 46.32460000
51.31920000 94.60240000 0.22780000
-48.81890000 100.29700000 7.82460000
47.90090000 117.51250000 -12.93270000
6.87330000 99.86470000 48.12330000
3.45430000 101.35010000 48.42190000
-12.06710000 111.68580000 46.11050000
47.02800000 118.06410000 -9.94430000
-6.10040000 111.90470000 47.55600000
-4.81790000 111.97600000 47.81490000
-48.93070000 97.51660000 6.00100000
-48.63080000 97.59660000 8.44480000
-7.88860000 112.92580000 47.30400000
10.79350000 98.97370000 47.22770000
45.53000000 98.65940000 -19.52990000
45.44850000 106.34480000 -19.83360000
-49.33380000 97.47090000 3.06200000
48.82700000 102.92270000 -16.39340000
47.96900000 108.98870000 -17.96980000
47.78490000 103.95570000 -19.05230000
47.63250000 101.03350000 -19.63730000
-41.83560000 106.63900000 -27.93610000
-7.81520000 110.33990000 47.65380000
47.37120000 98.10710000 -14.44990000
-42.75720000 105.27260000 -26.81570000
-47.56210000 96.28050000 5.35710000
-4.07540000 111.11940000 47.80130000
46.69900000 117.70850000 -17.94580000
-49.00230000 96.15120000 4.06060000
47.75780000 116.99190000 -15.11090000
47.08000000 117.26550000 -16.45860000
4.69170000 98.28490000 48.23990000
45.40610000 117.07650000 -16.93600000
-48.37750000 97.06510000 10.01680000
9.57340000 97.22880000 47.33450000
5.52130000 96.99530000 48.07010000
7.02170000 96.51340000 48.10730000
-5.78070000 108.91670000 47.58390000
2.25330000 97.17230000 48.29020000
-4.55600000 108.93360000 48.06620000
46.47760000 97.13200000 -17.12240000
-5.28580000 108.05240000 47.79340000
44.76100000 114.02500000 -19.88310000
13.07510000 97.36990000 46.67420000
-48.22790000 95.74420000 9.44480000
-48.53400000 96.06610000 7.97050000
8.93540000 94.69640000 46.15660000
-42.53970000 101.33710000 -23.69040000
47.75460000 115.52120000 -16.07270000
46.61640000 116.31270000 -18.60330000
-4.18970000 125.92040000 -45.68310000
46.35480000 112.58970000 -20.92300000
-5.41970000 125.45890000 -45.97720000
-1.04800000 110.69480000 47.82400000
-0.76530000 108.33120000 48.22070000
-9.04830000 126.28330000 -44.05890000
11.59480000 96.33960000 47.38140000
-48.99280000 95.62430000 6.59130000
-50.48340000 95.30990000 2.76110000
-50.08920000 95.26970000 8.37080000
1.26150000 106.77110000 48.36980000
48.41850000 115.69420000 -12.68100000
48.75990000 114.42730000 -13.28370000
-7.91010000 125.32500000 -45.86780000
-10.80110000 125.49010000 -44.73970000
44.18670000 96.21410000 -22.36110000
48.53180000 112.50520000 -15.10720000
-11.19140000 124.50000000 -46.10180000
-8.03320000 123.08130000 -47.81220000
-13.99640000 123.06120000 -46.26850000
13.95460000 95.66620000 47.66950000
47.28790000 112.85520000 -18.91240000
-5.60350000 126.31980000 -44.62640000
45.37140000 96.11640000 -20.21220000
44.73740000 96.47090000 -20.87770000
-49.70970000 95.47610000 1.67090000
47.24360000 110.05970000 -19.67700000
46.49780000 95.58590000 -21.49700000
6.70430000 95.57810000 49.26090000
-52.92080000 92.62190000 2.78440000
-53.16550000 92.50710000 -4.00810000
-52.71180000 91.23020000 -0.11810000
1.79170000 103.72440000 48.41660000
45.71460000 95.05110000 -20.01140000
-52.66410000 89.99220000 -0.40110000
-52.41800000 89.75600000 -2.70020000
10.35080000 94.48270000 49.86010000
5.16630000 93.54290000 51.28270000
7.96390000 92.61900000 51.09560000
-14.26100000 128.63900000 -26.99870000
8.56400000 91.28940000 51.10550000
12.62590000 91.93190000 50.00650000
49.11090000 97.02280000 -15.29400000
5.03620000 91.96410000 51.56000000
48.77560000 112.92270000 -13.93110000
6.26760000 90.75840000 51.15820000
48.10910000 96.29810000 -18.06430000
-11.33600000 122.59200000 -43.66000000
13.29620000 90.86520000 49.69670000
10.49770000 90.03240000 49.88140000
-8.76030000 121.33310000 -46.20520000
17.51770000 91.73570000 48.50530000
20.14240000 91.98080000 47.42390000
18.49560000 93.25280000 47.92370000
-13.13460000 121.38460000 -47.40610000
46.08350000 112.01970000 -17.38790000
-45.36380000 102.41730000 -21.58170000
49.52500000 95.28140000 -13.19240000
47.36870000 95.21380000 -14.99910000
16.27600000 89.52410000 45.19410000
17.64850000 88.98540000 46.18310000
47.91670000 95.27810000 -17.87510000
18.56050000 90.35580000 47.86720000
15.68220000 89.66400000 48.33820000
39.39680000 122.67490000 -26.98610000
18.49680000 89.13960000 46.64990000
-27.11790000 114.43280000 39.02070000
48.66360000 94.63250000 -16.89280000
50.31630000 94.67460000 -11.32080000
13.52590000 93.32930000 49.56080000
-22.57740000 114.77520000 41.77690000
38.86060000 122.16230000 -26.34140000
-18.05610000 116.89380000 43.64450000
-20.03080000 114.93820000 43.06500000
40.77370000 119.79280000 -25.80700000
39.26850000 120.06940000 -27.80190000
11.11870000 89.16350000 47.82460000
11.72750000 89.26370000 48.52110000
39.31360000 121.96850000 -28.36790000
-44.10520000 97.98400000 -20.45310000
37.79950000 121.48980000 -30.74540000
46.29350000 94.77110000 -22.17790000
-44.29280000 97.90770000 -24.18070000
37.59680000 121.40690000 -29.19330000
40.16730000 120.67220000 -28.18110000
40.27350000 118.55650000 -29.08430000
-20.59100000 112.98920000 41.25220000
-46.00680000 99.89550000 -20.44680000
50.39950000 89.82970000 -20.51160000
49.39110000 90.68360000 -23.42840000
50.82980000 90.92340000 -19.57400000
-46.27100000 100.62100000 -19.24640000
1.33880000 97.33750000 46.94880000
-18.85170000 114.32870000 43.47080000
-20.01320000 113.39800000 43.36690000
38.86380000 118.69620000 -28.95310000
36.34100000 119.85280000 -31.80490000
-12.34710000 126.86150000 -41.71780000
-22.45750000 110.91530000 42.55360000
0.80970000 97.29560000 48.46430000
47.11750000 92.32850000 -15.82280000
1.22140000 95.16750000 47.22610000
-12.32540000 125.92230000 -44.13070000
-16.47060000 126.25960000 -41.65230000
-14.16780000 125.26460000 -44.15120000
42.70640000 118.33530000 -25.64470000
48.96960000 93.54670000 -20.10890000
-16.28710000 124.27110000 -44.46380000
-15.86880000 125.46080000 -43.40310000
1.86010000 96.50690000 48.68580000
37.51480000 117.40530000 -33.26980000
-18.69670000 124.37710000 -43.41600000
-26.12630000 111.90060000 38.06800000
5.60130000 94.73420000 46.81800000
-46.75490000 97.96540000 -18.75770000
42.78650000 116.79520000 -26.03930000
41.30540000 116.57390000 -28.65420000
1.53300000 95.59400000 49.88770000
-45.37810000 97.09360000 -21.81710000
-26.04350000 112.37910000 40.19320000
3.48720000 92.28390000 46.95670000
-46.14960000 96.65410000 -20.32800000
-28.15110000 112.68080000 38.76060000
51.82450000 90.41420000 -15.48870000
51.58750000 89.09760000 -15.61850000
51.60380000 91.94280000 -16.18080000
-46.07240000 96.29120000 -21.81820000
-45.11110000 96.19140000 -22.69430000
-46.82070000 96.15840000 -20.15990000
-47.60330000 96.13190000 -20.25190000
12.20260000 91.18220000 45.53640000
49.70460000 88.79600000 -21.04140000
48.52530000 87.71420000 -19.41460000
50.08860000 88.18150000 -17.99650000
47.75430000 87.89700000 -18.85330000
47.53190000 88.43130000 -16.65820000
8.77040000 90.80800000 46.49470000
5.20320000 90.57430000 47.04460000
42.57910000 113.05060000 -24.32440000
40.35030000 112.30900000 -28.18040000
48.31260000 92.99440000 -11.22460000
11.59180000 89.95930000 46.27120000
-47.11690000 96.76560000 -17.61120000
-11.06680000 123.59740000 -40.69300000
3.82300000 89.99720000 47.60160000
7.79990000 89.54130000 47.70270000
37.54760000 115.97540000 -31.16340000
50.13820000 95.79390000 -9.84590000
-25.41350000 110.91780000 40.87820000
-23.74710000 111.73740000 41.55650000
-47.89830000 96.44180000 -15.91750000
13.41920000 89.24330000 46.63710000
-48.75260000 96.21310000 -16.37950000
-14.33520000 121.93700000 -44.05040000
-0.67730000 96.07750000 49.05700000
-22.06480000 108.93500000 40.95340000
-1.98610000 95.18040000 50.34800000
-48.54370000 96.84050000 -13.03090000
35.03640000 116.80800000 -33.74620000
-48.96910000 96.17620000 -13.50750000
-50.36710000 95.80660000 -13.09070000
-27.41490000 109.41830000 39.66510000
-1.74900000 91.97420000 47.15570000
-48.89670000 96.54170000 -11.35850000
-18.37810000 122.49590000 -44.87550000
-46.45860000 95.03230000 -12.82960000
0.57300000 90.88120000 47.27290000
-4.42520000 90.43300000 47.42660000
-50.28010000 92.47790000 -19.77600000
-49.30060000 91.67610000 -21.98870000
2.04910000 92.65750000 51.57620000
1.80780000 94.13890000 51.25590000
-0.46940000 93.19620000 51.55540000
52.25310000 93.83960000 -6.52440000
2.71680000 91.39650000 51.64150000
-24.26460000 108.65410000 41.97980000
-51.63150000 90.61100000 -11.40460000
-51.72090000 92.80150000 -13.79280000
-0.56310000 89.95650000 47.86690000
-51.52570000 89.34840000 -10.17720000
-1.90200000 89.51020000 48.43430000
3.15460000 89.43130000 48.48960000
-20.14710000 120.57490000 -45.12170000
-16.73390000 120.02440000 -46.60670000
-3.70810000 92.06230000 51.46340000
49.18870000 90.38590000 -3.28580000
48.60460000 89.95450000 -9.06060000
-1.93010000 91.44910000 51.57040000
48.96260000 88.81520000 -10.08140000
38.40140000 115.62530000 -33.12940000
-52.82500000 93.10050000 -7.50240000
-52.64560000 90.90090000 -5.31900000
39.89440000 114.39200000 -31.45780000
-51.81790000 88.98750000 -7.07920000
47.42340000 89.33170000 -14.73510000
-5.65200000 90.57630000 51.13420000
49.82820000 87.90870000 -12.38050000
-3.08920000 90.02050000 50.96260000
-0.21910000 90.57230000 51.32120000
-17.37370000 119.53110000 -44.97490000
49.58410000 88.84930000 -6.00440000
-19.58970000 118.20420000 -45.96630000
-17.08410000 115.45990000 43.85080000
2.72390000 90.01910000 50.97250000
-27.06610000 124.81780000 29.03670000
4.25330000 89.40840000 49.79320000
-16.55760000 111.40580000 44.99580000
50.12870000 87.81060000 -14.14560000
50.77940000 88.01020000 -14.42310000
-18.99400000 109.72410000 44.34310000
-47.86130000 90.41520000 -2.10560000
41.91450000 113.46310000 -28.99910000
-47.89960000 90.54840000 1.48170000
44.94540000 115.16060000 -23.02280000
-48.23350000 89.60320000 1.42840000
-20.23510000 109.93490000 43.61390000
53.55850000 90.63210000 -1.32640000
53.55480000 90.57330000 -6.60950000
53.58560000 92.03440000 -5.87900000
53.30870000 92.51710000 -0.58790000
-17.70400000 111.20910000 42.86400000
7.25320000 89.62430000 50.10560000
-17.50930000 124.08930000 27.96900000
-18.67090000 107.87860000 42.74420000
44.16460000 112.59910000 -25.27330000
52.83950000 89.88770000 -11.34630000
52.68620000 91.08970000 -12.69290000
52.12640000 88.60780000 -11.79990000
52.06180000 88.06000000 -8.79860000
-14.20240000 110.20070000 45.93770000
-42.69140000 96.76630000 -26.92750000
-21.79800000 109.54130000 43.16800000
-42.82660000 92.86750000 -22.94620000
40.14320000 111.18140000 -32.04900000
-43.88710000 96.29140000 -24.93010000
-44.25370000 95.81960000 -24.99930000
-45.56310000 95.88380000 -23.65570000
43.13210000 109.71540000 -28.03000000
-15.89640000 108.28500000 45.67550000
40.91240000 109.65100000 -31.08080000
-43.10210000 96.10960000 -26.11700000
-42.50780000 95.91280000 -27.60080000
-43.58410000 95.76910000 -26.42260000
-12.47930000 120.43190000 -46.12190000
-40.73350000 90.95080000 -26.43010000
-19.99500000 106.35150000 44.14530000
-17.01830000 106.28020000 45.58650000
-13.02610000 118.24510000 -46.89080000
49.03960000 96.59620000 2.42360000
-45.27650000 88.91940000 -27.42770000
-13.15200000 117.34580000 -48.57880000
-45.69390000 90.35910000 -27.62730000
-46.03330000 91.55070000 -28.66550000
-47.18800000 90.42900000 -25.16160000
47.66320000 99.08890000 9.78370000
42.04200000 107.52260000 -30.06200000
-24.75660000 106.36770000 42.01880000
-22.95960000 106.58570000 42.72750000
-42.18260000 88.24260000 -25.77260000
-39.98350000 88.48140000 -28.74580000
-41.93670000 89.43030000 -24.49360000
-44.11820000 92.11720000 -19.71030000
-43.25790000 90.01030000 -21.48040000
-22.53590000 104.82770000 42.79610000
-43.84850000 87.95680000 -28.77720000
-43.24900000 87.69500000 -28.22020000
-46.38280000 88.08370000 -23.69010000
48.47370000 96.37010000 6.42070000
46.05400000 112.38430000 -22.12170000
45.53490000 107.44970000 -23.95010000
44.50110000 108.10030000 -21.47220000
46.57620000 110.45590000 -20.54340000
49.94130000 96.67080000 8.38950000
-22.21600000 103.57440000 43.47510000
-17.39300000 116.19390000 -45.84610000
-24.83320000 104.36090000 41.75570000
50.39880000 95.73490000 5.31630000
50.49680000 94.84530000 6.43730000
50.06550000 95.50550000 6.52650000
-23.84760000 102.39400000 42.46030000
48.29210000 93.36130000 8.63780000
49.12370000 95.55320000 11.01770000
49.25810000 94.84660000 11.83310000
50.06320000 94.37260000 11.34680000
51.89320000 93.71000000 6.41850000
53.32000000 91.80120000 2.39530000
52.34930000 92.75150000 8.18230000
-20.59050000 104.25140000 44.29720000
-21.74190000 102.64610000 43.51150000
-45.12510000 90.30810000 -16.64560000
42.68090000 107.10290000 -25.38430000
-22.02770000 101.39560000 43.46360000
-47.81270000 92.41740000 -25.56810000
41.16830000 105.38030000 -27.88110000
-48.64730000 89.15610000 -20.94470000
-47.03700000 88.64350000 -23.69300000
-22.93770000 101.80210000 43.23890000
48.98330000 93.23480000 5.04300000
48.65720000 90.85850000 6.06570000
49.05380000 89.81940000 4.07590000
49.39260000 89.32310000 0.04470000
1.94550000 126.80420000 -44.02540000
4.63910000 126.47210000 -44.35090000
0.59700000 126.34060000 -44.64060000
49.14970000 88.92410000 5.60910000
49.84280000 88.43160000 4.53430000
49.81550000 88.62600000 -1.15480000
47.81910000 108.57530000 -19.06250000
46.61610000 107.89980000 -21.90440000
3.63310000 127.04440000 -42.63670000
47.09390000 107.23840000 -20.30820000
47.44260000 96.25980000 11.29640000
48.12180000 105.50700000 -18.49620000
48.49740000 95.95480000 13.36050000
47.83580000 95.09470000 15.29580000
47.16360000 94.02100000 12.59430000
51.52120000 90.79350000 13.13170000
47.60570000 90.17450000 10.52600000
48.13460000 89.46170000 9.04940000
49.41980000 88.14890000 8.23610000
-25.54270000 95.98110000 -47.16350000
-28.59850000 95.97630000 -45.39940000
-35.13660000 95.15940000 37.59920000
-26.66900000 94.87190000 -48.51990000
-37.29650000 94.18650000 37.08320000
-32.83000000 94.55710000 39.93840000
-48.61600000 94.87070000 18.88880000
-50.05010000 94.47460000 16.35190000
-30.46040000 95.07790000 -45.96130000
-50.10870000 93.47880000 18.37810000
-40.18030000 94.40960000 34.02970000
18.47940000 92.20370000 -51.66190000
12.77550000 92.97620000 -52.99460000
17.96090000 93.28420000 -51.12800000
-47.90340000 94.32620000 22.02440000
-17.40240000 95.31400000 -51.38120000
24.11900000 93.10530000 -48.58260000
-39.40150000 92.92560000 35.89550000
-21.72610000 95.40320000 -49.77210000
-24.89790000 94.79140000 44.33400000
-46.25180000 94.17940000 25.50990000
-45.74610000 93.75960000 26.85440000
-47.22500000 92.26990000 25.07070000
-48.09280000 93.19690000 23.18360000
-15.28400000 94.54020000 -53.02180000
-9.27270000 94.66350000 -53.50790000
-8.96870000 93.59490000 -54.57490000
19.97990000 90.96540000 -51.30420000
15.13840000 91.04200000 -53.05850000
-49.36790000 92.82600000 20.84720000
24.98460000 91.49650000 -49.20850000
-50.42930000 91.50930000 18.64790000
-2.64190000 94.67740000 -53.52890000
-18.85940000 94.65850000 47.28930000
28.45130000 92.58780000 -46.79290000
-50.91280000 93.82990000 15.08370000
-51.01070000 94.63640000 10.97720000
-51.73660000 93.58450000 11.94690000
-52.41610000 94.04930000 6.03830000
-52.52360000 92.73330000 8.87130000
31.05010000 91.90310000 -45.50840000
33.30760000 92.66630000 -43.09710000
28.68770000 91.38870000 -47.32880000
30.27000000 90.47130000 -46.36800000
-51.18360000 92.49650000 15.87010000
-14.90360000 91.03290000 -53.83430000
-11.79360000 88.80760000 -53.65600000
24.71890000 90.47540000 -49.43910000
-26.90830000 90.02600000 -48.26100000
-30.60490000 89.46510000 -45.20900000
-22.75520000 90.39260000 -50.57930000
-22.22780000 87.98080000 -49.13260000
-35.50970000 93.38100000 38.89470000
2.02300000 93.70970000 -54.52150000
-43.24630000 95.20390000 28.39030000
-2.96040000 93.99680000 -54.46370000
-1.66710000 92.84890000 -55.32410000
-44.25670000 94.56480000 28.28620000
-41.84910000 94.69740000 31.67520000
-43.37440000 94.03320000 30.35990000
-35.91010000 95.72830000 -39.87140000
6.14130000 93.54190000 -54.15870000
-41.93150000 93.02310000 33.12650000
-34.90740000 94.95390000 -42.50290000
9.84540000 92.73510000 -53.88160000
12.18500000 91.20030000 -53.85870000
7.38720000 92.14730000 -54.55130000
8.19010000 90.74560000 -54.61420000
-40.10830000 95.44110000 -35.21520000
3.43370000 92.64740000 -55.31210000
1.38470000 92.09570000 -55.44960000
3.23660000 91.03720000 -55.32440000
-1.68190000 90.73770000 -55.39220000
-0.12110000 89.13160000 -54.86720000
-43.76770000 94.83020000 -31.02260000
-42.41400000 94.49270000 -33.75190000
7.80090000 89.47760000 -54.40970000
-44.67460000 93.56800000 -31.18170000
-43.47550000 93.10120000 -33.39880000
-44.51000000 92.09780000 -31.65170000
-42.62380000 91.41090000 -34.43210000
-52.34550000 94.58660000 0.18520000
-52.51110000 94.39290000 -6.53890000
-51.41520000 95.01130000 5.25180000
-36.02680000 89.71440000 -40.70910000
52.51500000 92.83400000 -10.46540000
52.67330000 93.58110000 -0.86790000
12.52560000 89.51610000 -53.62110000
-40.38620000 90.51650000 -36.95750000
51.54140000 93.22510000 -13.25380000
49.98450000 92.17470000 -20.77740000
-53.06390000 93.63250000 -3.66550000
-52.88170000 93.66550000 1.64590000
-40.01730000 92.50990000 -37.79930000
-37.41860000 91.52380000 -40.55930000
-38.66820000 89.71160000 -38.52910000
44.70560000 93.24820000 -29.46300000
47.87350000 92.08530000 -25.61190000
40.73970000 93.33890000 -35.21000000
-46.86100000 95.49750000 -24.19530000
-32.34220000 90.72750000 -44.84680000
-49.52410000 95.61130000 -18.11340000
35.68920000 93.89130000 36.49800000
-48.06590000 95.00810000 -23.29830000
-47.97240000 93.69470000 -25.03810000
-46.07710000 94.68540000 -27.41510000
43.14590000 92.26690000 -33.57140000
-49.34410000 94.20290000 -21.79710000
37.09530000 92.69730000 -39.64410000
17.15400000 94.57600000 47.64310000
40.02160000 92.08690000 -37.37560000
42.20100000 91.28150000 -35.43180000
-51.05290000 95.19840000 -13.87370000
39.95270000 90.28790000 -38.07000000
-51.01920000 94.60750000 -16.00720000
-50.02090000 94.95410000 -18.88040000
-50.85760000 94.01180000 -17.69590000
37.32370000 91.09230000 -40.51150000
35.60030000 89.77830000 -42.04980000
-52.07870000 94.02580000 -11.62490000
52.99240000 91.91000000 -10.70140000
45.28330000 93.12830000 25.50340000
-49.75490000 93.07060000 -21.48400000
45.33240000 91.41380000 -30.82850000
47.59010000 91.98230000 23.09610000
48.45890000 91.19040000 21.94540000
-51.83360000 94.83780000 -10.39340000
42.82820000 90.43870000 -34.77300000
42.12010000 93.06110000 30.15390000
44.06200000 92.42650000 28.39010000
44.67050000 90.33420000 -32.23340000
42.31250000 91.69490000 31.09980000
40.01380000 93.23220000 32.72320000
33.46040000 91.45400000 -43.77390000
50.21830000 93.39600000 14.14520000
51.48040000 92.15770000 13.00250000
-45.75940000 92.80480000 -29.62410000
-46.14730000 93.67480000 -28.53060000
49.71620000 92.15460000 18.27950000
-10.58010000 90.57070000 -54.66290000
-6.09040000 90.13460000 -55.12740000
5.05570000 94.80670000 50.46160000
-3.98860000 92.14860000 -55.63790000
-29.93740000 93.55850000 -47.47980000
-7.50100000 91.77530000 -55.16880000
-32.51670000 92.48300000 -45.32270000
-28.77760000 91.67930000 -48.09110000
-19.69980000 94.08790000 -52.22430000
-15.37740000 93.37520000 -53.97400000
-12.75730000 92.62200000 -54.39990000
-18.68830000 92.76960000 -52.86000000
-23.12340000 93.03330000 -51.18660000
-23.65710000 91.82780000 -50.76660000
-27.25420000 93.55770000 -49.43660000
-39.04190000 94.48540000 -38.93570000
-40.13520000 94.47150000 -36.78200000
-41.13000000 93.26190000 -36.21890000
-37.41850000 93.59150000 -40.66800000
-34.69570000 94.00990000 -43.34490000
2.66040000 124.26640000 18.82290000
-6.23420000 124.61940000 25.34100000
5.32680000 122.98370000 27.17960000
9.60920000 122.27410000 23.62520000
9.31640000 122.84850000 18.41980000
0.83200000 124.42800000 14.44410000
-6.93250000 125.08540000 9.69860000
14.42580000 124.69410000 5.20380000
10.79780000 125.08920000 -4.05800000
10.50210000 123.54480000 12.11920000
6.33220000 123.55630000 14.83800000
17.61330000 122.81960000 14.96240000
7.67500000 123.55420000 8.72380000
2.80520000 123.25610000 -0.33390000
2.81080000 123.29610000 6.52560000
-1.18730000 123.26270000 -1.39400000
-3.58050000 123.66390000 5.21090000
15.26590000 124.02870000 10.03870000
4.84220000 123.89000000 -4.08210000
10.28520000 124.22190000 1.92130000
2.18890000 123.65680000 -4.34170000
-0.22760000 123.86020000 9.99670000
29.37260000 124.14880000 9.27040000
25.78030000 123.46120000 12.34310000
-4.27200000 123.51590000 29.64640000
-13.47230000 122.62830000 34.77840000
3.69530000 122.72870000 35.03940000
-6.73600000 124.93950000 35.92360000
0.40010000 125.72220000 32.44400000
-2.45090000 122.63680000 39.04820000
21.53060000 121.01970000 37.24740000
35.90200000 121.59820000 21.99590000
28.59740000 120.63530000 32.20590000
27.64340000 124.30630000 29.49530000
25.73010000 123.52730000 34.05820000
14.35970000 121.95470000 36.37460000
31.18390000 121.23250000 27.48890000
41.54470000 122.29180000 10.27280000
5.60870000 124.31760000 38.96790000
-5.13370000 123.72990000 2.18660000
44.75690000 122.74860000 5.09570000
42.13440000 123.43730000 10.96620000
-5.11940000 123.77940000 -1.34060000
-2.20450000 123.73420000 -4.06060000
12.75500000 121.87500000 30.08920000
13.84340000 121.80880000 23.13430000
22.66590000 121.22780000 29.21720000
13.64040000 122.24980000 18.69320000
24.91810000 121.47710000 24.26750000
29.02190000 122.17520000 18.14560000
20.51700000 121.23800000 34.22080000
4.11430000 122.97010000 30.45010000
38.74030000 121.65880000 17.50910000
23.42360000 120.92570000 33.00400000
34.75290000 122.48750000 15.62490000
24.46100000 125.72550000 23.15310000
43.81820000 121.18700000 10.97930000
45.71620000 121.10190000 -2.01840000
40.93380000 120.91600000 17.48110000
-47.96310000 -124.81270000 35.40500000
-48.57870000 -125.14130000 40.00600000
-54.79520000 -126.48630000 -8.36460000
-48.30510000 -124.76300000 46.41800000
-47.79750000 -123.68020000 47.00000000
-47.58800000 -124.00750000 36.59050000
-47.63060000 -120.39560000 43.32830000
-48.00820000 -118.73590000 47.56260000
-45.95830000 -123.16880000 50.76310000
-47.19780000 -119.39460000 50.03040000
-44.95800000 -123.89140000 51.29900000
-35.04540000 -123.47630000 50.80820000
-48.11590000 -116.38080000 48.96850000
-28.06750000 -124.84510000 53.12530000
-40.78710000 -124.40020000 51.57760000
-22.58390000 -124.56040000 51.78020000
-20.93190000 -124.02050000 51.01310000
-44.23830000 -124.75650000 52.44110000
-35.30430000 -119.66110000 50.49350000
-46.21270000 -116.30800000 50.32810000
-0.30400000 -114.87690000 50.48670000
-31.96310000 -108.02140000 50.23520000
26.61690000 -123.98300000 52.61370000
27.21110000 -123.98570000 55.03220000
16.96320000 -124.26310000 52.66430000
32.53830000 -123.48680000 65.66060000
8.71440000 -123.36740000 66.67050000
-1.85060000 -124.12310000 64.94600000
12.58790000 -124.03070000 62.64940000
33.70900000 -122.99620000 66.78120000
25.37680000 -122.25790000 67.16920000
-1.84500000 -123.13010000 50.73270000
-3.27440000 -124.01940000 51.31390000
2.89880000 -124.42960000 52.30960000
-20.87600000 -123.58630000 66.81480000
0.85190000 -122.83540000 67.06230000
-2.85090000 -121.41750000 50.53660000
2.39220000 -106.54260000 50.42160000
-2.33440000 -105.16860000 58.55390000
-20.27450000 -104.86630000 57.71760000
-33.72730000 -105.39230000 58.97330000
-16.21490000 -106.07340000 62.31350000
-14.19860000 -103.96540000 56.85230000
-30.54930000 -104.07810000 56.88150000
-18.16900000 -102.67000000 56.53230000
-12.20130000 -102.47970000 56.54780000
-13.31230000 -100.87750000 57.07720000
-5.38150000 -121.66380000 67.19620000
15.52950000 -108.96750000 66.97680000
-21.07870000 -107.90790000 66.52490000
-4.49500000 -107.65280000 66.29570000
-38.76580000 -107.14610000 65.29980000
-4.29660000 -106.98560000 65.13200000
12.77080000 -123.58020000 50.97710000
13.05050000 -124.08850000 51.59440000
23.87860000 -123.75010000 51.65780000
13.49250000 -121.93610000 50.61480000
24.71780000 -114.63500000 50.60170000
32.11730000 -122.82900000 51.14210000
31.31610000 -120.76310000 50.86390000
-9.07430000 -103.45030000 56.46810000
29.96890000 -115.62850000 67.15940000
12.96040000 -106.91370000 65.06720000
18.62390000 -108.13770000 66.76660000
21.76310000 -107.52860000 66.22900000
34.00820000 -106.92940000 64.95780000
35.88230000 -105.91900000 61.60350000
21.67110000 -105.20940000 58.41970000
23.94600000 -104.24260000 56.53440000
19.01770000 -104.50570000 57.11470000
27.14470000 -104.41930000 56.70170000
8.22210000 -104.83630000 57.63880000
4.35960000 -104.27660000 56.99410000
-3.26170000 -104.48830000 57.12120000
4.32520000 -103.20860000 56.45990000
10.28990000 -103.35740000 56.18140000
-5.53350000 -102.54250000 56.27180000
-2.23720000 -103.63630000 56.52880000
-8.92890000 -100.97160000 56.82770000
-9.27110000 -98.66440000 58.34740000
-5.58740000 -99.27510000 57.40580000
0.62550000 -101.78470000 56.46130000
0.73100000 -100.04720000 57.40980000
-4.06910000 -97.58380000 58.12820000
-0.89530000 -96.20500000 50.51340000
25.73570000 -100.22200000 50.96890000
-1.44600000 -102.99740000 50.56950000
7.22800000 -102.13720000 56.44130000
9.63800000 -99.58690000 57.88830000
2.69600000 -98.48240000 58.80580000
-0.46860000 -97.53430000 58.94800000
-3.26260000 -96.45340000 59.00970000
-0.43040000 -95.48210000 61.16670000
-7.22910000 -93.67780000 63.82920000
-4.32850000 -94.83200000 61.40550000
5.95300000 -96.41170000 59.20530000
8.69180000 -96.94420000 58.67160000
4.21230000 -95.97370000 59.98150000
-2.92260000 -95.50420000 60.01360000
3.09000000 -94.91620000 61.81470000
4.16950000 -93.43630000 63.62570000
-0.91640000 -92.66580000 64.58070000
7.83360000 -94.98010000 60.40590000
9.39100000 -94.39690000 61.74810000
12.93120000 -103.97950000 56.51480000
13.43320000 -101.33070000 56.78570000
15.87610000 -102.11550000 56.29660000
19.79760000 -103.19550000 56.29710000
17.38330000 -95.50270000 50.81010000
-1.38460000 -95.26580000 50.11670000
17.56160000 -94.72450000 50.32490000
10.38250000 -94.53430000 49.21570000
13.54590000 -99.01550000 58.13220000
26.20040000 -103.08640000 55.84010000
25.56730000 -102.22300000 55.94030000
21.36500000 -99.85160000 57.75620000
26.47490000 -100.46780000 56.66500000
17.01850000 -97.50460000 59.73430000
14.47640000 -96.81500000 59.40850000
20.55090000 -96.75940000 60.00820000
24.97650000 -96.24630000 59.52780000
9.34880000 -95.26340000 59.28010000
12.44260000 -96.23090000 58.70940000
9.75750000 -94.89220000 59.86880000
12.09860000 -95.11330000 59.80440000
13.32560000 -94.63220000 61.43650000
12.21480000 -91.76760000 58.87970000
6.89830000 -92.11710000 58.17620000
5.43110000 -92.33710000 59.98810000
8.93720000 -91.23650000 60.51630000
11.66070000 -89.42520000 61.25370000
6.17530000 -89.21280000 62.57280000
25.66340000 -91.76920000 50.07750000
14.81850000 -91.54320000 47.81580000
16.50000000 -91.05100000 59.05040000
22.99980000 -90.96320000 56.51910000
20.07790000 -91.61110000 56.45730000
31.13330000 -91.29030000 51.05230000
33.52230000 -108.17760000 66.77640000
6.05460000 -91.48410000 65.16170000
16.80410000 -94.24660000 62.43750000
23.83380000 -94.66100000 61.31710000
17.23560000 -92.95130000 64.17630000
26.64460000 -93.31910000 63.26370000
29.19770000 -94.18320000 60.38900000
15.55130000 -91.18700000 65.43850000
7.96400000 -89.60810000 65.63560000
17.14550000 -89.19580000 66.02810000
8.98090000 -88.51350000 65.57220000
14.44840000 -87.85090000 65.44890000
9.69760000 -87.80870000 64.92490000
12.12520000 -87.46210000 63.71020000
19.54520000 -87.44920000 65.23120000
23.59170000 -89.28760000 57.50370000
17.95470000 -89.35390000 59.72070000
14.79610000 -87.70270000 61.57110000
21.26080000 -87.94330000 59.14230000
22.68380000 -87.33660000 59.13600000
28.85080000 -91.75550000 65.48160000
28.29160000 -90.56110000 66.01330000
20.77620000 -88.23710000 65.92330000
24.44850000 -87.13120000 64.61710000
28.78870000 -87.04770000 59.53020000
36.73730000 -88.77780000 66.10460000
29.57450000 -87.81560000 65.89560000
-62.54520000 -144.89070000 -57.53670000
-60.48820000 -145.09290000 -60.51130000
-60.58410000 -145.30800000 -56.51790000
-61.52670000 -144.86740000 -52.34330000
-62.59000000 -144.61070000 -54.90070000
-61.83470000 -143.94080000 -60.84030000
-62.38160000 -144.61220000 -59.73650000
-62.89480000 -143.25920000 -59.84490000
-61.69310000 -142.04460000 -60.39490000
-63.18030000 -144.03110000 -56.96740000
-63.17150000 -143.93720000 -58.93640000
-63.33490000 -142.53110000 -58.44800000
-62.12790000 -141.33240000 -58.56380000
-63.22410000 -142.98790000 -55.31750000
-63.19950000 -142.01950000 -56.54210000
-61.60870000 -141.16870000 -55.77150000
-61.45130000 -140.32390000 -58.15350000
-67.39110000 -131.21570000 -63.81700000
-67.95470000 -131.04250000 -66.03740000
-66.21220000 -132.65210000 -63.72460000
-65.60310000 -133.16240000 -59.13230000
-63.69330000 -134.93860000 -57.20360000
-65.92340000 -132.39830000 -61.16210000
-66.38390000 -131.66090000 -58.66100000
-66.31050000 -129.07700000 -60.05280000
-67.02260000 -129.19940000 -62.23640000
