-50.99000000 -33.52390000 6.90850000
-51.77180000 -32.38090000 7.88420000
-51.35040000 -33.36250000 7.83940000
-53.08600000 -7.80790000 6.27690000
-52.97340000 -8.18170000 5.81810000
-52.96210000 -7.04240000 8.01660000
-50.93170000 -33.61030000 10.09550000
-52.78000000 -8.03160000 9.07680000
-50.37970000 -34.62390000 7.76700000
-53.25610000 -8.67600000 6.60490000
-52.96710000 -8.82190000 8.30660000
-52.45610000 -7.15040000 9.63090000
-50.18380000 -34.71290000 6.40710000
-51.86570000 -8.14820000 11.01540000
-52.10750000 -8.73120000 10.59630000
-25.55090000 13.62070000 -1.54590000
-26.13030000 11.51480000 -2.65070000
-51.53310000 -9.67920000 11.12940000
-52.47790000 -9.88300000 9.34260000
-51.81600000 -10.39740000 11.07570000
-52.42110000 -8.78000000 5.24180000
-46.07310000 -34.06450000 19.84560000
-52.81200000 -9.35680000 6.32710000
-50.78640000 -30.40280000 11.11730000
-52.36900000 -9.08440000 5.57210000
-50.96100000 -31.82970000 11.17710000
-52.98850000 -9.37320000 7.52380000
-52.97560000 -10.53030000 8.09190000
-52.80090000 -10.71140000 6.01330000
-53.02810000 -10.80340000 7.10970000
-52.40690000 -10.16360000 5.13490000
-51.85950000 -10.24510000 4.64630000
-49.89500000 -32.86550000 10.99280000
-49.12040000 -33.37220000 11.13040000
-52.14350000 -11.49500000 5.10480000
-48.69110000 -33.32580000 12.75210000
-50.23760000 -33.27340000 11.31690000
-26.65700000 9.84160000 -2.64700000
-51.45100000 -32.42430000 10.86820000
-52.48020000 -11.56550000 6.19840000
-50.75020000 -33.26340000 11.28790000
-52.09700000 -11.14180000 10.34650000
-52.75520000 -11.75900000 8.44110000
-26.43650000 10.64460000 0.85220000
-52.78760000 -12.00650000 7.13410000
-51.74600000 -12.11280000 10.75570000
-52.97510000 -12.80770000 7.78500000
-49.58050000 -33.47080000 10.74590000
-52.70960000 -12.80010000 9.56750000
-40.71480000 -2.91520000 -29.25190000
-52.83280000 -13.79570000 8.85050000
-52.13010000 -14.12320000 10.39230000
-49.87110000 -34.51910000 10.47100000
-49.04300000 -34.64010000 10.64130000
-48.28890000 -34.89220000 12.99330000
-49.47730000 -11.05560000 12.51290000
-48.84210000 -35.68160000 9.91190000
-49.92670000 -11.48210000 12.21930000
-48.65500000 -36.35670000 9.03820000
-47.60540000 -36.76940000 10.98330000
-42.45240000 -4.09840000 -27.44100000
-51.25270000 -11.27480000 11.57320000
-47.32870000 -34.47180000 16.50560000
-26.38490000 16.09960000 3.88400000
-26.92620000 16.05560000 3.69230000
-25.46610000 15.85280000 6.32770000
-27.43990000 15.50470000 6.40730000
-26.56950000 15.82170000 7.92470000
-46.61410000 1.06670000 2.79150000
-25.36940000 16.00300000 7.77190000
-42.81540000 -5.74930000 -27.46800000
-48.63940000 0.86690000 4.04100000
-47.63060000 0.88790000 3.30770000
-48.92890000 0.33660000 3.85130000
-50.61190000 -12.78190000 12.18720000
-48.21360000 -0.05300000 2.60910000
-49.25040000 -0.37290000 3.38990000
-28.18570000 14.74830000 5.14300000
-50.26540000 -0.44250000 3.92790000
-50.98990000 -0.65060000 4.77130000
-42.29340000 -8.91390000 -28.54020000
-52.52260000 -1.99370000 5.52990000
-52.17090000 -1.49690000 5.11360000
-51.01040000 -1.20340000 3.62180000
-49.13020000 -1.06090000 2.36360000
-51.62150000 -1.78560000 4.15330000
-45.96880000 -35.67240000 18.54220000
-51.70450000 -12.93900000 11.31190000
-51.72130000 -3.17890000 4.45530000
-25.14460000 15.05350000 5.64920000
-51.22290000 -13.85870000 11.79620000
-49.00680000 -3.99760000 -12.40720000
-49.56940000 -3.73580000 -9.01550000
-44.55470000 -39.83410000 13.66160000
-49.76380000 -14.90500000 12.73390000
-49.22530000 -15.70410000 13.15110000
-50.41890000 -15.18010000 12.61160000
-50.82150000 -14.20890000 4.04950000
-51.12070000 -12.25750000 4.44050000
-50.13610000 -5.47760000 -8.73080000
-51.74610000 -12.58970000 4.73580000
-42.83990000 -38.81980000 20.20540000
-25.91860000 15.83400000 -1.32460000
-26.36060000 16.08480000 1.24930000
-25.84850000 15.76020000 2.63380000
-25.71370000 15.30630000 0.12070000
-27.09030000 16.12490000 -0.57070000
-52.72240000 -12.53630000 6.27400000
-27.87660000 15.71760000 1.54900000
-52.27680000 -12.83350000 5.42110000
-49.84190000 -34.78220000 5.51710000
-48.91500000 -36.22750000 6.34820000
-52.29420000 -14.21680000 5.43300000
-52.61810000 -13.53560000 6.41820000
-50.96080000 -16.48830000 4.83220000
-51.53690000 -14.35050000 4.85200000
-25.52640000 15.05860000 3.34970000
-25.49350000 14.28880000 2.12760000
-51.89350000 -15.42250000 5.18590000
-52.85910000 -13.68430000 7.79380000
-28.39690000 15.04660000 2.20420000
-52.90790000 -14.44440000 6.67110000
-53.00510000 -15.20770000 7.27550000
-52.71440000 -15.08030000 9.49020000
-52.54770000 -15.42770000 5.98940000
-52.82130000 -15.82540000 7.64350000
-46.11250000 -0.02870000 1.42150000
-52.32910000 -16.00260000 9.37740000
-46.87960000 0.43900000 1.97910000
-52.30840000 -16.24040000 6.33560000
-52.61220000 -16.62470000 8.57680000
-47.32370000 -0.20580000 1.79200000
-47.81500000 -1.15310000 1.43990000
-46.92820000 -0.80960000 -1.03790000
-25.34780000 14.61570000 -2.70560000
-49.08050000 -2.14440000 0.91340000
-47.69590000 -1.19760000 -1.70780000
-49.15110000 -2.25730000 -2.40020000
-46.87350000 -32.82750000 -18.55650000
-49.46880000 -1.87000000 2.20460000
-48.37170000 -32.75980000 -14.17980000
-48.25900000 -34.60880000 -12.97020000
-46.33710000 -34.84350000 -18.34820000
-51.81090000 -17.33800000 5.40690000
-25.88350000 12.46670000 2.10780000
-52.45390000 -17.31930000 6.45900000
-52.72030000 -17.45270000 7.53390000
-52.55210000 -18.26050000 7.31220000
-47.94870000 -1.56820000 -6.62700000
-51.36630000 -18.51190000 5.24840000
-43.24370000 -42.72700000 9.79240000
-51.98490000 -18.94020000 5.96450000
-51.88800000 -15.34320000 11.11830000
-51.11560000 -15.55680000 12.15910000
-50.10660000 -3.34880000 -0.46820000
-49.61690000 -3.00640000 -5.76450000
-51.47310000 -16.65410000 11.39040000
-52.14470000 -17.49590000 10.56070000
-50.33330000 -4.11100000 -4.27690000
-48.52120000 -35.32190000 -10.57760000
-44.71390000 -38.59690000 -15.60160000
-50.58310000 -2.71760000 3.59860000
-49.78870000 -2.45760000 2.66370000
-50.36790000 -16.83630000 12.68300000
-49.85560000 -3.01980000 2.46330000
-50.57500000 -4.58170000 0.65390000
-51.38160000 -17.64060000 12.11580000
-52.72510000 -17.33800000 8.81770000
-52.57990000 -18.33640000 8.90470000
-25.27610000 13.53380000 5.08040000
-52.58010000 -19.37280000 7.30080000
-40.47960000 -16.09820000 -30.95160000
-25.37410000 11.99760000 6.44920000
-25.89630000 10.80310000 4.62080000
-37.03570000 -15.57430000 -34.96620000
-50.77650000 -5.37500000 -3.29040000
-25.23110000 10.90700000 7.59420000
-25.67130000 10.46890000 5.89850000
-52.63340000 -20.86660000 7.80810000
-26.36850000 10.27290000 3.64220000
-51.27620000 -20.36050000 5.47150000
-41.06280000 -43.48550000 14.96470000
-51.97410000 -20.51340000 6.34530000
-52.58980000 -21.45530000 7.18920000
-52.47880000 -22.56950000 7.18110000
15.02320000 -18.74640000 50.24910000
13.54880000 -17.72320000 51.61940000
13.13250000 -18.26000000 51.59370000
-33.35900000 -5.91200000 38.21860000
-35.06840000 -7.28230000 36.96900000
-31.32850000 -9.53500000 40.22960000
11.29950000 -18.20500000 52.37020000
13.05870000 -19.15070000 51.72300000
-11.99190000 -3.46420000 47.94760000
-16.25650000 -3.58180000 46.87880000
-12.90360000 -4.30060000 48.46680000
11.25990000 -18.83780000 52.66760000
12.55120000 -19.67330000 52.11510000
14.12630000 -19.03560000 50.87260000
-16.47640000 14.42700000 23.82580000
-27.72680000 -48.63450000 27.51890000
-22.77400000 -49.01320000 31.27930000
-26.61830000 -46.17300000 31.69550000
-24.52330000 -51.10420000 26.71320000
9.54290000 -16.77440000 52.74420000
10.75620000 -16.52330000 52.87300000
9.66070000 -15.46470000 52.73400000
-34.02900000 -11.12200000 37.92620000
11.66670000 -17.33930000 52.51340000
10.01340000 -17.65990000 52.60610000
7.78210000 -17.51820000 51.80340000
8.68980000 -18.69000000 52.50420000
9.84830000 -18.79050000 52.83270000
-22.94100000 -10.11480000 45.49480000
-25.76090000 -6.47310000 43.78410000
-27.18260000 -9.12990000 43.12790000
-6.96270000 -3.93370000 49.37120000
-9.57670000 -1.71320000 45.88630000
-9.88440000 -4.90650000 49.46110000
10.96280000 -19.51690000 52.71320000
-19.81620000 -52.15780000 28.71740000
9.62640000 -19.75310000 52.62910000
7.90610000 -19.49350000 52.04350000
-14.86260000 13.08270000 25.21710000
-12.76170000 -6.30820000 49.16310000
-18.45230000 12.67250000 22.80950000
12.58280000 -20.37690000 51.83300000
10.80760000 -20.38740000 52.48020000
10.33940000 -20.95760000 52.81530000
8.43890000 -20.99490000 52.37300000
9.41540000 -21.02740000 52.77490000
-21.39410000 -3.69090000 44.91490000
-16.54190000 -4.41080000 47.40680000
-20.57340000 -5.09020000 46.09240000
-23.25510000 -32.04500000 44.15880000
-21.49670000 -34.57070000 44.74370000
-16.81720000 -29.06780000 47.23910000
15.66780000 -17.80320000 49.07270000
15.12290000 -16.72350000 50.12610000
15.56180000 -18.22210000 49.76360000
-18.17550000 11.48780000 23.92830000
14.97810000 -17.67680000 50.55180000
-22.30540000 -25.97320000 45.14730000
-23.00380000 -17.90090000 45.08710000
-26.61840000 -17.09740000 43.13780000
-16.69370000 -5.90290000 47.89730000
16.27190000 -20.48830000 47.66110000
15.42370000 -16.48030000 48.41620000
-15.68350000 11.30060000 25.81200000
15.87620000 -19.90290000 48.16710000
-15.96180000 -8.71700000 48.36720000
15.72390000 -20.19380000 49.04880000
-16.05450000 11.53090000 20.65720000
15.02410000 -19.69430000 50.51140000
15.42370000 -20.26100000 50.08050000
-16.99120000 10.32350000 20.08110000
-15.34580000 10.64660000 21.22930000
-15.03030000 9.95560000 21.62070000
-15.39200000 9.19370000 21.41620000
14.24390000 -20.30760000 51.26250000
-17.99740000 -35.25280000 46.07270000
-11.91680000 -26.89150000 48.80680000
-8.54790000 -28.68090000 49.36360000
-8.98840000 -17.58180000 49.78110000
-17.58610000 9.90110000 19.86280000
-17.89500000 9.09470000 19.84420000
-14.77430000 -34.48250000 47.33140000
12.72360000 -20.88330000 51.65050000
15.07770000 -21.56160000 50.17180000
-19.08990000 9.54480000 25.41780000
-13.45200000 -35.81220000 47.30060000
15.65940000 -21.57910000 49.32240000
-14.75430000 -38.57920000 44.97680000
-20.72600000 -35.91810000 44.60250000
14.06420000 -21.29020000 51.10060000
15.19300000 -22.55890000 50.50640000
13.63610000 -22.32450000 51.62570000
-21.14350000 -6.63700000 46.23440000
-19.83110000 -9.18800000 46.93750000
-32.28800000 -17.39470000 39.07980000
-5.66480000 -5.02170000 50.12200000
-13.45110000 -44.16180000 40.78600000
-17.92160000 -42.59780000 40.49250000
16.16600000 -23.68400000 47.70150000
-14.44790000 9.53980000 28.37740000
-8.05590000 -6.84220000 50.21270000
15.93330000 -23.08590000 49.73140000
15.94650000 -22.83310000 48.35050000
-27.24110000 -27.63430000 42.46160000
-28.82650000 -21.20810000 41.58040000
16.06010000 -23.86090000 48.86390000
15.82770000 -24.20750000 49.55080000
15.01320000 -23.46250000 50.60210000
-12.26150000 -9.13500000 49.45990000
15.65750000 -24.50840000 50.15260000
15.19680000 -25.44800000 50.56910000
-36.03340000 -20.53480000 35.61410000
11.87400000 -21.59780000 52.44540000
10.02140000 -22.47400000 52.66670000
-8.67240000 -10.82800000 50.16560000
11.10280000 -22.45570000 52.44190000
13.33950000 -23.18610000 51.41860000
12.16350000 -23.28230000 51.97150000
-28.40900000 -29.51320000 41.41930000
-19.50390000 7.48370000 28.08870000
8.84570000 -22.79340000 52.33200000
7.16990000 -21.69030000 51.55370000
7.47000000 -23.80760000 51.67310000
10.32630000 -23.64830000 52.67820000
11.88180000 -23.74830000 52.30120000
-8.69390000 -34.85190000 48.66910000
-4.57580000 -29.18520000 49.80230000
12.05440000 -24.87060000 52.12620000
10.74680000 -24.87610000 52.33040000
9.08650000 -24.28970000 52.36560000
8.50660000 -25.60220000 52.34960000
9.96130000 -25.17150000 52.57720000
-29.15660000 0.39900000 33.28660000
13.84090000 -24.48890000 51.45340000
6.14150000 -24.55400000 50.53410000
6.28190000 -21.37940000 50.55420000
5.52610000 -22.55490000 50.02590000
6.57570000 -24.35660000 51.10940000
14.28060000 -25.48720000 51.03150000
13.59890000 -25.97000000 51.24890000
11.83810000 -26.10760000 52.27310000
13.48820000 -27.02860000 51.46670000
10.32140000 -26.01230000 52.66760000
8.49130000 -26.68150000 52.28930000
10.11800000 -26.82230000 52.60260000
3.61920000 -16.54970000 50.36340000
4.17770000 -27.38830000 49.89250000
5.47120000 -26.64640000 50.04210000
11.94020000 -27.15010000 52.09900000
11.19420000 -28.03770000 52.69330000
1.30820000 -26.39170000 50.14310000
-26.42140000 0.00100000 36.08480000
-21.28350000 0.09170000 39.09320000
9.41060000 -27.66070000 52.73860000
10.57620000 -28.88410000 52.76360000
12.72090000 -28.42500000 51.92380000
-13.43700000 -16.29010000 48.85050000
5.98520000 -26.99250000 50.71090000
15.97420000 -25.21270000 47.92960000
-8.84600000 3.76920000 38.31380000
-14.05780000 5.73810000 33.83220000
4.84120000 -29.17460000 50.16900000
16.05890000 -25.42870000 48.89620000
16.45470000 -28.83410000 47.16700000
-17.87840000 -15.77500000 47.41210000
-4.17810000 -38.37420000 47.23400000
-8.44840000 -36.29060000 48.15530000
-10.08450000 -37.86100000 46.77180000
15.78350000 -27.55250000 47.95850000
15.99730000 -26.32640000 49.04640000
15.59770000 -29.27960000 47.45160000
16.00140000 -25.30040000 49.83690000
3.51470000 -30.76300000 49.71650000
-9.25490000 -41.69640000 44.00720000
5.18440000 -29.55680000 50.76920000
6.36690000 -28.83590000 51.47350000
15.43520000 -26.14220000 49.51780000
15.72670000 -27.46070000 49.01320000
-2.39780000 -6.01390000 50.60190000
-16.26980000 -1.09690000 43.11900000
-1.64600000 -34.93940000 49.32130000
0.12660000 -31.85080000 49.72240000
-4.16410000 -9.14820000 50.77070000
-1.46750000 -15.33230000 50.64110000
-0.61970000 -7.44870000 50.85440000
-4.13780000 -36.21660000 48.71560000
1.18490000 -36.12980000 48.80460000
5.24320000 -7.87620000 50.58810000
3.57190000 -5.84360000 50.43930000
2.23380000 -9.00060000 50.79760000
14.67830000 -26.08100000 50.14030000
14.36030000 -26.95900000 50.65830000
15.04330000 -26.60670000 49.66120000
7.93060000 -6.24910000 52.20980000
6.86910000 -6.80450000 51.53320000
7.36680000 -7.45120000 52.09400000
9.18310000 -6.90600000 52.74250000
10.27920000 -6.54230000 52.79510000
9.87110000 -5.97990000 52.98930000
10.81290000 -7.20370000 52.56800000
3.47050000 -39.02820000 46.84230000
14.34400000 -27.64980000 50.33510000
13.21240000 -27.81690000 51.39170000
8.73620000 -7.83970000 52.81110000
9.85230000 -7.89750000 52.94660000
15.33080000 -27.37140000 49.63990000
14.83710000 -27.88290000 49.40410000
15.29090000 -28.55080000 48.75380000
10.73160000 -8.32380000 52.79560000
14.37740000 -28.02240000 49.65840000
14.34710000 -28.63090000 50.04590000
12.02760000 -9.46200000 52.07650000
13.84700000 -29.09630000 50.87930000
9.63490000 -8.82890000 52.78250000
10.91150000 -9.61980000 52.69670000
8.71950000 -8.57870000 52.48420000
9.58820000 -9.87650000 52.83510000
14.90640000 -29.26280000 48.74790000
6.07230000 -7.92950000 51.02410000
5.99790000 -6.01530000 50.42480000
14.55500000 -29.87670000 49.57680000
7.17070000 -8.39900000 51.87040000
12.01820000 -28.93650000 52.18470000
12.38340000 -30.05920000 52.08850000
8.36620000 -9.17260000 52.52810000
7.14970000 -9.39070000 52.10430000
5.64670000 -10.59810000 50.83300000
6.31980000 -10.27930000 51.60320000
13.22560000 -29.67460000 51.12050000
13.88720000 -30.29520000 50.06250000
13.46530000 -31.30990000 50.94770000
7.54610000 -10.47510000 52.24400000
12.09060000 -30.93410000 52.15870000
15.54070000 -28.68980000 48.18660000
8.18900000 -11.04580000 52.72100000
14.72900000 -30.91310000 47.76220000
14.74780000 -32.40770000 47.38780000
4.55850000 -30.75310000 50.51250000
3.71370000 -32.37310000 49.79570000
11.88430000 -10.52650000 52.40210000
9.83650000 -10.68310000 52.78090000
10.95120000 -11.15220000 52.45130000
14.66850000 -30.65440000 48.70510000
4.16720000 -32.60640000 50.37580000
11.90740000 -11.68190000 52.28050000
13.62600000 -12.73000000 51.54600000
12.21240000 -12.46390000 52.40880000
14.11690000 -31.03010000 49.94310000
4.24910000 -34.16460000 50.08360000
9.15910000 -11.61340000 53.06560000
12.07740000 -32.04110000 51.31760000
10.43240000 -11.97580000 53.00500000
3.24450000 -34.38610000 49.32220000
9.30730000 -12.50010000 53.01670000
11.78330000 -32.58530000 50.78810000
14.40140000 -31.52890000 48.74110000
14.34620000 -32.38090000 49.49570000
7.18620000 -11.88680000 52.51440000
7.67960000 -12.73370000 52.38640000
13.60950000 -32.30330000 50.27910000
11.46580000 -33.70720000 50.37290000
14.13290000 -33.31500000 49.87440000
10.38520000 -13.40700000 52.74560000
13.06460000 -34.47840000 49.90320000
8.35490000 -13.17980000 52.29850000
9.00220000 -13.79470000 52.59370000
7.09610000 -26.34370000 51.69700000
4.90250000 -10.61440000 50.57700000
4.15020000 -34.88250000 49.43860000
8.01360000 -28.08470000 52.29550000
3.98410000 -36.40420000 48.45310000
4.97320000 -35.82810000 49.27780000
6.45640000 -27.66560000 51.53040000
-26.66470000 -33.48480000 42.10440000
7.92690000 -28.97280000 52.40750000
7.15080000 -29.33350000 52.33920000
-30.95020000 -31.70570000 39.31290000
9.74650000 -28.71120000 52.65540000
-32.08450000 0.33450000 30.66490000
9.77270000 -29.48410000 53.10610000
8.13590000 -29.84730000 52.87370000
-30.02440000 -34.69960000 39.63580000
6.45310000 -36.79320000 48.63610000
6.07620000 -29.54530000 51.78940000
5.32680000 -30.38330000 51.39620000
6.25590000 -30.35060000 51.98010000
11.09090000 -30.10020000 52.87930000
10.03080000 -30.71770000 52.87020000
-24.82660000 -35.22000000 42.83610000
-27.68170000 -35.76400000 40.82440000
8.87770000 -30.18820000 52.99560000
5.33880000 -15.96050000 50.26670000
5.85040000 -12.80460000 50.75770000
7.90960000 -30.62550000 52.40910000
6.32790000 -12.20280000 51.63080000
8.50020000 -31.52670000 52.31660000
6.85410000 -31.46880000 51.62230000
10.82760000 -31.23770000 52.56900000
11.26540000 -31.94020000 52.02820000
6.81710000 -13.22500000 51.45850000
9.74650000 -31.94870000 52.35110000
10.34010000 -32.26920000 51.73820000
8.05140000 -32.09910000 51.79370000
9.08030000 -32.63140000 51.23680000
6.16530000 -14.58220000 51.10520000
7.52150000 -14.18740000 51.96590000
-24.57430000 -37.90050000 41.10120000
5.80980000 -17.22460000 50.40840000
5.19120000 -31.25640000 51.05590000
5.03170000 -32.39580000 51.04140000
0.57960000 -42.04340000 44.64300000
5.38200000 -41.30970000 45.08540000
7.00740000 -33.25130000 51.00610000
9.32700000 -45.66210000 40.17040000
11.12800000 -42.43520000 42.64750000
10.01760000 -42.34780000 43.34270000
5.75290000 -33.29250000 51.01430000
12.84600000 -44.73040000 39.94720000
-38.89590000 -24.57110000 32.36780000
10.54160000 -14.49130000 52.85990000
8.90540000 -33.59040000 50.76150000
6.47060000 -17.11990000 51.17640000
-20.31880000 -37.83830000 43.37510000
7.38080000 -15.39930000 51.80490000
7.42900000 -16.57110000 51.95880000
5.87000000 -34.66960000 50.69560000
8.14640000 -34.96570000 50.56500000
-31.15270000 -36.11440000 38.01990000
-28.85630000 -37.99190000 38.19310000
3.09660000 -45.97900000 40.99450000
8.06710000 -41.96380000 44.12810000
4.88150000 -33.85960000 50.64370000
4.69730000 -34.93510000 50.19850000
6.72990000 -19.10120000 51.35400000
4.75520000 -48.20010000 38.67080000
-23.76330000 -42.37370000 37.66330000
-43.76790000 -29.68180000 25.03840000
-41.09680000 -26.86680000 29.40810000
21.13260000 -34.77950000 44.50650000
16.69600000 -34.53610000 46.41010000
-5.10820000 -18.52440000 50.29990000
-29.71840000 -41.18250000 34.51940000
14.25140000 -33.44250000 47.73680000
14.36960000 -33.62330000 48.44880000
14.50150000 -34.03190000 49.09450000
14.24500000 -34.55280000 49.27340000
-37.30640000 -29.99150000 33.69310000
13.06450000 -35.58830000 49.06050000
14.31010000 -35.08540000 47.03670000
13.84590000 -35.63910000 47.53690000
13.76430000 -35.87530000 48.27430000
-41.99220000 -34.01140000 27.23950000
-40.27380000 -34.65950000 29.43010000
17.40310000 -36.05420000 45.43160000
-37.67460000 -36.14970000 31.65450000
-37.20890000 -34.61500000 33.17380000
13.82700000 -37.96210000 45.25950000
13.51720000 -36.75980000 46.52910000
15.38740000 -39.46000000 43.54800000
-4.43140000 -42.74000000 43.85360000
-32.66420000 -25.34440000 38.50420000
21.77650000 -36.03510000 43.49900000
18.96490000 -38.91890000 42.55780000
-33.96400000 -31.48770000 36.87600000
-33.76730000 -34.43510000 36.63570000
-34.55660000 -35.58640000 35.40990000
-24.91840000 -3.59540000 43.07320000
-24.40060000 -4.90380000 44.17490000
-27.19670000 -4.15350000 42.12950000
-33.52340000 -38.32660000 33.87230000
-3.16760000 -46.63780000 40.49300000
-8.29380000 -45.32670000 41.08520000
-3.90120000 -2.91190000 48.29790000
15.90370000 -43.11260000 40.37680000
11.91070000 -35.41450000 49.81600000
13.11520000 -36.76140000 47.78460000
10.13620000 -37.04500000 48.22380000
10.09150000 -35.94710000 49.59610000
-35.74530000 -40.59480000 29.02060000
13.07380000 -37.69360000 45.98200000
12.75700000 -37.45030000 46.82070000
13.22380000 -39.06700000 45.08950000
12.40480000 -38.34350000 46.24030000
11.37800000 -37.88720000 47.11710000
11.16440000 -39.31220000 46.02650000
12.77940000 -39.59670000 45.42140000
0.64390000 -2.45690000 47.65280000
3.13330000 -1.90650000 46.73680000
13.48680000 -36.86390000 47.06330000
0.35400000 -49.29830000 37.98600000
-11.30830000 -49.29280000 36.47510000
-6.13150000 -49.51700000 37.37650000
11.83400000 -40.85780000 44.62090000
13.40970000 -40.13070000 44.28790000
13.58940000 -40.80470000 43.15390000
12.80140000 -40.94960000 44.18520000
-36.15490000 -3.24050000 33.89760000
12.15080000 -41.51850000 43.42040000
-31.75680000 -3.38850000 38.14970000
-34.23500000 -46.77690000 22.34220000
-36.40950000 -42.83000000 25.27050000
-38.55490000 -43.76750000 20.12720000
-34.92880000 -3.85920000 35.83460000
0.34530000 -3.83900000 49.70390000
-21.54690000 -46.40930000 35.00610000
3.47690000 -3.58950000 49.20860000
-35.21480000 -48.18080000 18.03380000
6.06460000 -2.69060000 48.73750000
5.15070000 -3.00440000 48.28320000
-36.39770000 -5.41320000 35.18040000
-30.46890000 -4.63340000 40.09800000
4.14630000 -3.07600000 48.22050000
-30.87330000 -48.89190000 23.53600000
-30.88790000 -50.96090000 19.25480000
6.58360000 -2.68250000 49.89700000
-39.11530000 -4.18450000 31.49210000
6.10910000 -3.34420000 49.99840000
7.57960000 -2.76260000 51.20380000
6.91240000 -3.08510000 51.36550000
5.45810000 -3.80220000 49.44240000
6.14550000 -4.83300000 50.30210000
4.53210000 -4.40650000 49.91270000
5.55950000 -5.18140000 50.09990000
6.46820000 -3.99070000 51.07420000
6.72630000 -5.45420000 51.20300000
-39.69810000 -6.16800000 31.70040000
-32.26060000 -45.81830000 26.50080000
-44.27810000 -34.70400000 23.24700000
-0.42870000 -4.37140000 50.11990000
-30.68950000 -44.49990000 29.96970000
-42.52340000 -35.56810000 25.57810000
-39.95270000 -36.75630000 28.11740000
-15.73430000 -47.12370000 37.22640000
8.10720000 -3.24200000 52.22190000
8.97770000 -3.89540000 52.18380000
-43.76080000 -36.05290000 22.80830000
7.53510000 -3.45930000 52.21360000
-18.04730000 -23.39360000 47.17090000
8.55650000 -4.08260000 52.60110000
7.67430000 -4.29190000 52.39360000
-37.38600000 -8.73870000 34.67450000
8.55360000 -5.36130000 52.63780000
7.18210000 -4.60880000 51.95460000
9.42290000 -4.98350000 52.66670000
-40.31350000 -38.82950000 24.92000000
-18.67080000 -48.58750000 34.27370000
-15.85190000 -52.12270000 31.02860000
-14.43760000 -50.52330000 33.92040000
-26.70850000 -52.18480000 22.42130000
-28.56550000 -3.18920000 40.25610000
12.08160000 -13.20420000 52.35430000
13.79590000 -13.59290000 51.48940000
12.37500000 -13.93570000 52.01830000
-29.90660000 -6.64210000 41.16010000
14.55120000 -14.40590000 50.52950000
14.04420000 -14.74300000 51.16190000
13.24090000 -14.92740000 51.87150000
11.84740000 -14.97320000 52.52560000
11.01060000 -15.75450000 52.53560000
12.64710000 -16.16360000 51.92330000
13.51780000 -16.10060000 51.43340000
12.06450000 -16.74780000 52.40100000
15.21810000 -15.68730000 50.03820000
14.45690000 -15.78460000 51.02520000
14.15920000 -16.96210000 51.03870000
-36.79070000 -49.32750000 10.10940000
-36.98450000 -47.81360000 14.77630000
-5.24820000 -34.70490000 -49.61540000
-7.06520000 -33.34220000 -49.81450000
-2.28670000 -33.55040000 -50.25640000
38.82340000 -0.95420000 -27.12610000
39.54570000 -2.13020000 -29.44980000
36.24970000 -0.98410000 -30.86460000
12.36280000 0.01180000 -44.41080000
11.13660000 0.99030000 -43.57130000
16.54110000 0.63790000 -42.28120000
-0.02010000 -35.08710000 -49.66510000
-4.47740000 -36.85500000 -48.41930000
37.40500000 -2.53440000 -32.97800000
-8.08850000 -36.73850000 -48.10060000
28.64930000 -5.58650000 -42.11770000
24.99290000 -3.19250000 -43.78690000
29.90260000 -3.43830000 -40.71030000
17.49280000 -0.25220000 -43.14530000
13.98750000 -0.70900000 -45.34700000
27.84170000 -2.64860000 -41.62740000
25.34970000 -1.97740000 -42.28470000
33.41450000 -2.58940000 -37.15480000
40.88610000 -0.67730000 -22.44860000
32.52430000 -1.71760000 -36.47580000
4.60120000 0.89240000 -44.87300000
-3.49320000 -22.39700000 -50.84570000
-5.98960000 -13.86520000 -50.57780000
-0.08860000 -12.37430000 -51.03690000
24.46410000 -25.05740000 -44.50090000
25.69420000 -30.92680000 -43.36260000
20.91770000 -28.00360000 -46.12010000
10.28750000 -1.06790000 -46.88040000
7.99760000 -0.38000000 -46.34460000
-0.12110000 -39.23940000 -46.83170000
42.57020000 -2.26900000 -24.69380000
41.75850000 -3.05580000 -27.70420000
14.73650000 -2.59600000 -47.82540000
10.93230000 -1.72820000 -47.86140000
19.00400000 -1.67570000 -45.13800000
32.41570000 -5.28130000 -39.20670000
43.82450000 -2.02270000 -20.93860000
42.82250000 -4.71680000 -27.13710000
30.49810000 -9.73670000 -40.96480000
27.74030000 -8.47660000 -42.89720000
-5.04320000 -39.92980000 -46.13260000
44.01630000 -3.32970000 -24.16580000
13.14020000 -3.40140000 -48.81110000
9.13500000 -2.84680000 -49.41350000
35.03810000 -3.37800000 -36.31720000
18.88200000 -3.28170000 -46.79710000
19.88330000 -2.47360000 -45.87020000
39.88120000 -3.07690000 -30.68080000
39.30310000 -3.84730000 -31.83440000
40.69220000 -6.47890000 -30.68380000
36.98170000 -5.36060000 -34.96770000
21.79260000 -3.85560000 -45.75070000
17.49790000 -4.49140000 -47.79590000
19.19420000 -7.14200000 -47.33000000
0.52120000 -24.50730000 -50.91260000
4.78080000 -14.34600000 -50.73310000
-2.65480000 -44.17360000 -42.81710000
42.73020000 -7.99970000 -27.90760000
24.19570000 -5.53790000 -44.83570000
14.93170000 -34.34170000 -47.62310000
13.13050000 -33.02930000 -48.52500000
18.67010000 -33.23230000 -46.61640000
34.56420000 -7.96250000 -37.59210000
45.07380000 -7.63680000 -23.81190000
-11.51440000 -0.10980000 -49.67400000
-11.57390000 0.38630000 -48.85310000
-10.62390000 0.64250000 -48.29920000
-9.74730000 0.33180000 -47.87860000
-9.66170000 -0.33580000 -48.68690000
-11.31660000 -12.60890000 -52.80430000
-10.19870000 -11.42210000 -52.26800000
-9.32380000 -12.26230000 -51.58430000
-11.74840000 -0.75930000 -50.82080000
-11.74340000 -10.92400000 -52.99510000
9.34270000 -38.79350000 -46.10350000
12.04930000 -35.17470000 -48.01800000
14.69530000 -37.24970000 -45.82100000
-12.94830000 -0.49120000 -50.59800000
-9.97930000 -13.76690000 -51.97340000
-11.08520000 -13.51690000 -52.51530000
8.10130000 -34.35950000 -49.29800000
-9.36580000 -14.40280000 -50.96410000
-12.03410000 0.22080000 -48.15280000
-13.58920000 -0.41960000 -49.35260000
-11.26310000 -14.73800000 -52.58050000
-16.51720000 -1.54160000 -50.32020000
-14.84320000 -0.93970000 -50.74310000
-10.06640000 -16.05490000 -51.50460000
22.94940000 -9.41430000 -45.65150000
-15.35670000 -1.42300000 -51.07040000
-13.11500000 -15.00030000 -53.05720000
-15.47510000 -3.09190000 -51.77910000
-14.71200000 -1.93980000 -52.00670000
-8.69080000 -11.29680000 -50.56520000
-8.27330000 -12.81940000 -50.28890000
-9.11070000 -15.94890000 -50.28300000
-11.40530000 -16.77370000 -52.24920000
-9.47960000 -20.47470000 -50.12990000
-11.69940000 -1.23500000 -52.61130000
-12.76490000 -1.07360000 -52.90510000
-12.49420000 -1.13700000 -52.05880000
-12.23070000 -1.65940000 -53.22310000
-9.89750000 -19.36180000 -50.43740000
-13.34530000 -1.75550000 -53.06970000
-13.65930000 -1.35500000 -52.24490000
-11.01220000 -1.77690000 -52.77440000
-12.35390000 -3.61010000 -53.49000000
-13.47390000 -5.87080000 -53.35300000
-11.33890000 -3.08890000 -53.18000000
31.27330000 -15.68470000 -40.17670000
34.99120000 -13.76490000 -37.09100000
-10.60090000 -0.77620000 -50.91050000
-10.28310000 -1.40210000 -51.46610000
-9.29360000 -0.71010000 -49.41550000
-9.09210000 -1.41260000 -49.69660000
-9.76390000 -2.83240000 -50.21650000
-12.45480000 -16.48150000 -52.63940000
-13.41720000 -16.22520000 -52.77910000
-10.28440000 -3.19300000 -52.26980000
-9.97050000 -3.18100000 -51.03540000
-14.05350000 -17.12350000 -52.80510000
6.49380000 -42.47170000 -43.73010000
3.89640000 -39.81150000 -46.25980000
-11.21560000 -19.02320000 -51.72700000
4.74200000 -36.65160000 -48.42590000
-13.06130000 -18.84000000 -52.38740000
-14.29150000 -4.14750000 -52.93260000
9.52240000 -4.28030000 -49.92500000
14.12000000 -4.77570000 -48.88000000
11.03910000 -5.98060000 -49.80820000
-11.23170000 -21.53430000 -51.49460000
22.17140000 -33.20950000 -45.04940000
-10.36980000 -5.13570000 -52.79750000
-11.46330000 -5.02740000 -53.39080000
-9.58210000 -5.54730000 -51.65930000
5.62050000 -5.85130000 -50.70290000
4.98740000 -3.40780000 -50.24640000
-18.13310000 -16.97670000 -50.13260000
-18.43940000 -16.43800000 -49.15590000
-18.17930000 -14.21260000 -49.96540000
-18.75100000 -18.38560000 -49.37490000
-11.32430000 -7.45620000 -53.25120000
-9.52600000 -7.01610000 -52.13610000
-18.07540000 -16.82570000 -48.12490000
-18.09780000 -15.76590000 -48.37350000
29.57020000 -32.78330000 -40.33200000
28.58830000 -24.96610000 -41.88000000
32.15570000 -24.79170000 -39.18570000
-10.16830000 -7.25100000 -52.79140000
2.56070000 -44.16020000 -42.78300000
-18.80700000 -20.21210000 -48.20330000
-18.64380000 -19.64900000 -47.56350000
9.14030000 -10.00320000 -50.23010000
-18.33750000 -18.89880000 -50.15360000
-17.04390000 -17.89540000 -51.17000000
25.83480000 -33.59050000 -42.86530000
-17.70860000 -18.80650000 -50.89840000
-12.66230000 -6.58530000 -53.58880000
-14.67580000 -7.12430000 -52.80450000
-19.16240000 -21.63140000 -48.78390000
25.94660000 -15.56080000 -43.78760000
-16.47460000 -19.17860000 -51.80160000
-15.56800000 -18.20900000 -52.18020000
-14.22530000 -19.07330000 -52.54980000
-15.32170000 -17.51230000 -52.41750000
3.28680000 -9.14810000 -51.00380000
1.22780000 -6.65120000 -51.04250000
-15.39810000 -19.54540000 -52.32980000
-9.77850000 -9.38330000 -52.33850000
-10.91990000 -9.13900000 -52.82590000
-12.50980000 -8.64500000 -53.32860000
-13.69100000 -10.08340000 -53.18650000
-15.64780000 -20.44590000 -52.06450000
22.35540000 -35.63730000 -43.70080000
25.71430000 -35.86690000 -41.53010000
-17.40530000 -20.56090000 -51.17390000
-19.00420000 -22.71240000 -49.72740000
-12.99190000 -10.80970000 -53.19140000
-17.24580000 -1.45500000 -48.85060000
-16.21680000 -21.29740000 -51.99550000
-17.02240000 -2.05340000 -49.90060000
28.33530000 -36.94900000 -38.87220000
-16.92860000 -21.84660000 -51.60150000
-16.50590000 -2.95440000 -50.64750000
-16.80010000 -2.89810000 -49.79510000
-16.76560000 -3.70320000 -50.11040000
-18.13830000 -22.58540000 -50.69930000
-17.31280000 -2.65440000 -48.20650000
-8.14740000 -24.68070000 -50.18700000
-17.33340000 -3.51870000 -47.45420000
-16.65090000 -3.57920000 -48.37230000
-16.47390000 -3.95730000 -49.03720000
32.91630000 -32.21410000 -37.85550000
34.93030000 -25.75680000 -36.68490000
-10.96780000 -22.91840000 -50.97940000
-16.44830000 -4.85580000 -48.13310000
35.99110000 -32.40010000 -34.89270000
-18.48630000 -5.27470000 -47.20780000
34.13790000 -34.39130000 -36.03530000
37.86370000 -24.66320000 -33.70110000
17.33980000 -26.25000000 -47.62620000
35.25790000 -36.11530000 -33.48560000
-16.42290000 -5.05060000 -51.25190000
-17.28530000 -6.15520000 -50.37220000
-15.30050000 -5.76740000 -52.43520000
-16.31130000 -6.39010000 -51.40100000
-16.85270000 -5.09950000 -49.27620000
39.98010000 -30.05520000 -30.68820000
37.87680000 -33.77140000 -32.50640000
-17.49270000 -6.45040000 -49.93740000
40.66780000 -32.92360000 -29.37240000
-16.52000000 -5.31080000 -48.71990000
-17.34740000 -7.19930000 -47.84990000
18.98820000 -34.84650000 -45.86090000
-17.04690000 -7.06150000 -48.40620000
-9.89070000 -26.27900000 -49.85240000
38.15290000 -36.23910000 -30.10450000
-17.69100000 -7.45880000 -49.24920000
-16.62780000 -7.45840000 -51.38330000
13.74130000 -8.70740000 -49.20120000
31.68170000 -35.56230000 -37.31900000
-17.44640000 -8.49090000 -48.23990000
18.09050000 -38.12320000 -43.85560000
-14.34310000 -21.19850000 -52.37420000
-12.80300000 -22.31500000 -52.05250000
37.54990000 -12.01970000 -34.51570000
-15.12160000 -22.31490000 -52.15540000
-14.52420000 -23.76150000 -52.33250000
-20.70150000 -9.82500000 -46.56740000
-13.38310000 -24.08780000 -52.31150000
-18.97840000 -9.81250000 -47.36130000
-18.16410000 -9.48220000 -47.94910000
29.78200000 -39.70010000 -35.12440000
-11.45890000 -24.23630000 -51.35090000
-10.65750000 -23.61680000 -50.26330000
17.99360000 -13.43700000 -47.69300000
20.92400000 -40.14210000 -40.76490000
40.40540000 -14.48940000 -30.98640000
-16.92980000 -23.25620000 -51.68850000
-20.47980000 -12.84270000 -46.62340000
-15.87180000 -23.71710000 -52.16020000
-17.20680000 -24.45340000 -51.25520000
-15.98350000 -25.01630000 -51.82840000
25.12080000 -40.35170000 -38.08570000
-12.15740000 -24.05800000 -51.87090000
-14.71490000 -9.03360000 -52.78200000
13.32780000 -16.12680000 -49.15710000
-16.78800000 -8.81660000 -51.21630000
-11.06620000 -26.58020000 -50.27520000
-11.55190000 -26.60360000 -50.94510000
-17.95850000 -9.43830000 -50.23970000
-17.97610000 -9.06920000 -49.26790000
34.40110000 -39.11020000 -31.36440000
-12.83450000 -25.16300000 -51.76250000
-18.09250000 -9.77340000 -48.94970000
-12.38860000 -26.05390000 -51.55520000
-14.37380000 -25.01920000 -52.06490000
30.79840000 -43.49710000 -29.99240000
-15.59200000 -26.14450000 -51.96050000
-16.76920000 -9.83380000 -51.47670000
-16.83360000 -26.03750000 -51.62200000
-13.83310000 -25.93090000 -52.07550000
-16.86140000 -11.23710000 -51.21420000
-13.17570000 -27.03250000 -51.57150000
-14.82160000 -27.00900000 -51.95510000
5.12560000 -21.76990000 -50.69790000
-15.28160000 -11.21890000 -52.41940000
-14.34540000 -28.11990000 -51.95180000
-10.57520000 -26.97140000 -49.82860000
-15.49260000 -12.88800000 -52.34130000
-17.17700000 -11.89860000 -51.23210000
-15.72110000 -13.51760000 -51.96790000
-18.75930000 -10.44080000 -48.06870000
-18.02500000 -11.25370000 -50.34750000
-18.43700000 -10.95080000 -48.78720000
13.59430000 -41.13320000 -43.00530000
-18.18400000 -11.74060000 -49.83890000
-18.32670000 -12.04630000 -48.45560000
-18.34150000 -13.59400000 -48.94190000
-17.78340000 -12.89380000 -50.34740000
21.60240000 -15.52790000 -46.15350000
-16.51870000 -13.53040000 -51.27500000
-17.55630000 -13.95570000 -50.87900000
-16.09280000 -14.85290000 -51.96030000
-17.73810000 -15.13970000 -50.53170000
-13.01750000 -12.73590000 -53.25350000
-14.00300000 -12.80840000 -53.09880000
-13.91950000 -13.86450000 -52.92620000
-13.01750000 -13.84300000 -53.00090000
-14.37160000 -14.97880000 -52.88140000
43.39460000 -12.76320000 -26.68040000
-14.90640000 -16.11160000 -52.54800000
-16.51650000 -15.87190000 -51.41440000
10.59040000 -27.31670000 -49.57910000
7.97510000 -22.48290000 -50.28180000
-17.80370000 -16.20690000 -50.60070000
-16.62070000 -16.63340000 -51.64200000
16.02700000 -45.30960000 -38.37780000
43.39180000 -22.98910000 -26.36320000
3.43350000 -29.53970000 -50.48430000
19.73080000 -0.94530000 -43.42240000
21.84200000 0.62640000 -39.72750000
-5.25150000 -0.38240000 -46.74190000
-8.19200000 -0.76610000 -47.94340000
-7.43610000 -1.10010000 -47.78900000
-0.16440000 -0.14200000 -46.72560000
-3.70340000 -0.34490000 -47.06120000
0.31940000 -1.11330000 -48.32860000
-4.59010000 -1.09140000 -48.03210000
25.39810000 -0.34730000 -38.94330000
21.24790000 -44.71810000 -36.32360000
25.45280000 -44.47220000 -33.70080000
25.02640000 -0.96150000 -40.62870000
-3.83070000 -1.85440000 -49.23130000
-8.15180000 -2.21260000 -49.12020000
-6.99170000 -3.25650000 -49.88390000
4.07330000 -0.00500000 -46.08620000
-9.15200000 -2.32280000 -49.63080000
-8.89090000 -4.21620000 -49.94040000
-9.24540000 -5.64260000 -50.30620000
1.33040000 -2.36840000 -49.83640000
5.30780000 -1.13240000 -47.99050000
5.25130000 -2.07960000 -49.33950000
-2.62450000 -2.96270000 -50.22710000
1.03010000 -4.09990000 -50.70220000
-4.36700000 -4.80760000 -50.61540000
26.70700000 -47.26820000 -29.57300000
6.44280000 -32.82420000 -49.92830000
4.36800000 -34.48330000 -49.74810000
-2.01020000 -7.58850000 -51.03400000
29.23510000 -0.99430000 -37.67960000
22.14350000 -47.97310000 -32.34350000
32.23400000 -0.43140000 -33.74330000
-6.18350000 -8.47550000 -50.63120000
-3.84750000 -29.25260000 -50.52430000
23.62730000 -50.02750000 -28.66140000
27.13390000 0.45670000 -36.54630000
-9.45640000 -5.97360000 -50.87770000
-8.41500000 -8.02990000 -50.39060000
33.56580000 -1.10230000 -34.17780000
41.07170000 -23.84900000 -29.87360000
-9.14330000 -10.06010000 -51.53820000
-8.83250000 -8.84380000 -50.78060000
10.58990000 -45.60710000 -40.07430000
-12.76760000 -28.11620000 -51.48020000
-12.40830000 -28.95150000 -51.02140000
-13.72510000 -28.85570000 -51.55930000
-12.87380000 -30.50580000 -51.44930000
-18.77780000 -11.84420000 -47.50640000
-19.45710000 -13.20660000 -47.15860000
-18.30780000 -14.00880000 -47.98970000
-18.71230000 -14.73400000 -47.36520000
-11.59010000 -29.43360000 -50.58980000
-11.09810000 -29.56570000 -49.86790000
-20.23130000 -13.25030000 -46.95460000
-10.65370000 -30.49750000 -49.56690000
-20.23250000 -14.88160000 -46.76260000
-12.08090000 -31.71590000 -51.22010000
-11.15220000 -31.88800000 -49.97490000
-19.07240000 -19.15650000 -47.18880000
-18.09950000 -15.82340000 -47.66590000
-10.42220000 -33.83120000 -49.62940000
12.36130000 -49.16860000 -36.05670000
-9.43940000 -33.81860000 -49.35840000
6.06040000 -46.82990000 -40.06510000
0.44030000 -32.97750000 -50.39300000
1.47770000 -48.24350000 -39.17210000
7.10790000 -50.03010000 -36.62100000
17.50070000 -49.35620000 -33.55590000
19.61900000 -51.99780000 -28.93540000
11.17770000 -52.18680000 -33.07630000
14.67750000 -52.15600000 -31.67340000
6.28820000 -52.58860000 -33.91510000
10.53130000 -54.66150000 -29.76240000
15.70080000 -54.63160000 -27.45070000
19.80100000 -54.60390000 -24.67110000
12.13760000 -55.94330000 -27.30760000
13.78050000 -56.60760000 -25.70210000
42.85170000 0.15730000 -13.87630000
43.08570000 -1.08210000 -18.65890000
41.18150000 -44.85460000 6.77810000
38.67810000 -48.05160000 3.86430000
43.79170000 -42.28870000 1.71630000
50.25960000 -28.47080000 -2.66610000
50.30140000 -25.17160000 -1.21470000
50.08330000 -30.36610000 -2.53880000
45.35700000 -1.46030000 -13.37330000
44.86160000 -25.48980000 -23.55940000
46.62560000 -23.17600000 -19.93620000
46.10090000 -29.87280000 -20.26730000
36.75610000 -49.11500000 9.22920000
50.68980000 -29.22000000 -3.25490000
47.03380000 -15.31370000 -19.17530000
48.17530000 -14.64740000 -15.93140000
36.12180000 -50.56090000 3.97470000
50.17480000 -22.22760000 -9.18600000
51.12640000 -18.67190000 -8.22730000
51.26470000 -21.84040000 -8.60640000
39.31400000 -46.04640000 10.69240000
51.79200000 -19.91990000 -7.86520000
52.53950000 -19.36600000 -6.76750000
52.54520000 -21.04360000 -6.76860000
53.27160000 -20.02680000 -5.37270000
45.73680000 -39.56080000 -4.21490000
42.47350000 -43.88530000 -2.61250000
42.05470000 -43.84920000 -6.49540000
45.69850000 -0.36770000 -8.00940000
46.91860000 -1.17530000 -9.09260000
47.16040000 -1.93870000 -10.24140000
35.84910000 -40.83410000 -27.62090000
33.26380000 -45.46440000 -24.73990000
37.31630000 -42.53500000 -23.11790000
48.30770000 -27.45750000 -14.35480000
49.20810000 -14.64410000 -12.04750000
49.11130000 -26.96480000 -11.08530000
47.05780000 -2.58240000 -14.22690000
49.69460000 -16.73260000 -9.39790000
49.96800000 -16.69640000 -8.85470000
45.74920000 -3.02650000 -19.73560000
49.68100000 -33.32840000 -0.67510000
50.15520000 -27.20470000 1.02100000
49.49850000 -33.39920000 3.71550000
49.71970000 -27.31470000 6.39140000
45.60750000 -5.33030000 -22.22760000
28.28430000 -48.62770000 -26.04900000
46.68160000 -4.07840000 -18.91880000
51.65230000 -21.83140000 -8.28560000
52.14180000 -23.15330000 -7.80270000
52.83940000 -23.07530000 -6.23450000
44.25720000 -32.57970000 -23.64840000
48.88080000 -34.13300000 7.72610000
48.14760000 -36.14110000 5.20220000
39.66640000 -47.15940000 -1.55750000
49.70980000 -26.01920000 -9.67910000
49.08640000 -35.04260000 0.55460000
37.76430000 -48.71520000 -6.21940000
40.90680000 -44.28610000 -10.44780000
51.09010000 -24.16520000 -8.92370000
52.24320000 -24.22670000 -8.13840000
52.96970000 -24.06830000 -6.73890000
52.30860000 -25.21850000 -7.65520000
47.97430000 -3.62810000 -14.50750000
48.38930000 -6.73960000 -15.45350000
51.21680000 -25.54930000 -8.78110000
34.52200000 -47.20150000 -20.27620000
48.41900000 -3.11280000 -11.57590000
52.10000000 -26.29940000 -8.03030000
51.06720000 -26.63750000 -9.00270000
48.98340000 -5.28120000 -12.52680000
36.66990000 -50.25520000 -1.53770000
37.99990000 -44.41490000 -18.64220000
47.06780000 -7.80410000 -19.44470000
50.53470000 -6.07890000 0.98910000
47.20300000 -32.21200000 -16.72060000
31.02570000 -49.45480000 -21.60460000
47.44580000 -0.06730000 -6.88650000
47.78410000 -0.79380000 -7.93200000
48.53430000 -0.55660000 -7.37740000
51.94330000 -5.48860000 -0.07550000
51.90590000 -6.73480000 -0.01180000
52.71030000 -6.07850000 -0.92140000
51.23870000 -6.80660000 0.23270000
50.93140000 -7.96440000 0.39090000
34.21160000 -51.85220000 -7.02340000
52.58030000 -6.94130000 -0.61480000
48.32950000 -0.53030000 -6.38920000
51.95320000 -8.45650000 -0.37080000
33.09380000 -53.21640000 -1.17580000
52.63260000 -7.93250000 -1.26550000
49.37180000 -29.42020000 -9.76440000
50.58340000 -15.62690000 -0.21230000
48.47620000 -1.42220000 -4.69730000
48.76470000 -1.02920000 -6.22930000
50.59310000 -12.41970000 1.83580000
50.08470000 -1.26290000 -7.19180000
49.22290000 -1.52850000 -8.32790000
49.90880000 -1.66420000 -5.66610000
51.00700000 -27.55520000 -8.88080000
50.14140000 -15.83110000 6.31990000
50.17100000 -29.03240000 -9.18020000
50.80120000 -1.79840000 -7.48580000
51.31260000 -2.02780000 -5.43280000
52.11830000 -2.33470000 -5.82410000
52.25240000 -27.36270000 -7.52790000
27.18950000 -52.09000000 -21.66850000
30.13920000 -52.03100000 -17.78290000
51.27230000 -2.58800000 -7.44580000
52.03070000 -3.20370000 -6.78670000
51.59170000 -28.32560000 -8.64330000
52.32030000 -28.66680000 -7.14210000
46.15580000 -33.36960000 18.13550000
47.08630000 -34.47430000 14.89900000
47.57340000 -27.69630000 15.65850000
51.38320000 -3.24050000 -8.01190000
48.31330000 -33.76020000 10.95100000
48.56760000 -27.50640000 12.28960000
52.53750000 -4.10700000 -7.07030000
50.44350000 -30.56280000 -8.69160000
48.17600000 -1.99890000 -9.31390000
51.05430000 -30.28890000 -8.06420000
49.27310000 -2.67630000 -8.94450000
49.27950000 -31.89480000 -9.33310000
48.86930000 -3.33960000 -10.04650000
49.70000000 -12.88750000 9.83380000
49.56310000 -4.40260000 -9.24790000
50.21970000 -2.70490000 -8.58570000
45.91660000 -28.67740000 19.75190000
50.95770000 -4.60920000 -8.47880000
50.03510000 -5.55480000 -8.84640000
50.60600000 -2.01670000 -3.28550000
42.44170000 -30.63830000 -27.19910000
52.43280000 -2.52420000 -2.73520000
52.15700000 -1.97910000 -1.44620000
52.43100000 -2.20610000 -0.93630000
51.45830000 -2.16530000 -0.01080000
52.55800000 -3.10040000 -0.77790000
51.96930000 -3.46100000 -0.11250000
47.47900000 -35.81250000 10.87640000
51.20610000 -3.99690000 0.18830000
44.74400000 -40.78330000 5.35910000
43.50700000 -41.38030000 9.89630000
52.87360000 -2.91900000 -1.96840000
52.71830000 -2.81320000 -3.22530000
42.25850000 -34.18810000 -26.36750000
52.83100000 -3.67330000 -1.51580000
40.27710000 -34.30230000 -29.21260000
52.50670000 -2.87680000 -5.36770000
52.91270000 -3.01640000 -4.00270000
52.66170000 -3.60910000 -4.97450000
52.38370000 -3.88760000 -6.17470000
52.92000000 -4.47140000 -5.73970000
52.99310000 -3.67190000 -3.22960000
46.65830000 -37.68140000 8.63650000
53.31710000 -4.58310000 -4.42510000
53.33390000 -4.36110000 -2.63800000
53.19110000 -4.52330000 -1.53230000
52.92290000 -4.90100000 -0.95630000
53.09830000 -5.50790000 -1.93480000
40.52750000 -43.15390000 -14.96600000
35.51920000 -48.39090000 -15.69040000
36.86200000 -48.38240000 -11.53950000
43.42050000 -34.78400000 -23.66840000
53.33920000 -5.32870000 -3.62470000
53.31780000 -6.35180000 -2.15410000
53.48290000 -6.43640000 -3.10520000
45.75880000 -33.64970000 -19.97960000
52.76720000 -8.95020000 -1.33610000
53.27190000 -8.75630000 -2.47820000
52.26010000 -4.58990000 -7.65860000
51.84580000 -10.08450000 -0.58400000
45.13960000 -35.32330000 -19.22290000
53.02740000 -9.77330000 -2.24010000
52.85750000 -10.36750000 -1.61240000
53.56110000 -10.98440000 -2.88200000
52.60060000 -11.12360000 -0.95880000
51.62820000 -11.04950000 -0.42100000
39.78510000 -37.42670000 -26.45420000
41.58320000 -38.76210000 -21.24080000
53.31990000 -11.13790000 -1.94910000
52.26590000 -13.06270000 -1.14510000
50.90120000 -11.99770000 -0.15390000
49.68430000 -7.40480000 -10.49440000
33.98630000 -52.02970000 6.54840000
51.58230000 -13.30880000 -0.68020000
51.75570000 -5.65480000 -8.20470000
52.59870000 -5.83270000 -7.36600000
50.84890000 -6.43280000 -8.40120000
52.19330000 -6.52720000 -7.53400000
49.91530000 -8.46430000 -9.25750000
53.02790000 -12.33140000 -2.03290000
53.25980000 -12.39240000 -3.11990000
50.95070000 -7.72640000 -8.58890000
48.47840000 -33.39610000 -11.60890000
51.56870000 -7.29210000 -8.24990000
43.92570000 -27.90720000 23.96800000
53.06100000 -13.60480000 -2.54370000
53.29070000 -13.64260000 -3.80640000
33.12470000 -49.97840000 -17.31870000
26.22940000 -55.61450000 13.33840000
28.44990000 -55.23850000 9.76110000
29.46180000 -52.87730000 15.86930000
49.23400000 -33.37550000 -8.39450000
52.05270000 -8.20240000 -8.01560000
50.46100000 -8.54620000 -8.68510000
52.71580000 -14.72590000 -2.35280000
52.75610000 -5.03480000 -6.68800000
51.65880000 -14.90530000 -0.99150000
52.93820000 -5.50340000 -6.03850000
52.48060000 -15.63630000 -1.66310000
51.06920000 -17.15090000 -0.95550000
51.75030000 -16.41440000 -1.18210000
53.48470000 -6.17480000 -4.37820000
53.15030000 -6.43910000 -5.62200000
52.54830000 -6.78800000 -6.52150000
48.12530000 -34.82060000 -10.72590000
52.15210000 -7.31060000 -7.66750000
53.14790000 -7.25730000 -4.84200000
52.70130000 -7.92310000 -6.64740000
53.23530000 -8.35830000 -5.20300000
53.22440000 -7.55080000 -3.49010000
32.70020000 -51.64560000 -13.57570000
53.10440000 -7.82410000 -2.43470000
47.31050000 -34.28980000 -14.85580000
53.51990000 -8.54460000 -3.99590000
40.73250000 -31.83130000 28.44990000
53.08900000 -9.46430000 -4.83120000
53.25390000 -9.35920000 -3.30120000
52.59190000 -9.26420000 -6.60570000
51.74480000 -9.23080000 -7.95990000
52.34940000 -10.24800000 -7.51210000
53.20010000 -10.46840000 -5.80330000
52.87320000 -10.82860000 -6.60500000
44.23130000 -33.60710000 22.29180000
44.79080000 -37.49590000 -15.96850000
53.08380000 -10.22460000 -5.50030000
42.13080000 -34.49540000 25.74850000
44.40570000 -34.86190000 21.33030000
42.70220000 -35.89490000 23.52170000
40.81650000 -35.48720000 27.12040000
39.88230000 -39.07540000 24.03760000
45.43860000 -14.66000000 -22.87770000
30.62270000 -54.91730000 1.72150000
26.11940000 -54.48050000 -17.84870000
44.86200000 -35.98130000 18.94530000
42.45700000 -38.74380000 19.56070000
45.17320000 -38.82650000 -11.18760000
23.55370000 -52.51530000 -24.87430000
47.45560000 -36.44110000 -8.80020000
45.93770000 -36.99310000 13.78500000
44.05050000 -38.71950000 15.62960000
28.63520000 -56.39050000 -3.29040000
27.61060000 -57.58240000 -1.69800000
49.50740000 -24.18740000 9.14380000
28.51950000 -56.42760000 1.85880000
22.22980000 -55.31950000 -21.00970000
27.45050000 -56.94070000 5.13750000
27.26710000 -57.60710000 3.11520000
29.57960000 -55.17120000 6.14480000
