-74.76980000 -39.21010000 12.32160000
-79.30440000 -36.56030000 1.66950000
-80.36030000 35.33220000 -24.09960000
-87.11380000 38.97550000 -28.66730000
-84.68370000 35.91500000 -35.97660000
-71.91200000 10.82200000 47.51670000
-84.10780000 43.79400000 -36.84260000
-80.54810000 40.56440000 -44.24840000
-81.05250000 23.48750000 43.33090000
-77.32930000 26.27760000 48.40730000
-78.07170000 40.52470000 -30.03970000
-86.53590000 45.43900000 -30.90620000
-80.70010000 27.18580000 -46.57230000
-82.23220000 35.81430000 -41.42250000
-74.39470000 30.22700000 -42.25710000
-80.75730000 43.16760000 -21.37580000
-81.85060000 46.94080000 -18.22900000
-77.97840000 30.67050000 -50.18840000
-72.32400000 11.28550000 61.15050000
-73.01970000 17.93690000 57.62830000
-79.43070000 48.12750000 -28.54790000
-71.68920000 14.09750000 60.46810000
-72.50820000 31.47460000 -57.93540000
-65.09400000 24.84870000 52.86990000
-70.18630000 42.35130000 -46.76300000
-73.26580000 34.11060000 -42.47700000
-67.39470000 37.13860000 -51.22510000
-75.38730000 39.32320000 -52.93510000
-74.03810000 41.65370000 -39.83260000
-68.50060000 34.47810000 45.19860000
-76.49910000 45.93640000 -35.49270000
-74.09170000 47.26510000 -41.06070000
-65.78440000 32.52540000 -54.44990000
-70.16010000 50.39560000 -48.88450000
-66.29010000 44.62400000 -52.47340000
-84.24540000 29.57760000 33.84450000
-80.17180000 32.55490000 41.07400000
-83.07190000 36.77860000 34.06990000
-82.49240000 -32.78100000 -7.32470000
-83.15940000 48.33180000 -40.80820000
-88.11080000 49.73390000 -28.67740000
-79.74900000 44.53680000 -46.37700000
-84.75460000 52.59980000 -41.11870000
-70.48540000 38.09030000 -59.66060000
-88.37350000 53.53710000 -33.56910000
-83.36870000 -31.24060000 3.82410000
-95.59930000 57.50090000 -24.10300000
-92.98040000 57.56200000 -33.88880000
-91.54040000 55.31410000 -28.53530000
-76.87860000 46.29460000 -51.37570000
-72.14410000 47.18740000 -58.24480000
-89.21840000 56.71490000 -40.43560000
-93.08390000 59.28260000 -39.37860000
-96.05940000 59.20770000 -30.63600000
-68.85250000 26.52120000 59.40390000
-76.27010000 50.99010000 -54.52150000
-79.96840000 50.62180000 -48.30060000
-76.98420000 53.69530000 -55.61240000
-90.66390000 59.76170000 -45.30630000
-86.94550000 58.78400000 -51.25840000
-86.15940000 60.28320000 -53.31870000
-90.14140000 61.27630000 -44.37540000
-84.76450000 -28.63600000 -10.76410000
-85.12230000 56.52200000 -48.28650000
-80.48120000 57.52580000 -58.08120000
-84.77100000 59.47680000 -55.86540000
-85.63190000 -27.27070000 -1.88360000
-87.49260000 -21.43060000 -6.52890000
-84.07550000 61.72080000 -54.79300000
-76.87450000 38.37280000 45.48170000
-70.85600000 -40.30480000 46.76360000
-78.92770000 -34.91990000 41.63030000
-75.16370000 -40.42390000 39.70440000
-68.84500000 12.47100000 64.40060000
-74.32100000 -43.14650000 35.26270000
-77.35960000 51.34640000 -36.12680000
-80.11120000 54.64680000 -32.63090000
-80.68780000 -34.21970000 9.69940000
-75.84030000 -36.93340000 21.30040000
-82.92350000 53.55090000 -21.03640000
-79.15120000 -40.85240000 30.57800000
-82.42810000 -30.13050000 16.96520000
-83.01080000 58.94430000 -31.53240000
-61.00520000 21.89420000 58.44880000
-81.37910000 -36.99610000 33.66890000
-85.12310000 -34.28350000 28.76830000
-86.47160000 -23.47610000 8.37390000
-68.73100000 18.08690000 62.76450000
-65.64410000 16.74240000 66.27670000
-85.48060000 58.80770000 -22.31900000
-88.86950000 62.32010000 -22.08830000
-65.25360000 -42.35790000 25.48700000
-71.71710000 -39.03410000 26.20900000
-61.79390000 24.03240000 67.27270000
-78.57040000 -33.11120000 24.18400000
-72.60420000 -36.30650000 32.54740000
-83.86260000 61.24670000 -34.66150000
-85.65620000 63.00290000 -36.17910000
-89.75690000 63.44300000 -28.81210000
-55.14750000 -49.19160000 -48.33420000
-62.09300000 -49.06280000 -39.58380000
-69.08380000 -44.15260000 42.27060000
-59.30380000 21.71720000 70.32370000
-55.58930000 24.71100000 63.15000000
-64.14600000 -41.23350000 34.59970000
-79.41260000 58.45450000 -39.56120000
-74.55750000 54.81020000 -44.65350000
-75.37270000 59.03900000 -47.74280000
-75.62600000 -32.51870000 33.40030000
-60.24670000 -39.47550000 -46.27210000
-65.95120000 -37.41920000 -43.80710000
-68.18070000 -35.99620000 41.28200000
-66.22810000 -39.09520000 37.78640000
-57.80280000 32.10600000 68.56880000
-63.16400000 28.52650000 64.78480000
-58.94790000 -42.59120000 -36.25980000
-48.40870000 -42.62700000 -49.55430000
-82.36840000 -30.79210000 40.41700000
-84.67720000 -31.17450000 34.70690000
-82.14320000 63.54370000 -49.03690000
-92.92730000 63.09220000 -27.55940000
-56.41170000 33.91460000 60.13310000
-90.67320000 62.55390000 -38.86430000
-79.91530000 -29.75680000 45.44850000
-83.32070000 -26.80260000 42.28970000
-84.15090000 62.72550000 -51.69780000
-76.05290000 63.17840000 -61.94390000
-73.37610000 32.24210000 52.06370000
-68.88690000 34.63720000 57.38920000
-77.02370000 61.65150000 -49.15310000
-64.44270000 35.76380000 50.68340000
-87.98680000 -26.55250000 32.03870000
-89.10100000 -28.86810000 25.84860000
-78.43000000 63.20050000 -51.37030000
-83.04900000 -27.38520000 20.20810000
-79.76530000 -27.90900000 29.88320000
-68.87620000 42.31050000 56.34720000
-72.03340000 45.02780000 52.64160000
-90.36160000 -22.40680000 29.83170000
-64.05530000 37.80920000 62.08380000
-57.50900000 38.15100000 68.01590000
-84.10020000 -21.67370000 23.48480000
-86.94260000 -18.99100000 13.36420000
-59.91040000 36.82910000 55.78820000
-85.25620000 -14.62940000 22.56190000
-65.85100000 46.21500000 59.88760000
-72.84530000 -31.22040000 40.06810000
-76.93700000 -25.10000000 38.80600000
-86.03110000 -23.95480000 39.04350000
-97.36110000 61.35020000 -22.99830000
-81.51840000 -20.05870000 31.64310000
-89.50110000 -19.13230000 34.80000000
-95.39830000 60.18390000 -33.28360000
-94.54190000 61.63820000 -32.30160000
-50.74500000 -37.28550000 -60.95790000
-65.52910000 -38.90310000 56.11560000
-59.65140000 -36.84250000 -53.31510000
-69.85410000 -36.44580000 53.52610000
-58.57640000 -34.19900000 -58.27700000
-51.09590000 -32.69800000 -66.52540000
-40.06210000 -40.59880000 -61.68340000
-87.82660000 -7.37190000 12.04320000
-88.90980000 -8.07280000 2.23420000
-88.44880000 -16.39160000 0.75680000
-75.53980000 -28.06940000 53.64350000
-84.75710000 44.27600000 29.59750000
-76.51480000 42.37100000 28.42540000
-75.40680000 37.29970000 31.47420000
-88.40210000 1.66970000 5.08480000
-86.12390000 -6.19270000 20.20550000
-86.36330000 1.45360000 17.75530000
-81.21730000 43.38000000 37.57720000
-85.64140000 49.98670000 29.58070000
-86.28910000 10.70830000 10.94290000
-95.62550000 5.40010000 10.27340000
-95.84160000 -2.99020000 14.87600000
-63.27300000 -37.07180000 46.32790000
-88.14900000 51.54430000 24.03710000
-72.73540000 -29.68670000 -44.90040000
-77.81680000 48.74230000 27.12720000
-80.89520000 52.83920000 21.11350000
-66.79050000 -33.16320000 -49.96150000
-64.97990000 -29.41230000 -56.01800000
-66.41170000 -32.50350000 48.25750000
-72.48690000 -25.89440000 45.38610000
-75.42820000 42.49770000 47.41510000
-79.62180000 46.86000000 41.59740000
-73.00870000 43.73570000 36.56730000
-70.88390000 39.36820000 40.24960000
-74.45990000 47.63150000 34.48670000
-78.57630000 50.24420000 43.92730000
-83.54980000 52.42650000 36.39790000
-81.70090000 -23.45880000 47.53040000
-80.85520000 53.68610000 42.90310000
-86.63540000 55.57730000 34.99450000
-75.34980000 51.08830000 34.38780000
-80.41440000 56.15210000 27.73730000
-83.50470000 57.21320000 19.90230000
-58.44030000 -29.48320000 -62.84460000
-50.76550000 -27.84230000 -70.20160000
-63.71540000 -23.82090000 -60.93820000
-55.16020000 -24.22130000 -68.74180000
-90.70630000 56.26280000 26.71350000
-60.70100000 -19.70160000 -65.45430000
-78.56160000 -21.51070000 37.60570000
-73.88960000 -18.27210000 46.46340000
-86.86900000 61.22350000 18.67210000
-96.48590000 59.63570000 25.39290000
-94.33580000 59.80390000 32.17630000
-95.71690000 60.75470000 28.03540000
-93.75460000 60.48070000 34.24670000
-93.30540000 61.93760000 32.41330000
-86.17360000 63.54730000 38.76320000
-86.92760000 62.65690000 24.59870000
-92.49650000 -24.75650000 -20.83500000
-95.79350000 -18.43470000 -12.18120000
-84.57650000 63.25510000 33.96860000
-94.79730000 -18.22220000 -19.08830000
-91.72260000 59.46150000 38.03020000
-96.60450000 -13.95790000 -12.05600000
-92.27380000 -15.23050000 29.15920000
-92.74780000 -19.05600000 -27.16960000
-94.40190000 -10.59890000 22.69860000
-82.17240000 60.49140000 31.70920000
-77.42550000 57.74870000 37.30150000
-80.61320000 62.14970000 39.02290000
-93.95620000 -13.55920000 -26.34270000
-86.25280000 -17.52300000 -22.40740000
-74.01680000 48.24760000 50.50930000
-70.59280000 48.71340000 42.17910000
-69.01550000 45.01270000 43.72470000
-72.09960000 53.28800000 42.38520000
-76.39680000 53.70420000 50.07120000
-77.43160000 55.93750000 51.65550000
-80.79340000 24.85420000 23.98630000
-67.13950000 51.28860000 48.98390000
-64.29380000 49.38350000 51.65090000
-62.55520000 45.54310000 52.96810000
-70.31050000 57.73020000 49.28640000
-63.27600000 54.11190000 55.28820000
-59.40440000 51.70270000 58.18360000
-77.19790000 26.73830000 31.94410000
-72.67060000 60.90600000 49.97620000
-96.52130000 -17.94820000 -2.47200000
-87.56720000 -14.77970000 -16.12760000
-88.42420000 -15.23440000 -8.17880000
-73.87830000 63.04550000 52.87610000
-97.16730000 -14.63140000 0.63650000
-73.59790000 33.00300000 36.57640000
-97.38480000 -5.83470000 -3.78580000
-65.35280000 42.26790000 48.58780000
-88.85290000 -8.48890000 -6.48050000
-58.87050000 40.83230000 56.51370000
-57.39250000 46.06810000 58.65990000
-74.80890000 56.73800000 56.79780000
-65.21700000 49.80140000 61.45840000
-69.94670000 52.79110000 57.83120000
57.27080000 26.71900000 -71.45660000
-48.92760000 3.76020000 -75.58300000
-44.61370000 -6.64530000 -78.63570000
-40.10330000 2.17450000 -80.80740000
-41.98290000 -38.47920000 -77.15610000
-37.12190000 -41.50880000 -76.13540000
46.22590000 35.39570000 -68.75610000
40.23170000 26.09330000 -74.95350000
47.97700000 23.26490000 -71.07420000
0.73860000 23.12730000 -86.39460000
4.81460000 14.97180000 -88.11340000
9.74360000 27.46820000 -84.73250000
-32.64140000 -36.30910000 -83.19890000
55.82310000 25.02180000 -64.30210000
-47.96500000 -38.78310000 -72.76440000
55.28770000 35.89530000 -61.46610000
9.00330000 18.11860000 -94.52120000
6.94850000 13.87150000 -95.40620000
-1.18120000 14.96780000 -95.73720000
-41.50010000 10.31790000 -78.93610000
-0.57580000 19.50830000 -94.67580000
48.22210000 29.84240000 -76.96870000
4.52000000 27.90030000 -92.69540000
53.26260000 35.19970000 -72.32480000
-50.35740000 -33.84060000 -76.06230000
59.84900000 30.19610000 -68.02260000
53.43920000 40.92210000 -71.39580000
15.18200000 25.01020000 -91.88220000
-37.42800000 -8.47620000 -82.35170000
-32.26350000 2.74650000 -84.16980000
-41.26900000 -32.97900000 -81.98740000
35.84830000 32.39610000 -83.10550000
46.06890000 36.70060000 -76.90990000
-50.42200000 -28.75090000 -79.20770000
35.59650000 19.30450000 -79.27070000
36.87540000 35.93150000 -74.32630000
28.55670000 21.41500000 -81.61560000
36.43320000 40.06720000 -82.01470000
-34.43460000 -33.30640000 -84.83870000
21.61100000 10.15400000 -86.41870000
22.09050000 23.62360000 -83.15090000
13.99580000 16.98120000 -86.52850000
-33.56230000 -28.60250000 -87.75240000
-42.70800000 -26.76200000 -84.53350000
-48.77890000 14.73300000 -82.66960000
-46.80350000 4.17430000 -85.81880000
-52.57900000 8.97470000 -81.38890000
-57.91830000 -26.21960000 -75.31170000
32.62460000 40.43710000 -75.94220000
27.96430000 35.73350000 -78.41800000
20.14390000 40.42330000 -80.56680000
-34.96860000 18.76010000 -88.51380000
-39.36360000 3.29200000 -89.52000000
-42.80680000 17.43000000 -85.28700000
28.76840000 42.63150000 -85.04200000
34.00360000 47.25600000 -83.10190000
-44.59010000 -19.69140000 -86.21510000
-51.71030000 -19.18190000 -82.14980000
41.14390000 42.35650000 -71.24570000
34.17790000 47.59240000 -75.43490000
42.20050000 45.12300000 -78.65120000
44.42680000 41.28810000 -77.58510000
31.03750000 0.36830000 -84.69060000
30.84190000 7.77990000 -83.96470000
-65.67510000 13.86650000 -70.07820000
41.45700000 48.99270000 -79.65600000
-63.53620000 16.39710000 -61.35290000
-57.49160000 14.84250000 -67.23000000
-53.46900000 -11.66110000 -82.44570000
48.93070000 42.96100000 -65.83010000
-59.55590000 8.60370000 -76.53860000
-38.29340000 -19.23140000 -89.32350000
-62.17040000 23.63580000 -70.59120000
-55.66990000 19.11080000 -77.16300000
41.26580000 47.64690000 -71.36620000
18.00350000 32.61950000 -82.03870000
47.30460000 49.45420000 -67.61500000
48.49180000 47.88480000 -75.05020000
45.89460000 53.94560000 -78.63340000
-51.96110000 21.51840000 -79.35780000
54.20580000 52.04260000 -71.87940000
-39.70400000 38.75470000 -74.68200000
-34.88990000 33.58310000 -77.43470000
-32.16160000 40.91150000 -78.15850000
-41.84290000 43.62620000 -73.62660000
-50.69450000 37.46910000 -67.59440000
-37.25250000 -37.62750000 -69.33140000
-32.27140000 47.37490000 -78.62270000
64.89570000 32.05380000 -62.45230000
-4.77540000 12.88290000 -88.60100000
-7.83700000 26.82170000 -85.42840000
-13.05330000 16.98800000 -87.09540000
-31.24480000 16.66330000 -82.39210000
-36.37140000 -34.93680000 -73.43000000
-16.67200000 23.41870000 -85.11210000
-45.09440000 -35.24830000 -68.27760000
-45.50710000 -31.63210000 -71.42070000
-45.65280000 21.71600000 -74.29790000
-50.77930000 19.56270000 -71.39380000
-10.30560000 33.93860000 -84.01050000
-20.06080000 30.94550000 -82.87270000
62.79530000 36.00090000 -53.65100000
-38.89500000 -28.70550000 -77.09120000
-31.52050000 -32.62290000 -77.78360000
59.76720000 42.13300000 -65.90890000
-37.86600000 24.71190000 -77.85420000
-9.48440000 23.83760000 -93.44930000
-3.04560000 29.45420000 -92.58310000
67.10200000 36.17840000 -59.21890000
71.51000000 33.56970000 -54.30180000
-26.24280000 -32.64070000 -87.83450000
-6.11790000 35.98060000 -91.44190000
-15.54550000 32.38650000 -90.93260000
-19.21750000 -30.72360000 -82.96550000
-28.72670000 -30.09560000 -80.74010000
-14.50580000 38.78780000 -90.46580000
62.11570000 42.28510000 -53.26230000
-18.79070000 -33.72490000 -88.98840000
-25.88350000 -27.97020000 -90.30440000
-19.19860000 -30.93270000 -90.48610000
-61.33080000 29.06260000 -60.55890000
64.51850000 44.22130000 -60.93970000
3.01480000 35.04120000 -91.41060000
69.11860000 44.91710000 -55.56810000
-59.61660000 31.58750000 -71.13170000
-1.11350000 32.56060000 -84.59650000
55.22620000 43.94660000 -60.45940000
-32.97820000 -25.36490000 -81.49920000
8.30220000 39.06640000 -83.13320000
-22.42670000 -26.47040000 -84.54470000
53.26000000 50.07570000 -62.86260000
10.47850000 34.19300000 -90.74910000
54.55040000 47.68510000 -70.56860000
-56.11710000 32.40110000 -64.57070000
-46.45890000 32.60570000 -71.32330000
20.05840000 30.79820000 -89.30220000
63.29930000 49.36710000 -62.71730000
-30.62580000 -20.86540000 -91.75130000
-27.64970000 -19.21220000 -85.25240000
-20.14890000 -22.96340000 -86.49290000
41.14990000 52.54620000 -72.51780000
50.14040000 54.30990000 -66.96420000
-41.42300000 28.53710000 -83.57340000
-49.55920000 27.23210000 -79.33750000
-20.37560000 -20.55380000 -94.45290000
-9.42050000 42.68450000 -83.53340000
2.71890000 42.88850000 -83.61240000
54.44240000 55.05000000 -73.23760000
0.17190000 39.46430000 -91.19070000
-7.67770000 44.15870000 -91.01700000
-10.76010000 -23.96610000 -87.69360000
8.39420000 42.70110000 -90.45800000
58.50550000 57.96570000 -72.81670000
48.68270000 56.90980000 -78.83850000
-1.42290000 46.31030000 -91.28930000
2.11430000 48.52000000 -91.54360000
59.42430000 50.15870000 -57.01390000
64.27280000 49.77970000 -51.17900000
-19.81500000 -19.00550000 -87.51700000
-25.15200000 39.47630000 -80.60900000
-28.99040000 27.49860000 -80.95970000
-44.25170000 -23.16400000 -76.71360000
-50.22480000 -22.01420000 -73.26010000
65.26920000 53.06430000 -62.19590000
-55.38870000 38.30890000 -74.03680000
-25.15030000 39.68570000 -88.41560000
-44.37050000 36.91660000 -81.03250000
-43.13430000 -16.04960000 -78.92230000
-17.56060000 42.05290000 -82.44680000
56.14270000 55.08180000 -62.15970000
-36.27340000 -19.31460000 -81.85230000
-55.47120000 -16.98370000 -70.54550000
62.91730000 56.31950000 -55.63820000
63.78150000 55.86180000 -65.64330000
59.19390000 60.04830000 -62.45830000
48.73010000 58.57480000 -70.32650000
-25.93480000 46.71010000 -80.69810000
-55.05960000 -7.08280000 -71.54060000
-49.95990000 -14.28010000 -74.92680000
-35.26510000 44.15030000 -85.19670000
-24.60460000 45.15830000 -88.65600000
-17.33380000 48.07320000 -90.51290000
-24.25500000 51.77600000 -89.98670000
57.09600000 61.21440000 -81.12360000
67.91610000 61.32100000 -71.83720000
60.97330000 60.30870000 -75.27820000
61.55240000 61.80520000 -78.66420000
68.06990000 62.16660000 -72.75500000
-24.72000000 54.36310000 -82.95650000
66.80200000 63.01640000 -73.82140000
69.04400000 59.40510000 -65.62360000
-18.41520000 51.13950000 -83.42180000
-10.25970000 50.57790000 -84.34370000
27.76170000 46.40740000 -78.00840000
-29.12730000 -4.22400000 -94.30130000
-31.62470000 4.80270000 -92.55040000
30.87850000 52.51700000 -77.97390000
19.78750000 50.68410000 -81.44060000
-25.34890000 3.80540000 -94.55580000
-31.95610000 -11.38740000 -93.17450000
-46.40780000 -11.76010000 -86.67890000
-28.23850000 15.80390000 -91.40830000
35.25890000 53.88320000 -84.44290000
28.80050000 52.58200000 -86.64250000
-24.21890000 15.09960000 -85.05160000
-22.69050000 1.07960000 -87.43210000
36.24330000 57.64200000 -86.70740000
-19.11920000 8.91200000 -87.51610000
-40.78160000 -8.33810000 -89.67980000
24.87100000 55.93480000 -81.60300000
18.59150000 59.87860000 -85.73140000
14.56920000 56.15110000 -84.59070000
30.11550000 58.63570000 -80.88520000
-16.84370000 15.71020000 -94.19930000
-16.93050000 4.69820000 -96.28250000
-0.92750000 49.06890000 -84.43280000
27.14860000 56.52300000 -89.43840000
-25.04970000 25.65750000 -90.17540000
34.75420000 59.23360000 -89.88560000
-21.91350000 -12.65400000 -87.72800000
-29.23550000 -7.98540000 -85.64790000
-9.01770000 52.41240000 -92.47800000
6.12090000 49.71400000 -91.43010000
-10.92770000 55.57220000 -93.93090000
-9.33830000 57.28230000 -86.91670000
39.46310000 58.32290000 -76.29530000
-19.65930000 58.98630000 -86.36100000
48.47690000 59.27330000 -82.54710000
3.39930000 55.34610000 -93.79510000
-9.59210000 -26.72580000 -93.91510000
29.33400000 61.58970000 -83.49330000
-16.43680000 -25.30000000 -93.59500000
39.73500000 62.94090000 -80.15520000
16.12270000 37.81470000 -89.25380000
30.06430000 64.67130000 -87.20130000
45.41560000 65.03820000 -79.89170000
34.62350000 65.40140000 -87.28600000
46.52050000 62.17610000 -75.11460000
35.75650000 61.04470000 -93.49480000
21.29090000 59.31630000 -95.18680000
27.19150000 60.67530000 -96.20850000
33.24700000 61.67060000 -94.81730000
39.24720000 62.40830000 -92.30540000
31.58310000 62.96530000 -94.94020000
8.61740000 48.40380000 -83.41030000
46.78450000 61.10880000 -87.86910000
42.40700000 61.63430000 -90.81930000
49.15130000 62.72970000 -87.02440000
42.58050000 63.90770000 -89.15270000
43.25720000 64.89530000 -86.67130000
27.05920000 64.15230000 -94.75780000
28.12070000 65.15420000 -91.71220000
49.25830000 65.49150000 -79.90660000
-7.52290000 8.08950000 -96.75610000
51.29340000 61.80800000 -85.90590000
-4.74070000 -20.68610000 -96.35710000
-11.59570000 -18.97000000 -96.33870000
19.13320000 46.87580000 -81.07240000
-2.19070000 -16.37230000 -97.42580000
9.54350000 53.00080000 -84.40240000
51.97770000 63.76360000 -84.38480000
-13.65110000 -13.21130000 -97.11190000
-0.47450000 55.85630000 -86.36360000
-13.09800000 -17.35560000 -89.02070000
-4.62260000 -17.66470000 -89.68610000
20.59320000 63.24760000 -88.38570000
-31.57200000 35.52760000 -86.74160000
3.07980000 59.39700000 -88.05390000
-16.70530000 -6.22920000 -89.01360000
17.08710000 64.76090000 -91.53430000
-5.29400000 61.68210000 -90.13220000
13.05920000 64.99500000 -94.60830000
-4.05100000 -8.89310000 -98.39080000
8.19790000 62.71030000 -90.41750000
1.42990000 64.42900000 -93.38270000
-13.15880000 -7.71050000 -97.60460000
-25.11980000 -10.66540000 -95.37660000
31.42480000 2.10560000 -92.68760000
26.90520000 3.73740000 -93.99190000
21.48050000 6.95550000 -94.68400000
57.73710000 62.93140000 -66.94050000
-19.03510000 -3.41530000 -96.75920000
31.86040000 12.36420000 -90.55400000
58.63590000 64.87580000 -69.41000000
26.45220000 9.01980000 -93.04560000
-67.20640000 30.52340000 -64.16550000
18.55830000 12.74260000 -93.97630000
17.05260000 15.49130000 -94.02790000
24.66130000 22.23730000 -90.30730000
57.25700000 62.44390000 -82.02700000
58.10840000 63.46450000 -80.76740000
-67.08900000 39.18400000 -63.28200000
56.94640000 64.77310000 -78.95500000
-59.67610000 37.44740000 -60.22960000
64.88010000 63.85530000 -74.61030000
63.22210000 65.60520000 -68.63870000
-60.95140000 42.71650000 -58.71930000
67.80390000 64.96200000 -69.14490000
-61.39640000 40.81520000 -68.88930000
39.33860000 17.87040000 -85.94550000
-50.30520000 40.97270000 -68.04450000
-54.74470000 45.43430000 -64.92340000
31.31720000 23.24320000 -87.77190000
36.74360000 26.99580000 -84.16150000
-61.53730000 49.65770000 -59.22020000
-67.34360000 44.26560000 -63.25230000
48.48100000 15.02310000 -81.76970000
-65.32420000 54.17380000 -57.05380000
1.80770000 -12.86460000 -90.36850000
-60.93240000 47.01010000 -69.98850000
-67.98590000 49.99610000 -64.04380000
-9.47300000 -8.42180000 -90.08430000
-53.73130000 52.54900000 -67.53130000
-60.63290000 57.15310000 -64.12440000
-47.47060000 48.59950000 -70.92820000
-3.65260000 -3.88500000 -90.39720000
44.49380000 23.68260000 -81.22970000
-52.96320000 45.52830000 -75.89640000
-40.89560000 50.96730000 -75.60320000
3.36140000 -3.73720000 -90.39760000
7.39580000 -16.36800000 -97.10680000
-47.50750000 42.93450000 -79.16610000
9.05760000 -11.11300000 -97.65750000
-39.99990000 46.16670000 -83.38430000
-46.92440000 56.15170000 -74.03890000
-42.95640000 48.97710000 -82.50410000
27.24500000 33.53360000 -86.56970000
-53.59320000 58.80210000 -71.35440000
-55.26680000 50.29160000 -75.30800000
23.71310000 38.66520000 -87.08100000
-62.51340000 51.41800000 -69.97860000
-57.43720000 53.03700000 -75.12800000
1.78090000 -3.93520000 -98.42440000
-46.03180000 52.06970000 -81.82420000
-46.71290000 60.42360000 -77.17510000
-50.59710000 53.98070000 -80.45220000
-54.05970000 55.82160000 -79.89060000
9.66650000 -5.25850000 -98.02150000
-69.60270000 57.66110000 -54.66410000
-47.03070000 57.04770000 -85.19060000
11.27480000 -5.04040000 -89.67100000
-67.01280000 60.60010000 -60.96500000
-75.08610000 56.30460000 -62.43260000
-69.39520000 53.26320000 -64.69030000
-64.87270000 54.14490000 -69.73140000
-60.29980000 60.46130000 -67.48080000
-61.18890000 63.20790000 -70.81300000
-70.36420000 62.89900000 -61.17830000
-64.56030000 56.11240000 -72.32700000
-66.13320000 57.95790000 -74.34900000
-72.59210000 63.71400000 -62.31860000
-79.54890000 59.07560000 -62.90890000
-79.49870000 59.94520000 -63.54500000
-73.98980000 59.47530000 -69.66400000
17.40070000 -4.64040000 -96.92710000
-11.31850000 59.66290000 -99.46010000
-5.68250000 60.79430000 -101.23360000
-1.50790000 60.23400000 -100.80480000
-9.94740000 61.54410000 -100.85410000
-4.48500000 62.61670000 -100.66100000
-1.24540000 61.31840000 -101.43040000
5.95770000 58.37430000 -96.72590000
-9.23940000 57.61520000 -95.89150000
0.01770000 58.98650000 -98.30540000
11.91510000 60.40510000 -99.47350000
6.57400000 60.92660000 -100.86990000
-14.28750000 58.63350000 -97.40810000
-76.69320000 61.24590000 -65.89810000
6.22370000 61.89860000 -100.87050000
-60.99240000 63.96240000 -74.25600000
-68.60880000 60.65340000 -75.11460000
-67.40600000 61.85540000 -74.96500000
-69.15600000 62.92680000 -71.09260000
18.28190000 44.12890000 -88.56980000
5.96820000 6.37920000 -89.47340000
16.10050000 -0.31620000 -96.78660000
-58.59240000 59.79660000 -83.33950000
-66.51900000 59.60200000 -76.97250000
7.01060000 1.78290000 -97.82520000
-52.06530000 62.19300000 -75.95600000
-56.70490000 58.18740000 -81.90220000
-53.74880000 59.63490000 -86.23030000
-57.36620000 60.63820000 -84.11040000
10.64830000 8.93510000 -96.15310000
11.19010000 52.12080000 -91.40310000
-57.79510000 62.32420000 -82.29250000
23.41810000 48.89040000 -87.59450000
-40.24310000 64.20510000 -86.58820000
-53.45020000 63.72310000 -82.21330000
-47.98580000 63.67900000 -80.94610000
19.60170000 53.58010000 -90.05590000
-45.65070000 58.33310000 -88.11840000
-36.20770000 54.27170000 -87.53430000
-33.72040000 51.95840000 -87.25150000
-9.27110000 -1.82600000 -97.98590000
-35.56720000 53.53690000 -78.80230000
-11.55130000 3.91400000 -89.37600000
-24.91590000 55.19410000 -91.52590000
-41.80310000 55.65500000 -86.20000000
-35.68860000 58.46830000 -92.46130000
-21.58750000 57.36270000 -94.24930000
-32.29490000 57.17460000 -91.23280000
-31.56930000 58.20200000 -82.70880000
-40.14560000 60.09100000 -93.47590000
-33.81110000 59.62970000 -95.29750000
-45.74630000 59.52630000 -90.28270000
-44.36490000 60.96570000 -91.57550000
16.26880000 56.53240000 -92.53980000
-37.70080000 59.37540000 -81.03170000
-31.85800000 60.52310000 -96.54700000
15.45400000 58.08490000 -94.38850000
-50.51380000 60.10100000 -88.53410000
-48.57580000 62.19340000 -88.54840000
-38.75150000 63.46060000 -84.97070000
-38.29670000 63.91100000 -89.95730000
-36.52820000 62.36750000 -93.95930000
16.45950000 3.14150000 -88.46520000
-28.91220000 63.21640000 -95.47000000
-5.40430000 6.53610000 -89.77010000
-30.61400000 62.51550000 -86.74710000
-23.96990000 63.70560000 -90.19570000
-25.54850000 64.35590000 -91.62590000
16.70570000 61.47710000 -99.50450000
11.22900000 63.66190000 -98.78610000
-2.08900000 64.25370000 -98.01820000
-16.78540000 61.75090000 -89.11040000
-7.09150000 64.69320000 -94.81510000
0.58410000 3.76280000 -97.74830000
-24.28340000 58.72830000 -96.19640000
-24.91760000 59.88760000 -97.98800000
16.61640000 62.71100000 -99.00570000
12.13300000 60.58750000 -87.72920000
-11.84780000 60.33290000 -100.42990000
-17.54910000 60.65960000 -100.06950000
-16.78220000 62.45490000 -99.43330000
-22.60520000 61.04520000 -99.14550000
-26.26900000 61.65500000 -97.99310000
-16.66620000 63.84730000 -97.28740000
22.40200000 61.06540000 -98.24500000
25.05770000 61.84520000 -97.61290000
-13.57340000 64.01380000 -92.49110000
-53.09550000 -3.87270000 -82.97300000
-59.40820000 -0.89070000 -78.35130000
-55.78550000 2.23690000 -70.88460000
14.10220000 -35.18540000 87.53550000
9.27450000 -41.17340000 83.23540000
21.19490000 -37.86440000 84.21370000
32.24410000 -22.95010000 81.25230000
22.96770000 -28.05040000 82.64470000
21.41470000 -22.86070000 84.98440000
23.06510000 5.88970000 86.08040000
22.79580000 -4.46000000 86.49410000
15.68920000 0.81360000 87.91570000
7.23420000 -45.88050000 78.06640000
1.62990000 -2.59500000 89.36720000
11.13470000 5.75560000 88.20190000
10.42530000 -5.85530000 88.84940000
3.13750000 2.94890000 89.03470000
29.24290000 -17.65000000 83.64270000
18.79340000 -17.74230000 86.71250000
4.67640000 12.05640000 87.87930000
-3.46630000 -41.01140000 83.81030000
27.37220000 -38.05630000 82.37930000
25.72490000 -41.99830000 79.19490000
16.99430000 -36.88190000 77.52210000
26.60490000 -37.57150000 74.07840000
18.71470000 -40.17480000 72.62120000
15.75150000 -25.97560000 85.12610000
8.81950000 -21.81840000 87.43630000
10.79450000 -15.86060000 88.38430000
26.46950000 -34.27260000 77.63840000
0.35200000 -18.19850000 88.51480000
3.91880000 -12.43820000 89.10750000
13.48320000 -32.79790000 81.86310000
3.41240000 4.47620000 95.90950000
8.90560000 0.00850000 96.18870000
12.78020000 8.44200000 94.63610000
-3.89570000 -38.77180000 76.22960000
19.87020000 -31.72510000 81.50110000
16.45570000 -9.82900000 87.78330000
16.23600000 11.73220000 86.72230000
28.66330000 -29.17190000 80.18180000
36.11430000 -35.10900000 81.15150000
32.06420000 -40.32720000 78.63110000
27.79780000 -33.87200000 85.36050000
19.52030000 -32.16090000 88.42100000
-0.76270000 -35.36410000 80.33540000
6.49050000 -37.52050000 78.15350000
9.44590000 23.72930000 85.45630000
27.73560000 -30.23520000 87.35730000
18.87640000 -27.66480000 90.73090000
-18.23210000 -35.26710000 86.81240000
-13.05810000 -34.14780000 79.61960000
-9.56660000 -38.19030000 86.16920000
-11.76210000 -34.46160000 88.35350000
-19.25380000 -30.33500000 89.50000000
35.19690000 -30.59220000 84.53960000
30.23920000 -0.83200000 92.15010000
21.65430000 9.11640000 93.03090000
21.58830000 -1.38640000 94.43480000
28.37830000 16.36340000 89.71710000
-7.20170000 2.46500000 88.73050000
35.33630000 -23.92230000 87.34880000
38.11260000 -43.30320000 72.21040000
31.21870000 -46.15960000 71.36220000
37.57650000 -46.64970000 67.72130000
-3.98210000 -32.04020000 82.76370000
-12.08530000 -29.80620000 82.92200000
33.66670000 -37.02810000 71.79840000
32.11350000 -40.47100000 67.35260000
22.20490000 15.19580000 84.94090000
40.90580000 -39.02100000 64.88160000
15.86360000 24.53440000 90.75700000
-0.50770000 -33.72560000 89.58640000
46.31560000 -30.57510000 79.01810000
41.45810000 -26.22340000 83.80900000
39.46510000 -39.77850000 75.63000000
29.26480000 -42.38660000 77.36690000
1.91490000 -36.85990000 87.50620000
48.76340000 -24.57670000 80.64190000
48.43820000 -36.64260000 73.36650000
53.99910000 -33.06890000 72.50700000
51.90690000 -28.71720000 76.59630000
42.71280000 -34.29240000 69.62480000
35.42770000 -32.25180000 75.40290000
48.23600000 -39.81660000 57.93080000
41.64810000 -42.87970000 55.75100000
25.01870000 22.50240000 89.16910000
49.58830000 -36.56100000 62.15080000
56.70490000 -22.84090000 76.21780000
29.10170000 1.65010000 84.59920000
-9.67950000 -30.48910000 90.85550000
30.98610000 14.42450000 82.44720000
42.43120000 -36.99330000 76.67910000
35.30820000 5.48480000 82.09670000
-14.48090000 -26.86980000 91.78200000
-3.74780000 -31.17360000 91.02790000
42.06260000 -17.82250000 78.09870000
46.23180000 -22.21490000 74.49590000
37.86030000 6.89960000 88.21470000
-3.77500000 -25.13450000 93.30810000
43.36370000 -21.32170000 84.83590000
39.96090000 -28.43440000 75.23890000
36.68100000 -16.89690000 89.00770000
4.66260000 -33.17050000 82.26190000
47.35990000 -41.53770000 69.04200000
40.16520000 12.79600000 78.92380000
0.14000000 -27.48490000 85.55960000
50.98410000 -27.89680000 68.50650000
54.12960000 -33.86000000 61.28390000
55.90170000 -21.39820000 68.21780000
8.45430000 -28.36600000 85.01290000
-6.84480000 -21.11460000 87.35770000
-11.07300000 -24.12360000 85.79430000
-29.07820000 -27.30090000 88.09490000
52.40370000 -15.46440000 72.36730000
45.97830000 -11.73720000 76.93760000
54.06000000 -18.03070000 79.53930000
28.31060000 22.53590000 81.88740000
-24.53250000 -23.14540000 90.97700000
44.01930000 -14.41980000 86.24000000
-19.74620000 -23.42560000 92.13780000
-33.04340000 -18.91410000 89.51150000
-28.37610000 -21.28330000 90.51050000
49.70410000 -13.64920000 83.33000000
56.37880000 -2.96600000 79.64010000
47.48460000 -0.82690000 84.87570000
50.32310000 -6.24640000 83.62830000
55.97980000 -10.47680000 79.67310000
42.57590000 4.70560000 86.62980000
36.92790000 -0.36530000 89.82620000
57.91610000 -35.57550000 67.34940000
60.33110000 -29.78480000 69.51350000
-23.34270000 -18.03630000 92.87310000
63.86060000 -33.61910000 63.30160000
-22.85650000 -15.50600000 93.31120000
-30.49690000 -13.40340000 91.44310000
39.78870000 -57.14360000 49.89930000
45.07050000 -55.84820000 45.65030000
71.69310000 -27.96470000 59.07390000
72.99280000 -33.28780000 53.09810000
47.53710000 -59.77390000 41.95220000
-14.80780000 -17.81630000 94.44780000
67.22200000 -26.10610000 65.27260000
-21.16310000 -7.85590000 94.32390000
52.92070000 -59.21470000 35.46470000
50.19510000 -56.75810000 39.65110000
54.46270000 -53.95920000 35.22320000
49.79330000 -53.68890000 41.93290000
56.83850000 -52.15330000 34.41460000
36.72340000 18.95880000 86.05810000
50.29520000 -51.97650000 43.07280000
-17.45980000 -20.92570000 85.40530000
75.81800000 -28.36420000 53.70900000
-26.04930000 -20.23560000 83.02890000
40.37970000 -53.74140000 50.67870000
33.42270000 -56.01070000 54.48430000
41.28190000 -52.01560000 52.17920000
46.13230000 -53.28860000 46.10630000
77.89650000 -24.84360000 53.29410000
44.08460000 16.08830000 83.55590000
78.42260000 -19.15650000 55.37020000
76.26640000 -33.64560000 48.01970000
78.91380000 -27.90140000 49.65700000
81.78250000 -28.94430000 43.47400000
49.71090000 14.06980000 80.86890000
82.88390000 -21.52790000 47.25860000
55.57420000 -48.49990000 49.36510000
52.33160000 -50.55180000 46.13880000
61.47490000 -49.01620000 39.40130000
59.90690000 -46.34020000 50.06650000
33.71940000 -49.46940000 63.64240000
48.66130000 -49.61340000 52.91560000
41.36500000 -48.22620000 62.39390000
-5.53050000 -18.68480000 95.31570000
48.21370000 -46.40970000 60.91340000
60.77010000 -24.15800000 62.66560000
36.67580000 20.66540000 79.29620000
62.20890000 -24.02670000 71.01190000
37.85460000 -45.93560000 48.24520000
47.78720000 -43.83910000 47.07640000
49.82620000 -45.35260000 37.39460000
57.48440000 -41.35600000 43.62840000
-9.45210000 -13.56900000 88.23840000
68.39060000 -24.79100000 54.28430000
60.58560000 -27.96050000 60.40420000
68.55210000 -20.59820000 56.39790000
53.93620000 -40.51620000 50.31350000
-23.69280000 -14.00000000 84.83910000
35.41950000 27.45100000 84.51120000
-15.56930000 -9.37200000 87.42500000
48.87550000 -1.98970000 75.55870000
52.92550000 -9.35420000 72.81270000
60.58290000 -52.98910000 25.27460000
60.72250000 -51.94340000 27.64350000
56.65810000 -0.77360000 70.11550000
61.43820000 -9.66900000 65.92740000
64.30970000 -17.25100000 61.94830000
57.61110000 -16.63720000 68.20400000
69.29320000 -48.52710000 26.45230000
10.20390000 -30.70740000 90.68130000
3.32880000 -27.85430000 92.48320000
62.51890000 -0.86670000 65.10630000
10.18920000 -23.86380000 93.52020000
50.08700000 6.59410000 74.25420000
59.71730000 9.61330000 66.61360000
62.72370000 -19.51600000 72.69970000
68.31750000 -18.95480000 67.65340000
1.73110000 -19.97260000 95.16450000
67.68010000 -10.84590000 69.98510000
72.75730000 -13.83100000 64.19400000
67.99840000 -48.15790000 31.58220000
61.30700000 -10.96000000 75.60880000
65.95810000 -45.96620000 42.38100000
72.91450000 -45.39010000 30.93040000
69.39030000 -2.14880000 57.83560000
64.96820000 9.28990000 61.75170000
69.68890000 -44.17240000 40.32490000
7.21110000 -17.98990000 95.54630000
65.04710000 -41.09060000 31.66980000
70.93350000 9.52920000 54.65390000
74.71750000 -4.82710000 51.00100000
77.23730000 0.60480000 46.86460000
15.03270000 -20.94540000 93.80920000
67.28550000 -10.70960000 60.09660000
-1.99970000 -14.84340000 96.16420000
64.60120000 -42.87050000 22.69450000
17.58210000 -15.27810000 94.71870000
10.34650000 -10.18220000 96.24430000
66.59420000 -4.60590000 71.40190000
61.29960000 0.92680000 75.58560000
57.67570000 6.39520000 77.45820000
64.42130000 -30.31360000 54.28090000
65.69500000 3.94300000 71.28940000
-11.99450000 -13.69150000 95.69760000
72.06520000 1.16590000 65.45670000
74.31520000 -19.93120000 60.59420000
72.74260000 -14.64510000 52.86050000
74.28920000 -19.60310000 49.37980000
64.28620000 -43.10540000 50.93310000
74.08380000 -23.53990000 47.45080000
72.13520000 -28.84700000 45.56360000
-4.04580000 -8.73390000 89.14190000
54.42820000 -45.76580000 57.23050000
60.75030000 11.90210000 73.74720000
54.66330000 18.34730000 76.57600000
79.28990000 -20.15580000 40.73660000
-15.91460000 -10.56600000 95.32200000
48.38320000 -44.88510000 63.70480000
57.94230000 -41.98880000 59.90160000
78.00460000 -13.98170000 45.25180000
56.47290000 -37.39500000 54.19710000
-4.42300000 -10.57120000 96.59360000
56.12530000 15.59770000 68.30830000
-8.46290000 -4.87340000 96.46930000
-14.92550000 2.07900000 94.81980000
61.65880000 -38.22810000 46.27400000
67.31110000 10.90040000 67.98490000
-10.61610000 -3.23710000 88.50580000
77.58610000 -12.89390000 58.55520000
52.73260000 -38.92230000 68.15530000
61.06690000 -39.50660000 60.01780000
70.45780000 17.05400000 63.01340000
84.63250000 -10.68430000 48.22170000
75.53890000 5.74770000 60.22980000
70.56000000 -38.75000000 49.29980000
62.84140000 -35.12180000 50.36340000
81.09260000 -5.27320000 54.53360000
-0.17380000 -6.09610000 96.81850000
77.34290000 18.24670000 53.72180000
79.27030000 1.92230000 56.35740000
74.71420000 -4.60080000 62.97080000
62.80520000 18.75660000 61.62210000
68.39310000 18.27540000 55.34420000
77.00830000 -42.51200000 29.67780000
77.81440000 -38.69900000 37.16640000
-4.11810000 4.28520000 95.88530000
67.71180000 -39.01950000 33.46490000
69.73390000 -35.45980000 39.03760000
70.14250000 -32.32560000 44.08950000
72.92690000 -36.15630000 30.71330000
75.63080000 13.92920000 46.53200000
78.73660000 -35.11950000 41.62450000
33.94820000 -53.97580000 54.85800000
65.15750000 24.06290000 66.26110000
24.31770000 -53.89710000 59.59750000
70.88730000 27.24870000 58.92320000
50.08230000 16.96080000 72.59020000
45.19230000 19.06710000 75.24590000
82.93800000 3.99320000 50.23080000
34.60570000 -52.07080000 56.32650000
27.75070000 -52.72450000 59.30260000
23.40380000 -21.15560000 91.95290000
29.50410000 -15.50740000 91.75490000
77.72750000 -30.59900000 32.94920000
48.97130000 26.34850000 78.04170000
34.12070000 -8.71710000 82.80390000
25.72710000 -12.03930000 85.51530000
79.06210000 -25.61510000 36.77400000
59.21010000 20.17010000 72.70620000
21.51070000 -51.23620000 64.26230000
56.61430000 20.17290000 66.97040000
21.20340000 -48.07490000 71.87090000
12.73900000 -48.96670000 72.03560000
39.30080000 26.67540000 76.00830000
16.30460000 -6.90940000 95.69260000
26.08500000 -9.74550000 93.50250000
42.55910000 27.66810000 81.51500000
52.57810000 26.40790000 67.86530000
16.72160000 -44.72560000 78.17050000
42.72190000 33.44850000 72.75710000
5.22180000 -40.37190000 74.18710000
47.94530000 36.55900000 69.14290000
36.04880000 -10.78650000 90.29770000
22.36760000 -43.17920000 65.57530000
53.22700000 30.47000000 74.49390000
41.27440000 -6.85180000 88.29070000
45.09870000 33.15630000 79.14840000
59.85850000 36.12210000 68.49620000
52.85550000 37.35540000 73.59460000
61.69470000 24.31780000 60.48550000
66.00720000 27.03920000 54.94720000
56.16080000 32.07280000 63.46080000
60.48740000 37.25060000 58.44660000
41.76450000 -3.38840000 79.60140000
61.73740000 31.69890000 67.40500000
65.87080000 33.02030000 63.22070000
72.63260000 36.44790000 54.30790000
67.29870000 42.35150000 60.71240000
70.63510000 40.61220000 56.84850000
87.77810000 21.07730000 -31.07490000
87.69190000 32.50740000 -20.97420000
90.86270000 17.60310000 -24.39710000
93.55100000 -18.23930000 -23.34650000
92.48810000 -24.30600000 -19.46430000
94.67290000 -21.31320000 -12.72300000
94.90810000 -13.39450000 -21.89540000
75.12950000 19.70410000 45.41650000
72.22920000 23.17250000 47.94740000
78.07790000 23.18300000 37.39250000
79.43030000 20.06070000 37.21990000
87.33730000 -6.30720000 -23.56470000
77.84780000 -44.56540000 17.94460000
88.28000000 -17.29010000 -17.99280000
84.73800000 33.66840000 -30.10760000
80.19270000 36.19390000 -20.64980000
77.34510000 38.05560000 -28.45000000
80.49050000 30.05910000 -24.17310000
72.55660000 -39.32700000 17.97650000
86.92310000 41.13080000 -20.25140000
92.99240000 -2.81700000 -30.27800000
84.29990000 20.08790000 40.95320000
88.07330000 16.19790000 34.52930000
84.88390000 31.67710000 33.41490000
77.85790000 -36.39190000 11.37690000
88.10270000 28.21440000 25.19640000
92.85680000 16.29710000 -16.01160000
89.99680000 28.50210000 -14.55920000
91.25630000 27.36030000 -8.01740000
96.39420000 -14.16000000 -12.18830000
96.27530000 -9.45540000 -17.33890000
72.18600000 31.68640000 44.83720000
95.76330000 -5.65490000 -20.21320000
67.48090000 32.89280000 51.55370000
89.34280000 36.89640000 -8.44170000
81.82480000 -40.91180000 19.43200000
88.85000000 35.53000000 -13.98790000
85.90090000 -36.03290000 19.95370000
84.25840000 -39.96370000 9.51670000
94.18480000 3.07190000 -23.47520000
81.68640000 36.99860000 -13.55470000
84.44780000 25.00300000 -12.96170000
83.50800000 32.19340000 -6.88030000
79.42820000 -33.36330000 19.99260000
94.84170000 -22.38460000 6.43440000
93.84490000 -26.01390000 1.56160000
96.14900000 -19.14850000 -2.74690000
76.65740000 32.37140000 36.40450000
96.26040000 -17.27710000 6.74050000
81.97910000 34.10240000 39.56190000
80.18920000 23.15150000 47.20750000
77.65790000 33.51980000 47.54310000
88.82400000 -21.38160000 4.73660000
90.35080000 -14.49210000 0.83610000
89.05770000 -21.04600000 -3.61050000
87.92290000 44.69630000 -15.58350000
97.49060000 -11.90400000 2.32140000
88.96130000 43.61270000 -8.74480000
90.76580000 -8.08530000 -0.92620000
90.12760000 -13.96500000 -8.41290000
90.36700000 -4.12420000 -8.71200000
71.02670000 38.99190000 44.51230000
89.57150000 -14.52930000 11.10440000
87.89430000 -36.34280000 2.59890000
85.72760000 -21.95520000 41.32700000
85.56600000 -29.92100000 34.28970000
82.37060000 -32.71790000 37.80740000
86.65250000 -24.16230000 38.26430000
68.42890000 44.30350000 48.47890000
72.84020000 44.45890000 41.04160000
76.15310000 42.21640000 34.02770000
97.56550000 -7.38140000 -7.02070000
87.45560000 -15.83230000 41.58270000
81.12730000 -33.93550000 5.57040000
89.60590000 -17.15190000 35.66350000
90.20790000 -21.83960000 30.15970000
82.46110000 -32.76700000 -5.20960000
88.70880000 -34.99030000 9.54110000
82.57860000 -16.41550000 35.49800000
82.77930000 -21.10390000 32.71910000
89.14280000 9.50690000 -4.87310000
89.27100000 -0.23920000 -14.12810000
65.31290000 42.39750000 52.66310000
83.07250000 -9.36050000 35.84230000
97.52550000 -0.75500000 -3.16380000
97.15990000 -1.41580000 -10.97820000
90.65180000 -1.36190000 0.54190000
96.67540000 4.65290000 -4.52900000
80.00470000 -6.17390000 42.40020000
96.82360000 -12.53860000 10.05110000
91.40060000 -30.74970000 6.84160000
77.68820000 44.58550000 46.44650000
77.57430000 39.43570000 46.69510000
97.51970000 -5.08920000 6.89180000
87.31820000 -13.71900000 22.69260000
96.16670000 -7.26060000 16.87690000
86.55010000 -5.41500000 26.75180000
83.98100000 -30.21300000 10.78780000
96.16580000 1.26600000 13.66350000
74.58510000 47.65480000 51.87180000
91.58440000 -30.00700000 -6.64280000
90.21270000 -3.88710000 9.33340000
86.45290000 -27.41290000 0.49640000
90.92570000 -8.39920000 35.84910000
84.97450000 -29.58220000 -8.04360000
88.98050000 7.94800000 10.64910000
84.09670000 1.96260000 32.77860000
85.42980000 -26.67990000 15.27190000
95.58910000 10.14870000 4.51390000
80.78980000 -37.78450000 32.54660000
85.10920000 -33.23340000 29.74300000
84.59240000 41.11120000 31.25480000
87.64570000 36.22750000 22.16950000
87.64840000 -3.34710000 43.00980000
95.59180000 6.84870000 -12.67640000
90.86550000 -4.04610000 35.98960000
90.53040000 -29.47060000 18.07080000
78.91390000 39.38640000 27.14830000
79.62900000 31.79870000 28.84530000
83.13690000 8.91740000 -31.88350000
81.88480000 42.88130000 38.20510000
82.05020000 -29.87140000 22.44350000
82.84840000 -26.02620000 26.91170000
81.09130000 41.72290000 17.88370000
87.36060000 41.50940000 21.83050000
80.13960000 5.57940000 40.99000000
91.22650000 4.49910000 -33.36000000
79.61510000 46.87320000 24.20200000
85.69000000 17.14910000 -38.91790000
84.23210000 48.28270000 33.48030000
87.02050000 46.00850000 23.96130000
88.73400000 7.34110000 37.38010000
87.10760000 7.25810000 -20.46600000
93.17190000 -14.98370000 26.96170000
93.64410000 -22.08560000 17.05050000
95.03430000 -13.44950000 20.09710000
85.56300000 -19.22170000 26.09040000
93.93990000 -8.55380000 27.34540000
90.96370000 -25.69860000 23.22320000
87.28790000 50.42890000 25.48680000
92.98770000 -3.01600000 29.68840000
93.98120000 15.78470000 10.77830000
87.00530000 16.54710000 13.77120000
89.01760000 11.47820000 2.56820000
84.57170000 17.14560000 -23.28510000
93.77790000 12.40290000 17.62470000
87.87530000 2.80780000 20.09550000
88.74650000 -7.56300000 18.36900000
81.60730000 17.22780000 -31.64090000
87.33940000 -21.72720000 15.72190000
86.66620000 20.37720000 9.57060000
87.02130000 20.44680000 2.39900000
74.25080000 28.45070000 -40.28240000
94.15270000 3.49500000 23.26830000
85.41300000 20.04670000 18.92250000
90.91870000 28.63640000 9.08670000
78.74110000 21.57840000 -35.54620000
92.30900000 24.56760000 0.73940000
77.21910000 29.72230000 -33.57780000
94.29770000 15.36100000 -7.12560000
82.06090000 21.52020000 -27.04260000
91.51700000 21.91190000 16.96270000
84.98160000 27.03180000 4.58800000
82.98340000 33.37950000 13.84980000
84.05830000 23.83740000 18.86530000
83.08590000 36.43140000 4.37860000
90.38560000 33.55940000 5.89140000
90.52600000 32.60510000 -0.92080000
88.08700000 11.81510000 -11.73290000
81.39080000 13.79440000 35.69800000
84.37430000 13.82780000 27.52070000
82.31530000 40.21790000 -6.00730000
82.75790000 19.92990000 28.78900000
82.52080000 45.22230000 4.73910000
89.37740000 36.21290000 12.71650000
86.36690000 12.69000000 21.20160000
86.08700000 22.70510000 -4.55800000
86.41450000 19.07790000 -11.97350000
89.72640000 38.95410000 3.25960000
91.39320000 10.63780000 28.94800000
81.94580000 45.00550000 12.11590000
88.63620000 43.05350000 13.89810000
87.00440000 -25.67290000 -9.15580000
81.82100000 27.42420000 24.71670000
91.39820000 17.70990000 23.01420000
89.36670000 43.19020000 0.95160000
89.67490000 48.11080000 6.04400000
88.36760000 -20.81630000 -13.35560000
83.62940000 21.68950000 -20.88240000
89.40980000 -12.00590000 -14.93780000
88.82810000 50.19670000 17.96080000
79.99660000 26.47820000 -44.46170000
83.68360000 10.41730000 46.92450000
81.50820000 34.46660000 -37.31920000
2.99700000 60.24540000 100.80500000
-5.56970000 60.24200000 100.48070000
0.12560000 59.53150000 100.25440000
0.13460000 61.53940000 100.13410000
-33.40570000 49.35740000 83.26430000
-46.07490000 46.21870000 76.24210000
-39.79940000 44.27660000 79.52340000
-41.45920000 51.65330000 80.19540000
6.26300000 56.21600000 93.89880000
11.64740000 57.60640000 95.24480000
0.12710000 57.20810000 95.25970000
-34.29330000 54.42500000 84.95420000
-45.34620000 53.41670000 78.67480000
-45.54680000 55.72480000 80.33510000
9.06100000 58.29630000 97.35250000
-4.00240000 58.34640000 97.37380000
-30.80240000 56.05730000 87.77090000
-52.28770000 60.76950000 84.87420000
-56.73400000 59.96460000 81.75450000
-50.73520000 59.94380000 85.34830000
-37.95230000 -10.80740000 88.82890000
-9.86300000 63.63720000 92.70090000
10.17800000 63.65610000 92.95320000
9.45360000 62.63210000 91.15890000
-2.88520000 59.21360000 98.87310000
24.34380000 32.29350000 87.43460000
14.29020000 31.68140000 89.44340000
14.97870000 59.17940000 98.14530000
-39.90630000 57.45250000 85.76530000
-50.45420000 58.12810000 81.43420000
-41.85640000 58.97190000 87.88900000
7.96330000 59.84990000 100.47720000
13.65990000 59.68970000 99.78710000
7.91570000 61.09210000 100.40750000
-36.36870000 -5.70790000 89.62790000
20.67150000 38.26100000 87.63790000
11.91290000 61.59450000 99.64960000
1.94380000 62.92980000 97.87400000
-37.88650000 2.48230000 88.11570000
-45.29780000 60.57250000 88.88310000
-8.96340000 59.65330000 99.75820000
-44.08210000 61.51730000 88.93290000
-54.81330000 61.88390000 82.14020000
-50.18310000 62.83870000 83.24660000
-40.37380000 59.92560000 91.03080000
-8.90980000 61.50230000 99.51320000
21.56010000 37.34420000 80.78530000
30.60670000 31.21070000 78.83400000
20.50340000 29.89000000 82.35940000
-36.50290000 62.45000000 90.97470000
-28.99270000 -5.21040000 92.15260000
-18.49920000 63.42010000 93.88070000
-1.92480000 63.61390000 95.56970000
-38.15960000 63.66500000 86.18670000
-55.97450000 63.64950000 75.33990000
-1.55050000 13.43460000 94.29880000
-12.79790000 11.24510000 93.77770000
0.72540000 62.75030000 91.61590000
14.70800000 63.78430000 93.99500000
-8.89630000 23.41450000 91.53420000
26.83370000 40.95310000 79.03290000
2.90720000 52.07280000 84.46510000
-2.04530000 56.46390000 86.39140000
7.55970000 55.68940000 85.86270000
29.67330000 38.88260000 85.29230000
2.70220000 59.76240000 88.58380000
33.17790000 33.35640000 84.55940000
35.79000000 40.94450000 83.20190000
13.80980000 58.85680000 87.13170000
-28.84040000 57.74510000 90.67570000
26.65120000 45.88270000 86.50270000
32.19750000 46.35980000 84.95770000
-28.83920000 59.17490000 93.83450000
