-7.43350000 -135.54010000 -62.12430000
-10.15730000 -133.08670000 -64.24630000
-5.42290000 -129.22670000 -70.03670000
25.08650000 -128.82680000 -69.84960000
25.98820000 -131.69400000 -66.35290000
21.26550000 -128.50510000 -71.00590000
-104.74620000 -57.33150000 -4.75360000
-104.92370000 -55.96400000 2.05850000
-105.51030000 -52.43610000 -4.22110000
-96.72580000 -63.48740000 -40.15160000
-99.05870000 -59.74130000 -36.35430000
-97.15590000 -57.78170000 -42.86180000
66.49850000 170.63040000 6.32270000
61.78470000 170.39440000 14.76640000
61.49190000 163.34560000 20.96590000
64.08060000 166.36890000 16.63790000
61.61350000 167.53430000 22.28250000
58.14290000 -160.37720000 -1.21760000
56.90380000 -162.23750000 2.92020000
57.59590000 -160.36830000 6.41560000
54.04290000 -162.02190000 -17.86820000
56.52280000 -159.90730000 -13.50700000
55.10690000 -159.85890000 -18.22320000
-57.10730000 155.67370000 -32.86210000
-59.00020000 157.89750000 -28.27500000
-58.98020000 160.50990000 -29.91780000
-48.59440000 85.06120000 -35.38530000
-48.86690000 79.53900000 -36.04110000
-50.76150000 80.90670000 -32.27730000
-42.31830000 -168.20920000 5.02970000
-40.90350000 -168.42850000 21.32660000
-44.34140000 -168.57460000 10.68220000
-41.29520000 -168.20100000 14.19460000
68.94410000 -49.47490000 -94.30190000
63.65530000 -49.49000000 -98.20260000
68.13490000 -45.25180000 -95.11250000
86.39720000 -30.11330000 -77.48160000
87.78270000 -32.76810000 -76.43790000
82.49110000 -32.78660000 -82.13270000
7.89410000 -82.05780000 99.65090000
18.38700000 -80.09480000 99.96090000
13.38210000 -77.04780000 101.47240000
34.74240000 -113.76630000 77.34740000
29.09100000 -119.58300000 74.24600000
36.41610000 -118.75600000 72.90600000
-58.57670000 62.99350000 8.53930000
-59.12690000 59.65370000 11.49380000
-57.03270000 62.99440000 13.89360000
-42.85260000 55.46800000 41.02620000
-38.18740000 59.96560000 42.59250000
-41.82230000 60.96570000 38.80400000
-47.27240000 143.30540000 -23.37620000
-47.50900000 136.18570000 -2.04590000
-48.85810000 141.80510000 -3.01390000
-47.53160000 139.13070000 1.68770000
32.07610000 133.09950000 33.30850000
28.87280000 136.25340000 35.85850000
31.39980000 140.71690000 35.06250000
-64.48180000 -19.25260000 -87.49780000
-69.64510000 -19.12540000 -82.77940000
-65.81710000 -15.03030000 -85.01610000
-49.44590000 17.76090000 -76.07840000
-54.16060000 12.92250000 -76.78580000
-52.81680000 18.37430000 -72.76840000
47.26930000 80.60240000 -47.15140000
69.66160000 17.46140000 -63.57440000
64.73440000 21.31710000 -64.71190000
66.97580000 25.70920000 -57.37180000
13.42460000 72.92080000 54.56640000
14.20970000 70.49940000 55.38520000
17.95250000 72.94600000 53.71540000
3.24600000 118.33570000 50.87020000
8.12510000 123.00110000 51.02910000
5.69150000 124.61680000 51.23550000
-85.01430000 -77.26100000 46.70680000
-89.00010000 -70.32160000 45.18550000
-90.81010000 -74.88330000 37.61670000
-102.84950000 -45.91420000 22.70540000
-100.35170000 -49.26650000 31.47890000
-100.14500000 -44.18120000 31.31510000
72.69830000 -92.07640000 -72.93500000
69.59260000 -94.26300000 -74.19710000
68.49250000 -89.72110000 -78.34200000
83.32300000 -112.68600000 -35.48340000
78.89910000 -116.33330000 -38.51090000
80.89680000 -112.76440000 -40.49570000
84.79060000 -59.18710000 73.60480000
84.37200000 -67.73610000 71.98170000
87.99760000 -63.36400000 69.82900000
83.78690000 -98.45230000 51.73450000
89.67890000 -96.73420000 42.76790000
90.68060000 -90.80130000 48.45780000
68.65070000 169.99590000 -16.62810000
67.31870000 169.93030000 -24.02210000
67.85180000 170.29510000 -17.19350000
60.48520000 159.16820000 -38.21460000
60.84610000 154.61760000 -35.07240000
58.89810000 155.15530000 -39.28270000
-34.78680000 -32.86920000 99.95960000
-11.83860000 -66.56040000 103.41240000
-1.84520000 -59.32230000 106.30660000
-12.58440000 -57.73460000 105.44290000
-99.20010000 -27.91430000 28.62590000
-96.65600000 -28.88250000 36.37450000
-96.68920000 -22.63900000 31.92920000
-100.34160000 -12.69510000 1.83130000
-98.04150000 -6.64110000 6.31270000
-99.77950000 -10.53750000 -3.18410000
39.46930000 -167.57840000 -41.43990000
45.82500000 -167.42330000 -35.66970000
37.86850000 -167.20130000 -39.66700000
42.96230000 -167.08060000 -34.98080000
49.68300000 -167.41110000 -31.27240000
45.91880000 -166.94440000 -30.90090000
-29.11520000 -72.08780000 -103.17690000
-24.76240000 -75.26970000 -103.60820000
-33.60770000 -75.25200000 -100.28230000
2.76590000 -61.33080000 -112.22490000
-5.73100000 -67.05160000 -110.53020000
-5.70900000 -57.90420000 -112.34640000
-37.02450000 107.71180000 -38.14300000
-35.93880000 111.55560000 -39.04980000
-37.49500000 112.19060000 -37.27420000
-43.36480000 117.49360000 -26.93270000
-44.30220000 115.53950000 -24.20310000
-44.01310000 112.62850000 -25.66100000
16.72980000 137.64970000 -68.19070000
11.95530000 137.99350000 -69.23500000
13.28620000 145.28530000 -70.25860000
18.13990000 81.06080000 -63.30180000
14.03800000 79.30950000 -64.25080000
12.06480000 83.65800000 -64.22800000
-58.24500000 -95.13500000 -72.82660000
-53.24170000 -102.24570000 -71.51790000
-58.60290000 -98.86510000 -69.33120000
-32.83740000 -94.31820000 -89.71710000
-35.28370000 -97.99210000 -85.89530000
-40.21230000 -90.83390000 -88.95550000
74.40500000 43.85440000 10.08660000
75.28090000 43.99590000 4.47800000
73.30200000 46.85000000 5.92650000
71.63550000 39.63980000 -33.65900000
69.99540000 39.82420000 -36.87550000
66.60520000 47.21050000 -34.32400000
-62.48400000 55.50840000 -0.88150000
-62.15000000 55.39560000 3.56760000
-60.68530000 60.51010000 0.81110000
-57.95300000 54.71590000 -29.40250000
-61.04140000 49.94480000 -26.16690000
-59.22550000 55.12580000 -25.68150000
35.19840000 -163.67290000 39.46800000
34.53100000 -161.29130000 41.50050000
38.04270000 -161.47680000 39.25870000
51.70580000 -160.60890000 24.48030000
53.93120000 -160.45920000 19.58330000
52.29220000 -163.32560000 19.56730000
-37.82620000 -130.52880000 -52.35380000
-41.18890000 -130.04200000 -49.77330000
-42.32250000 -122.53780000 -59.12990000
-34.52480000 -149.16980000 -38.74800000
-36.71250000 -152.42260000 -35.29640000
-37.18990000 -148.89470000 -35.51020000
10.17770000 168.80990000 -72.76240000
-1.79010000 168.59600000 -71.99190000
5.94880000 153.53670000 -72.67440000
4.82870000 144.66200000 -71.13990000
1.50650000 153.42400000 -72.72380000
9.85760000 24.60300000 79.58520000
23.04880000 29.66730000 73.58980000
14.53960000 30.47710000 74.45110000
8.29100000 67.92070000 56.90720000
12.10440000 67.67030000 56.63370000
10.61750000 71.28770000 55.59500000
83.20310000 -118.75470000 14.78470000
86.47780000 -115.43590000 9.22140000
88.07390000 -111.10490000 17.89930000
92.32720000 -96.66820000 37.10770000
93.81940000 -90.27790000 42.81120000
17.46770000 -8.38110000 -106.42360000
16.11900000 -11.53900000 -107.59830000
8.32000000 -8.08790000 -107.40050000
22.27850000 18.03400000 -90.13200000
16.25110000 20.38750000 -89.47050000
20.22550000 23.25120000 -86.71500000
41.45790000 -164.15440000 34.40780000
38.14890000 -163.98540000 37.24530000
40.74660000 -161.53650000 37.31620000
52.55390000 -167.42420000 21.95110000
52.32630000 -167.69840000 26.28000000
48.37530000 -167.48510000 28.43410000
-7.91700000 147.74650000 52.71980000
-3.76630000 145.94000000 53.07780000
-5.13840000 154.38080000 53.96230000
-26.80080000 169.11500000 48.60280000
-29.73780000 169.35500000 39.22850000
-32.00010000 169.13830000 45.11760000
62.71460000 51.07530000 29.35450000
61.42690000 58.64320000 24.71040000
59.78450000 55.94160000 29.75280000
71.01030000 47.55390000 14.89360000
71.87450000 48.74180000 8.52760000
69.37010000 52.86050000 11.10740000
24.32090000 2.77310000 -99.71210000
19.68710000 -0.97140000 -102.37000000
18.06020000 2.21870000 -101.02040000
65.80990000 -12.84560000 -89.73550000
62.85580000 -16.77930000 -93.23820000
58.70930000 -12.74200000 -94.11430000
-43.88210000 52.71510000 -51.31190000
-43.76470000 57.95350000 -48.66920000
-41.46060000 55.92180000 -52.00080000
-58.95400000 49.74190000 -31.59950000
19.50220000 -168.15260000 49.06300000
11.33460000 -168.21200000 50.89520000
13.66820000 -167.68930000 48.25790000
42.14920000 -168.08710000 39.43930000
34.17330000 -168.21770000 45.02950000
37.24670000 -167.68670000 39.73570000
54.85150000 -42.83660000 97.71890000
62.54000000 -43.82900000 93.36320000
57.06510000 -40.41220000 96.27800000
56.00550000 -67.38910000 93.49680000
60.34120000 -65.50230000 91.67670000
56.29180000 -59.44370000 95.43510000
69.53910000 -67.39520000 -89.86380000
69.97430000 -61.39610000 -91.38370000
75.82130000 -62.97040000 -86.56980000
58.62920000 -86.43400000 -87.49630000
55.03770000 -85.74470000 -89.87880000
60.01560000 -79.54610000 -90.55630000
-85.80840000 -33.14560000 58.66110000
-88.35550000 -38.90730000 56.28540000
-81.79930000 -33.36770000 64.59860000
-99.11340000 -47.90250000 34.73370000
-97.28330000 -49.33660000 39.36130000
-96.10090000 -41.13140000 41.54060000
57.05010000 62.49970000 29.67970000
58.34690000 64.15860000 26.61530000
54.73820000 64.67500000 31.49760000
39.00270000 47.19090000 55.61500000
37.74680000 51.85200000 53.65540000
34.10220000 56.28610000 53.27640000
58.32850000 -167.87150000 -20.52510000
57.36600000 -167.27720000 -16.08990000
55.41020000 -167.38350000 -21.63120000
59.42410000 -167.78080000 8.73170000
57.20260000 -167.54480000 6.87950000
57.77680000 -167.47960000 -2.26820000
108.24930000 -72.22490000 -32.56760000
117.45770000 -40.21910000 -3.15110000
117.61610000 -43.74260000 -4.18960000
117.30230000 -39.94970000 -8.23580000
-10.45870000 -135.14790000 59.30040000
-6.91760000 -133.85130000 61.57320000
-12.22510000 -127.13710000 67.12330000
-3.07370000 -155.21720000 53.64220000
3.10620000 -160.15070000 54.71560000
2.98260000 -155.03640000 54.73540000
-42.54610000 167.27380000 -56.69740000
-48.85150000 167.57610000 -48.80110000
-39.70790000 167.61580000 -57.14970000
-53.13600000 166.18700000 -44.28110000
-52.22260000 163.14300000 -44.74780000
-55.01350000 163.38470000 -39.99090000
-41.34390000 50.70930000 45.15570000
-35.53800000 48.81920000 50.71390000
-39.21220000 52.88320000 45.54280000
-20.28180000 60.44560000 53.65330000
-18.20880000 56.72870000 55.90210000
-16.29050000 64.95980000 53.68400000
59.65910000 1.60050000 78.97340000
63.48530000 -1.83560000 78.57790000
66.45340000 -0.41620000 75.11130000
42.29420000 -22.53500000 99.64720000
45.81020000 -17.54920000 96.70130000
39.92920000 -17.33910000 98.95490000
-42.14570000 -168.18610000 -9.95420000
-42.47610000 -168.50090000 -15.16900000
-39.51680000 -167.98050000 -17.47000000
-32.77900000 -158.58850000 -39.75830000
-35.95320000 -156.06690000 -35.88650000
-33.08980000 -154.64440000 -39.22700000
115.01950000 -64.47180000 -6.56890000
115.34430000 -58.06840000 -17.16330000
116.48950000 -57.54260000 -3.38400000
113.75000000 -69.27700000 -0.72560000
114.89290000 -64.13650000 2.35640000
113.09040000 -68.89890000 5.62090000
-68.26650000 16.27480000 49.08100000
-65.21350000 21.21990000 47.30640000
-67.77400000 21.51300000 42.78720000
-58.65110000 55.79780000 17.26670000
-56.82280000 55.80060000 21.52800000
-54.96020000 63.16650000 18.94760000
-44.22720000 165.73450000 19.47580000
-44.31950000 162.44510000 19.94320000
-46.00580000 166.66280000 16.32570000
-43.83310000 137.11050000 11.64020000
-45.11780000 135.26500000 7.38720000
-44.79740000 140.30640000 11.24350000
-31.13250000 -136.64560000 45.92030000
-32.90560000 -132.35630000 50.32280000
-53.93230000 -131.91450000 28.88670000
-48.75490000 -134.88920000 30.99950000
-53.63460000 -127.99480000 36.30960000
-21.78860000 135.85560000 34.68890000
-25.34610000 135.85320000 32.45910000
-24.03120000 142.33960000 34.77360000
-42.22670000 152.25310000 20.76980000
-41.48560000 147.74640000 19.73130000
-44.73860000 154.69550000 18.09630000
-26.77760000 -11.81720000 -104.19240000
-2.95360000 -9.70590000 -107.88910000
-9.06240000 -7.10590000 -106.11510000
-0.42400000 -5.79320000 -106.45510000
-31.09660000 -68.66240000 97.55500000
-31.79470000 -62.45380000 99.06510000
-41.73270000 -64.31180000 94.68260000
-41.03570000 -80.03700000 88.73420000
-2.64620000 -168.00390000 -54.50510000
-13.63590000 -167.88830000 -50.93270000
-10.21520000 -167.62040000 -53.08460000
17.19650000 -153.84500000 -56.81820000
16.38820000 -158.90100000 -57.09890000
11.11170000 -156.83400000 -57.44460000
87.54130000 8.82760000 -48.33250000
86.35050000 6.80440000 -53.16310000
82.68670000 13.81260000 -50.46210000
90.55610000 -20.99730000 -69.40800000
88.11050000 -26.04880000 -74.36070000
83.98070000 -22.03030000 -77.64440000
-39.66250000 111.90750000 12.45010000
-39.90610000 106.68340000 11.66960000
-41.63410000 108.14490000 8.14310000
-9.60140000 57.54990000 -67.84120000
-13.49820000 54.49780000 -67.94930000
-15.10160000 58.17280000 -66.32020000
-36.01850000 52.95580000 -57.90340000
-41.39880000 51.91430000 -53.98860000
-39.03650000 54.73350000 -54.66070000
-29.48040000 -162.54350000 -32.45700000
-25.76810000 -162.70390000 -36.37810000
-28.62640000 -160.86480000 -34.99930000
-6.89440000 -150.58110000 -43.88790000
-4.25580000 -150.51850000 -43.29280000
-56.14610000 139.58330000 10.20750000
-54.89580000 140.94640000 14.03980000
-56.17840000 146.98090000 13.21720000
-50.23280000 93.97770000 17.80090000
-48.98270000 90.12310000 20.90280000
-46.56510000 91.89210000 24.04900000
-29.70870000 -153.99610000 -31.63600000
-29.60530000 -155.08030000 -34.29000000
-28.51410000 -154.40070000 -34.37870000
-38.99570000 -152.85640000 3.81980000
-39.71180000 -153.01930000 0.13150000
-38.04850000 -152.38180000 2.09990000
41.51740000 -116.18870000 -75.70940000
37.07320000 -122.12750000 -71.99620000
35.41600000 -115.17150000 -79.53220000
44.68780000 -86.68580000 -94.65760000
51.59430000 -78.11850000 -95.52410000
48.18690000 -5.25500000 90.25130000
53.19430000 -4.95700000 87.63720000
50.81610000 0.11600000 85.60580000
33.77820000 7.55250000 87.82780000
38.55380000 12.77890000 82.15090000
33.44560000 13.48290000 83.51430000
1.27610000 56.96990000 -69.50700000
-1.67060000 60.29640000 -68.38840000
2.52370000 59.79770000 -68.75230000
29.11600000 59.95680000 -63.56680000
23.11670000 55.81920000 -66.95530000
24.83540000 60.43760000 -64.97890000
93.57390000 -7.17230000 -56.10850000
94.25070000 -14.35820000 -61.01890000
90.86840000 -8.63160000 -61.54250000
98.32630000 -13.65880000 -53.55980000
94.73820000 -11.53750000 -57.85450000
95.95910000 -7.11180000 -52.07680000
83.93670000 -80.47420000 66.79590000
83.63150000 -87.44130000 62.22850000
88.05120000 -80.32450000 61.80100000
62.04140000 -102.60230000 71.53130000
67.32250000 -101.39510000 68.08330000
66.69470000 -97.32780000 71.59670000
-77.52260000 22.88350000 -27.49080000
-79.56450000 18.67360000 -31.16830000
-83.03380000 16.41520000 -23.79330000
-90.13090000 -13.11920000 -51.44180000
-93.98530000 -17.84650000 -46.48430000
39.35630000 167.29390000 34.61350000
37.46360000 163.14900000 36.13900000
34.55960000 167.18970000 38.10500000
44.29380000 145.91410000 24.51150000
43.70090000 140.64150000 23.93250000
40.66490000 140.10650000 27.21510000
15.18560000 -162.04880000 13.71500000
12.10910000 -161.09530000 18.16220000
10.86540000 -162.03500000 14.78340000
19.74480000 -162.64900000 2.39730000
19.64850000 -162.45360000 -4.28220000
25.32500000 -161.06120000 -3.25490000
29.88010000 -104.06620000 85.39290000
34.03510000 -108.83880000 81.09750000
33.86490000 -100.73210000 86.34440000
58.84050000 -91.11890000 81.26770000
62.70060000 -87.04380000 81.24420000
59.82160000 -84.38550000 84.42940000
32.10330000 164.02990000 -56.90220000
35.46460000 167.09160000 -54.41940000
30.22410000 167.09720000 -57.83340000
22.53020000 139.08630000 -56.26030000
26.44340000 139.93010000 -54.70780000
25.31130000 143.63030000 -56.36860000
-102.05140000 -52.46080000 -31.74490000
-100.51580000 -49.62900000 -36.87670000
-99.11810000 -52.99760000 -39.94280000
-80.88700000 -26.17900000 -72.01460000
-81.96970000 -31.44970000 -72.08610000
-84.63780000 -28.24660000 -68.09580000
48.60830000 131.85300000 30.98410000
49.05110000 127.96950000 30.19070000
52.15860000 130.28430000 26.62370000
23.01070000 117.65730000 47.62100000
27.90450000 117.62910000 45.62850000
26.49930000 124.51640000 46.70280000
17.31570000 57.66180000 -68.00750000
12.41150000 59.48150000 -68.28040000
15.93500000 62.19400000 -66.81570000
14.98400000 25.84670000 -85.50700000
8.81260000 21.58060000 -89.11320000
5.50450000 25.33610000 -86.65950000
6.27910000 -163.11700000 2.63890000
12.82740000 -163.25840000 1.90730000
12.27650000 -163.09130000 7.80040000
-3.70280000 -158.10710000 -24.00790000
-3.90140000 -159.57070000 -18.94600000
-9.33180000 -157.75070000 -21.20150000
54.03680000 135.18590000 -1.47420000
104.15680000 -40.07250000 50.39890000
102.90010000 -44.73310000 53.16250000
105.37600000 -48.28230000 49.26140000
115.30900000 -46.33490000 19.80030000
116.18910000 -46.94360000 15.31450000
116.39690000 -42.45390000 14.16860000
-100.85690000 -17.78560000 -20.99040000
-101.68890000 -17.81720000 -10.66500000
-99.19500000 -10.36700000 -12.48780000
-96.76220000 -10.61990000 -29.91600000
-94.53980000 -5.25600000 -29.08310000
-92.91740000 -5.37620000 -35.02310000
49.56320000 46.57780000 -57.13620000
51.18190000 40.95480000 -59.58480000
46.47130000 46.32360000 -59.75690000
43.04120000 36.48440000 -68.57080000
39.40600000 36.18060000 -70.82860000
39.11520000 38.72790000 -69.40090000
-38.03740000 -168.01610000 19.60170000
-37.82440000 -167.96340000 23.86380000
-40.96130000 -168.34690000 22.67210000
-7.44470000 -168.42020000 49.27730000
-13.93740000 -168.30040000 46.73210000
-56.25860000 168.28710000 -7.91330000
-60.78320000 168.06250000 -4.46110000
-59.53240000 168.19340000 2.35730000
-59.58490000 142.67880000 -4.27070000
-58.60770000 139.37430000 0.07080000
-59.33560000 143.76700000 -0.93830000
28.18670000 -153.99850000 -46.57400000
29.43840000 -155.39220000 -46.57570000
28.98670000 -153.28910000 -45.73320000
48.17980000 -153.27790000 -29.68070000
50.71050000 -152.61740000 -24.52200000
47.04470000 -151.98040000 -28.39290000
-52.77660000 -39.77960000 91.67690000
-55.57630000 -37.32050000 89.93400000
-58.05350000 -39.82800000 88.23560000
-69.00930000 -24.19260000 76.55370000
-67.62790000 -27.11940000 78.75600000
-63.46290000 -24.06500000 81.06020000
66.56920000 40.39260000 -42.28530000
63.48250000 41.51070000 -45.73890000
62.31090000 47.22180000 -41.90960000
65.10720000 46.55790000 -37.93800000
-8.94380000 85.80650000 51.05700000
-1.60610000 88.96990000 51.97180000
1.88120000 91.69310000 51.96670000
-2.58070000 91.88840000 51.45060000
97.84290000 -41.34940000 -65.38930000
92.02250000 -44.52370000 -73.17300000
92.75060000 -40.56600000 -71.93180000
93.00560000 -66.78130000 -67.86550000
92.37250000 -59.28890000 -71.27610000
95.78040000 -58.66900000 -66.95630000
26.66120000 -47.75120000 106.39840000
31.83870000 -47.84070000 105.29450000
32.62610000 -44.40650000 105.21490000
-3.79440000 -48.84570000 107.61690000
-2.63490000 -52.79580000 107.33060000
3.26800000 -50.75010000 107.85380000
-30.59380000 167.96840000 -58.02160000
-34.56340000 167.92640000 -54.64710000
-37.92330000 143.12970000 -41.51000000
-36.14580000 137.39090000 -41.62740000
-36.10990000 143.63460000 -43.84020000
14.15060000 74.68370000 54.07590000
18.39710000 74.99060000 53.14840000
16.55400000 82.99620000 52.24470000
30.61390000 88.37700000 46.05830000
33.56190000 76.00280000 46.59010000
33.58990000 87.48720000 44.48140000
1.38380000 -150.67420000 -46.83620000
10.88170000 -150.53750000 -45.44990000
1.78910000 -150.44010000 -44.70360000
-86.88370000 -49.91770000 -66.27290000
-89.50300000 -51.08380000 -62.15320000
-87.74320000 -41.30820000 -65.78810000
-72.35500000 -73.45070000 -74.17940000
46.69750000 108.17350000 -28.41110000
48.51100000 108.53870000 -24.71850000
47.44550000 112.14420000 -26.97620000
39.06290000 122.36790000 -40.70400000
38.28520000 117.30660000 -40.50090000
41.35930000 119.15010000 -37.38670000
91.03910000 -10.94980000 56.40080000
92.29510000 -15.41890000 57.97420000
94.23400000 -12.54190000 53.14870000
85.94400000 8.44210000 46.22580000
89.26920000 6.33070000 43.11150000
86.97550000 11.06380000 40.34380000
-75.13330000 11.19230000 -54.09920000
-64.61940000 0.26640000 -77.32490000
-68.27720000 -3.20700000 -76.34640000
-68.90080000 0.67030000 -72.62980000
-81.28680000 16.14160000 22.59560000
-85.11980000 10.24570000 23.59700000
-81.05590000 12.93420000 29.80530000
-99.34070000 -19.17620000 21.27970000
-99.75730000 -22.92240000 22.55870000
-97.70650000 -19.66340000 26.89310000
-5.10140000 -104.87990000 -91.41000000
-8.34030000 -108.91420000 -87.87230000
-6.87000000 -101.71100000 -93.34610000
-11.17940000 -121.11990000 -76.80980000
-8.05740000 -125.98420000 -72.77720000
-14.57360000 -127.25090000 -69.32750000
50.04460000 47.52860000 47.29440000
55.57280000 46.95540000 42.29970000
52.10630000 50.43700000 43.29100000
55.19870000 23.45460000 62.85340000
60.05360000 23.13350000 58.97910000
9.61460000 -102.02790000 89.12210000
13.21390000 -98.18690000 91.43800000
7.00270000 -97.35800000 91.89700000
16.67850000 -97.91650000 91.45120000
19.18590000 -95.20180000 92.72060000
10.81450000 -91.17510000 95.35220000
106.51120000 -9.48280000 -27.37660000
106.70650000 -12.60040000 -31.83980000
102.41000000 -6.92660000 -37.20740000
116.26970000 -31.56180000 -14.63570000
114.91990000 -27.68760000 -19.68900000
115.94100000 -27.51070000 -10.03530000
27.86300000 -157.34610000 23.69450000
27.20810000 -155.82030000 28.26290000
22.36850000 -157.08220000 28.01730000
40.18590000 -152.24930000 33.76570000
41.01380000 -21.87610000 -105.56080000
39.91020000 -27.48090000 -107.30640000
34.78500000 -24.45080000 -108.09470000
36.59680000 -36.07570000 -109.24820000
27.62820000 -37.51260000 -111.78440000
29.92590000 -34.49570000 -110.77560000
-22.05760000 76.75060000 -60.29630000
-26.48850000 77.98710000 -57.98350000
-24.14520000 79.62940000 -59.07600000
-26.01710000 61.96810000 -60.99100000
-27.63270000 59.04610000 -60.98140000
-29.50740000 61.64280000 -59.13430000
-18.79750000 -155.85100000 41.28300000
-24.33670000 -156.46970000 37.34010000
-22.75500000 -154.59820000 38.06820000
3.78960000 -151.69660000 40.63580000
0.47160000 -151.23880000 41.94600000
-4.91810000 -151.42330000 39.24030000
-41.70490000 112.20180000 -31.07080000
-43.60350000 108.50040000 -27.59680000
-42.77130000 105.46570000 -30.18120000
-50.26490000 -140.11220000 14.18760000
-54.19220000 -136.93860000 13.52170000
-52.02680000 -139.83620000 6.96430000
-73.36530000 -116.75150000 1.11680000
-76.17920000 -112.88690000 -2.89960000
-70.17100000 -120.47800000 -4.66340000
-36.51950000 -50.42470000 -106.13540000
-45.41240000 -48.58910000 -102.03110000
-43.24700000 -41.77610000 -103.50010000
-63.15440000 -45.68960000 -91.78670000
-67.62790000 -45.68780000 -87.99720000
-64.14450000 -40.88850000 -90.82890000
-15.12100000 -162.48280000 -44.31720000
-10.54820000 -162.57120000 -46.27680000
-14.85320000 -160.86860000 -45.70170000
-2.51250000 -167.22550000 -51.46290000
-2.02370000 -166.27430000 -48.78220000
40.67740000 127.31420000 -54.39230000
38.17810000 131.49620000 -56.80410000
41.50100000 131.81170000 -54.25790000
55.81970000 119.61640000 -35.25700000
54.01540000 119.59660000 -38.32350000
54.47760000 126.17400000 -38.92220000
-25.03570000 83.19490000 -58.14000000
-29.49230000 82.06760000 -55.67830000
-28.11720000 90.15360000 -55.64470000
-17.52510000 137.80340000 -66.59860000
-21.48660000 137.58790000 -65.06600000
-19.13760000 144.69500000 -67.25250000
81.54840000 -122.24100000 -10.77290000
81.37890000 -121.24260000 -17.39720000
85.94960000 -116.61690000 -17.10310000
64.43060000 -149.90180000 -3.01530000
64.70600000 -144.84410000 -6.36740000
64.94890000 -144.97390000 -2.39750000
-18.88570000 117.71520000 33.25520000
-22.39890000 117.36720000 31.13760000
-21.58050000 120.05570000 32.04730000
5.49800000 111.82730000 39.76860000
1.03090000 107.78350000 39.53630000
1.42930000 111.55320000 39.57080000
-29.74800000 -151.89540000 23.68080000
-29.93860000 -151.90630000 20.63070000
-22.78050000 -151.39830000 30.90800000
-35.88180000 -152.06620000 3.70950000
-37.24310000 -152.43940000 7.02430000
-102.75530000 -27.17480000 -22.87760000
-102.82810000 -30.56590000 -24.66610000
-103.84930000 -30.09090000 -16.19730000
-102.36830000 -57.28060000 -26.46640000
-103.36900000 -56.87250000 -20.45980000
-103.72790000 -53.62030000 -20.94700000
109.81170000 -10.57360000 -2.90190000
107.86150000 -6.44430000 -7.54440000
107.43370000 -5.88540000 1.25030000
112.00630000 -18.34060000 -19.20680000
110.83590000 -18.31070000 -25.77610000
108.50840000 -11.57590000 -23.36520000
58.87750000 132.41610000 14.83970000
59.07890000 124.48230000 13.25170000
60.22030000 132.92260000 11.52640000
50.10620000 124.30070000 28.36580000
52.62460000 124.79720000 25.08510000
32.93350000 111.57400000 -57.49790000
29.84860000 118.05460000 -60.13420000
33.82930000 117.95530000 -57.96970000
19.72720000 116.31960000 -63.75850000
18.22750000 111.35360000 -63.32250000
14.56930000 115.94230000 -64.86430000
-17.64020000 -46.66080000 -111.93320000
-22.24680000 -40.24460000 -110.62140000
-15.50360000 -42.98510000 -112.16940000
-7.13410000 -14.34170000 -109.09980000
-16.90160000 -14.86660000 -107.59360000
-14.31360000 -11.74940000 -106.97680000
50.45260000 -151.16910000 12.05380000
48.41830000 -151.24300000 17.30870000
48.35100000 -151.34650000 12.79940000
42.14890000 -151.10080000 -27.64220000
48.08310000 -150.91790000 -20.10530000
45.02850000 -151.06640000 -21.77010000
88.00250000 -75.21450000 65.09740000
102.44980000 -68.89520000 46.57130000
103.65770000 -65.04840000 46.49590000
97.56490000 -66.51850000 56.39940000
63.46780000 64.59810000 -26.81060000
61.09120000 68.11700000 -29.57210000
62.83100000 68.37810000 -25.31520000
64.80930000 71.79160000 1.96500000
66.38060000 67.03250000 0.83750000
65.19990000 72.58680000 -2.39800000
-55.45480000 -79.02290000 80.92920000
-50.94310000 -75.60230000 85.51590000
-56.93770000 -74.82900000 81.87260000
-70.73720000 -76.27990000 68.52140000
-65.11970000 -80.13720000 72.12190000
-68.10140000 -74.69620000 72.34720000
9.25640000 136.34590000 -59.07120000
-2.92060000 108.17590000 -54.46780000
1.30110000 108.83040000 -54.58810000
-1.70660000 112.09300000 -54.72600000
49.01520000 -151.65720000 4.43270000
46.59010000 -151.77190000 14.45550000
45.51350000 -153.80920000 4.07690000
38.26970000 -154.54890000 -17.97530000
41.45660000 -154.21630000 -12.71590000
37.36630000 -156.59480000 -13.05410000
77.21420000 40.14940000 -12.96670000
75.64410000 43.14050000 -12.99730000
75.60590000 44.05560000 -7.63180000
66.79810000 66.79610000 -7.30080000
65.32360000 72.65420000 -6.19300000
66.22320000 69.06540000 -3.70500000
-7.56730000 132.77030000 40.04650000
-12.01680000 133.07610000 38.66840000
-9.58100000 140.83520000 40.94410000
-9.16700000 117.62120000 37.40250000
-13.76510000 117.22630000 35.66280000
-9.59800000 120.85510000 37.58630000
-62.81500000 48.30300000 -22.14890000
-63.75600000 48.67150000 -17.05400000
-62.82330000 50.27720000 -19.32720000
-78.88890000 23.64100000 -18.02900000
-82.25980000 19.19370000 -16.94590000
-78.50540000 25.27400000 -12.93020000
-37.63770000 -153.36620000 31.89640000
-37.75630000 -148.73280000 32.96490000
-40.04360000 -149.93940000 29.57760000
-44.87380000 -134.61910000 36.05440000
-47.39810000 -132.05480000 37.52290000
-30.13140000 108.43280000 -44.25580000
-30.32760000 112.42810000 -44.02530000
-32.34840000 109.77350000 -42.47190000
-16.57420000 116.47430000 -51.86850000
-16.33120000 110.96220000 -51.80750000
-14.43060000 113.34990000 -52.50400000
55.00940000 140.38420000 -11.91000000
54.44530000 135.40520000 -11.49020000
55.23830000 140.90980000 -8.77840000
65.35610000 170.45520000 -8.71040000
61.48470000 170.26890000 -16.08280000
60.64340000 170.32460000 -8.47570000
-55.15990000 -119.46850000 45.91720000
-46.37590000 -130.07280000 41.59260000
-40.57220000 -133.47560000 42.13020000
-39.90110000 -129.93310000 47.64660000
-14.48160000 1.31690000 94.71930000
-9.19480000 1.99490000 95.41690000
-12.49850000 4.29030000 93.48350000
6.20130000 -3.97610000 98.85860000
11.70770000 -4.13980000 98.61550000
9.38880000 0.02120000 96.67930000
-14.66160000 -165.22670000 40.69790000
-18.86460000 -165.21170000 38.08010000
-15.47280000 -163.43340000 40.76060000
-29.57820000 -167.89970000 34.44370000
-22.29150000 -167.50910000 37.84670000
-24.76250000 -167.86440000 38.65990000
-47.44550000 133.98770000 -6.18860000
-47.18270000 133.11120000 -11.56990000
-48.14010000 137.33260000 -8.53160000
-46.37490000 102.95850000 -10.27010000
-46.10660000 108.08400000 -10.83010000
-45.93610000 106.40300000 -7.11500000
76.22200000 -114.15950000 -46.93540000
75.59450000 -110.32670000 -52.99610000
79.09870000 -107.16870000 -51.96890000
63.16170000 -117.60110000 -58.49560000
55.44560000 -113.84560000 -69.00840000
62.21510000 -112.54750000 -64.63020000
28.87640000 163.40300000 -58.78040000
12.60380000 162.88330000 -64.38550000
14.86360000 166.91330000 -63.65200000
10.57690000 166.76610000 -64.49400000
63.29800000 146.66560000 -24.83920000
61.81810000 142.68240000 -28.13530000
61.98470000 147.45790000 -29.21110000
58.05020000 77.89840000 -32.68790000
58.33150000 -159.42220000 1.22380000
58.43080000 -157.68380000 4.28020000
58.61750000 -156.98530000 -3.22520000
52.01780000 -150.80000000 -0.58660000
54.41110000 -151.18300000 -3.17240000
53.18990000 -150.93730000 2.69550000
-40.05150000 -164.40410000 -3.53700000
-40.05260000 -163.21810000 -8.12130000
-41.32410000 -161.83160000 -3.80990000
-39.56990000 -167.55660000 -12.29110000
-99.97250000 -71.48570000 -1.12840000
-96.59660000 -79.03270000 -3.83040000
-97.34570000 -77.57160000 2.92430000
-89.12590000 -79.16580000 -43.96200000
-90.94480000 -82.72070000 -34.05360000
-93.30140000 -76.05580000 -36.34090000
-47.67530000 61.17540000 32.33310000
-47.27590000 56.07370000 36.08600000
-44.28090000 61.14550000 36.24190000
-46.68080000 82.33390000 26.13980000
-43.90510000 81.82810000 29.91970000
-45.70360000 87.24150000 26.20020000
62.16410000 128.01280000 3.11080000
62.85440000 128.09110000 -1.45750000
62.94330000 132.47960000 0.71850000
62.56530000 120.43830000 -11.88380000
63.05850000 128.93590000 -13.40120000
63.05620000 125.21050000 -9.69730000
-40.28720000 -97.37850000 -83.77420000
-45.30640000 -93.95420000 -83.58590000
-42.06510000 -69.01990000 -98.51590000
-45.55330000 -72.46830000 -95.53940000
-83.46590000 -97.64250000 24.23070000
-83.29710000 -95.74460000 28.99550000
-88.19240000 -91.83970000 19.91930000
-90.97520000 -90.06600000 4.35740000
-94.81810000 -82.69390000 10.30870000
-93.03560000 -86.14910000 2.76730000
64.24550000 -160.86000000 1.15170000
64.30410000 -162.62200000 -4.29360000
64.09830000 -156.94830000 -1.45340000
61.91550000 -156.59280000 -16.27720000
62.44110000 -162.08880000 -15.53890000
60.47170000 -154.62960000 -20.53190000
-41.90540000 162.66130000 23.25590000
-41.45710000 166.43810000 23.48380000
-30.68850000 166.49400000 34.42800000
-31.05280000 163.60490000 34.39260000
-34.13170000 166.35800000 31.44540000
-13.96150000 -161.83840000 42.41460000
-18.79040000 -162.78050000 39.03000000
-18.86640000 -160.65440000 40.41410000
-34.07150000 -160.17870000 25.83800000
56.55620000 163.80680000 9.78380000
55.82910000 166.70030000 11.08440000
56.68840000 168.42530000 8.45790000
43.52960000 150.28940000 26.94340000
38.94510000 148.65230000 31.00560000
41.13310000 152.12870000 30.15160000
-48.96910000 78.20230000 -36.33890000
-51.55850000 77.19200000 -31.62150000
-54.54890000 51.94630000 -38.35560000
-56.31040000 50.37380000 -36.38390000
-55.50720000 54.66180000 -34.71000000
-53.10960000 -135.17890000 -20.29760000
-52.39710000 -137.50320000 -14.31570000
-56.49780000 -133.98950000 -14.54270000
-53.80630000 -138.05980000 -4.60550000
-57.15690000 -134.90840000 -3.89840000
-57.00100000 -134.52840000 -9.51250000
34.94220000 -77.21080000 98.09100000
38.08300000 -70.86030000 99.24560000
31.33500000 -69.39780000 101.31710000
35.79700000 -91.16640000 91.32880000
42.90000000 -93.93130000 87.05220000
45.24780000 -85.00330000 91.06640000
-29.32170000 86.20360000 41.78630000
-27.67880000 120.61800000 41.93440000
-22.72010000 116.17340000 44.19340000
-25.95780000 123.89330000 43.24800000
37.87260000 -7.72950000 -102.13270000
34.10430000 -7.45940000 -103.15230000
33.71600000 -3.13940000 -101.03780000
39.79580000 11.27820000 -89.57810000
34.11980000 10.81070000 -92.02760000
35.55680000 14.50640000 -88.71800000
27.60840000 163.49200000 51.89980000
30.46580000 156.38600000 49.10280000
29.28210000 168.45210000 52.36380000
19.65510000 169.58910000 55.23660000
26.87880000 169.83590000 52.64910000
13.07480000 169.75740000 55.61180000
-4.82100000 -161.72370000 -6.52640000
-7.81940000 -161.65360000 -0.13360000
-9.97570000 -160.91720000 -4.76540000
-25.50740000 -156.00030000 4.06040000
-30.51490000 -153.44920000 6.63980000
-27.93310000 -154.90710000 1.35860000
-44.72030000 -153.08490000 -20.33500000
-45.90180000 -153.03520000 -16.90050000
-46.32780000 -149.07040000 -17.75950000
-47.49300000 -164.22250000 8.41360000
-46.18620000 -160.78490000 14.47500000
-47.40020000 -158.57360000 8.41250000
8.25630000 -154.03620000 48.93490000
6.83700000 -152.76400000 47.79950000
11.62530000 -152.26680000 47.17400000
40.94110000 -151.80960000 30.39690000
35.07440000 -152.03170000 36.82870000
-53.64180000 -137.54760000 -9.49540000
-48.84110000 -151.08780000 2.95110000
-49.13830000 -145.96190000 6.43120000
-49.44190000 -146.61530000 1.22120000
-62.89310000 -16.69790000 79.02260000
-59.52650000 -11.65220000 79.78870000
-67.49420000 -10.85910000 72.95700000
-61.20010000 18.48650000 56.14860000
-55.19940000 21.45240000 58.58430000
-59.76810000 21.00850000 54.65970000
78.22500000 39.27190000 -8.35000000
97.24200000 9.72160000 -17.25200000
93.85860000 14.17240000 -20.10470000
-49.05370000 141.48310000 -8.85260000
-48.03020000 137.57740000 -12.06370000
-49.24800000 143.36930000 -12.45730000
-83.45050000 -65.42960000 -65.78170000
-82.82660000 -59.99330000 -69.11550000
-80.40850000 -62.30090000 -71.17670000
-87.20420000 -76.34000000 -51.72870000
-91.40850000 -73.70060000 -44.18630000
-89.53930000 -70.11480000 -52.11360000
22.34430000 48.21730000 61.99390000
23.30360000 43.37040000 64.64660000
27.18680000 48.09860000 60.58360000
13.42310000 42.76970000 66.70030000
20.59230000 40.08750000 67.00750000
17.68400000 47.52500000 63.46000000
-63.76460000 -0.73120000 70.45560000
-62.51020000 2.58500000 69.33760000
-65.95520000 1.95730000 66.57150000
-79.16000000 -1.43590000 51.47100000
-77.11430000 -5.48640000 58.62340000
-74.32880000 2.52830000 55.56590000
99.25310000 -97.89940000 -10.18870000
103.51310000 -91.25980000 -8.38150000
84.90870000 -118.76730000 -6.73110000
81.07320000 -123.38470000 -6.02450000
85.22340000 -117.94380000 -12.88960000
33.27290000 143.82870000 -51.82570000
34.15680000 147.76390000 -52.32150000
29.31260000 147.61410000 -55.31090000
35.13740000 131.94510000 -47.62100000
38.97530000 133.24810000 -44.38030000
-75.29330000 -91.86950000 -56.39470000
-69.74030000 -99.09770000 -56.31590000
-74.89770000 -95.68280000 -52.60860000
-67.89000000 -108.91530000 -45.74800000
-70.38510000 -106.22650000 -45.90630000
-67.75560000 -105.51580000 -51.25990000
-12.66040000 36.97460000 -77.54460000
-17.40550000 36.78570000 -76.57600000
-14.23000000 39.81820000 -75.25230000
14.64920000 33.12280000 -80.59330000
7.05950000 36.52100000 -79.41860000
12.09490000 37.05740000 -78.61570000
-63.64980000 -115.39130000 39.10980000
-70.27070000 -104.50030000 43.18880000
-71.26480000 -106.48540000 38.64550000
-81.92770000 -80.10310000 49.64610000
-79.31010000 -76.10700000 57.06990000
-83.56290000 -75.13300000 50.86220000
64.68040000 158.12520000 -27.06100000
64.89750000 163.58240000 -29.53300000
66.52940000 163.60210000 -23.94490000
64.56870000 151.77920000 -22.52240000
63.47430000 153.29700000 -27.35510000
48.54310000 -138.12530000 45.55000000
53.17050000 -132.21390000 48.18190000
30.77170000 -131.66260000 63.28640000
-47.84040000 117.46430000 -37.20980000
-50.45240000 117.83330000 -32.67870000
-48.99260000 121.77900000 -36.36290000
-48.49090000 152.21470000 -46.70030000
-52.48130000 156.13860000 -42.08280000
-49.38260000 158.24920000 -47.38260000
59.30660000 -167.36610000 -9.58220000
55.80720000 -167.21850000 -11.88500000
56.76890000 -160.83330000 -11.04720000
55.60210000 -163.28420000 -10.55520000
56.42460000 -162.81370000 -7.03650000
-55.40310000 102.95790000 -13.93430000
-55.54600000 98.74410000 -9.84350000
-55.75180000 104.70000000 -9.74070000
-52.80040000 124.02150000 -29.07810000
-52.01900000 117.81840000 -29.26550000
-54.47790000 123.86750000 -24.62620000
3.14970000 151.32480000 44.86660000
-4.57190000 151.91190000 44.35900000
1.33630000 156.33230000 46.11210000
23.29650000 150.39580000 41.05160000
21.99220000 154.74600000 42.97520000
27.32750000 154.96290000 40.84760000
-22.23910000 -168.35030000 42.96790000
-17.22220000 -167.59330000 41.76720000
-25.96450000 -160.44490000 43.46310000
-23.46820000 -157.12940000 45.08090000
-26.15000000 -156.83390000 43.14690000
105.75790000 -73.43790000 -38.74040000
103.73440000 -77.78350000 -39.79020000
101.98830000 -76.96220000 -45.38240000
89.91430000 -85.63350000 -58.99160000
84.46230000 -88.56250000 -63.35230000
90.21990000 -78.74460000 -64.35270000
-53.13020000 93.50630000 11.28440000
-51.78140000 95.66480000 14.05810000
-52.80830000 95.78480000 11.24110000
-55.77040000 105.08120000 -5.75160000
-55.59970000 97.82070000 -4.92230000
-55.49410000 105.54560000 -0.06430000
41.64710000 -131.74150000 -59.83130000
36.27080000 -135.87830000 -57.80600000
36.54250000 -132.76940000 -61.28990000
36.45190000 -149.78350000 -50.12290000
37.10580000 -146.61260000 -49.81710000
-17.98130000 113.65900000 33.39200000
-22.79580000 106.65810000 30.22900000
-24.25710000 103.39250000 29.14090000
-25.36030000 106.37090000 28.45940000
112.34730000 -39.90260000 30.76780000
114.01590000 -42.72440000 24.83340000
114.38580000 -40.03580000 21.71670000
104.36860000 -19.23910000 40.07820000
107.09780000 -24.60450000 37.85700000
108.68140000 -18.45470000 27.68530000
33.51370000 123.45150000 43.03590000
35.85010000 117.85990000 41.21410000
36.66160000 122.44460000 40.88890000
41.77250000 154.18130000 41.68120000
37.27200000 -160.96500000 47.12990000
40.06810000 -164.83350000 45.07460000
41.14780000 -158.30540000 44.62010000
37.44960000 -139.49670000 52.50320000
42.76460000 -138.03160000 50.58360000
43.91590000 -134.72480000 53.73200000
-4.06630000 -25.70780000 -112.33570000
-2.74230000 -32.47870000 -113.17100000
-8.99330000 -26.67060000 -112.02370000
18.65510000 -31.44270000 -112.44090000
10.60860000 -34.64910000 -113.29900000
12.94740000 -29.18420000 -112.73910000
50.19240000 63.13170000 -48.36990000
47.15080000 63.18280000 -51.35660000
46.73020000 68.08970000 -49.98440000
59.91920000 63.28320000 -34.42870000
55.59570000 63.25050000 -41.42430000
56.52330000 67.87440000 -38.04010000
-25.75340000 2.25740000 91.41500000
-43.98210000 -2.50610000 85.64980000
-36.34480000 -2.80990000 90.19140000
-40.26740000 2.51830000 84.95230000
-45.95420000 -137.35670000 -30.37700000
-50.10700000 -137.63050000 -20.27970000
-38.65150000 -134.50800000 -45.71550000
-41.25690000 -134.28010000 -43.13340000
-101.97320000 -19.76770000 7.40010000
-101.64330000 -22.03460000 13.16740000
-100.45990000 -17.06270000 13.14250000
-104.56820000 -31.81080000 3.94830000
-104.04060000 -32.06190000 10.63570000
-104.04590000 -27.82800000 4.41330000
-53.94460000 -41.16630000 -97.89980000
-57.19690000 -45.50220000 -95.97420000
-58.16220000 -41.54760000 -95.38000000
-58.91550000 -16.68070000 -90.92620000
-61.74320000 -19.94800000 -89.83720000
-62.74380000 -16.29080000 -88.01170000
80.13860000 -27.08010000 76.28880000
80.11640000 -22.08360000 74.55430000
77.47400000 -22.96570000 77.83890000
45.73490000 -25.12220000 99.09910000
55.09560000 -28.06190000 95.68740000
55.62800000 -23.00510000 93.99880000
-35.42160000 148.33400000 27.12450000
-39.29690000 148.02700000 22.62130000
-40.04200000 152.59030000 23.76860000
-34.44600000 121.53350000 21.58490000
-31.75400000 120.65710000 24.35450000
39.08340000 -162.54780000 -38.62920000
42.12480000 -162.47770000 -35.87490000
43.18620000 -160.84770000 -36.34120000
35.92720000 -155.70590000 -43.08040000
39.63740000 -154.12140000 -39.53700000
34.11280000 -154.11530000 -43.57680000
-36.53440000 23.98990000 70.08300000
-31.74680000 23.84900000 72.68710000
-33.22470000 29.15960000 67.48690000
-28.52050000 48.63300000 55.21260000
-23.39090000 47.76530000 58.38610000
-26.44530000 53.62130000 53.46930000
-29.44450000 59.06880000 -59.81020000
-33.34110000 53.17170000 -59.77140000
-33.00380000 56.57450000 -58.49410000
-36.79600000 24.21640000 -78.02080000
-42.89940000 22.74910000 -75.77450000
-39.52850000 27.60310000 -73.59410000
68.76210000 30.85340000 41.92540000
67.66190000 36.48810000 36.98240000
65.45290000 35.07420000 41.79460000
57.41540000 39.85710000 46.35420000
52.13420000 40.02480000 50.90860000
54.27870000 36.51770000 51.92620000
44.28650000 62.89060000 -53.87960000
44.04820000 67.68570000 -52.39310000
25.41310000 64.77980000 -63.50570000
29.09050000 69.44040000 -60.75620000
31.55340000 65.14690000 -60.85530000
4.03360000 161.26170000 -65.28590000
8.26190000 161.06190000 -65.04720000
6.87600000 166.26370000 -64.98870000
-15.43440000 162.60990000 -62.36410000
-12.52600000 165.09350000 -63.09020000
-18.14100000 165.26590000 -61.12090000
40.77440000 -59.43670000 -107.03400000
33.71300000 -59.24090000 -109.32430000
24.92700000 -66.06020000 -109.66850000
15.36660000 -66.57120000 -110.85240000
19.32670000 -61.57280000 -111.53800000
71.29250000 32.38870000 36.20720000
74.60320000 31.72670000 30.98940000
70.96280000 36.67080000 31.32340000
72.15630000 44.69270000 16.92980000
73.57450000 43.83900000 13.61240000
71.94160000 47.41330000 11.46280000
-5.19860000 80.50450000 52.71160000
-5.87270000 87.06160000 51.54250000
-2.13610000 66.95080000 56.82730000
3.79300000 67.56760000 57.11900000
0.58890000 70.81770000 55.81320000
-2.66300000 108.40180000 -64.74440000
-8.05170000 108.26700000 -63.99040000
-4.07390000 112.13280000 -64.92630000
-12.18030000 112.35310000 -63.27310000
-13.20390000 108.14230000 -62.68320000
-16.11720000 112.21410000 -62.02130000
19.06040000 41.84750000 -74.55890000
19.11380000 37.14190000 -77.48180000
15.51410000 40.99540000 -75.70580000
36.02570000 35.87310000 -72.64170000
32.46110000 37.64080000 -73.12770000
-2.05720000 -129.74070000 66.58400000
-1.98610000 -125.85790000 70.38020000
-7.15980000 -125.73200000 69.63100000
-9.98670000 -102.15320000 87.29360000
-2.51780000 -105.24490000 86.34210000
-4.17320000 -96.71480000 91.48680000
-70.98320000 0.75220000 -70.02720000
-73.33780000 -3.20860000 -70.41990000
-73.46100000 0.98910000 -66.51640000
-83.59360000 -17.93200000 -65.68120000
-87.80110000 -23.03950000 -61.71890000
-87.92680000 -18.25410000 -59.61270000
52.12340000 -149.64930000 35.22060000
54.98630000 -150.57570000 31.05490000
56.72710000 -146.43090000 29.31870000
61.64280000 -149.58460000 17.98020000
62.31870000 -145.51510000 17.19070000
61.34560000 -146.23590000 19.91140000
12.24970000 125.18800000 50.73450000
13.92610000 129.16910000 50.64950000
10.33040000 131.64010000 51.27780000
4.86580000 147.08650000 53.69240000
10.07950000 148.77220000 53.65730000
6.82470000 154.84010000 54.60130000
-10.32640000 -124.12490000 70.46810000
-6.07900000 -122.21450000 73.14900000
-9.29050000 -120.05220000 74.38020000
-39.26390000 -97.49350000 79.24620000
-41.42490000 -90.48150000 82.82480000
3.97900000 118.33400000 -66.57680000
-0.40600000 117.99710000 -66.48110000
4.03700000 121.48710000 -66.88990000
15.10040000 118.83170000 -65.41530000
11.45770000 118.73160000 -66.04690000
14.64070000 123.08830000 -65.94380000
51.45720000 -154.95450000 -36.41910000
49.91910000 -158.03960000 -38.28660000
48.48050000 -154.13460000 -39.75470000
41.56970000 -168.01380000 -44.66500000
46.57570000 -168.07010000 -39.89070000
39.73530000 -168.19710000 -44.31400000
80.45210000 -24.98920000 -82.40000000
76.85480000 -26.31730000 -86.36440000
78.76290000 -19.64460000 -82.23400000
69.39430000 -21.78710000 -90.56460000
67.93140000 -25.78030000 -92.83180000
60.52800000 -23.10630000 -96.80260000
98.69660000 -92.33640000 -31.76250000
97.29790000 -96.56510000 -28.20180000
94.15180000 -97.85510000 -34.96280000
97.19420000 -79.87100000 -53.18390000
94.49930000 -83.51130000 -54.08080000
96.08800000 -78.92850000 -56.08140000
18.97600000 -102.31090000 -92.89070000
42.09660000 -97.35190000 -89.43460000
37.83100000 -95.86380000 -92.27120000
40.76140000 -92.01220000 -93.38820000
-34.25650000 -41.09600000 100.64830000
-27.46320000 -44.30250000 103.23170000
-28.37880000 -40.41620000 102.87290000
-11.20940000 -54.39820000 106.19540000
-8.86860000 -48.05290000 107.22310000
56.95300000 84.87550000 19.65630000
59.17110000 79.65430000 16.57890000
58.56150000 86.13840000 16.06730000
60.23930000 62.33490000 24.75420000
-43.17160000 123.88450000 -45.38510000
-44.93070000 127.03310000 -43.69230000
-41.21700000 126.40330000 -48.03510000
-35.89020000 123.87100000 -52.93070000
-36.85590000 116.96560000 -50.65540000
-39.03700000 124.26260000 -50.04770000
-35.75990000 -125.73160000 -60.42100000
-30.97960000 -131.11250000 -57.07670000
-33.47470000 -133.86430000 -51.55140000
-25.65410000 -159.73000000 -46.35990000
-27.19050000 -157.53510000 -45.07040000
-23.01290000 -154.75490000 -48.11520000
63.36070000 -107.30780000 -68.68870000
57.19030000 -110.46960000 -70.82480000
60.70800000 -103.90980000 -73.92240000
47.26490000 -110.11970000 -77.83400000
44.34080000 -106.08060000 -82.35810000
46.63680000 -103.15540000 -83.39300000
20.74820000 169.75100000 51.30340000
28.80930000 170.11010000 43.84510000
18.34380000 170.00430000 46.88370000
26.32850000 167.14160000 42.42430000
26.58610000 163.02900000 42.33780000
23.24010000 162.31560000 43.67930000
-93.29600000 -83.19970000 -24.26950000
-96.45370000 -77.97460000 -19.87620000
-95.66450000 -78.13140000 -24.65380000
-101.06700000 -60.76550000 -28.81510000
-101.68420000 -62.25400000 -23.55220000
99.44550000 -39.83740000 58.38320000
90.41270000 -35.68900000 69.46170000
89.29550000 -33.35480000 69.80470000
84.86410000 -32.35810000 73.87960000
60.65160000 -5.45250000 -89.48580000
54.30100000 -5.96080000 -93.70030000
55.28900000 -1.74140000 -90.59200000
40.45720000 -1.63010000 -97.75520000
39.04900000 3.30420000 -95.44240000
44.70060000 2.65050000 -93.46750000
58.08430000 -161.16330000 25.02670000
59.62570000 -162.98170000 21.97580000
58.23530000 -155.80820000 24.46660000
61.54300000 -167.98600000 10.73440000
60.98760000 -167.58030000 15.85970000
59.02280000 -167.89660000 19.25670000
-21.65960000 -66.99720000 -107.59600000
-21.75420000 -74.18300000 -105.01950000
-24.95340000 -69.00010000 -105.81800000
12.14920000 -81.83630000 -105.41540000
7.45710000 -81.11410000 -105.94560000
8.31050000 -76.89630000 -107.86570000
-4.54360000 161.72760000 46.09100000
-8.66230000 161.65490000 45.39270000
-5.50520000 166.66800000 45.80410000
-20.83340000 159.47420000 40.80470000
-25.81930000 159.85490000 38.05060000
-24.98880000 162.67960000 38.80710000
-98.56310000 -55.26340000 34.70540000
-97.38720000 -69.21620000 25.42180000
-93.34060000 -78.98030000 26.12970000
-93.21390000 -75.50670000 30.82090000
-42.91250000 -54.89040000 96.54530000
-32.19250000 -55.80270000 100.50540000
-34.12320000 -50.59140000 100.64610000
-57.31590000 -49.73820000 88.62940000
-49.21750000 -49.68320000 94.06420000
-56.80870000 -45.78490000 89.22940000
-24.37100000 168.15000000 -62.13960000
-22.58350000 168.06140000 -66.33310000
-33.76840000 167.76920000 -60.91600000
-12.92610000 148.06210000 -69.88290000
-17.51160000 147.57790000 -68.40920000
-14.26800000 152.81630000 -70.27060000
57.19720000 159.86310000 7.14840000
57.96140000 164.19210000 4.71570000
58.26240000 159.82880000 2.64860000
59.02230000 161.87540000 -14.14990000
58.99050000 164.67080000 -13.69400000
58.68080000 164.32430000 -16.65200000
-0.57590000 166.98850000 46.48100000
11.47480000 163.14430000 46.58990000
10.59020000 166.11220000 46.53510000
15.13980000 166.24230000 45.83810000
82.53200000 -111.31380000 35.67360000
