-40.32230000 -49.84140000 1.39380000
-41.68030000 -48.50020000 -2.35860000
19.12780000 -38.71810000 -45.92610000
18.20160000 -36.33290000 -48.02320000
15.78220000 -40.12360000 -46.10620000
31.10280000 -30.08340000 46.53150000
24.87850000 -27.96070000 51.30220000
29.44530000 -26.71450000 49.49640000
61.17140000 -16.15240000 -9.02260000
54.37240000 -13.90360000 -29.57100000
55.98930000 -15.08830000 -26.12140000
57.56730000 -11.03250000 -24.76010000
15.69050000 -46.42410000 41.69160000
19.45030000 -50.27220000 35.31370000
16.83980000 -49.82470000 37.20860000
10.37060000 -42.54360000 47.01290000
13.48960000 -41.09530000 47.24510000
15.05570000 -42.49650000 45.76660000
-60.98960000 -14.61820000 7.31310000
-48.76680000 -41.76270000 4.62390000
-45.97420000 -43.65900000 11.98290000
-46.12980000 -44.25960000 6.90400000
-31.99280000 16.94140000 -51.84480000
-29.69570000 18.46860000 -52.59270000
-34.83690000 17.82790000 -49.57070000
26.80290000 -58.92090000 -9.94280000
23.03720000 -60.70170000 -10.20240000
11.03730000 -54.87930000 31.96080000
6.74490000 -55.09530000 32.90490000
12.48450000 -53.23990000 34.25830000
-29.17590000 16.23130000 -53.82200000
-23.94680000 14.86830000 -56.75570000
-22.02170000 17.71260000 -56.65740000
-19.82790000 19.60080000 -56.79030000
-17.55730000 15.76780000 -58.94240000
-15.57760000 17.07350000 -59.15620000
-27.29660000 -41.51140000 40.52090000
-30.04620000 -42.36880000 37.69180000
-31.02170000 -39.15510000 40.03050000
-41.44690000 -8.53770000 -47.65660000
-42.97190000 -5.26830000 -46.53390000
-45.95800000 -14.43310000 -41.74830000
-42.13070000 -13.11960000 -46.09170000
-43.78980000 -8.44780000 -45.29850000
-38.91660000 -45.32500000 24.13060000
-39.93830000 -46.07540000 21.11640000
-41.65090000 -43.70570000 22.76860000
-21.85640000 -56.97300000 20.51210000
-20.71550000 -58.48660000 17.59860000
-25.63930000 -55.84460000 19.03370000
-14.09290000 -56.78470000 26.74720000
-15.41810000 -59.00240000 20.54130000
-18.85100000 -57.93050000 20.74760000
3.57560000 -28.96560000 55.92070000
5.70080000 -33.90310000 53.21580000
1.99380000 -35.51340000 52.55930000
0.34830000 -23.32120000 58.09470000
4.09300000 -17.33060000 57.84420000
-50.65960000 18.10750000 -27.25690000
-53.52830000 16.33090000 -19.88840000
-53.28460000 16.13170000 -26.72950000
-32.37900000 23.15890000 -46.31700000
-38.06050000 20.61740000 -44.74460000
-35.07870000 21.94710000 -45.90940000
-36.61070000 18.75370000 -3.34040000
-32.77770000 21.50540000 -8.47890000
-39.28760000 18.75270000 -8.69190000
-41.24770000 19.09630000 -11.73580000
-36.81130000 20.88900000 -14.64270000
-33.54280000 24.16700000 -41.54100000
-30.86100000 24.96640000 -42.09200000
-31.64720000 25.05730000 -40.09100000
-63.00720000 -2.52010000 -2.60360000
-62.53810000 0.55360000 -8.72630000
-62.46730000 2.94930000 -5.28060000
-61.10350000 -0.75860000 -16.29110000
-61.80450000 1.95600000 -13.16240000
-51.82470000 -34.28400000 -13.64310000
-51.69460000 -32.01120000 -18.86590000
-53.00900000 -31.67720000 -14.87720000
-28.45450000 -57.80160000 -1.76160000
-34.44100000 -53.87800000 -4.49470000
-33.38440000 -54.86460000 0.50900000
6.80860000 -39.15170000 -49.22030000
7.16670000 -36.50940000 -51.00810000
4.13660000 -40.72340000 -48.53270000
2.45230000 -48.28930000 -36.25110000
6.91950000 -48.43220000 -36.17300000
5.14350000 -47.42680000 -40.14980000
-61.34650000 1.43700000 7.35430000
1.05140000 30.23570000 -34.91390000
3.93730000 30.28920000 -32.20750000
1.69730000 30.29260000 -29.49140000
-7.82440000 31.28640000 -16.28050000
-5.26530000 32.86440000 -15.64950000
-6.51960000 36.76630000 -14.30880000
42.27580000 -23.47720000 41.14110000
44.21940000 -20.83580000 40.47620000
44.97180000 -22.81230000 38.55580000
47.39920000 -32.93330000 26.63980000
-28.53460000 -28.82290000 48.32200000
-29.67890000 -25.80320000 49.10930000
-26.05870000 -29.08030000 49.52690000
-14.55420000 -29.66770000 53.63430000
-20.62940000 -24.46480000 53.97450000
-15.50170000 -26.66240000 54.75090000
-19.57290000 -32.33880000 50.66530000
-22.25530000 -27.37060000 52.11190000
-17.89560000 -29.99950000 52.40760000
-43.25650000 -11.83180000 42.09110000
-40.37560000 -12.30850000 44.43230000
13.38010000 16.72880000 34.34960000
9.60080000 17.51510000 37.01640000
14.09320000 22.31090000 35.69820000
31.09330000 -46.52450000 31.84620000
35.18800000 -45.78740000 28.33640000
31.36840000 -48.40120000 28.74410000
40.00430000 -49.64590000 2.90970000
40.05100000 -49.60240000 -0.78710000
37.00750000 -52.22050000 3.80560000
48.61090000 -8.03980000 -39.77630000
49.89240000 -3.63970000 -39.04010000
46.74600000 -6.48840000 -42.25730000
-50.65000000 -39.16590000 7.92750000
-52.17280000 -37.66380000 3.54730000
-52.56670000 -36.45820000 8.85600000
-52.01570000 -28.03670000 -24.04360000
-52.18430000 -24.53100000 -27.45860000
-54.27040000 -24.13870000 -23.52970000
-15.11260000 51.10900000 -8.09120000
-12.60350000 50.99460000 -9.42730000
-11.97860000 53.85940000 -8.65080000
-25.12620000 8.56130000 32.23440000
-29.15900000 9.85690000 27.96580000
-24.71000000 12.40170000 29.78000000
-8.28180000 6.66060000 40.30140000
-10.06940000 8.18480000 38.95300000
-6.97620000 10.94830000 38.48710000
51.84440000 -25.98560000 -25.73940000
53.15540000 -23.90880000 -25.21760000
49.38340000 -23.72880000 -31.65210000
-44.01470000 -36.31400000 29.43240000
-45.56990000 -36.65110000 26.73720000
-46.77680000 -34.52520000 27.24030000
-50.97420000 -27.16330000 27.07000000
-51.19140000 -30.22620000 23.86260000
-53.15960000 -25.80670000 23.88530000
56.51700000 -23.71190000 16.87270000
57.44100000 -25.39030000 10.99790000
55.93810000 -25.62640000 16.21090000
53.94050000 -33.77390000 3.77370000
57.25290000 -28.30800000 1.18280000
54.46520000 -33.20530000 0.28560000
20.36940000 -10.22820000 -59.49830000
23.38220000 -12.03480000 -57.97180000
22.15590000 -7.25270000 -59.24970000
14.61250000 -17.24780000 -59.52360000
13.06800000 -12.71570000 -61.10550000
10.35890000 -15.35470000 -60.99810000
-54.22890000 -31.60490000 -10.06210000
-55.97710000 -26.43660000 -14.46240000
-56.07860000 -28.42880000 -8.90090000
-57.22530000 -28.51300000 4.91540000
-57.23260000 -28.88550000 0.37940000
-58.02130000 -27.05290000 1.56760000
-7.59870000 -18.43710000 -60.35200000
-5.59610000 -14.43190000 -61.95120000
-12.47510000 -14.43710000 -60.84690000
5.64970000 -12.42580000 -62.34730000
8.46910000 -5.90890000 -63.07220000
6.62020000 -8.55140000 -63.00230000
-19.48210000 9.12030000 35.00480000
-18.70470000 11.15830000 34.26600000
-13.96730000 10.90650000 36.51880000
-12.18160000 20.60670000 39.62790000
-15.91310000 20.47790000 37.93110000
-14.05790000 24.42370000 40.54670000
-30.22540000 -38.60590000 -40.31220000
-28.63710000 -40.48920000 -39.77550000
-28.59620000 -36.53850000 -43.12940000
-28.88040000 -19.74730000 -53.52050000
-24.71550000 -18.50400000 -56.01980000
-23.55930000 -16.08170000 -57.24640000
-44.52580000 13.69860000 -42.69830000
-41.43510000 14.13690000 -45.56790000
-41.96640000 16.16490000 -44.29530000
42.61830000 -29.62080000 -35.70160000
43.36980000 -24.82100000 -38.46610000
39.63090000 -30.59800000 -38.26770000
41.35600000 -15.15140000 -45.42760000
45.32690000 -11.58160000 -42.65190000
42.40290000 -12.38600000 -45.35270000
4.83500000 24.92900000 -56.52660000
7.78400000 22.46850000 -58.20940000
9.73730000 25.59570000 -55.02210000
23.67770000 21.58800000 -54.13360000
18.25580000 21.64040000 -56.26600000
34.46860000 -47.98640000 -23.32640000
33.22420000 -47.92380000 -25.49430000
32.64540000 -50.66540000 -21.51650000
13.59850000 -49.39060000 -34.94040000
11.14030000 -49.33270000 -33.84040000
14.49800000 -51.14270000 -29.39410000
9.35600000 1.96490000 44.42330000
8.90740000 5.34280000 41.42800000
12.27830000 2.28070000 43.62780000
-3.85420000 -34.24320000 -52.74980000
-4.42100000 -31.45960000 -54.36690000
-6.83580000 -30.38370000 -54.74330000
-2.74480000 -17.89280000 -60.96650000
1.07380000 -54.71140000 34.35270000
0.12570000 -53.85710000 35.61780000
7.59680000 -53.12350000 35.95710000
12.70280000 -48.70490000 40.28620000
11.21250000 -45.81860000 43.85420000
57.37210000 5.99180000 5.43430000
55.32470000 5.90930000 9.18770000
55.12990000 7.76580000 5.47190000
-34.88720000 -41.48280000 34.45250000
-35.86140000 -37.93950000 37.06260000
-32.72180000 -43.14540000 34.58320000
-45.87630000 17.08970000 -39.28290000
-48.60300000 16.75840000 -35.73980000
-46.09770000 14.91750000 -40.46430000
6.59730000 13.14570000 37.28120000
3.90090000 13.93700000 38.12740000
5.67200000 15.22240000 38.01360000
-41.85410000 -21.13850000 42.15720000
-21.43380000 -59.94170000 -12.63400000
-22.89080000 -57.79660000 -17.92810000
-25.88800000 -57.32910000 -18.52680000
-1.89460000 -55.78340000 32.51430000
-7.86710000 -53.85520000 34.61860000
-12.94120000 -57.86620000 24.49560000
-10.94390000 -59.06450000 23.02150000
43.47810000 -45.16540000 12.02950000
41.60160000 -47.34730000 10.56450000
41.52230000 -46.62530000 13.85480000
27.60010000 4.15920000 -57.16720000
30.04990000 6.76150000 -55.69010000
27.60210000 -11.44280000 -56.08630000
31.35390000 -10.14060000 -54.29520000
25.75130000 -7.08200000 -57.72370000
5.74290000 28.15010000 -50.27100000
7.23840000 28.51670000 -48.23820000
2.82540000 28.88250000 -47.86980000
-24.54780000 -52.29240000 27.80890000
-27.41700000 -50.09870000 29.23150000
20.94460000 -44.68180000 41.27110000
23.60940000 -47.29680000 36.64440000
22.99930000 -50.51000000 32.65050000
21.99310000 -35.48140000 48.15700000
18.95040000 -37.08020000 48.22270000
22.28450000 -30.65060000 50.97410000
-0.01610000 15.64260000 39.44130000
1.82550000 20.48220000 40.59590000
3.76040000 19.79390000 40.05580000
-4.78690000 20.03470000 40.91910000
-2.28290000 17.76820000 40.21580000
-5.71080000 16.61190000 39.69560000
-39.18840000 -49.40060000 13.36690000
-42.65530000 -47.21370000 9.64660000
-43.63820000 -46.13710000 10.91570000
-24.17590000 -58.71160000 12.03990000
-29.93230000 -56.47390000 8.16790000
-30.45930000 -56.00390000 9.39920000
17.83490000 -63.14830000 -0.78670000
20.85250000 -61.63000000 3.31970000
23.13940000 -61.08570000 -0.84780000
-58.96780000 11.12960000 -10.72730000
-55.28090000 14.34020000 -13.80610000
-56.00380000 12.83260000 -8.99070000
53.72060000 10.95850000 -0.39660000
51.26600000 10.91860000 3.68060000
48.72910000 12.94880000 2.14400000
54.28840000 13.83830000 -12.85170000
56.20180000 12.66330000 -15.38630000
55.79030000 12.28280000 -10.43280000
-3.57870000 -61.68060000 -6.46170000
-3.49330000 -59.70200000 -9.76560000
25.26410000 -28.35020000 -50.32500000
28.53140000 -27.64720000 -49.06430000
27.21380000 -25.17550000 -51.18450000
11.15070000 -23.11840000 -58.15740000
17.34710000 -22.16220000 -57.00280000
14.72850000 -20.64370000 -58.32380000
-59.31690000 -18.04910000 12.60040000
-60.44930000 -17.99660000 5.53630000
-60.37150000 -16.73760000 8.45060000
-19.45080000 -40.84020000 45.21220000
-24.55460000 -38.81160000 44.45190000
-22.88910000 -37.60200000 46.15180000
-7.30970000 -42.99710000 47.00280000
-10.93060000 -43.29910000 45.99480000
-10.38850000 -39.61370000 49.03110000
47.29990000 -41.02930000 -8.86440000
49.70540000 -38.57680000 -8.04830000
49.25660000 -37.82480000 -12.76950000
52.37260000 -33.92620000 -12.49310000
55.53120000 -30.39950000 -8.16270000
55.48970000 -29.09440000 -12.06710000
37.71950000 -4.60470000 -50.76660000
37.58840000 -1.53320000 -51.11650000
34.06060000 -1.67730000 -53.55640000
45.64080000 -36.30040000 -24.47510000
49.21310000 -36.00860000 -17.61010000
48.50790000 -32.71200000 -24.26140000
41.25140000 -31.81450000 -35.37700000
-30.00210000 19.56240000 18.42990000
21.01340000 22.97410000 -54.12660000
-57.87380000 -26.07410000 7.30200000
-58.87800000 -24.12300000 4.53300000
-58.19920000 -23.40310000 10.71260000
-53.15920000 -34.15140000 12.88570000
-54.69950000 -31.76360000 11.72210000
-55.88560000 -28.19040000 13.29030000
-31.00980000 20.29000000 11.76900000
-30.36560000 22.32670000 10.68000000
-30.68200000 20.47480000 13.81730000
-29.01240000 24.36080000 3.90280000
4.69810000 31.76320000 -16.72620000
-0.21430000 30.67260000 -21.34220000
4.90340000 30.78500000 -20.66710000
-34.88380000 -13.39350000 48.39970000
-35.53530000 -10.63990000 46.35220000
-31.00950000 -11.40370000 49.10140000
-38.68320000 -10.52660000 44.43120000
-42.70710000 -9.22390000 40.84100000
-39.27540000 -6.85470000 41.20570000
56.41700000 -20.34010000 20.98980000
55.53390000 -16.28100000 25.78630000
57.01230000 -15.66410000 22.92200000
45.02910000 -26.07060000 36.27320000
46.77780000 -23.64110000 35.66110000
48.43840000 -25.05410000 32.41340000
14.67810000 45.53480000 -6.52750000
11.35930000 53.10890000 -5.53670000
9.26660000 49.29220000 -8.43430000
-13.56670000 8.32980000 37.84960000
-25.38170000 5.36290000 35.08700000
-21.32050000 2.39570000 40.08670000
-25.68020000 2.68380000 38.02690000
17.61090000 -36.89750000 48.94570000
17.58630000 -33.28440000 51.23930000
7.38690000 -29.78180000 55.21510000
16.04410000 -28.32910000 54.24510000
13.85160000 -31.69780000 53.09900000
12.98600000 -27.95840000 55.16240000
36.65200000 -50.74210000 -12.75280000
34.93990000 -51.24250000 -15.97640000
33.09940000 -53.72510000 -13.50660000
55.40010000 -31.12140000 5.13040000
48.20290000 -40.05510000 11.12610000
46.84780000 -40.51000000 14.87570000
49.91840000 -36.92670000 13.91170000
-6.82550000 -46.49210000 43.89990000
-10.33670000 -45.61680000 44.08310000
5.42660000 -51.11420000 39.00350000
2.56310000 -50.76220000 39.69320000
7.02950000 -48.40700000 42.06470000
-18.20600000 21.44870000 36.95100000
-19.97820000 28.16960000 38.64030000
-16.96540000 24.65630000 39.14120000
-21.53150000 27.77670000 -9.21200000
-21.73760000 26.93740000 -11.37710000
-18.21120000 28.58510000 -12.38080000
-29.70140000 22.66800000 1.24050000
-27.58530000 25.26340000 -0.21760000
54.77760000 -2.48570000 -32.12930000
56.84680000 1.09550000 -28.45100000
54.84280000 1.15420000 -32.14990000
57.99910000 -14.64120000 -21.86480000
58.58160000 -11.44890000 -22.03010000
-19.55100000 -31.60660000 -51.25230000
25.71040000 -41.78600000 41.40140000
22.01780000 -42.06690000 43.19150000
24.38250000 -40.55060000 43.22720000
58.98270000 -7.85890000 -22.57390000
59.33150000 -3.37840000 -22.63690000
58.09190000 -7.61210000 -24.84340000
61.64940000 -5.37760000 -14.59460000
62.57530000 -2.52290000 -9.61950000
62.37380000 -0.32350000 -10.48860000
-19.94370000 -19.28420000 -57.48210000
-16.41170000 -17.67010000 -58.98290000
-21.99280000 -9.77050000 -59.47600000
-19.38140000 -7.78510000 -60.70920000
25.72120000 33.48020000 7.21030000
24.90170000 33.08730000 3.20680000
-47.22850000 -4.75540000 33.61180000
-52.12270000 -5.30170000 29.81990000
-50.88820000 -3.37380000 29.01560000
-50.85480000 2.43140000 21.45580000
62.95490000 -6.15530000 1.48680000
62.90570000 -8.57620000 -1.81870000
62.66250000 -9.74490000 2.42400000
62.71330000 -7.72200000 -7.02450000
62.85860000 -4.27860000 -6.99390000
62.51180000 -6.41280000 -9.56130000
-27.66960000 21.11610000 -52.18990000
-29.52770000 22.19430000 -50.14010000
-33.32220000 20.15060000 -49.20200000
-37.63080000 13.67360000 -48.95120000
-32.51040000 13.58850000 -52.58560000
-19.03310000 -61.02570000 -10.03200000
-15.63370000 -61.50460000 -8.25770000
-18.61530000 -59.58060000 -12.78240000
-17.54290000 -63.02430000 -0.99770000
-12.48220000 -64.32400000 -1.73310000
-16.93920000 -63.36720000 -3.39410000
-18.78020000 27.64940000 -18.30750000
-17.25320000 28.14480000 -22.16100000
-13.83550000 28.93560000 -22.16630000
-16.25660000 28.62590000 -37.73900000
-13.48630000 29.04350000 -35.57100000
-17.53880000 28.43650000 -36.03170000
57.25140000 -15.01100000 -23.46300000
59.00180000 -18.46290000 -15.92270000
-31.11760000 3.14950000 -55.41860000
-27.83970000 7.42750000 -56.55250000
-29.21280000 8.47540000 -55.59260000
-38.79130000 9.14830000 -49.00210000
-34.82410000 6.69110000 -52.46340000
-35.41860000 12.17890000 -50.94850000
-3.57380000 19.18020000 -60.44180000
-2.69170000 15.76060000 -61.78210000
2.99800000 18.67140000 -60.68190000
-0.65790000 -27.68630000 -56.87680000
3.28150000 -29.53120000 -55.78220000
5.39130000 -26.21230000 -57.52300000
12.11260000 -26.95530000 -56.07510000
6.96130000 -28.22200000 -56.31940000
9.77210000 -28.93580000 -55.37020000
-10.24560000 29.12140000 -43.60230000
-5.83750000 29.42290000 -43.87730000
50.10980000 13.61520000 -2.01910000
52.15390000 13.28450000 -4.63980000
-7.03650000 -11.25560000 54.95530000
-8.97210000 -8.49980000 52.92640000
-4.05150000 -8.87040000 53.63740000
-19.81880000 -15.21330000 54.97190000
-21.79790000 -12.72040000 53.25330000
-18.58730000 -11.35680000 53.25110000
-48.47190000 -26.54960000 -32.34930000
-44.57160000 -25.50020000 -38.01750000
-47.70960000 -24.21010000 -35.05420000
-52.21360000 -17.56330000 -32.57640000
-49.70020000 -17.28980000 -36.34320000
-53.20310000 -21.64520000 26.85580000
-50.91780000 -20.69230000 31.57580000
-49.61930000 -22.73150000 32.15810000
-37.36970000 23.56790000 -34.78630000
-36.27480000 23.75920000 -37.80680000
-31.66040000 25.32020000 -33.23370000
45.52220000 -32.94720000 29.77990000
43.41240000 -35.67460000 30.04540000
41.59140000 -34.83350000 33.27280000
40.12550000 -31.66290000 37.88640000
37.59740000 -35.56320000 37.32200000
34.10930000 -33.04960000 42.32680000
-45.72590000 -37.14980000 -24.71130000
-43.76730000 -37.93110000 -26.99450000
-45.31640000 -34.94840000 -28.53960000
-53.42800000 -28.05270000 -20.33290000
19.13670000 -44.09530000 -41.41830000
16.37360000 -42.58090000 -43.72770000
15.93970000 -44.63490000 -42.31150000
5.58050000 -46.69610000 -42.86890000
6.91050000 -45.39520000 -44.50270000
4.09890000 -45.87720000 -44.60890000
-41.36120000 20.57730000 -40.88270000
-43.10390000 20.86590000 -36.75890000
-47.55960000 17.99190000 -35.81290000
-39.27810000 22.82290000 -35.31130000
-19.11260000 -33.96430000 -49.84250000
-23.13740000 -31.80690000 -49.76870000
16.46780000 -58.97300000 20.80720000
20.09080000 -57.40750000 21.97580000
20.85980000 -58.01260000 19.85980000
-22.53660000 -41.22290000 43.52460000
-20.36490000 -42.42960000 43.49090000
-17.91460000 -46.25540000 40.85200000
-15.28480000 -46.67920000 41.48040000
-17.40230000 -48.13290000 38.91810000
-61.86310000 3.65630000 0.93610000
-62.62990000 2.80760000 -1.92110000
-60.46140000 6.00240000 0.52130000
-55.17840000 15.09890000 -20.31350000
-57.60260000 13.09700000 -16.53370000
-59.44040000 10.83490000 -18.06600000
-2.89330000 -25.87060000 57.12000000
-6.28990000 -25.51720000 56.87650000
-3.43920000 -24.18170000 57.68820000
-11.96640000 -34.63760000 51.74230000
-10.79020000 -30.70700000 54.03720000
-8.22360000 -34.29690000 52.60980000
-43.94610000 -43.51660000 18.85620000
-41.49710000 -46.63730000 16.66790000
-48.93420000 -38.54660000 17.28360000
-51.35650000 -36.51430000 14.20690000
-51.52590000 -35.50500000 15.83850000
29.38460000 -55.13040000 16.88220000
26.87810000 -55.72150000 19.16660000
28.62200000 -53.11130000 23.12220000
28.24130000 -57.25120000 11.06400000
21.72560000 -60.11280000 11.29790000
25.99710000 -58.08890000 12.27040000
-49.82240000 -36.65600000 18.49510000
-46.97360000 -39.57690000 20.14000000
-45.42350000 -39.29500000 23.55860000
-49.06540000 -35.88340000 21.45830000
-47.27950000 -36.15640000 24.57290000
-45.07080000 12.18350000 7.14410000
-46.78390000 9.26940000 12.38040000
-47.87110000 10.43890000 8.46460000
6.57430000 -37.01300000 51.32790000
7.27920000 -42.84790000 47.35040000
2.56560000 -38.71790000 50.61970000
-48.82730000 -37.07690000 -17.45370000
-50.45670000 -35.74980000 -15.12920000
-53.46110000 -35.48990000 6.80180000
60.93760000 -5.46910000 13.74180000
61.79070000 -4.99460000 10.32990000
18.51630000 -11.15320000 52.69310000
13.53370000 -9.82770000 53.03960000
18.12480000 -7.02950000 50.07880000
-34.08000000 -50.14920000 -20.71420000
-34.64580000 -47.10050000 -25.82840000
-36.35940000 -47.21450000 -22.77030000
54.06380000 -23.14880000 23.92420000
52.58710000 -25.39690000 24.95020000
52.35200000 -23.82590000 26.70260000
48.73860000 -40.18620000 -5.49590000
-12.67920000 31.68760000 -13.50270000
-13.76830000 29.52040000 -16.51880000
-11.85530000 29.71270000 -18.76660000
44.28950000 12.04680000 10.12990000
39.81100000 12.67660000 13.58550000
43.17680000 14.06380000 7.02170000
37.58660000 -47.43380000 21.82260000
39.32800000 -47.42900000 17.88000000
37.19090000 -49.11650000 18.42410000
42.86960000 -42.42980000 21.21410000
42.57140000 -41.22030000 23.91820000
43.91940000 -39.15660000 24.71060000
-0.75540000 -13.29780000 -62.36280000
-1.37580000 -14.81860000 -62.03700000
3.97860000 -14.28060000 -62.00240000
43.61480000 2.90600000 -46.19960000
46.17960000 4.60480000 -43.61340000
41.36310000 4.46470000 -48.17370000
7.84620000 -58.84700000 25.51840000
1.68830000 -58.84700000 26.36560000
8.15910000 -56.96940000 29.11250000
-2.63980000 -58.03880000 28.19390000
-8.38320000 -57.27590000 28.65340000
2.57780000 -65.24110000 0.26410000
8.66690000 -65.08730000 0.20710000
10.68390000 -64.45530000 -1.68400000
-4.97700000 -64.43020000 7.76710000
22.80810000 -55.60130000 -22.08030000
23.55160000 -58.04500000 -16.57770000
26.60410000 -57.26690000 -17.58590000
24.21280000 -54.34900000 -24.72570000
-29.14810000 -52.97550000 21.80280000
-34.67920000 -49.18450000 22.90640000
-32.12710000 -49.45270000 25.62330000
-34.64470000 -52.92500000 11.80230000
-35.88050000 -52.67020000 8.96810000
-37.04340000 -51.19160000 12.39870000
-24.73150000 -57.39070000 15.86950000
-21.13100000 -59.93190000 12.34490000
-31.23690000 22.28240000 -8.43220000
-30.00190000 23.12580000 -12.39800000
-28.41130000 23.71560000 -10.18350000
-25.14440000 26.35260000 -4.86990000
-28.02010000 24.17220000 -1.12730000
-25.02270000 25.76360000 -7.09820000
23.72590000 -37.87560000 -44.49780000
26.08660000 -34.98400000 -45.50750000
24.00060000 -32.57690000 -48.19830000
28.00690000 -44.44180000 -35.28950000
30.14100000 -41.98440000 -36.25790000
23.71910000 -41.91470000 -40.98940000
-29.67160000 20.95360000 20.41830000
-30.37390000 28.74650000 21.86820000
-30.72620000 26.94280000 17.42490000
-31.20600000 29.99870000 17.53530000
-11.97490000 10.08710000 -61.74760000
-13.69990000 12.54820000 -60.80950000
-16.39190000 12.19520000 -60.16150000
2.75610000 32.70530000 -15.98730000
6.79530000 35.93790000 -14.00250000
2.02430000 34.96040000 -15.28770000
-5.33990000 26.71810000 44.28360000
-7.15240000 29.48310000 44.87170000
-1.43850000 26.16110000 43.99780000
-29.98410000 -56.51540000 -7.63920000
-34.28480000 -53.30800000 -9.46830000
-41.65330000 -46.93420000 -11.02470000
-42.31030000 -47.32010000 -6.25680000
-39.31760000 -49.91590000 -6.96840000
-34.77800000 -53.95470000 2.17620000
-36.67310000 -52.64220000 -0.03700000
-37.30990000 -52.03900000 5.43870000
62.55480000 -8.36480000 5.32100000
62.73310000 -3.31260000 4.00250000
62.99900000 -3.45440000 0.87720000
61.72070000 -9.42730000 10.50940000
62.21060000 -6.47620000 8.23130000
-21.59210000 21.40110000 -55.10500000
-17.06510000 25.27850000 -53.45960000
-15.49830000 21.43700000 -57.20730000
-12.54050000 21.03410000 -58.23890000
27.25790000 17.21030000 -54.86420000
30.69850000 16.85660000 -53.14150000
28.69170000 18.45560000 -53.48770000
36.75010000 17.87330000 -48.37390000
32.58730000 18.79220000 -50.94730000
-34.25020000 -8.35460000 45.43260000
-32.44130000 -9.69440000 47.35220000
26.35920000 -6.71350000 46.97230000
20.72820000 -6.63530000 49.02700000
-61.18730000 4.74530000 -16.55920000
-61.47210000 7.97430000 -13.63740000
-61.76520000 4.59040000 -11.56150000
-58.98340000 4.56340000 -23.72020000
-59.42690000 0.80620000 -22.37920000
-58.68890000 -0.20440000 -24.40010000
25.54480000 -48.63820000 -32.45140000
29.09990000 -46.23280000 -32.52950000
24.75480000 -46.85660000 -35.07280000
-13.48830000 -50.07230000 -34.46990000
-11.82500000 -48.31810000 -39.93790000
-15.10750000 -47.66580000 -40.96380000
-21.57610000 -53.14340000 -28.84440000
-20.65560000 -51.96980000 -31.63670000
-23.35970000 -52.76520000 -29.78510000
-45.55200000 -44.53360000 -5.31870000
-45.40200000 -43.93340000 -9.05640000
-47.95820000 -41.51980000 -8.04700000
50.47760000 -23.27500000 30.54680000
50.19490000 -20.33540000 33.01410000
6.44750000 -2.64900000 48.66980000
6.84420000 -7.91570000 52.69710000
3.39660000 -6.51460000 51.94410000
1.76420000 -12.63150000 55.99040000
12.59520000 -11.70440000 54.32560000
15.35190000 -15.14470000 55.41280000
9.58440000 -13.36290000 55.64970000
34.01650000 20.37930000 -48.68220000
28.20290000 20.75520000 -52.42900000
28.22600000 23.51840000 -49.40240000
30.89520000 23.52460000 -47.02350000
28.44720000 24.86900000 -45.96810000
25.05150000 18.33950000 19.11580000
27.89830000 20.02190000 12.02200000
27.72420000 17.36800000 17.08030000
-3.80230000 28.15850000 -50.96310000
-3.42220000 26.75410000 -54.39720000
2.36860000 27.55900000 -52.70570000
-35.44830000 -23.66450000 -47.86150000
-33.70470000 -27.96760000 -46.41200000
-31.62820000 -26.68830000 -48.64740000
37.26770000 -29.50810000 -41.28050000
33.87910000 -25.81040000 -46.61140000
33.19780000 -30.08020000 -44.49600000
5.39220000 15.57470000 -61.64780000
6.31720000 18.21870000 -60.64890000
0.93930000 14.54870000 -62.12570000
19.03050000 26.92410000 32.68550000
18.07550000 21.72110000 31.88440000
16.28350000 21.63130000 33.72940000
-29.17240000 30.27420000 26.76310000
-30.74360000 31.73830000 22.65350000
-30.98220000 35.24630000 25.65260000
37.63060000 -43.28240000 28.73000000
40.53800000 -39.17080000 30.15590000
41.14650000 -40.31220000 27.86050000
40.02110000 -37.34080000 32.90050000
-22.96710000 24.59050000 -51.43080000
-23.55730000 22.09020000 -53.71450000
-49.11510000 14.11140000 -2.49330000
-45.18130000 14.76070000 -0.48850000
-48.81070000 11.70770000 4.37650000
-41.54890000 19.37760000 -42.36750000
30.01080000 19.52480000 10.10280000
30.19840000 22.01600000 3.52940000
33.47260000 19.03430000 6.71050000
6.96720000 3.42560000 43.39340000
-26.98000000 30.46710000 -0.70480000
-27.25410000 34.30930000 -0.05370000
-28.46780000 36.53200000 2.32610000
25.87940000 38.29400000 11.15790000
26.14840000 42.14680000 15.51770000
-59.75450000 -13.66310000 15.42340000
-58.41310000 -15.11280000 18.95710000
-54.51070000 -29.49140000 16.30740000
-56.49250000 -25.05800000 15.66510000
-53.99170000 -28.27050000 19.45310000
34.48920000 -27.93850000 45.45430000
30.92000000 -33.25240000 44.62220000
-9.62050000 22.74820000 41.34220000
18.72620000 -52.76240000 -26.85510000
18.59100000 -53.64490000 -24.48520000
21.39560000 -55.02510000 -23.00860000
-29.41950000 23.58340000 22.63820000
-30.51670000 25.06820000 17.57080000
-29.85880000 26.63180000 21.82890000
11.61710000 -63.19490000 -4.84480000
15.82810000 -60.10990000 -10.50140000
12.19110000 -59.16450000 -11.35310000
14.91160000 -59.41960000 -11.59050000
13.30300000 -57.69590000 -14.33320000
40.17600000 22.43890000 -33.69270000
46.63420000 19.27240000 -19.54360000
50.72620000 16.90480000 -18.55330000
49.91670000 16.98230000 -15.49210000
26.70920000 -58.61850000 8.05530000
29.67050000 -57.23910000 6.51710000
24.85450000 -59.70260000 6.66050000
18.97750000 -23.47970000 -55.85880000
23.45750000 -21.40280000 -55.08300000
20.39040000 -20.06020000 -56.88590000
21.56460000 -15.71820000 -57.76700000
24.53320000 -18.29210000 -55.72900000
18.16260000 -14.67170000 -59.26770000
17.99760000 -10.16310000 -60.35700000
46.85670000 19.15330000 -31.15260000
48.39190000 17.45390000 -33.79840000
49.81610000 17.56570000 -27.46680000
24.20320000 40.34260000 4.37230000
25.00280000 46.22620000 8.84550000
-31.63400000 -29.57720000 46.08770000
-29.92200000 -36.78720000 42.70240000
-14.38080000 30.82610000 -12.94390000
-13.53060000 34.26480000 -12.53940000
12.36230000 19.44790000 -59.17540000
12.09120000 16.68170000 -60.32150000
7.81190000 14.00120000 -61.80760000
60.50280000 -5.72770000 -18.88980000
60.06910000 -1.97410000 -20.48640000
60.95010000 2.34800000 -16.75330000
-9.80940000 -8.67220000 -62.65110000
-4.84550000 -8.23220000 -63.26330000
-7.14860000 -6.20750000 -63.34820000
30.59250000 -3.48550000 -55.50700000
31.56100000 1.85370000 -55.10250000
25.89910000 -1.77150000 -58.08910000
24.88330000 -22.96630000 53.42260000
26.93800000 -24.95450000 51.77990000
46.76060000 17.34800000 -9.04940000
42.92620000 19.08610000 -8.14530000
45.47020000 18.59250000 -11.77830000
47.08480000 18.50560000 -15.78530000
43.73760000 19.88110000 -14.14710000
42.86360000 20.75950000 -17.04050000
-17.18340000 -56.78860000 24.54570000
-19.82260000 -54.97490000 26.47730000
-17.43180000 -53.83190000 30.44690000
-7.41560000 -55.09550000 32.78440000
-15.99780000 -51.27600000 35.43330000
-18.39450000 -51.54540000 33.79850000
-19.83510000 -49.67460000 35.56930000
-47.69640000 0.48190000 -41.39540000
-46.28580000 4.42040000 -42.66400000
-53.82960000 8.94010000 -32.09710000
-50.84300000 11.41800000 -35.81050000
-51.15740000 13.27010000 -34.37840000
-39.03850000 -34.35410000 37.10610000
-36.70380000 -33.26990000 40.06070000
-35.12470000 -35.12890000 40.05040000
-21.35570000 22.82980000 34.99990000
-24.79060000 18.71820000 29.75100000
-26.02640000 22.03730000 29.09830000
-38.78300000 -40.24200000 31.73320000
-32.61340000 -48.12000000 27.47310000
-61.70750000 -3.04080000 11.13040000
-62.72330000 -1.54450000 5.40360000
-60.89340000 -0.33070000 11.19510000
-11.83490000 48.52830000 -10.28640000
-13.91980000 48.66440000 -9.41880000
-11.90920000 43.78410000 -10.98160000
-39.56000000 -18.57550000 45.10290000
-21.08470000 -27.38750000 -53.44660000
-22.99190000 -27.71860000 -52.49720000
-28.83300000 -34.82200000 -44.40190000
-33.73670000 -35.63860000 -40.26570000
-20.11800000 -49.17220000 -37.63410000
-16.42370000 -49.37370000 -37.63900000
0.67750000 -40.75010000 -48.83660000
1.61580000 -35.45830000 -52.31070000
-1.86590000 -36.68000000 -51.47300000
-22.90520000 32.59590000 37.84170000
-33.07590000 14.80970000 17.82690000
-31.47160000 20.51330000 6.93350000
-33.84040000 18.23500000 7.41820000
60.98450000 -9.96720000 13.64210000
61.36270000 -12.32780000 10.56610000
59.94230000 -13.83880000 15.50960000
44.73120000 -19.91730000 -39.96910000
46.58540000 -16.45890000 -39.51390000
42.73120000 -17.78950000 -43.09620000
52.84110000 -20.04270000 -28.88460000
47.28610000 -19.41940000 -37.25810000
50.29160000 -21.93290000 -31.66860000
52.09440000 -14.80100000 -32.96370000
52.86290000 -11.45080000 -32.92670000
50.83250000 -11.96970000 -35.79660000
-1.08190000 20.32260000 40.97950000
-58.44290000 -25.81030000 -2.33280000
9.54240000 -63.98480000 7.27060000
8.23630000 -64.66440000 4.19950000
3.91840000 -64.48550000 7.50890000
31.34300000 -52.26210000 -20.59730000
26.63270000 -54.11030000 -24.26250000
27.54070000 -55.26600000 -20.93780000
30.19910000 -54.38760000 -18.04590000
29.99220000 -56.77990000 -10.95810000
32.04780000 -53.89980000 -15.53710000
12.28690000 29.66020000 -35.51590000
7.06450000 30.08160000 -36.47310000
9.64010000 29.78520000 -38.11180000
-34.22710000 8.62650000 25.31020000
50.61030000 -31.54380000 21.95070000
50.64730000 -28.62160000 25.46830000
53.20340000 -28.83260000 19.49400000
11.21490000 -20.21430000 -59.28190000
-14.92930000 -21.52710000 56.48260000
42.08590000 -34.24730000 -31.99610000
44.88340000 -31.58940000 -31.07140000
49.36150000 -28.74770000 -27.30170000
50.44180000 -31.33520000 -22.22950000
50.87900000 -28.42610000 -24.88270000
39.13270000 18.80160000 -45.52600000
33.05110000 21.81970000 -47.88370000
51.11300000 -0.24430000 -37.80560000
53.12970000 -4.85660000 -34.31320000
-39.63030000 13.01040000 11.64300000
-37.56670000 15.30770000 8.58540000
-36.40100000 14.21450000 13.88320000
-31.45750000 18.00460000 15.35350000
-34.67010000 15.36400000 14.48110000
51.07410000 5.47120000 -37.63780000
49.28020000 2.84230000 -40.15940000
45.16680000 0.53720000 -44.63160000
47.50950000 0.26590000 -42.17010000
16.90890000 19.63090000 32.43190000
17.82260000 29.27910000 35.22160000
14.61050000 29.39800000 38.71860000
16.70590000 32.93750000 38.63410000
1.32170000 26.93410000 -54.12410000
-8.84880000 26.20360000 -54.61610000
18.32570000 -6.42270000 -60.70510000
18.71070000 -2.92670000 -60.79930000
11.76780000 -9.91990000 -61.95730000
15.08050000 -6.32810000 -61.63120000
-58.44680000 10.46910000 -6.43330000
-10.63100000 -11.41920000 54.69280000
-15.51570000 -11.32560000 53.87160000
-13.62120000 -9.42130000 52.96400000
-54.51300000 -33.23780000 -4.87470000
-56.50540000 -29.35270000 -4.34150000
-55.82110000 -31.44380000 -2.19260000
-53.40480000 -35.54620000 -2.95390000
-51.74590000 -37.59170000 -4.63890000
-53.02530000 -35.72630000 -4.63060000
58.34080000 -26.16940000 -0.96600000
56.62860000 -29.60710000 -2.20440000
60.16110000 -21.62100000 1.46730000
59.00760000 -23.98010000 4.82080000
-46.90460000 -43.81190000 2.83720000
-48.91190000 -41.72920000 2.17140000
-47.30330000 -43.27220000 -1.95090000
-48.06520000 -42.18030000 -4.21210000
-5.32060000 3.72370000 42.80590000
-9.45990000 3.18760000 42.56700000
-18.72170000 3.21310000 40.14050000
-19.50760000 6.63390000 36.68810000
52.50000000 -35.04790000 8.05540000
52.76360000 -32.43690000 14.50870000
-33.63570000 -6.72830000 44.39050000
-35.46250000 -3.99530000 40.67610000
-31.81800000 -4.58040000 43.22530000
-45.01370000 -3.32910000 33.86470000
-44.61060000 -0.51740000 31.03470000
-42.26640000 -1.41540000 33.73930000
-18.70550000 -62.63320000 -5.61090000
-22.45800000 -61.17000000 -5.34630000
-22.36710000 -60.79860000 -9.77670000
-24.86610000 -59.72940000 -8.48310000
-13.13640000 -12.88790000 55.20610000
-13.61210000 -14.96820000 56.07530000
-7.43490000 -16.10620000 57.25330000
-6.05680000 -12.94140000 56.00980000
-4.03040000 -14.49400000 56.83580000
-5.38220000 30.07060000 -24.43110000
3.30620000 30.56780000 -23.01280000
6.17280000 -63.19290000 12.78680000
7.05150000 -63.64570000 10.17730000
3.76250000 -63.92850000 10.09430000
30.02570000 25.08190000 -10.17540000
31.92950000 24.78270000 -14.45330000
-15.19600000 -25.65010000 -55.91640000
-19.13550000 -27.51870000 -53.96660000
-16.66850000 -29.60180000 -53.39460000
-20.51380000 -24.82490000 -54.96470000
-31.62450000 21.66350000 -4.41630000
-29.06580000 23.24570000 -4.67290000
-31.63980000 21.14110000 -0.66620000
1.03510000 -47.25920000 -40.42770000
3.17900000 -46.65890000 -43.28590000
-0.83480000 -46.62690000 -43.51850000
-10.71660000 -49.51000000 -34.94800000
6.60920000 -52.80250000 -22.39050000
11.11860000 -53.78890000 -21.91380000
8.38660000 -51.43350000 -27.18770000
26.80510000 -38.05230000 -42.66130000
37.70200000 -34.16730000 -36.98030000
37.60150000 -31.40410000 -39.53120000
34.62670000 -32.39620000 -41.51900000
25.36300000 26.66490000 -8.48470000
27.08380000 25.72390000 -6.85810000
26.50860000 25.43110000 -2.97660000
12.28000000 -51.94040000 -27.09490000
13.62650000 -55.08690000 -19.72330000
15.54650000 -52.69220000 -25.92500000
-34.10280000 -33.21180000 42.25580000
-14.15290000 19.27770000 -58.73630000
-7.30740000 15.75230000 -61.28240000
-5.78800000 -62.45370000 15.84040000
-5.03280000 -63.72950000 11.23000000
-7.62680000 -64.12690000 8.55730000
-9.42330000 -62.87740000 12.88960000
-12.65440000 -63.03510000 10.09310000
-15.29190000 -61.66440000 12.90490000
-10.18070000 1.47970000 -63.18320000
-18.40640000 9.77990000 -59.99950000
-11.11830000 6.33980000 -62.51600000
5.03730000 30.28500000 -28.22910000
57.80280000 -25.44390000 -10.04620000
58.07970000 -26.15420000 -5.77790000
59.39920000 -22.06260000 -9.11330000
-16.70550000 -23.59100000 55.45440000
-12.51130000 -23.83440000 56.38810000
-8.82790000 -23.36440000 57.26470000
-25.56440000 -56.11350000 -21.80680000
-29.67380000 -54.14980000 -19.58980000
-31.02900000 -49.53120000 -26.59090000
-32.08470000 -50.76730000 -22.91810000
-28.29140000 -53.98360000 -22.49000000
50.47470000 -33.71530000 -18.75290000
7.98640000 -25.81120000 -57.46830000
12.14380000 -38.48920000 49.42220000
9.94540000 -40.99320000 48.26050000
9.92450000 -37.16170000 50.76080000
10.73200000 -30.57390000 54.32320000
10.56980000 -33.90250000 52.61740000
-20.65610000 27.35820000 -44.00710000
-23.33850000 26.18820000 -46.83530000
-20.13820000 26.04450000 -50.22660000
-25.29530000 24.81680000 -49.21770000
-28.68820000 23.27060000 -49.49710000
-37.39810000 20.06310000 -11.86170000
-34.06370000 21.61750000 -13.67350000
-28.95440000 24.47610000 -21.37920000
23.01620000 5.09900000 36.90660000
25.75620000 3.74200000 37.14630000
26.22590000 34.22560000 12.05780000
26.54590000 29.97640000 11.94640000
43.76010000 -16.93990000 42.25730000
-41.29490000 12.48030000 10.82060000
-42.07840000 13.67200000 6.70390000
-39.61020000 16.11890000 1.92170000
63.02750000 -5.53030000 -3.19420000
-0.76980000 -25.17710000 -58.03090000
-2.27570000 -20.13750000 -60.17660000
-5.36190000 -21.98090000 -59.18840000
15.17110000 29.38570000 -29.22000000
17.47800000 29.02740000 -32.96420000
17.74610000 28.91340000 -34.73620000
15.71830000 29.00800000 -39.25050000
-27.27710000 -44.16810000 37.79020000
-24.61500000 -44.79600000 38.88100000
-62.02130000 -10.66880000 -2.87260000
28.56530000 22.69890000 -50.33460000
-54.61780000 -24.07720000 22.01420000
-56.76590000 -22.63200000 17.44180000
-55.70570000 3.61750000 -29.68820000
-54.37860000 1.61540000 -32.11080000
-54.65510000 6.02040000 -31.28540000
-11.60360000 -6.22730000 50.83100000
-16.71640000 -8.41330000 51.62760000
-16.26630000 -5.69830000 49.52090000
-22.81310000 -8.44430000 50.06000000
-26.93830000 -9.04240000 49.20710000
-24.81150000 -6.04110000 47.45330000
21.23490000 26.04260000 -49.30980000
19.52010000 25.66910000 -51.22390000
23.78740000 24.87010000 -50.15910000
21.30190000 16.86100000 25.16990000
18.79380000 16.96180000 28.89580000
19.23930000 19.14550000 29.17850000
-28.20380000 -55.04490000 17.70480000
-30.81020000 -54.89320000 13.50210000
-31.71340000 -53.42660000 16.56520000
-57.12850000 -6.92720000 -26.57420000
-56.22140000 -9.74930000 -28.03660000
-55.64710000 -6.44080000 -29.71250000
5.24880000 -23.73080000 57.84870000
45.60130000 19.11620000 -35.49010000
17.28890000 44.81780000 -4.40490000
15.80190000 47.48590000 -4.94090000
14.52330000 52.57700000 -4.00780000
11.90650000 -61.59320000 16.21770000
14.24580000 -59.89640000 20.04550000
16.19630000 -60.86020000 15.50340000
-8.59940000 -25.67800000 -57.19110000
-5.27290000 -26.45000000 -57.20730000
2.87300000 37.02850000 -14.56160000
-44.93560000 3.86850000 -44.19410000
-42.80830000 6.12300000 -46.00990000
-43.50990000 10.12870000 -44.68080000
-36.83220000 5.54670000 -51.16270000
-13.69570000 -11.98540000 -61.25180000
-20.54960000 -13.50080000 -59.13900000
-14.85460000 -8.89570000 -61.71690000
-53.31250000 -21.99030000 -27.54350000
-55.17460000 -20.63690000 -24.63980000
-55.03100000 -23.19600000 -22.67500000
19.23050000 34.22840000 -6.79880000
33.57320000 -50.62420000 21.57600000
29.70470000 -53.22580000 21.23210000
60.89930000 -8.31470000 -16.73580000
61.53450000 -1.40840000 -15.20230000
59.99850000 -14.34610000 -15.99570000
61.09770000 -12.83020000 -13.37670000
60.34360000 -10.86030000 -17.33000000
11.41180000 -25.29750000 56.59280000
9.85960000 -23.86620000 57.28900000
14.45210000 -23.51740000 56.50530000
12.77540000 37.51910000 -11.21620000
14.47120000 41.05930000 -8.45690000
12.25650000 42.95040000 -9.24830000
5.65530000 41.23570000 -12.79350000
52.98140000 -19.60720000 28.84450000
53.32910000 -16.15770000 30.17680000
54.06540000 -12.85590000 29.82320000
-29.72570000 -8.08730000 47.41310000
-26.95880000 -4.66670000 45.46500000
-17.02940000 15.09190000 35.22670000
-21.33180000 18.78660000 33.50420000
-19.37520000 20.05000000 35.55700000
-45.46850000 -28.20560000 -34.89160000
-47.34450000 -33.63710000 -26.73890000
-48.68890000 -32.77780000 -25.32820000
-47.58910000 -35.67300000 -23.38100000
-58.02860000 -20.23830000 15.53090000
15.15700000 -63.52180000 -3.74880000
20.60480000 -62.22130000 -6.07360000
14.52910000 -61.95140000 -7.45440000
23.82340000 -52.64290000 28.83910000
20.26290000 -52.13870000 32.07670000
32.63540000 -39.63510000 38.27940000
35.93090000 -38.30850000 36.50650000
-27.87300000 17.60740000 -53.99320000
-44.80490000 -31.80320000 -32.61230000
-47.81770000 -30.19970000 -29.99200000
-22.27040000 43.29560000 -4.79410000
-19.41690000 45.09240000 -6.97620000
-19.55770000 47.67000000 -6.56930000
-24.58010000 44.14430000 -2.70280000
-22.64940000 48.95910000 -4.18540000
-26.13870000 45.10850000 -0.83040000
-47.21730000 6.73710000 -41.22880000
-49.94510000 5.91320000 -38.02650000
13.46120000 -44.97660000 44.04950000
49.90820000 -35.56800000 17.22550000
51.50050000 -32.79280000 17.83570000
57.15540000 -27.40720000 6.58160000
55.28270000 -28.99680000 12.71680000
-49.16170000 -7.88680000 34.76800000
-15.19220000 41.34860000 -10.12830000
-17.30670000 47.83000000 -7.84110000
-17.03500000 42.70580000 -8.66670000
35.60250000 -7.58030000 -51.91170000
38.87880000 -8.38920000 -49.30960000
44.70040000 -6.01260000 -44.47360000
47.70440000 -2.47800000 -41.76070000
-44.49320000 -43.82770000 -12.74020000
-46.48640000 -41.38430000 -13.86330000
-46.94740000 -42.08630000 -10.02650000
-48.76410000 -38.90970000 -13.24490000
-50.97030000 -36.66520000 -10.96530000
26.01950000 21.31240000 14.84620000
26.79860000 21.73410000 11.25930000
24.63830000 19.48930000 19.07840000
-58.80310000 8.24360000 -0.31740000
-56.83530000 7.41000000 5.08530000
-34.69380000 -46.42400000 27.94950000
-37.01890000 -47.97170000 22.09130000
26.34330000 25.21490000 8.57380000
14.65300000 -1.76600000 46.63210000
22.01210000 -2.73420000 45.22190000
44.31680000 -44.79600000 9.52460000
36.12610000 -52.58920000 7.51640000
38.30380000 -50.97130000 6.15190000
-9.07020000 44.33200000 -11.70890000
-8.28940000 49.06170000 -11.14100000
-3.89240000 -51.27160000 38.96460000
-1.94380000 -46.97790000 43.95020000
1.28940000 -44.79430000 46.16340000
0.42710000 -47.58080000 43.39760000
-19.62050000 -21.57910000 55.18290000
-25.98870000 -23.24740000 52.17240000
-24.86780000 -17.17140000 53.93640000
-22.61290000 -19.61350000 54.63510000
8.78370000 -11.35160000 54.74140000
4.94490000 -13.43600000 56.20820000
7.49000000 -15.32740000 56.76420000
-62.94550000 -4.41050000 0.50890000
-62.70920000 -4.93180000 5.22940000
-62.33650000 -3.52330000 8.40220000
47.61420000 -23.69440000 -34.12040000
46.60290000 -21.32420000 -37.01860000
47.21160000 -26.72770000 -32.32800000
47.18670000 8.65360000 14.15130000
50.36960000 6.51710000 14.72080000
51.57960000 7.50690000 11.25380000
55.74620000 -9.49890000 -28.85530000
-28.04120000 29.64890000 1.37980000
39.58050000 21.02360000 -10.25170000
39.41720000 20.02630000 -5.44360000
38.93360000 15.09430000 9.57520000
34.57840000 15.40050000 13.36930000
35.36330000 17.14540000 8.81480000
3.64060000 -35.52620000 -52.14820000
-0.06890000 -32.31410000 -54.11270000
4.73660000 -30.78430000 -55.01460000
-3.28650000 -28.71990000 -56.13830000
-41.53180000 15.00590000 2.87850000
-41.58140000 16.14810000 -1.38770000
39.65420000 -13.90920000 -47.36370000
41.35260000 -10.55460000 -46.76870000
38.28910000 -11.27840000 -49.17290000
-30.64440000 41.12310000 6.78220000
-31.47380000 42.86260000 8.91580000
-31.15700000 36.37590000 10.01380000
24.61190000 -59.24440000 -13.58140000
-32.39300000 38.19110000 15.11870000
-31.72130000 39.65490000 10.48140000
-11.41490000 6.09640000 39.94680000
-17.83000000 -34.16720000 50.28200000
-21.75550000 -35.17970000 48.22340000
-16.02340000 -38.04480000 48.53300000
-12.09550000 -38.07560000 49.65640000
-31.05290000 -19.41600000 -52.52930000
-28.33440000 -16.06080000 -55.11460000
-32.77970000 -20.92090000 -50.85110000
-30.36760000 -24.33670000 -50.64220000
-57.56840000 -22.73880000 -14.82370000
-57.01300000 -25.26880000 -12.32470000
-56.18100000 -20.47050000 -22.25280000
-2.32880000 -53.14060000 -20.37150000
-4.92870000 -53.08510000 -21.01090000
-4.39490000 -54.53020000 -18.28860000
34.43970000 -35.45850000 -39.15060000
35.03390000 -38.45140000 -35.65160000
39.62960000 -35.66650000 -33.51820000
39.82470000 -37.16450000 -31.65920000
-11.89680000 14.27510000 37.36570000
-5.40850000 14.33200000 38.90370000
-0.33810000 11.05040000 38.83430000
-1.68070000 13.81660000 38.93710000
43.75270000 -4.36270000 -45.60320000
42.23420000 -1.14940000 -47.30870000
15.17960000 3.58940000 41.61190000
11.09840000 4.75200000 41.47740000
14.98770000 10.21420000 34.86940000
12.21730000 13.17070000 34.17840000
14.75110000 13.97540000 32.31110000
-38.92240000 -43.46350000 27.31450000
23.32810000 18.53430000 -56.08760000
-38.53420000 -38.48560000 33.93230000
-38.28040000 -36.37970000 36.16780000
56.59540000 4.03500000 -28.63680000
55.88310000 6.30230000 -29.42570000
58.07670000 -0.18980000 -25.84500000
59.65740000 1.24960000 -21.71600000
58.49410000 3.54530000 -24.32360000
13.75130000 22.39240000 -57.17470000
8.31200000 20.90020000 -59.14760000
3.41210000 23.95600000 -57.52040000
25.78630000 42.75400000 11.30220000
25.81860000 45.44630000 13.15530000
-43.65260000 -3.95770000 35.52910000
-42.59670000 -6.15190000 38.34620000
-38.80730000 -5.14640000 39.87620000
44.44040000 -44.21020000 -8.67400000
41.91950000 -45.96410000 -12.32210000
42.87390000 -46.06970000 -7.57150000
11.68570000 -32.77720000 -52.56930000
9.01880000 -34.64200000 -51.99590000
14.25520000 -35.20390000 -50.15970000
54.59190000 -32.54890000 -5.47880000
26.02090000 -54.50440000 23.17510000
27.61220000 -51.22870000 27.94820000
26.94770000 -49.60650000 31.05940000
0.17680000 21.37300000 -59.37670000
0.41660000 23.06900000 -58.24790000
-1.76300000 24.89240000 -56.81970000
9.41620000 -49.06710000 40.79010000
9.75280000 -51.85440000 37.08220000
13.82170000 -50.44330000 37.68810000
-25.34050000 -30.31000000 -49.88480000
-26.66180000 -33.11960000 -47.14090000
38.64280000 8.86740000 21.67020000
45.94360000 5.88590000 20.45010000
46.67030000 3.63010000 23.32870000
43.10110000 3.20490000 26.86220000
-32.18420000 -21.71990000 49.38850000
-21.79160000 34.51600000 -6.90710000
-23.15370000 39.73170000 -4.55360000
-22.99220000 32.23580000 -5.93440000
-28.94150000 26.11110000 -36.04780000
1.88950000 22.88080000 41.50460000
4.77020000 25.80440000 42.28640000
8.12160000 21.10880000 38.81290000
8.27790000 27.19200000 41.27480000
10.98770000 25.76290000 39.38210000
-54.92530000 15.13110000 -17.09550000
-0.65300000 29.58960000 -44.45360000
-2.02590000 28.98760000 -47.59820000
3.14820000 29.47090000 -45.01490000
3.34660000 30.18470000 -36.62880000
5.07970000 29.62820000 -43.38220000
8.77470000 29.37780000 -42.80610000
-56.05380000 -2.11410000 -29.30320000
-57.75330000 -0.64100000 -26.44490000
-58.56260000 -4.08450000 -23.74200000
-28.39920000 5.00000000 33.99470000
-28.49610000 7.90670000 30.63130000
-52.40430000 12.09470000 -0.69340000
-54.24980000 11.59710000 -1.71490000
-55.20590000 8.34980000 5.24970000
-23.58230000 -55.58160000 22.03130000
-21.46140000 -53.44760000 28.24400000
-44.10450000 5.19770000 22.95740000
-39.53410000 7.74690000 22.49010000
-30.11480000 44.72020000 5.90110000
-29.79440000 42.71120000 4.66430000
-28.23360000 46.14410000 2.81150000
-17.34500000 -61.50790000 11.28610000
-18.30110000 -60.50960000 13.79020000
-23.07710000 -60.37460000 3.48890000
-20.95630000 -61.35530000 0.81690000
-25.42950000 -59.49750000 -1.17130000
15.67930000 -47.25350000 -39.89180000
13.32840000 -46.74910000 -41.34440000
-44.07870000 2.16930000 27.82860000
-47.67100000 0.25470000 27.59540000
-45.61030000 3.17660000 25.03520000
-32.65850000 22.64720000 -17.21790000
-30.41970000 23.11970000 -14.43200000
-42.93600000 -40.00950000 -25.10410000
-45.49180000 -39.36960000 -21.15860000
-43.22560000 -42.18820000 -20.67610000
-37.69150000 -47.43900000 -19.92350000
-42.00330000 -48.34490000 2.18210000
-39.51800000 -50.20380000 6.47310000
18.92510000 28.78740000 -18.22410000
19.25420000 28.71530000 -22.67790000
-27.09500000 -47.26400000 33.94260000
-26.39700000 -46.51230000 35.54900000
-3.49460000 -42.76130000 47.71600000
61.47590000 -17.43930000 -0.74880000
62.08320000 -14.52220000 1.75940000
62.66940000 -10.99070000 -0.77770000
62.07540000 -13.64590000 -6.30210000
62.75260000 -10.18560000 -3.60640000
62.21460000 -11.12570000 -8.67530000
-21.41360000 26.90610000 -21.06060000
-28.43130000 26.03430000 -31.07750000
-23.67770000 26.76670000 -27.73710000
59.77930000 -7.25220000 17.87030000
59.33000000 -4.35980000 17.65000000
59.62940000 -3.17060000 16.00930000
58.78110000 -14.41290000 19.00790000
59.20610000 -10.59230000 19.22850000
61.34750000 -7.22280000 12.67080000
