-0.91128900 0.00000000 -3.40098000
-1.34741000 0.00000000 -3.25293700
-1.76047600 0.00000000 -3.04923500
-2.14342000 0.00000000 -2.79336000
-2.48968900 0.00000000 -2.48969000
-2.79336000 0.00000000 -2.14342100
-3.04923400 0.00000000 -1.76047700
-3.25293600 0.00000000 -1.34741100
-3.40097900 0.00000000 -0.91129000
-3.49083000 0.00000000 -0.45957700
-3.52095200 0.00000000 -0.00000100
-3.49083000 -0.00000000 0.45957600
-3.40097900 -0.00000000 0.91128900
-3.25293600 -0.00000000 1.34740900
-3.04923400 -0.00000000 1.76047600
-2.79335900 -0.00000000 2.14341900
-2.48968900 -0.00000000 2.48968900
-2.14342000 -0.00000000 2.79335800
-1.76047600 -0.00000000 3.04923300
-1.34741000 -0.00000000 3.25293500
-0.91129000 -0.00000000 3.40097800
-0.45957700 -0.00000000 3.49082900
0.00000000 -0.00000000 3.52095100
0.45957600 -0.00000000 3.49082800
0.91128900 -0.00000000 3.40097700
1.34740900 -0.00000000 3.25293400
1.76047500 -0.00000000 3.04923200
2.14341900 -0.00000000 2.79335800
2.48968700 -0.00000000 2.48968800
2.79335700 -0.00000000 2.14341900
3.04923200 -0.00000000 1.76047500
3.25293400 -0.00000000 1.34740900
3.40097600 -0.00000000 0.91128900
3.49082700 -0.00000000 0.45957600
3.52095000 0.00000000 0.00000000
3.49082700 0.00000000 -0.45957600
6.79313700 21.95422600 -1.82021300
6.49743400 21.95422600 -2.69132100
6.09055900 21.95422600 -3.51638100
5.57946900 21.95422600 -4.28127600
4.97291800 21.95422600 -4.97291500
4.28127700 21.95422600 -5.57946500
3.51638800 21.95422600 -6.09055000
2.69132500 21.95422600 -6.49742600
1.82021700 21.95422600 -6.79313300
0.91796300 21.95422600 -6.97260100
0.00000300 21.95422600 -7.03276100
-0.91795800 21.95422600 -6.97259900
-1.82021000 21.95422600 -6.79312500
-2.69132000 21.95422600 -6.49743000
-3.51638000 21.95422600 -6.09055700
-4.28127500 21.95422600 -5.57946700
-4.97291400 21.95422600 -4.97291300
-5.57946400 21.95422600 -4.28127400
-6.09054900 21.95422600 -3.51638300
-6.49742400 21.95422600 -2.69132300
-6.79313100 21.95422600 -1.82021100
-6.97259900 21.95422600 -0.91795900
-7.03275900 21.95422600 -0.00000100
-6.97259800 21.95422600 0.91796000
-6.79312300 21.95422600 1.82021300
-6.49742700 21.95422600 2.69132400
-6.09055400 21.95422600 3.51638400
-5.57946300 21.95422600 4.28127500
-4.66916200 21.96810200 4.70028600
0.86049700 21.95422600 6.57735100
1.82021300 21.95422600 6.79312200
2.69132300 21.95422600 6.49742600
3.51638300 21.95422600 6.09055300
4.28127400 21.95422600 5.57946300
4.97291600 21.95422600 4.97291100
5.57946300 21.95422600 4.28127300
6.09054800 21.95422600 3.51638400
6.49742100 21.95422600 2.69132200
6.79312900 21.95422600 1.82021500
6.97259700 21.95422600 0.91796100
7.03275700 21.95422600 0.00000100
6.97259500 21.95422600 -0.91795800
0.00000000 0.00000000 0.00000000
-4.73202500 11.10808800 -11.42411100
-3.20039200 11.10808800 -11.94405500
-1.61400200 11.10808800 -12.25960400
0.00000700 11.10808800 -12.36539500
1.61401700 11.10808800 -12.25958300
3.20040500 11.10808800 -11.94404300
4.73203900 11.10808800 -11.42412600
6.18270300 11.10808800 -10.70874800
7.52757700 11.10808800 -9.81012100
8.74366100 11.10808800 -8.74365600
9.81013600 11.10808800 -7.52757100
10.70875300 11.10808800 -6.18269400
11.42414300 11.10808800 -4.73202900
11.94405800 11.10808800 -3.20039500
12.25959900 11.10808800 -1.61400300
12.36538900 11.10808800 0.00000200
12.25957800 11.10808800 1.61401000
11.94403900 11.10808800 3.20040000
11.42412100 11.10808800 4.73203300
10.70874500 11.10808800 6.18269900
9.81011900 11.10808800 7.52757100
8.74365500 11.10808800 8.74365400
7.52757400 11.10808800 9.81011400
6.18269400 11.10808800 10.70873100
4.73202600 11.10808800 11.42410800
3.20040200 11.10808800 11.94404900
1.61401000 11.10808800 12.25960200
0.00000400 11.10808800 12.36539100
-1.61400400 11.10808800 12.25960600
-3.20039700 11.10808800 11.94404900
-4.73202600 11.10808800 11.42412300
-6.18269700 11.10808800 10.70874700
-7.52756700 11.10808800 9.81012100
-8.74364700 11.10808800 8.74365600
-9.81011400 11.10808800 7.52757500
-10.70873100 11.10808800 6.18269500
-11.42410900 11.10808800 4.73202700
-11.94405000 11.10808800 3.20040000
-12.25960200 11.10808800 1.61400900
-12.36539100 11.10808800 0.00000300
-12.25958100 11.10808800 -1.61400900
-11.94404200 11.10808800 -3.20040000
-11.42412400 11.10808800 -4.73203100
-10.70874000 11.10808800 -6.18270100
-9.81011900 11.10808800 -7.52757100
-8.74365500 11.10808800 -8.74365700
-7.52756700 11.10808800 -9.81011800
-6.18269200 11.10808800 -10.70873500
-9.46076000 16.66213200 -5.46217400
-8.66686300 16.66213200 -6.65032000
-7.72467800 16.66213200 -7.72468100
-6.65031300 16.66213200 -8.66686000
-5.46217100 16.66213200 -9.46075700
-4.18056200 16.66213200 -10.09276800
-2.82742500 16.66213200 -10.55211400
-1.42590800 16.66213200 -10.83088400
0.00000500 16.66213200 -10.92435300
1.42591900 16.66213200 -10.83087400
2.82743500 16.66213200 -10.55210400
4.18057300 16.66213200 -10.09277200
5.46217800 16.66213200 -9.46076200
6.65032700 16.66213200 -8.66686500
7.72468500 16.66213200 -7.72468000
8.66687700 16.66213200 -6.65031500
9.46077300 16.66213200 -5.46217300
10.09278800 16.66213200 -4.18056500
10.55211900 16.66213200 -2.82742600
10.83087800 16.66213200 -1.42590900
10.92434600 16.66213200 0.00000200
10.83087100 16.66213200 1.42591500
10.55209900 16.66213200 2.82743100
10.09276800 16.66213200 4.18056700
9.46075900 16.66213200 5.46217300
8.66686300 16.66213200 6.65032000
7.72467900 16.66213200 7.72467700
6.65031900 16.66213200 8.66685500
5.46217300 16.66213200 9.46075200
4.18056400 16.66213200 10.09276500
2.82743100 16.66213200 10.55211100
1.42591500 16.66213200 10.83088200
0.00000400 16.66213200 10.92434900
-1.42591100 16.66213200 10.83088600
-2.82742700 16.66213200 10.55211000
-4.18056000 16.66213200 10.09277100
-5.46217100 16.66213200 9.46076100
-6.65031700 16.66213200 8.66686500
-7.72467700 16.66213200 7.72468000
-8.66685500 16.66213200 6.65032000
-9.46075000 16.66213200 5.46217400
-10.09276600 16.66213200 4.18056500
-10.55211100 16.66213200 2.82743100
-10.83088000 16.66213200 1.42591400
-10.92434900 16.66213200 0.00000300
-10.83087300 16.66213200 -1.42591500
-10.55210300 16.66213200 -2.82743100
-10.09277100 16.66213200 -4.18056500
-8.72244500 6.12285000 6.69297600
-9.52143400 6.12285000 5.49720900
-10.15750300 6.12285000 4.20738000
-10.61979400 6.12285000 2.84556600
-10.90035400 6.12285000 1.43506000
-10.99441900 6.12285000 0.00000300
-10.90034400 6.12285000 -1.43506100
-10.61978600 6.12285000 -2.84556700
-10.15750700 6.12285000 -4.20738100
-9.52144400 6.12285000 -5.49720900
-8.72245500 6.12285000 -6.69297600
-7.77422500 6.12285000 -7.77422800
-6.69297000 6.12285000 -8.72244900
-5.49720700 6.12285000 -9.52144100
-4.20737700 6.12285000 -10.15750500
-2.84556000 6.12285000 -10.61979800
-1.43505500 6.12285000 -10.90035700
0.00000500 6.12285000 -10.99442300
1.43506500 6.12285000 -10.90034600
2.84557000 6.12285000 -10.61978700
4.20738800 6.12285000 -10.15750800
5.49721300 6.12285000 -9.52144500
6.69298400 6.12285000 -8.72245700
7.77423300 6.12285000 -7.77422700
8.72246700 6.12285000 -6.69297300
9.52145500 6.12285000 -5.49720900
10.15752600 6.12285000 -4.20738000
10.61980200 6.12285000 -2.84556100
10.90035200 6.12285000 -1.43505500
10.99441700 6.12285000 0.00000200
10.90034100 6.12285000 1.43506100
10.61978300 6.12285000 2.84556700
10.15750500 6.12285000 4.20738200
9.52144300 6.12285000 5.49720700
8.72245500 6.12285000 6.69297600
7.77422500 6.12285000 7.77422600
6.69297500 6.12285000 8.72244600
5.49720800 6.12285000 9.52143500
4.20737800 6.12285000 10.15750100
2.84556600 6.12285000 10.61979300
1.43506100 6.12285000 10.90035400
0.00000400 6.12285000 10.99441900
-1.43505700 6.12285000 10.90035800
-2.84556200 6.12285000 10.61979300
-4.20737600 6.12285000 10.15750700
-5.49720600 6.12285000 9.52144300
-6.69297300 6.12285000 8.72245700
-7.77422500 6.12285000 7.77422700
-4.00388600 2.77294800 -6.93493500
-3.06444100 2.77294800 -7.39821900
-2.07256200 2.77294800 -7.73492100
-1.04522100 2.77294800 -7.93926700
0.00000300 2.77294800 -8.00778000
1.04522900 2.77294800 -7.93926700
2.07256900 2.77294800 -7.73491600
3.06444600 2.77294800 -7.39822100
4.00389100 2.77294800 -6.93493900
4.87483000 2.77294800 -6.35299500
5.66235900 2.77294800 -5.66235200
6.35300100 2.77294800 -4.87482300
6.93494300 2.77294800 -4.00388700
7.39822400 2.77294800 -3.06444200
7.73492600 2.77294800 -2.07256400
7.93926200 2.77294800 -1.04522200
8.00777400 2.77294800 0.00000100
7.93926200 2.77294800 1.04522500
7.73491200 2.77294800 2.07256500
7.39821700 2.77294800 3.06444100
6.93493600 2.77294800 4.00388700
6.35299300 2.77294800 4.87482400
5.66235100 2.77294800 5.66235300
4.87482300 2.77294800 6.35299400
4.00388700 2.77294800 6.93493200
3.06444300 2.77294800 7.39821500
2.07256600 2.77294800 7.73491800
1.04522500 2.77294800 7.93926300
0.00000200 2.77294800 8.00777700
-1.04522300 2.77294800 7.93926500
-2.07256300 2.77294800 7.73491600
-3.06444000 2.77294800 7.39821900
-4.00388400 2.77294800 6.93493800
-4.87482300 2.77294800 6.35299400
-5.66235200 2.77294800 5.66235300
-6.35299300 2.77294800 4.87482400
-6.93493200 2.77294800 4.00388800
-7.39821700 2.77294800 3.06444300
-7.73491900 2.77294800 2.07256600
-7.93926400 2.77294800 1.04522400
-8.00777700 2.77294800 0.00000100
-7.93926600 2.77294800 -1.04522500
-7.73491500 2.77294800 -2.07256500
-7.39821900 2.77294800 -3.06444200
-6.93493700 2.77294800 -4.00388800
-6.35299400 2.77294800 -4.87482500
-5.66235000 2.77294800 -5.66235500
-4.87482200 2.77294800 -6.35299700
-8.46329000 8.33106600 -8.46329400
-7.28619800 8.33106600 -9.49555800
-5.98444500 8.33106600 -10.36536200
-4.58029300 8.33106600 -11.05779700
-3.09777200 8.33106600 -11.56106800
-1.56225000 8.33106600 -11.86650500
0.00000600 8.33106600 -11.96889800
1.56226400 8.33106600 -11.86648100
3.09778300 8.33106600 -11.56106000
4.58030700 8.33106600 -11.05781300
5.98445500 8.33106600 -10.36537500
7.28620500 8.33106600 -9.49555900
8.46329800 8.33106600 -8.46329100
9.49557500 8.33106600 -7.28620100
10.36537900 8.33106600 -5.98444700
11.05782900 8.33106600 -4.58029700
11.56107300 8.33106600 -3.09777500
11.86649900 8.33106600 -1.56225100
11.96889200 8.33106600 0.00000200
11.86647600 8.33106600 1.56225700
11.56105700 8.33106600 3.09778000
11.05780800 8.33106600 4.58030100
10.36537100 8.33106600 5.98445000
9.49555800 8.33106600 7.28619900
8.46329000 8.33106600 8.46329100
7.28620300 8.33106600 9.49555400
5.98444700 8.33106600 10.36535900
4.58029500 8.33106600 11.05779400
3.09778100 8.33106600 11.56106400
1.56225700 8.33106600 11.86650200
0.00000400 8.33106600 11.96889500
-1.56225200 8.33106600 11.86650300
-3.09777500 8.33106600 11.56106600
-4.58029600 8.33106600 11.05781000
-5.98444800 8.33106600 10.36537300
-7.28619700 8.33106600 9.49556000
-8.46328400 8.33106600 8.46329100
-9.49555400 8.33106600 7.28620400
-10.36535800 8.33106600 5.98444700
-11.05779600 8.33106600 4.58029600
-11.56106400 8.33106600 3.09777900
-11.86650200 8.33106600 1.56225600
-11.96889500 8.33106600 0.00000300
-11.86647800 8.33106600 -1.56225700
-11.56105900 8.33106600 -3.09778000
-11.05781100 8.33106600 -4.58030000
-10.36536700 8.33106600 -5.98445300
-9.49555800 8.33106600 -7.28619900
-9.49555800 13.88510900 -7.28619900
-8.46329000 13.88510900 -8.46329400
-7.28619800 13.88510900 -9.49555800
-5.98444500 13.88510900 -10.36536200
-4.58029300 13.88510900 -11.05779700
-3.09777200 13.88510900 -11.56106800
-1.56225000 13.88510900 -11.86650500
0.00000600 13.88510900 -11.96889800
1.56226400 13.88510900 -11.86648100
3.09778300 13.88510900 -11.56106000
4.58030700 13.88510900 -11.05781300
5.98445500 13.88510900 -10.36537500
7.28620500 13.88510900 -9.49555900
8.46329800 13.88510900 -8.46329100
9.49557500 13.88510900 -7.28620100
10.36537900 13.88510900 -5.98444700
11.05782900 13.88510900 -4.58029700
11.56107300 13.88510900 -3.09777500
11.86649900 13.88510900 -1.56225100
11.96889200 13.88510900 0.00000200
11.86647600 13.88510900 1.56225700
11.56105700 13.88510900 3.09778000
11.05780800 13.88510900 4.58030100
10.36537100 13.88510900 5.98445000
9.49555800 13.88510900 7.28619900
8.46329000 13.88510900 8.46329100
7.28620300 13.88510900 9.49555400
5.98444700 13.88510900 10.36535900
4.58029500 13.88510900 11.05779400
3.09778100 13.88510900 11.56106400
1.56225700 13.88510900 11.86650200
0.00000400 13.88510900 11.96889500
-1.56225200 13.88510900 11.86650300
-3.09777500 13.88510900 11.56106600
-4.58029600 13.88510900 11.05781000
-5.98444800 13.88510900 10.36537300
-7.28619700 13.88510900 9.49556000
-8.46328400 13.88510900 8.46329100
-9.49555400 13.88510900 7.28620400
-10.36535800 13.88510900 5.98444700
-11.05779600 13.88510900 4.58029600
-11.56106400 13.88510900 3.09777900
-11.86650200 13.88510900 1.56225600
-11.96889500 13.88510900 0.00000300
-11.86647800 13.88510900 -1.56225700
-11.56105900 13.88510900 -3.09778000
-11.05781100 13.88510900 -4.58030000
-10.36536700 13.88510900 -5.98445300
-7.54366300 4.16553300 5.78846100
-8.23467200 4.16553300 4.75429400
-8.78478000 4.16553300 3.63877800
-9.18459400 4.16553300 2.46100500
-9.42723800 4.16553300 1.24112000
-9.50859200 4.16553300 0.00000200
-9.42723200 4.16553300 -1.24112100
-9.18458700 4.16553300 -2.46100500
-8.78478400 4.16553300 -3.63877800
-8.23467800 4.16553300 -4.75429400
-7.54366800 4.16553300 -5.78846100
-6.72358500 4.16553300 -6.72358900
-5.78845700 4.16553300 -7.54366700
-4.75429200 4.16553300 -8.23467600
-3.63877600 4.16553300 -8.78478200
-2.46100000 4.16553300 -9.18459700
-1.24111600 4.16553300 -9.42724000
0.00000400 4.16553300 -9.50859400
1.24112500 4.16553300 -9.42723400
2.46100800 4.16553300 -9.18458800
3.63878400 4.16553300 -8.78478700
4.75429800 4.16553300 -8.23468100
5.78846700 4.16553300 -7.54366900
6.72359300 4.16553300 -6.72358700
7.54367700 4.16553300 -5.78845900
8.23468800 4.16553300 -4.75429400
8.78479700 4.16553300 -3.63877800
9.18460100 4.16553300 -2.46100200
9.42723500 4.16553300 -1.24111700
9.50858800 4.16553300 0.00000200
9.42723000 4.16553300 1.24112100
9.18458500 4.16553300 2.46100500
8.78478200 4.16553300 3.63877900
8.23467600 4.16553300 4.75429300
7.54366700 4.16553300 5.78846100
6.72358600 4.16553300 6.72358700
5.78845900 4.16553300 7.54366300
4.75429300 4.16553300 8.23467300
3.63877700 4.16553300 8.78477900
2.46100500 4.16553300 9.18459200
1.24112100 4.16553300 9.42723700
0.00000300 4.16553300 9.50859100
-1.24111800 4.16553300 9.42724000
-2.46100200 4.16553300 9.18459100
-3.63877500 4.16553300 8.78478400
-4.75429100 4.16553300 8.23467900
-5.78845900 4.16553300 7.54366900
-6.72358600 4.16553300 6.72358800
-2.30029900 1.38492600 5.55341800
-3.00548600 1.38492600 5.20565800
-3.65924900 1.38492600 4.76882700
-4.25040200 1.38492600 4.25040200
-4.76882600 1.38492600 3.65925000
-5.20565600 1.38492600 3.00548800
-5.55341600 1.38492600 2.30030100
-5.80615800 1.38492600 1.55575500
-5.95955000 1.38492600 0.78459000
-6.01097700 1.38492600 0.00000000
-5.95955000 1.38492600 -0.78459000
-5.80615600 1.38492600 -1.55575600
-5.55341700 1.38492600 -2.30030100
-5.20565900 1.38492600 -3.00548800
-4.76882800 1.38492600 -3.65925000
-4.25040100 1.38492600 -4.25040400
-3.65924900 1.38492600 -4.76882900
-3.00548700 1.38492600 -5.20565800
-2.30030000 1.38492600 -5.55341800
-1.55575400 1.38492600 -5.80616000
-0.78458800 1.38492600 -5.95955200
0.00000200 1.38492600 -6.01098000
0.78459200 1.38492600 -5.95955200
1.55575800 1.38492600 -5.80615800
2.30030300 1.38492600 -5.55341900
3.00549100 1.38492600 -5.20566000
3.65925400 1.38492600 -4.76882800
4.25040600 1.38492600 -4.25040200
4.76883200 1.38492600 -3.65925000
5.20566300 1.38492600 -3.00548800
5.55342100 1.38492600 -2.30030100
5.80616300 1.38492600 -1.55575500
5.95954700 1.38492600 -0.78458800
6.01097400 1.38492600 0.00000100
5.95954800 1.38492600 0.78459000
5.80615400 1.38492600 1.55575500
5.55341500 1.38492600 2.30030000
5.20565700 1.38492600 3.00548700
4.76882600 1.38492600 3.65924900
4.25040100 1.38492600 4.25040100
3.65924900 1.38492600 4.76882600
3.00548700 1.38492600 5.20565500
2.30030000 1.38492600 5.55341400
1.55575500 1.38492600 5.80615700
0.78459000 1.38492600 5.95954800
0.00000100 1.38492600 6.01097700
-0.78458900 1.38492600 5.95954900
-1.55575400 1.38492600 5.80615600
0.00000400 20.69669000 -8.46696400
1.10516600 20.69669000 -8.39452600
2.19141700 20.69669000 -8.17846000
3.24017200 20.69669000 -7.82245900
4.23349000 20.69669000 -7.33260500
5.15436500 20.69669000 -6.71729400
5.98705100 20.69669000 -5.98704800
6.71730200 20.69669000 -5.15435900
7.33261200 20.69669000 -4.23348100
7.82245900 20.69669000 -3.24016600
8.17846800 20.69669000 -2.19141000
8.39452000 20.69669000 -1.10515800
8.46695800 20.69669000 0.00000200
8.39452300 20.69669000 1.10516300
8.17845600 20.69669000 2.19141400
7.82245400 20.69669000 3.24016800
7.33260200 20.69669000 4.23348400
6.71729200 20.69669000 5.15436000
5.98704900 20.69669000 5.98704400
5.15436200 20.69669000 6.71729400
4.23348400 20.69669000 7.33260300
3.24016800 20.69669000 7.82245000
2.19141300 20.69669000 8.17845600
1.10516100 20.69669000 8.39452200
-2.19140900 20.69669000 8.17845900
-3.24016300 20.69669000 7.82245700
-4.23348100 20.69669000 7.33260500
-5.15436000 20.69669000 6.71729400
-5.98704400 20.69669000 5.98705100
-6.71729400 20.69669000 5.15436400
-7.33260300 20.69669000 4.23348400
-7.82245200 20.69669000 3.24016800
-8.17845500 20.69669000 2.19141200
-8.39452200 20.69669000 1.10516000
-8.46696100 20.69669000 0.00000100
-8.39452500 20.69669000 -1.10516100
-8.17845900 20.69669000 -2.19141100
-7.82245600 20.69669000 -3.24016400
-7.33260300 20.69669000 -4.23348400
-6.71729300 20.69669000 -5.15436100
-5.98704700 20.69669000 -5.98704700
-5.15435800 20.69669000 -6.71729900
-4.23348000 20.69669000 -7.33260700
-3.24016500 20.69669000 -7.82245300
-2.19140800 20.69669000 -8.17846000
-1.10515700 20.69669000 -8.39452500
-2.54438100 18.74489600 -9.49577900
-1.28316600 18.74489600 -9.74664000
0.00000500 18.74489600 -9.83075300
1.28317700 18.74489600 -9.74663900
2.54439300 18.74489600 -9.49577200
3.76207300 18.74489600 -9.08243300
4.91538200 18.74489600 -8.51368000
5.98458800 18.74489600 -7.79925900
6.95139500 18.74489600 -6.95139100
7.79927000 18.74489600 -5.98457700
8.51368500 18.74489600 -4.91537400
9.08243100 18.74489600 -3.76206400
9.49578400 18.74489600 -2.54438300
9.74663500 18.74489600 -1.28316700
9.83074800 18.74489600 0.00000300
9.74663500 18.74489600 1.28317300
9.49576800 18.74489600 2.54438900
9.08242900 18.74489600 3.76206700
8.51367700 18.74489600 4.91537700
7.79925700 18.74489600 5.98458100
6.95139100 18.74489600 6.95138800
5.98458300 18.74489600 7.79925800
4.91537700 18.74489600 8.51367200
3.76206600 18.74489600 9.08241800
2.54438800 18.74489600 9.49577500
1.28317100 18.74489600 9.74663600
0.00000300 18.74489600 9.83075000
-1.28317000 18.74489600 9.74664100
-2.54438400 18.74489600 9.49577300
-3.76205800 18.74489600 9.08243100
-4.91537400 18.74489600 8.51367900
-5.98458000 18.74489600 7.79925900
-6.95138700 18.74489600 6.95139300
-7.79925800 18.74489600 5.98458500
-8.51367100 18.74489600 4.91537700
-9.08241800 18.74489600 3.76206600
-9.49577500 18.74489600 2.54438700
-9.74663600 18.74489600 1.28317000
-9.83075000 18.74489600 0.00000200
-9.74663700 18.74489600 -1.28317200
-9.49577000 18.74489600 -2.54438700
-9.08243100 18.74489600 -3.76206000
-8.51367800 18.74489600 -4.91537800
-7.79925800 18.74489600 -5.98458200
-6.95138900 18.74489600 -6.95139100
-5.98457600 18.74489600 -7.79926300
-4.91537300 18.74489600 -8.51367700
-3.76206400 18.74489600 -9.08242000
0.00000200 19.96476700 9.09284800
-1.18685400 19.96476700 9.01505500
-2.35340100 19.96476700 8.78301700
-3.47967800 19.96476700 8.40070100
-4.54642400 19.96476700 7.87463800
-5.53537500 19.96476700 7.21384200
-6.42961200 19.96476700 6.42961900
-7.21384200 19.96476700 5.53537900
-7.87463300 19.96476700 4.54642700
-8.40069200 19.96476700 3.47968400
-8.78301600 19.96476700 2.35340400
-9.01505200 19.96476700 1.18685500
-9.09284800 19.96476700 0.00000100
-9.01505400 19.96476700 -1.18685600
-8.78301600 19.96476700 -2.35340300
-8.40070000 19.96476700 -3.47968000
-7.87463600 19.96476700 -4.54642700
-7.21384100 19.96476700 -5.53537600
-6.42961500 19.96476700 -6.42961500
-5.53537200 19.96476700 -7.21384700
-4.54642300 19.96476700 -7.87463800
-3.47968100 19.96476700 -8.40069400
-2.35339900 19.96476700 -8.78302000
-1.18685100 19.96476700 -9.01505400
0.00000400 19.96476700 -9.09285100
1.18686100 19.96476700 -9.01505600
2.35340900 19.96476700 -8.78301700
3.47968900 19.96476700 -8.40070200
4.54643200 19.96476700 -7.87463800
5.53538100 19.96476700 -7.21384200
6.42962000 19.96476700 -6.42961600
7.21385200 19.96476700 -5.53537300
7.87464400 19.96476700 -4.54642400
8.40070200 19.96476700 -3.47968200
8.78302700 19.96476700 -2.35340100
9.01505000 19.96476700 -1.18685200
9.09284500 19.96476700 0.00000200
9.01505200 19.96476700 1.18685700
8.78301300 19.96476700 2.35340600
8.40069800 19.96476700 3.47968400
7.87463500 19.96476700 4.54642700
7.21384000 19.96476700 5.53537500
6.42961600 19.96476700 6.42961300
5.53537700 19.96476700 7.21384200
4.54642700 19.96476700 7.87463300
3.47968400 19.96476700 8.40069200
2.35340400 19.96476700 8.78301600
1.18685600 19.96476700 9.01505200
0.56711000 19.96476700 9.05567600
0.00000200 20.46468400 8.66535600
-0.52735700 20.69669000 8.43239600
-1.14521500 20.33783000 8.69877100
-3.15331100 20.89568900 7.61277800
-4.04295600 21.03080200 7.00260600
-4.86147800 21.11853600 6.33560300
-5.50335700 21.29646700 5.50336400
-6.02307000 21.46394900 4.62166700
-6.57284400 21.46592300 3.79483600
-6.98263200 21.49373400 2.89230200
-7.27410700 21.51761200 1.94909200
-7.43082500 21.54897300 0.97828700
-7.39182500 21.63939100 0.00000000
3.27491800 0.46429600 -0.87751200
3.13236300 0.46429600 -1.29746700
5.30619800 1.79641200 -2.19789700
5.54768800 1.79641200 -1.48649800
2.93621200 0.46429600 -1.69522200
4.97392100 1.79641200 -2.87169100
2.68982100 0.46429600 -2.06397200
4.55653700 1.79641200 -3.49635000
2.39740700 0.46429600 -2.39740600
4.06119000 1.79641200 -4.06118600
2.06397300 0.46429600 -2.68982000
3.49635400 1.79641200 -4.55653300
1.69522300 0.46429600 -2.93621100
2.87169500 1.79641200 -4.97391700
1.29746800 0.46429600 -3.13236200
2.19790000 1.79641200 -5.30619500
0.87751200 0.46429600 -3.27491800
1.48650000 1.79641200 -5.54768300
0.44254200 0.46429600 -3.36143900
0.74966400 1.79641200 -5.69424900
0.00000000 0.46429600 -3.39044500
0.00000200 1.79641200 -5.74338700
-0.44254100 0.46429600 -3.36143900
-0.74966000 1.79641200 -5.69424900
-0.87751100 0.46429600 -3.27491800
-1.48649600 1.79641200 -5.54768600
-1.29746600 0.46429600 -3.13236200
-2.19789600 1.79641200 -5.30619400
-1.69522200 0.46429600 -2.93621100
-2.87169100 1.79641100 -4.97391600
-2.06397100 0.46429600 -2.68982100
-3.49634900 1.79641100 -4.55653300
-2.39740600 0.46429600 -2.39740700
-4.06118400 1.79641100 -4.06118700
-2.68982000 0.46429600 -2.06397200
-4.55653200 1.79641100 -3.49635000
-2.93621000 0.46429600 -1.69522200
-4.97391700 1.79641200 -2.87169200
-3.13236200 0.46429600 -1.29746700
-5.30619300 1.79641100 -2.19789700
-3.27491700 0.46429600 -0.87751200
-5.54768100 1.79641100 -1.48649800
-3.36143800 0.46429600 -0.44254200
-5.69424700 1.79641100 -0.74966200
-3.39044400 0.46429600 -0.00000100
-5.74338400 1.79641200 0.00000000
-3.36143800 0.46429600 0.44254100
-5.69424700 1.79641100 0.74966200
-3.27491700 0.46429600 0.87751100
-5.54768300 1.79641200 1.48649700
-3.13236100 0.46429600 1.29746600
-5.30619300 1.79641200 2.19789700
-2.93621000 0.46429600 1.69522100
-4.97391300 1.79641100 2.87169100
-2.68981900 0.46429600 2.06397100
-4.55653000 1.79641100 3.49635000
-2.39740500 0.46429600 2.39740500
-4.06118500 1.79641200 4.06118500
-2.06397100 0.46429600 2.68981900
-3.49634900 1.79641200 4.55653100
-1.69522200 0.46429600 2.93620900
-2.87168900 1.79641200 4.97391600
-1.29746700 0.46429600 3.13236000
-2.19789600 1.79641200 5.30619400
-0.87751200 0.46429600 3.27491600
-1.48649600 1.79641200 5.54768100
-0.44254200 0.46429600 3.36143600
-0.74966100 1.79641200 5.69424600
0.00000000 0.46429600 3.39044200
0.00000100 1.79641200 5.74338400
0.44254100 0.46429600 3.36143600
0.74966200 1.79641200 5.69424500
0.87751100 0.46429600 3.27491500
1.48649700 1.79641200 5.54768200
1.29746500 0.46429600 3.13236000
2.19789600 1.79641100 5.30619100
1.69522100 0.46429600 2.93620800
2.87169100 1.79641100 4.97391300
2.06397000 0.46429600 2.68981800
3.49634900 1.79641200 4.55653000
2.39740400 0.46429600 2.39740400
4.06118300 1.79641200 4.06118500
2.68981800 0.46429600 2.06397000
4.55653000 1.79641200 3.49634900
2.93620800 0.46429600 1.69522100
4.97391400 1.79641200 2.87169100
3.13235900 0.46429600 1.29746600
5.30619100 1.79641100 2.19789700
3.27491400 0.46429600 0.87751100
5.54767900 1.79641100 1.48649700
3.36143500 0.46429600 0.44254100
5.69424400 1.79641100 0.74966200
3.39044100 0.46429600 0.00000000
5.74338200 1.79641200 0.00000100
3.36143500 0.46429600 -0.44254200
5.69424400 1.79641200 -0.74966200
0.00000000 0.48229000 0.00000000
-4.54745900 11.10808800 -10.97853500
-3.07556300 11.10808800 -11.47819900
-4.40145000 13.76594000 -10.62603700
-2.97681400 13.76594000 -11.10965700
-1.55105100 11.10808800 -11.78144100
-1.50125000 13.76594000 -11.40316800
0.00000300 11.10808800 -11.88310500
0.00000300 13.76594000 -11.50156300
1.55106400 11.10808800 -11.78142000
1.50126300 13.76594000 -11.40314400
3.07558100 11.10808800 -11.47818700
2.97683000 13.76594000 -11.10964900
4.54747600 11.10808800 -10.97854700
4.40146700 13.76593900 -10.62605100
5.94155900 11.10808800 -10.29107300
5.75078800 13.76593900 -9.96065000
7.23397700 11.10808800 -9.42749400
7.00171000 13.76593900 -9.12479700
8.40263200 11.10808800 -8.40262500
8.13284300 13.76593900 -8.13283400
9.42750900 11.10808800 -7.23397200
9.12481300 13.76593900 -7.00170600
10.29107800 11.10808800 -5.94155000
9.96065500 13.76594000 -5.75078000
10.97856500 11.10808800 -4.54746600
10.62606700 13.76594000 -4.40145700
11.47820200 11.10808800 -3.07557100
11.10966200 13.76594000 -2.97682100
11.78143500 11.10808800 -1.55105400
11.40316200 13.76593900 -1.50125300
11.88310000 11.10808800 -0.00000100
11.50155700 13.76594000 -0.00000100
11.78141400 11.10808800 1.55105700
11.40313900 13.76594000 1.50125700
11.47818300 11.10808800 3.07557700
11.10964600 13.76594000 2.97682600
10.97854200 11.10808800 4.54747000
10.62604600 13.76593900 4.40146100
10.29107000 11.10808800 5.94155400
9.96064700 13.76593900 5.75078300
9.42749200 11.10808800 7.23397200
9.12479600 13.76593900 7.00170400
8.40262500 11.10808800 8.40262400
8.13283400 13.76593900 8.13283500
7.23397600 11.10808800 9.42748600
7.00170900 13.76593900 9.12479100
5.94155100 11.10808800 10.29105500
5.75078100 13.76594000 9.96063400
4.54746100 11.10808800 10.97853100
4.40145200 13.76594000 10.62603300
3.07557200 11.10808800 11.47819400
2.97682300 13.76594000 11.10965300
1.55105800 11.10808800 11.78143800
1.50125800 13.76594000 11.40316500
0.00000400 11.10808800 11.88310100
0.00000400 13.76594000 11.50156000
-1.55105300 11.10808800 11.78144300
-1.50125200 13.76594000 11.40316600
-3.07556900 11.10808800 11.47819300
-2.97681900 13.76594000 11.10965500
-4.54746200 11.10808800 10.97854500
-4.40145500 13.76593900 10.62604800
-5.94155200 11.10808800 10.29107200
-5.75078200 13.76593900 9.96064900
-7.23396800 11.10808800 9.42749500
-7.00170100 13.76594000 9.12479800
-8.40261700 11.10808800 8.40262600
-8.13282800 13.76594000 8.13283500
-9.42748700 11.10808800 7.23397600
-9.12479100 13.76593900 7.00170900
-10.29105500 11.10808800 5.94155200
-9.96063300 13.76594000 5.75078200
-10.97853300 11.10808800 4.54746200
-10.62603500 13.76594000 4.40145300
-11.47819400 11.10808800 3.07557100
-11.10965300 13.76594000 2.97682100
-11.78143800 11.10808800 1.55105700
-11.40316500 13.76594000 1.50125600
-11.88310100 11.10808800 0.00000600
-11.50156000 13.76594000 0.00000500
-11.78141700 11.10808800 -1.55105700
-11.40314100 13.76594000 -1.50125600
-11.47818600 11.10808800 -3.07557600
-11.10964800 13.76594000 -2.97682600
-10.97854600 11.10808800 -4.54746800
-10.62604900 13.76594000 -4.40146000
-10.29106500 11.10808800 -5.94155600
-9.96064300 13.76594000 -5.75078500
-9.42749200 11.10808800 -7.23397200
-9.12479600 13.76593900 -7.00170400
-8.40262500 11.10808800 -8.40262700
-8.13283400 13.76593900 -8.13283800
-7.23397000 11.10808800 -9.42749000
-7.00170400 13.76593900 -9.12479500
-5.94154900 11.10808800 -10.29105900
-5.75077900 13.76594000 -9.96063700
-9.07948500 16.46521600 -5.24204600
-8.31758300 16.46521600 -6.38230800
-8.14979600 18.50813300 -4.70529100
-7.46591100 18.50813300 -5.72879600
-7.41336900 16.46521600 -7.41337100
-6.65428200 18.50813300 -6.65428300
-6.38230200 16.46521600 -8.31757800
-5.72879000 18.50813300 -7.46591600
-5.24204300 16.46521600 -9.07948200
-4.70528700 18.50813300 -8.14979500
-4.01208100 16.46521600 -9.68602300
-3.60126900 18.50813300 -8.69423000
-2.71347600 16.46521600 -10.12685800
-2.43563200 18.50813300 -9.08992200
-1.36844300 16.46521600 -10.39439200
-1.22832200 18.50813300 -9.33006100
0.00000300 16.46521600 -10.48409500
0.00000400 18.50813300 -9.41057900
1.36845200 16.46521600 -10.39438200
1.22833200 18.50813300 -9.33005900
2.71348900 16.46521600 -10.12684600
2.43564500 18.50813300 -9.08991400
4.01209400 16.46521600 -9.68602600
3.60127900 18.50813300 -8.69424200
5.24204900 16.46521600 -9.07948700
4.70529500 18.50813300 -8.14979800
6.38231500 16.46521600 -8.31758500
5.72880200 18.50813300 -7.46591300
7.41337500 16.46521600 -7.41337000
6.65428700 18.50813300 -6.65428300
8.31759600 16.46521600 -6.38230300
7.46592400 18.50813300 -5.72879100
9.07949800 16.46521600 -5.24204400
8.14980300 18.50813300 -4.70528800
9.68604300 16.46521600 -4.01208500
8.69424100 18.50813300 -3.60127000
10.12686300 16.46521600 -2.71348100
9.08992600 18.50813300 -2.43563600
10.39438600 16.46521600 -1.36844600
9.33005500 18.50813300 -1.22832500
10.48408800 16.46521600 0.00000000
9.41057300 18.50813300 0.00000200
10.39437900 16.46521600 1.36844900
9.33005500 18.50813300 1.22832800
10.12684200 16.46521600 2.71348500
9.08991000 18.50813300 2.43564100
9.68602200 16.46521600 4.01208900
8.69423800 18.50813300 3.60127400
9.07948400 16.46521600 5.24204400
8.14979500 18.50813300 4.70528900
8.31758300 16.46521600 6.38230800
7.46591000 18.50813300 5.72879500
7.41336900 16.46521600 7.41336700
6.65428300 18.50813300 6.65428000
6.38230700 16.46521600 8.31757400
5.72879800 18.50813300 7.46591100
5.24204500 16.46521600 9.07947700
4.70529000 18.50813300 8.14979000
4.01208300 16.46521600 9.68602000
3.60127100 18.50813300 8.69422800
2.71348200 16.46521600 10.12685400
2.43563800 18.50813300 9.08991800
1.36844900 16.46521600 10.39439100
1.22832700 18.50813300 9.33005700
0.00000400 16.46521600 10.48409100
0.00000300 18.50813300 9.41057500
-1.36844600 16.46521600 10.39439500
-1.22832600 18.50813300 9.33006200
-2.71347900 16.46521600 10.12685300
-2.43563500 18.50813300 9.08991600
-4.01208100 16.46521600 9.68602500
-3.60126400 18.50813300 8.69424100
-5.24204300 16.46521600 9.07948600
-4.70528700 18.50813300 8.14979600
-6.38230500 16.46521600 8.31758500
-5.72879400 18.50813300 7.46591200
-7.41336700 16.46521600 7.41337100
-6.65427900 18.50813300 6.65428500
-8.31757400 16.46521600 6.38230800
-7.46591100 18.50813300 5.72879900
-9.07947400 16.46521600 5.24204600
-8.14978800 18.50813300 4.70529100
-9.68602100 16.46521600 4.01208400
-8.69422800 18.50813300 3.60127100
-10.12685400 16.46521600 2.71348200
-9.08991800 18.50813300 2.43563800
-10.39438900 16.46521600 1.36844800
-9.33005700 18.50813300 1.22832600
-10.48409100 16.46521600 0.00000400
-9.41057500 18.50813300 0.00000200
-10.39438100 16.46521600 -1.36844800
-9.33005700 18.50813300 -1.22832800
-10.12684600 16.46521600 -2.71348500
-9.08991200 18.50813300 -2.43563800
-9.68602500 16.46521600 -4.01208600
-8.69424000 18.50813300 -3.60126700
-8.38674400 6.38852500 6.43538400
-9.15498200 6.38852400 5.28563800
-9.12958400 8.47182000 7.00538700
-9.96586500 8.47182000 5.75380200
-9.76657100 6.38852400 4.04544900
-10.63161700 8.47182000 4.40376500
-10.21107100 6.38852500 2.73604700
-11.11548900 8.47182000 2.97838400
-10.48083200 6.38852500 1.37982900
-11.40915500 8.47182000 1.50204500
-10.57127700 6.38852400 0.00000500
-11.50760200 8.47182000 0.00000500
-10.48082300 6.38852400 -1.37982800
-11.40913100 8.47182000 -1.50204500
-10.21106100 6.38852400 -2.73605000
-11.11548300 8.47182000 -2.97839000
-9.76657500 6.38852500 -4.04545200
-10.63163100 8.47182000 -4.40377200
-9.15499200 6.38852500 -5.28563800
-9.96587500 8.47182000 -5.75380600
-8.38675400 6.38852500 -6.43538400
-9.12958900 8.47182000 -7.00538200
-7.47501900 6.38852500 -7.47502100
-8.13710700 8.47182000 -8.13711000
-6.43537800 6.38852500 -8.38674800
-7.00538200 8.47182000 -9.12958800
-5.28563600 6.38852400 -9.15498800
-5.75379900 8.47182000 -9.96587000
-4.04544600 6.38852400 -9.76657300
-4.40376200 8.47182000 -10.63161800
-2.73604100 6.38852400 -10.21107500
-2.97837700 8.47182000 -11.11549300
-1.37982400 6.38852500 -10.48083500
-1.50203900 8.47182000 -11.40915800
0.00000300 6.38852500 -10.57128100
0.00000300 8.47182000 -11.50760500
1.37983300 6.38852400 -10.48082400
1.50205200 8.47182000 -11.40913400
2.73605400 6.38852400 -10.21106200
2.97839300 8.47182000 -11.11548400
4.04545900 6.38852500 -9.76657600
4.40377900 8.47182000 -10.63163300
5.28564300 6.38852500 -9.15499300
5.75380800 8.47182000 -9.96588200
6.43539100 6.38852500 -8.38675600
7.00538700 8.47182000 -9.12959000
7.47502700 6.38852500 -7.47502000
8.13711500 8.47182000 -8.13710700
8.38676600 6.38852500 -6.43538000
9.12960600 8.47182000 -7.00538400
9.15500400 6.38852500 -5.28563800
9.96588700 8.47182000 -5.75380100
9.76659400 6.38852500 -4.04545100
10.63164900 8.47182000 -4.40376900
10.21107800 6.38852500 -2.73604600
11.11549800 8.47182000 -2.97838500
10.48082900 6.38852500 -1.37982600
11.40915200 8.47182000 -1.50204200
10.57127600 6.38852500 0.00000000
11.50759900 8.47182000 -0.00000100
10.48082000 6.38852400 1.37982900
11.40912900 8.47181900 1.50204500
10.21105900 6.38852400 2.73605100
11.11548100 8.47182000 2.97839000
9.76657300 6.38852500 4.04545400
10.63162800 8.47182000 4.40377300
9.15499100 6.38852500 5.28563700
9.96587800 8.47182000 5.75380400
8.38675400 6.38852500 6.43538400
9.12958900 8.47182000 7.00538200
7.47501900 6.38852500 7.47501900
8.13710700 8.47182000 8.13710700
6.43538300 6.38852500 8.38674500
7.00538600 8.47182000 9.12958400
5.28563800 6.38852400 9.15498400
5.75380100 8.47182000 9.96586600
4.04544800 6.38852400 9.76656900
4.40376400 8.47182000 10.63161500
2.73604700 6.38852500 10.21107000
2.97838600 8.47182000 11.11548900
1.37983000 6.38852500 10.48083300
1.50204600 8.47182000 11.40915500
0.00000400 6.38852500 10.57127800
0.00000400 8.47182000 11.50760200
-1.37982600 6.38852500 10.48083700
-1.50204100 8.47182000 11.40915600
-2.73604400 6.38852500 10.21107000
-2.97838200 8.47182000 11.11549100
-4.04544600 6.38852500 9.76657500
-4.40376700 8.47182000 10.63163000
-5.28563500 6.38852500 9.15499100
-5.75380200 8.47182000 9.96588000
-6.43538100 6.38852500 8.38675600
-7.00537900 8.47182000 9.12959100
-7.47501800 6.38852500 7.47502100
-8.13709900 8.47182000 8.13710800
-8.03902800 19.68306700 -3.32987100
-7.53561300 19.68306700 -4.35069200
-6.90326700 19.68306700 -5.29706400
-6.15280300 19.68306700 -6.15280400
-5.29706000 19.68306900 -6.90327300
-4.35068800 19.68306900 -7.53561400
-3.32987200 19.68306900 -8.03902200
-2.25207900 19.68306700 -8.40488900
-1.13575400 19.68306700 -8.62693300
0.00000500 19.68306700 -8.70138100
1.13576300 19.68306900 -8.62693400
2.25209000 19.68306900 -8.40488500
3.32988000 19.68306700 -8.03903000
4.35069700 19.68306700 -7.53561500
5.29706900 19.68306700 -6.90326800
6.15280900 19.68306700 -6.15280500
6.90327800 19.68306700 -5.29706100
7.53562100 19.68306700 -4.35068900
8.03903000 19.68306900 -3.32987300
8.40489500 19.68306900 -2.25208300
8.62692800 19.68306700 -1.13575700
8.70137500 19.68306700 0.00000300
8.62693000 19.68306900 1.13576000
8.40488100 19.68306900 2.25208700
8.03902600 19.68306700 3.32987500
7.53561300 19.68306700 4.35069100
6.90326600 19.68306700 5.29706300
6.15280500 19.68306700 6.15280200
5.29706500 19.68306700 6.90326800
4.35069200 19.68306900 7.53561000
3.32987400 19.68306900 8.03902100
2.25208400 19.68306700 8.40488500
1.13575800 19.68306900 8.62693100
0.54311400 19.65171100 8.68958300
0.00000200 19.68306700 8.70137800
-1.13575700 19.68306900 8.62693400
-2.25208100 19.68306900 8.40488500
-3.32986900 19.68306700 8.03902900
-4.35068900 19.68306700 7.53561500
-5.29706300 19.68306700 6.90326800
-6.15280100 19.68306700 6.15280700
-6.90326800 19.68306700 5.29706700
-7.53560900 19.68306900 4.35069300
-8.03902100 19.68306900 3.32987400
-8.40488500 19.68306700 2.25208400
-8.62693100 19.68306700 1.13575800
-8.70137800 19.68306700 0.00000100
-8.62693200 19.68306900 -1.13575900
-8.40488400 19.68306900 -2.25208400
-3.85296100 3.16223000 -6.67352400
-2.94892700 3.16223000 -7.11934500
-4.58139200 4.50172500 -7.93520400
-3.50644300 4.50172500 -8.46530400
-1.99443700 3.16223000 -7.44335600
-2.37150000 4.50172500 -8.85057900
-1.00582200 3.16223000 -7.63999900
-1.19598000 4.50172500 -9.08439800
0.00000300 3.16223000 -7.70593000
0.00000300 4.50172500 -9.16279300
1.00582800 3.16223000 -7.63999900
1.19598800 4.50172500 -9.08439200
1.99444500 3.16223000 -7.44335000
2.37150900 4.50172500 -8.85057100
2.94893300 3.16223000 -7.11934700
3.50645300 4.50172500 -8.46530900
3.85296600 3.16223000 -6.67352800
4.58139800 4.50172500 -7.93520900
4.69107400 3.16223000 -6.11352100
5.57795800 4.50172500 -7.26932800
5.44891800 3.16223000 -5.44891100
6.47907500 4.50172500 -6.47906900
6.11352700 3.16223000 -4.69106800
7.26933500 4.50172500 -5.57794900
6.67353300 3.16223000 -3.85296200
7.93521600 4.50172500 -4.58139400
7.11935100 3.16223000 -2.94892900
8.46531900 4.50172500 -3.50644600
7.44336100 3.16223000 -1.99444000
8.85058300 4.50172500 -2.37150400
7.63999400 3.16223000 -1.00582400
9.08439300 4.50172500 -1.19598200
7.70592300 3.16223000 0.00000100
9.16278700 4.50172500 0.00000100
7.63999400 3.16223000 1.00582500
9.08438800 4.50172500 1.19598400
7.44334600 3.16223000 1.99444100
8.85056700 4.50172500 2.37150600
7.11934300 3.16223000 2.94892800
8.46530400 4.50172500 3.50644700
6.67352500 3.16223000 3.85296100
7.93520400 4.50172500 4.58139300
6.11351800 3.16223000 4.69106800
7.26932500 4.50172500 5.57795100
5.44891000 3.16223000 5.44891200
6.47906800 4.50172500 6.47906900
4.69106800 3.16223000 6.11351900
5.57795000 4.50172500 7.26932000
3.85296200 3.16223000 6.67352100
4.58139300 4.50172500 7.93520000
2.94892900 3.16223000 7.11934100
3.50644400 4.50172500 8.46530100
1.99444100 3.16223000 7.44335200
2.37150500 4.50172500 8.85057400
1.00582600 3.16223000 7.63999500
1.19598500 4.50172500 9.08439400
0.00000200 3.16223000 7.70592600
0.00000300 4.50172500 9.16279000
-1.00582400 3.16223000 7.63999700
-1.19598200 4.50172500 9.08439800
-1.99443800 3.16223000 7.44335100
-2.37150100 4.50172500 8.85057400
-2.94892700 3.16223000 7.11934500
-3.50644300 4.50172500 8.46530600
-3.85295900 3.16223000 6.67352700
-4.58139100 4.50172500 7.93520700
-4.69106800 3.16223000 6.11352000
-5.57795000 4.50172500 7.26932700
-5.44891100 3.16223000 5.44891200
-6.47906800 4.50172500 6.47907000
-6.11351900 3.16223000 4.69106900
-7.26932000 4.50172500 5.57795100
-6.67352100 3.16223000 3.85296200
-7.93519900 4.50172500 4.58139400
-7.11934300 3.16223000 2.94892900
-8.46530200 4.50172500 3.50644500
-7.44335300 3.16223000 1.99444100
-8.85057600 4.50172500 2.37150500
-7.63999600 3.16223000 1.00582500
-9.08439500 4.50172500 1.19598400
-7.70592600 3.16223000 0.00000100
-9.16279100 4.50172500 0.00000300
-7.63999700 3.16223000 -1.00582400
-9.08439000 4.50172500 -1.19598400
-7.44334900 3.16223000 -1.99444100
-8.85057000 4.50172500 -2.37150600
-7.11934500 3.16223000 -2.94892900
-8.46530600 4.50172500 -3.50644600
-6.67352700 3.16223000 -3.85296200
-7.93520600 4.50172500 -4.58139500
-6.11351900 3.16223000 -4.69106900
-7.26932600 4.50172500 -5.57795100
-5.44891000 3.16223000 -5.44891400
-6.47906800 4.50172500 -6.47907100
-4.69106800 3.16223000 -6.11352200
-5.57794800 4.50172500 -7.26932500
5.97843900 21.95422600 -1.56993800
5.71814900 21.95422600 -2.33672300
5.68049100 22.58282100 -2.32112500
5.93906800 22.58282100 -1.55938800
5.36000000 21.95422600 -3.06297600
5.32470100 22.58282100 -3.04259600
4.91011700 21.95422600 -3.73627000
4.87777900 22.58282100 -3.71145700
4.37620400 21.95422600 -4.34508100
4.34738200 22.58282100 -4.31625900
3.76739100 21.95422600 -4.87899400
3.74257800 22.58282100 -4.84665600
3.09410200 21.95422600 -5.32887400
3.07372200 22.58282100 -5.29357400
2.36784400 21.95422600 -5.68702400
2.35224600 22.58282100 -5.64936600
1.60105800 21.95422600 -5.94731800
1.59050800 22.58282100 -5.90794700
0.80685600 21.95422600 -6.10529200
0.80153600 22.58282100 -6.06488100
-0.00117300 21.95422600 -6.15824800
-0.00117300 22.58282100 -6.11748800
-0.80920300 21.95422600 -6.10529100
-0.80388300 22.58282100 -6.06487900
-1.60340500 21.95422600 -5.94731000
-1.59285600 22.58282100 -5.90793800
-2.37019500 21.95422600 -5.68702600
-2.35459800 22.58282100 -5.64936800
-3.09644800 21.95422600 -5.32887900
-3.07606800 22.58282100 -5.29358000
-3.76974100 21.95422600 -4.87899600
-3.74492800 22.58282100 -4.84665900
-4.37855200 21.95422600 -4.34508100
-4.34973000 22.58282100 -4.31625900
-4.91246500 21.95422600 -3.73626900
-4.88012800 22.58282100 -3.71145600
-5.36234400 21.95422600 -3.06297800
-5.32704500 22.58282100 -3.04259800
-5.72049300 21.95422600 -2.33672400
-5.68283600 22.58282100 -2.32112600
-5.98078800 21.95422600 -1.56993400
-5.94141700 22.58282100 -1.55938400
-6.13876200 21.95422600 -0.77573400
-6.09835100 22.58282100 -0.77041400
-6.22773700 21.95422600 0.02726300
-6.15095800 22.58282100 0.03229500
-6.09835100 21.96810200 0.83500400
-6.09835100 22.58282100 0.83500400
-5.94140900 21.96810200 1.62397700
-5.94140900 22.58282100 1.62397700
-5.68283800 21.96810200 2.38571900
-5.68283800 22.58282100 2.38571900
-5.32705000 21.96810200 3.10718900
-5.32705000 22.58282100 3.10718900
-4.88012600 21.96810200 3.77604700
-4.88012600 22.58282100 3.77604700
-4.34972800 21.96810200 4.38085300
-4.34972800 22.58282100 4.38085300
0.81654400 21.95422600 6.20493400
0.80153200 22.58282100 6.12946800
1.60105500 21.95422600 6.01189800
1.59050500 22.58282100 5.97252700
2.36784500 21.95422600 5.75161300
2.35224700 22.58282100 5.71395500
3.09409800 21.95422600 5.39346600
3.07371700 22.58282100 5.35816800
3.76738700 21.95422600 4.94358300
3.74257400 22.58282100 4.91124600
4.37620100 21.95422600 4.40966900
4.34738000 22.58282100 4.38084700
4.91011000 21.95422600 3.80085900
4.87777300 22.58282100 3.77604600
5.35999000 21.95422600 3.12757000
5.32469000 22.58282100 3.10719000
5.71813700 21.95422600 2.40131400
5.68048000 22.58282100 2.38571500
5.97843300 21.95422600 1.63452700
5.93906200 22.58282100 1.62397700
6.13640800 21.95422600 0.84032600
6.09599700 22.58282100 0.83500600
6.18936300 21.95422600 0.03229700
6.14860200 22.58282100 0.03229700
6.13640500 21.95422600 -0.77573500
6.09599400 22.58282100 -0.77041500
0.00000400 20.35849800 -8.12311700
1.06028500 20.35849800 -8.05362200
2.10242400 20.35849800 -7.84633000
3.10858800 20.35849800 -7.50478700
4.06156600 20.35849800 -7.03482600
4.94504500 20.35849800 -6.44450300
5.74391600 20.35849800 -5.74391200
6.44451100 20.35849800 -4.94503900
7.03483200 20.35849800 -4.06155800
7.50478600 20.35849800 -3.10858200
7.84633700 20.35849800 -2.10241800
8.05361600 20.35849800 -1.06027900
8.12311200 20.35849800 0.00000300
8.05361800 20.35849800 1.06028200
7.84632600 20.35849800 2.10242100
7.50478300 20.35849800 3.10858300
7.03482300 20.35849800 4.06156200
6.44450100 20.35849800 4.94504000
5.74391300 20.35849800 5.74390900
4.94504200 20.35849800 6.44450300
4.06156100 20.35849800 7.03482300
3.10858400 20.35849800 7.50477800
2.10241900 20.35849800 7.84632700
1.06210900 20.35901500 8.05536000
-2.10445700 20.35901300 7.84781800
-3.10857800 20.35849800 7.50478600
-3.03174500 20.53339400 7.31929200
-4.06155800 20.35849800 7.03482600
-3.88412200 20.66850700 6.72749900
-4.94504000 20.35849800 6.44450300
-4.66809500 20.75624100 6.08358100
-5.74390800 20.35849800 5.74391500
-5.27873200 20.93417400 5.27873900
-6.44450200 20.35849800 4.94504400
-5.77104800 21.10165600 4.42828300
-7.03482300 20.35849800 4.06156200
-6.29773600 21.10363000 3.63600200
-7.50477900 20.35849800 3.10858400
-6.68914500 21.13144100 2.77073700
-7.84632600 20.35849800 2.10241900
-6.96726300 21.15531900 1.86687400
-8.05361700 20.35849800 1.06027900
-7.11587500 21.18668000 0.93682300
-8.12311600 20.35849800 0.00000000
-7.07415700 21.27709800 -0.00000100
-8.05362000 20.35849800 -1.06028100
-7.84632900 20.35849800 -2.10241700
-7.50478500 20.35849800 -3.10858000
-7.03482400 20.35849800 -4.06156100
-6.44450200 20.35849800 -4.94504100
-5.74391100 20.35849800 -5.74391200
-4.94503800 20.35849800 -6.44450800
-4.06155700 20.35849800 -7.03482700
-3.10858100 20.35849800 -7.50478100
-2.10241400 20.35849800 -7.84633100
-1.06027600 20.35849800 -8.05362000
0.00000200 20.15162700 8.29926300
-0.50336200 20.38363300 8.06630300
-1.09743000 20.02477300 8.33581000
7.45146100 21.95422600 -1.99660600
7.12710100 21.95422600 -2.95213900
6.91178400 22.60909800 -2.86295200
7.22634500 22.60909800 -1.93628700
6.68079600 21.95422600 -3.85715600
6.47896200 22.60909800 -3.74062700
6.12017700 21.95422600 -4.69617700
5.93528000 22.60909800 -4.55430100
5.45484400 21.95422600 -5.45484200
5.29004800 22.60909800 -5.29004600
4.69617700 21.95422600 -6.12017300
4.55430100 22.60909800 -5.93527600
3.85716200 21.95422600 -6.68078700
3.74063300 22.60909800 -6.47895400
2.95214400 21.95422600 -7.12709300
2.86295700 22.60909800 -6.91177600
1.99661600 21.95422600 -7.45145600
1.93629600 22.60909800 -7.22634000
1.00692000 21.95422600 -7.64831800
0.97650000 22.60909800 -7.41725400
0.00000200 21.95422600 -7.71430900
0.00000200 22.60909800 -7.48125200
-1.00691700 21.95422600 -7.64831500
-0.97649800 22.60909800 -7.41725200
-1.99660700 21.95422600 -7.45144900
-1.93628800 22.60909800 -7.22633400
-2.95213400 21.95422600 -7.12709900
-2.86294700 22.60909800 -6.91178200
-3.85715400 21.95422600 -6.68079400
-3.74062500 22.60909800 -6.47896000
-4.69617600 21.95422600 -6.12017300
-4.55430000 22.60909800 -5.93527700
-5.45484100 21.95422600 -5.45483900
-5.29004500 22.60909800 -5.29004300
-6.12017300 21.95422600 -4.69617400
-5.93527600 22.60909800 -4.55429800
-6.68078700 21.95422600 -3.85715700
-6.47895300 22.60909800 -3.74062800
-7.12709000 21.95422600 -2.95214200
-6.91177400 22.60909800 -2.86295500
-7.45145500 21.95422600 -1.99661000
-7.22633900 22.60909800 -1.93629100
-7.64831600 21.95422600 -1.00691600
-7.41725300 22.60909800 -0.97649600
-7.71430700 21.95422600 0.00000000
-7.48125000 22.60909800 0.00000000
-7.64831400 21.95422600 1.00692000
-7.41725100 22.60909800 0.97650000
-7.45144700 21.95422600 1.99661000
-7.22633200 22.60909800 1.93629100
-7.12709600 21.95422600 2.95213800
-6.91177900 22.60909800 2.86295100
-6.68078900 21.95422600 3.85715900
-6.47895600 22.60909800 3.74063100
-6.12017000 21.95422600 4.69617600
-5.93527300 22.60909800 4.55430000
-5.12153800 21.96810200 5.15266200
-4.96684700 22.58282100 4.99797100
0.94400200 21.96810200 7.21163400
0.91544700 22.58282100 6.99473900
1.99660900 21.95422600 7.45144700
1.93629000 22.60909800 7.22633100
2.95213700 21.95422600 7.12709500
2.86295000 22.60909800 6.91177800
3.85715800 21.95422600 6.68078900
3.74063000 22.60909800 6.47895600
4.69617500 21.95422600 6.12017100
4.55429900 22.60909800 5.93527400
5.45484300 21.95422600 5.45483700
5.29004600 22.60909800 5.29004100
6.12017100 21.95422600 4.69617300
5.93527400 22.60909800 4.55429600
6.68078500 21.95422600 3.85715700
6.47895100 22.60909800 3.74062900
7.12708800 21.95422600 2.95214100
6.91177200 22.60909800 2.86295400
7.45145200 21.95422600 1.99661400
7.22633600 22.60909800 1.93629400
7.64831400 21.95422600 1.00691700
7.41725100 22.60909800 0.97649700
7.71430500 21.95422600 0.00000000
7.48124800 22.60909800 0.00000000
7.64831300 21.95422600 -1.00691100
7.41724900 22.60909800 -0.97649200
