-7.60504900 19.34478800 2.03776700
-6.81849500 19.34478800 3.93666400
-5.56728200 19.34478800 5.56727800
-3.93666500 19.34478800 6.81849600
-2.03776600 19.34478800 7.60505100
0.00000000 19.34478800 7.87333000
2.03776700 19.34478800 7.60505100
3.93666500 19.34478800 6.81849600
5.56727800 19.34478800 5.56727800
6.81849600 19.34478800 3.93666600
7.60505200 19.34478800 2.03776800
7.87333100 19.34478800 0.00000100
7.04021700 19.31233400 -2.91615400
7.30686300 19.21497200 -1.95786700
6.55114900 19.21497200 -3.78231000
6.87516600 18.81081000 -2.84778700
6.04556800 19.31233400 -4.63892800
5.34899100 19.21497200 -5.34898800
5.90383600 18.81081000 -4.53017300
4.63893100 19.31233400 -6.04556600
3.78231200 19.21497200 -6.55114700
4.53017600 18.81081000 -5.90383200
2.91615600 19.31233400 -7.04021500
1.95786900 19.21497200 -7.30686100
2.84779000 18.81081000 -6.87516300
0.99464700 19.31233400 -7.55508600
0.00000100 19.21497200 -7.56462200
0.97132900 18.81081000 -7.37796400
-0.99464400 19.31233400 -7.55508700
-1.95786700 19.21497200 -7.30686200
-0.97132600 18.81081000 -7.37796500
-2.91615400 19.31233400 -7.04021600
-3.78231000 19.21497200 -6.55114800
-2.84778700 18.81081000 -6.87516500
-4.63892800 19.31233400 -6.04557000
-5.34898900 19.21497200 -5.34899500
-4.53017300 18.81081000 -5.90383700
-6.04556700 19.31233400 -4.63893300
-6.55114900 19.21497200 -3.78231200
-5.90383300 18.81081000 -4.53017800
-7.04021700 19.31233400 -2.91615500
-7.30686400 19.21497200 -1.95786800
-6.87516600 18.81081000 -2.84778900
-7.55508900 19.31233400 -0.99464500
-7.56462500 19.21497200 0.00000000
-7.37796700 18.81081000 -0.97132700
-7.55508900 19.31233400 0.99464600
-7.30686400 19.21497200 1.95786900
-7.37796700 18.81081000 0.97132800
-7.04021600 19.31233400 2.91615600
-6.55114900 19.21497200 3.78231200
-6.87516500 18.81081000 2.84779000
-6.04557100 19.31233400 4.63893100
-5.34899600 19.21497200 5.34899200
-5.90383900 18.81081000 4.53017700
-4.63893400 19.31233400 6.04557000
-3.78231200 19.21497200 6.55115100
-4.53017800 18.81081000 5.90383800
-2.91615500 19.31233400 7.04021900
-1.95786800 19.21497200 7.30686700
-2.84778900 18.81081000 6.87516900
-0.99464600 19.31233400 7.55509100
0.00000000 19.21497200 7.56462700
-0.97132700 18.81081000 7.37797000
0.99464700 19.31233400 7.55509100
1.95786900 19.21497200 7.30686700
0.97132800 18.81081000 7.37797000
2.91615700 19.31233400 7.04021900
3.78231300 19.21497200 6.55115100
2.84779000 18.81081000 6.87516900
4.63893100 19.31233400 6.04557000
5.34899200 19.21497200 5.34899300
4.53017600 18.81081000 5.90383800
6.04556900 19.31233400 4.63893200
6.55115100 19.21497200 3.78231400
5.90383700 18.81081000 4.53017700
7.04021900 19.31233400 2.91615800
7.30686700 19.21497200 1.95787000
6.87516900 18.81081000 2.84779100
7.55509200 19.31233400 0.99464700
7.56462800 19.21497200 0.00000100
7.37797100 18.81081000 0.97132900
7.37796800 18.81081000 -0.97132600
7.55508900 19.31233400 -0.99464500
6.17255700 16.89685800 -2.55675700
5.94320900 16.46796400 -1.59247700
5.32853200 16.46796400 -3.07643100
5.21827300 16.30648000 -2.16147900
5.30049200 16.89685800 -4.06721100
4.35072900 16.46796400 -4.35072500
4.48103100 16.30648000 -3.43841500
4.06721400 16.89685800 -5.30048900
3.07643300 16.46796400 -5.32852900
3.43841800 16.30648000 -4.48102800
2.55675900 16.89685800 -6.17255500
1.59248000 16.46796400 -5.94320700
2.16148200 16.30648000 -5.21827000
0.73724200 16.30648200 -5.59989800
0.87206400 16.89685800 -6.62397200
0.00000200 16.46796400 -6.15286400
-0.87206100 16.89685800 -6.62397300
-1.59247700 16.46796400 -5.94320900
-0.73723900 16.30648000 -5.59989900
-2.55675700 16.89685800 -6.17255600
-3.07643100 16.46796400 -5.32853100
-2.16147900 16.30648000 -5.21827100
-4.06721100 16.89685800 -5.30049300
-4.35072600 16.46796400 -4.35073100
-3.43841600 16.30648000 -4.48103200
-5.30049000 16.89685800 -4.06721500
-5.32853100 16.46796400 -3.07643200
-4.48102900 16.30648000 -3.43842000
-6.17255600 16.89685800 -2.55675800
-5.94320900 16.46796400 -1.59247800
-5.21827300 16.30648000 -2.16148000
-6.62397400 16.89685800 -0.87206200
-6.15286500 16.46796400 0.00000100
-5.59990000 16.30648000 -0.73724000
-6.62397400 16.89685800 0.87206300
-5.94320900 16.46796400 1.59247900
-5.59990000 16.30648000 0.73724100
-6.17255600 16.89685800 2.55675900
-5.32853200 16.46796400 3.07643300
-5.21827300 16.30648000 2.16148200
-5.30049500 16.89685800 4.06721400
-4.35073200 16.46796400 4.35072900
-4.48103300 16.30648000 3.43841900
-4.06721600 16.89685800 5.30049400
-3.07643300 16.46796400 5.32853400
-3.43842000 16.30648000 4.48103200
-2.55675800 16.89685800 6.17256000
-1.59247800 16.46796400 5.94321200
-2.16148100 16.30648000 5.21827500
-0.87206200 16.89685800 6.62397700
0.00000100 16.46796400 6.15286800
-0.73724000 16.30648000 5.59990300
0.87206300 16.89685800 6.62397700
1.59247900 16.46796400 5.94321300
0.73724200 16.30648000 5.59990300
2.55676000 16.89685800 6.17256000
3.07643400 16.46796400 5.32853400
2.16148200 16.30648000 5.21827500
4.06721400 16.89685800 5.30049400
4.35072900 16.46796400 4.35073000
3.43841900 16.30648000 4.48103200
5.30049300 16.89685800 4.06721500
5.32853400 16.46796400 3.07643500
4.48103200 16.30648000 3.43842000
6.17256000 16.89685800 2.55676100
5.94321200 16.46796400 1.59248000
5.21827500 16.30648000 2.16148300
6.62397700 16.89685800 0.87206400
6.15286900 16.46796400 0.00000100
5.59990300 16.30648000 0.73724200
6.62397500 16.89685800 -0.87206100
5.59990200 16.30648000 -0.73723900
5.09310300 16.14762500 -1.36469100
4.56634900 16.14762500 -2.63638300
3.72840800 16.14762500 -3.72840500
2.63638600 16.14762500 -4.56634600
1.36469400 16.14762500 -5.09310100
0.00000200 16.14762500 -5.27276900
-1.36469100 16.14762500 -5.09310200
-2.63638400 16.14762500 -4.56634800
-3.72840600 16.14762500 -3.72841000
-4.56634800 16.14762500 -2.63638500
-5.09310300 16.14762500 -1.36469200
-5.27277100 16.14762500 0.00000100
-5.09310300 16.14762500 1.36469400
-4.56634800 16.14762500 2.63638700
-3.72841200 16.14762500 3.72840900
-2.63638500 16.14762500 4.56635000
-1.36469300 16.14762500 5.09310600
0.00000100 16.14762500 5.27277300
1.36469400 16.14762500 5.09310600
2.63638600 16.14762500 4.56635100
3.72840900 16.14762500 3.72841000
4.56635000 16.14762500 2.63638800
5.09310600 16.14762500 1.36469500
5.27277400 16.14762500 0.00000100
7.12927900 17.85795600 0.00000100
6.88634900 17.85795600 -1.84519000
6.88635300 17.85795600 1.84519300
6.17412900 17.85795600 3.56463900
5.04115400 17.85795600 5.04115500
3.56463800 17.85795600 6.17412900
1.84519300 17.85795600 6.88635200
0.00000100 17.85795600 7.12927900
-1.84519100 17.85795600 6.88635200
-3.56463800 17.85795600 6.17412900
-5.04115800 17.85795600 5.04115500
-6.17412700 17.85795600 3.56463800
-6.88634900 17.85795600 1.84519200
-7.12927500 17.85795600 0.00000000
-6.88634900 17.85795600 -1.84519100
-6.17412500 17.85795600 -3.56463800
-5.04115100 17.85795600 -5.04115700
-3.56463600 17.85795600 -6.17412600
-1.84519000 17.85795600 -6.88634800
0.00000100 17.85795600 -7.12927300
1.84519300 17.85795600 -6.88634700
3.56463800 17.85795600 -6.17412400
5.04115300 17.85795600 -5.04115100
6.17412700 17.85795600 -3.56463500
7.27373200 19.34478800 -3.01287900
7.46936300 19.34478800 -2.00140800
6.69684300 19.34478800 -3.86642600
6.24609200 19.34478800 -4.79279600
5.46794900 19.34478800 -5.46794600
4.79279900 19.34478800 -6.24608900
3.86642800 19.34478800 -6.69684000
3.01288200 19.34478800 -7.27373000
2.00141100 19.34478800 -7.46936100
1.02763800 19.34478800 -7.80567900
0.00000100 19.34478800 -7.73285500
-1.02763600 19.34478800 -7.80568000
-2.00140800 19.34478800 -7.46936200
-3.01287900 19.34478800 -7.27373200
-3.86642600 19.34478800 -6.69684200
-4.79279600 19.34478800 -6.24609500
-5.46794700 19.34478800 -5.46795300
-6.24609100 19.34478800 -4.79280100
-6.69684200 19.34478800 -3.86642800
-7.27373300 19.34478800 -3.01288000
-7.46936400 19.34478800 -2.00141000
-7.80568200 19.34478800 -1.02763700
-7.73285700 19.34478800 0.00000000
-7.80568200 19.34478800 1.02763700
-7.46936400 19.34478800 2.00141000
-7.27373300 19.34478800 3.01288100
-6.69684400 19.34478800 3.86642800
-6.24609600 19.34478800 4.79279900
-5.46795500 19.34478800 5.46795000
-4.79280200 19.34478800 6.24609400
-3.86642900 19.34478800 6.69684500
-3.01288100 19.34478800 7.27373500
-2.00141000 19.34478800 7.46936600
-1.02763700 19.34478800 7.80568500
0.00000000 19.34478800 7.73285900
1.02763800 19.34478800 7.80568500
2.00141100 19.34478800 7.46936600
3.01288200 19.34478800 7.27373600
3.86642900 19.34478800 6.69684500
4.79279900 19.34478800 6.24609400
5.46795000 19.34478800 5.46795100
6.24609400 19.34478800 4.79280000
6.69684500 19.34478800 3.86643000
7.27373600 19.34478800 3.01288300
7.46936600 19.34478800 2.00141200
7.80568500 19.34478800 1.02763800
7.73286000 19.34478800 0.00000100
7.80568300 19.34478800 -1.02763600
6.98853800 19.21497200 -2.89474800
6.00119100 19.21497200 -4.60487600
4.60487800 19.21497200 -6.00118700
2.89475000 19.21497200 -6.98853600
0.98734600 19.21497200 -7.49962800
-0.98734300 19.21497200 -7.49962900
-2.89474800 19.21497200 -6.98853700
-4.60487600 19.21497200 -6.00119300
-6.00118900 19.21497200 -4.60488100
-6.98853800 19.21497200 -2.89474900
-7.49963100 19.21497200 -0.98734400
-7.49963100 19.21497200 0.98734500
-6.98853800 19.21497200 2.89475000
-6.00119400 19.21497200 4.60487900
-4.60488100 19.21497200 6.00119300
-2.89474900 19.21497200 6.98854100
-0.98734400 19.21497200 7.49963300
0.98734500 19.21497200 7.49963300
2.89475100 19.21497200 6.98854100
4.60487900 19.21497200 6.00119300
6.00119200 19.21497200 4.60488000
6.98854100 19.21497200 2.89475200
7.49963400 19.21497200 0.98734600
7.49963200 19.21497200 -0.98734400
5.68429200 16.46796200 -2.35451100
4.88121000 16.46796200 -3.74548400
3.74548700 16.46796200 -4.88120700
2.35451400 16.46796200 -5.68429000
0.80308200 16.46796400 -6.09999900
-0.80307900 16.46796200 -6.10000000
-2.35451100 16.46796200 -5.68429100
-3.74548400 16.46796200 -4.88121100
-4.88120800 16.46796200 -3.74548900
-5.68429200 16.46796200 -2.35451200
-6.10000100 16.46796200 -0.80307900
-6.10000100 16.46796200 0.80308100
-5.68429200 16.46796200 2.35451400
-4.88121300 16.46796200 3.74548800
-3.74548900 16.46796200 4.88121200
-2.35451200 16.46796200 5.68429500
-0.80308000 16.46796200 6.10000400
0.80308100 16.46796200 6.10000400
2.35451400 16.46796200 5.68429500
3.74548800 16.46796200 4.88121200
4.88121200 16.46796200 3.74548900
5.68429500 16.46796200 2.35451500
6.10000400 16.46796200 0.80308200
6.10000300 16.46796200 -0.80307900
4.87122200 16.14762500 -2.01772600
4.18301200 16.14762500 -3.20973700
3.20974000 16.14762500 -4.18300800
2.01772900 16.14762500 -4.87121900
0.68821000 16.14762500 -5.22746600
-0.68820700 16.14762500 -5.22746700
-2.01772600 16.14762500 -4.87122000
-3.20973700 16.14762500 -4.18301200
-4.18300900 16.14762500 -3.20974100
-4.87122100 16.14762500 -2.01772700
-5.22746800 16.14762500 -0.68820800
-5.22746800 16.14762500 0.68821000
-4.87122100 16.14762500 2.01772900
-4.18301300 16.14762500 3.20974100
-3.20974100 16.14762500 4.18301200
-2.01772700 16.14762500 4.87122300
-0.68820800 16.14762500 5.22747000
0.68821000 16.14762500 5.22747000
2.01772900 16.14762500 4.87122400
3.20974000 16.14762500 4.18301300
4.18301200 16.14762500 3.20974100
4.87122400 16.14762500 2.01773000
5.22747100 16.14762500 0.68821000
5.22746900 16.14762500 -0.68820800
7.06802300 17.85795600 -0.93052100
7.06802600 17.85795600 0.93052400
6.58634700 17.85795600 2.72815700
5.65582000 17.85795600 4.33986700
4.33986600 17.85795600 5.65582000
2.72815600 17.85795600 6.58634700
0.93052300 17.85795600 7.06802500
-0.93052200 17.85795600 7.06802500
-2.72815400 17.85795600 6.58634600
-4.33986800 17.85795600 5.65582000
-5.65582100 17.85795600 4.33986600
-6.58634300 17.85795600 2.72815600
-7.06802200 17.85795600 0.93052300
-7.06802200 17.85795600 -0.93052200
-6.58634300 17.85795600 -2.72815400
-5.65581600 17.85795600 -4.33986700
-4.33986300 17.85795600 -5.65582000
-2.72815300 17.85795600 -6.58634200
-0.93052100 17.85795600 -7.06802100
0.93052400 17.85795600 -7.06802000
2.72815600 17.85795600 -6.58634100
4.33986500 17.85795600 -5.65581600
5.65581900 17.85795600 -4.33986200
6.58634300 17.85795600 -2.72815300
7.14395900 19.34478800 -2.95912500
6.13465400 19.34478800 -4.70728500
4.70728800 19.34478800 -6.13465100
2.95912800 19.34478800 -7.14395600
1.00930400 19.34478800 -7.66641500
-1.00930100 19.34478800 -7.66641600
-2.95912500 19.34478800 -7.14395800
-4.70728600 19.34478800 -6.13465500
-6.13465200 19.34478800 -4.70729100
-7.14395900 19.34478800 -2.95912600
-7.66641800 19.34478800 -1.00930200
-7.66641800 19.34478800 1.00930300
-7.14395900 19.34478800 2.95912700
-6.13465600 19.34478800 4.70728900
-4.70729200 19.34478800 6.13465500
-2.95912700 19.34478800 7.14396100
-1.00930200 19.34478800 7.66642000
1.00930300 19.34478800 7.66642000
2.95912800 19.34478800 7.14396200
4.70728900 19.34478800 6.13465500
6.13465500 19.34478800 4.70729000
7.14396200 19.34478800 2.95912900
7.66642100 19.34478800 1.00930400
7.66641900 19.34478800 -1.00930100
-5.59927400 11.05288100 3.23274700
-5.97311000 11.05288100 2.47414600
-6.24518300 11.05288100 1.67339200
-6.40994200 11.05288100 0.84388500
-6.46549200 11.05288100 0.00000100
-6.40994200 11.05288100 -0.84388400
-6.24518300 11.05288100 -1.67339100
-5.97311000 11.05288100 -2.47414500
-5.59927200 11.05288100 -3.23274500
-5.12922100 11.05288100 -3.93579600
-4.57178500 11.05288100 -4.57179100
-3.93579200 11.05288100 -5.12922500
-3.23274400 11.05288100 -5.59927300
-2.47414400 11.05288100 -5.97310900
-1.67339100 11.05288100 -6.24518200
-0.84388300 11.05288100 -6.40994000
0.00000100 11.05288100 -6.46549000
0.84388600 11.05288100 -6.40994000
1.67339300 11.05288100 -6.24518100
2.47414600 11.05288100 -5.97310800
3.23274700 11.05288100 -5.59927200
3.93579500 11.05288100 -5.12922000
4.57178800 11.05288100 -4.57178400
5.12922400 11.05288100 -3.93579100
5.59927500 11.05288100 -3.23274400
5.97311000 11.05288100 -2.47414400
6.24518300 11.05288100 -1.67339000
6.40994200 11.05288100 -0.84388300
6.46549600 11.05288100 0.00000100
6.40994500 11.05288100 0.84388600
6.24518600 11.05288100 1.67339300
5.97311300 11.05288100 2.47414700
5.59927500 11.05288100 3.23274800
5.12922400 11.05288100 3.93579600
4.57178800 11.05288100 4.57178900
3.93579500 11.05288100 5.12922500
3.23274700 11.05288100 5.59927600
2.47414600 11.05288100 5.97311300
1.67339200 11.05288100 6.24518600
0.84388500 11.05288100 6.40994400
0.00000000 11.05288100 6.46549500
-0.84388400 11.05288100 6.40994400
-1.67339200 11.05288100 6.24518600
-2.47414500 11.05288100 5.97311300
-3.23274600 11.05288100 5.59927500
-3.93579800 11.05288100 5.12922500
-4.57179400 11.05288100 4.57178900
-5.12922700 11.05288100 3.93579500
7.39425300 -0.01306900 -1.98128100
6.62950500 -0.01306900 -3.82754100
5.41296500 -0.01306900 -5.41296100
3.82754400 -0.01306900 -6.62950300
1.98128300 -0.01306900 -7.39425000
0.00000100 -0.01306900 -7.65508600
-1.98128100 -0.01306900 -7.39425100
-3.82754200 -0.01306900 -6.62950400
-5.41296300 -0.01306900 -5.41296300
-6.62950500 -0.01306900 -3.82754300
-7.39425200 -0.01306900 -1.98128200
-7.65508800 -0.01306900 0.00000000
-7.39425300 -0.01306900 1.98128300
-6.62950600 -0.01306900 3.82754400
-5.41296900 -0.01306900 5.41296600
-3.82754400 -0.01306900 6.62950700
-1.98128200 -0.01306900 7.39425400
0.00000000 -0.01306900 7.65509000
1.98128300 -0.01306900 7.39425500
3.82754400 -0.01306900 6.62950800
5.41296600 -0.01306900 5.41296700
6.62950800 -0.01306900 3.82754500
7.39425500 -0.01306900 1.98128300
7.65509100 -0.01306900 0.00000100
6.52516600 0.03076700 -1.74841000
5.85030400 0.03076700 -3.37766800
0.00000000 0.03807300 0.00000000
4.77674900 0.03076700 -4.77674700
3.37767200 0.03076700 -5.85030100
1.74841200 0.03076700 -6.52516400
0.00000100 0.03076700 -6.75534200
-1.74841000 0.03076700 -6.52516500
-3.37767000 0.03076700 -5.85030200
-4.77674800 0.03076700 -4.77674900
-5.85030300 0.03076700 -3.37767100
-6.52516600 0.03076700 -1.74841100
-6.75534400 0.03076700 0.00000000
-6.52516600 0.03076700 1.74841200
-5.85030500 0.03076700 3.37767200
-4.77675300 0.03076700 4.77675000
-3.37767200 0.03076700 5.85030500
-1.74841100 0.03076700 6.52516700
0.00000000 0.03076700 6.75534600
1.74841200 0.03076700 6.52516700
3.37767200 0.03076700 5.85030600
4.77675100 0.03076700 4.77675200
5.85030600 0.03076700 3.37767300
6.52516800 0.03076700 1.74841200
6.75534600 0.03076700 0.00000100
6.92884100 -0.02037600 4.00036500
7.72811900 -0.02037600 2.07074200
8.00073100 -0.02037600 0.00000100
7.72811600 -0.02037600 -2.07073900
6.92883900 -0.02037600 -4.00036000
5.65736900 -0.02037600 -5.65736600
4.00036400 -0.02037600 -6.92883600
2.07074100 -0.02037600 -7.72811300
0.00000100 -0.02037600 -8.00072700
-2.07073900 -0.02037600 -7.72811400
-4.00036100 -0.02037600 -6.92883800
-5.65736700 -0.02037600 -5.65736800
-6.92883800 -0.02037600 -4.00036300
-7.72811500 -0.02037600 -2.07074100
-8.00072800 -0.02037600 0.00000000
-7.72811600 -0.02037600 2.07074100
-6.92884000 -0.02037600 4.00036500
-5.65737400 -0.02037600 5.65737000
-4.00036400 -0.02037600 6.92884000
-2.07074100 -0.02037600 7.72811700
0.00000000 -0.02037600 8.00073100
2.07074100 -0.02037600 7.72811800
4.00036500 -0.02037600 6.92884100
5.65737100 -0.02037600 5.65737200
7.14120300 -0.02037500 -4.12296900
7.96497800 -0.02037500 -2.13420600
5.83076300 -0.02037500 -5.83076100
4.12297300 -0.02037500 -7.14120000
2.13420800 -0.02037500 -7.96497500
0.00000100 -0.02037500 -8.24594300
-2.13420600 -0.02037500 -7.96497600
-4.12297100 -0.02037500 -7.14120200
-5.83076200 -0.02037500 -5.83076300
-7.14120300 -0.02037500 -4.12297200
-7.96497800 -0.02037500 -2.13420800
-8.24594600 -0.02037500 0.00000000
-7.96497800 -0.02037500 2.13420800
-7.14120400 -0.02037500 4.12297300
-5.83076900 -0.02037500 5.83076500
-4.12297300 -0.02037500 7.14120400
-2.13420800 -0.02037500 7.96497900
0.00000000 -0.02037500 8.24594900
2.13420800 -0.02037500 7.96498000
4.12297300 -0.02037500 7.14120600
5.83076500 -0.02037500 5.83076600
7.14120600 -0.02037500 4.12297300
7.96498000 -0.02037500 2.13420800
8.24594800 -0.02037500 0.00000100
4.24919700 0.03807300 -2.45327100
4.73936400 0.03807300 -1.26990600
5.26930300 0.02755200 -4.04327400
3.46945200 0.03807300 -3.46945100
4.04327700 0.02755200 -5.26930100
2.45327300 0.03807300 -4.24919500
2.54171100 0.02755200 -6.13623400
1.26990800 0.03807300 -4.73936100
0.86693100 0.02755200 -6.58498800
0.00000100 0.03807300 -4.90654700
-0.86692800 0.02755200 -6.58498800
-1.26990600 0.03807300 -4.73936200
-2.54170800 0.02755200 -6.13623500
-2.45327200 0.03807300 -4.24919600
-4.04327500 0.02755200 -5.26930200
-3.46945200 0.03807300 -3.46945200
-5.26930200 0.02755200 -4.04327600
-4.24919600 0.03807300 -2.45327200
-6.13623600 0.02755200 -2.54170900
-4.73936200 0.03807300 -1.26990700
-6.58498900 0.02755200 -0.86693000
-4.90654700 0.03807300 0.00000000
-6.58498900 0.02755200 0.86693000
-4.73936200 0.03807300 1.26990800
-6.13623600 0.02755200 2.54171100
-4.24919700 0.03807300 2.45327400
-5.26930500 0.02755200 4.04327700
-3.46945500 0.03807300 3.46945300
-4.04327900 0.02755200 5.26930400
-2.45327400 0.03807300 4.24919700
-2.54170900 0.02755200 6.13623800
-1.26990700 0.03807300 4.73936400
-0.86693000 0.02755200 6.58499100
0.00000000 0.03807300 4.90654900
0.86693000 0.02755200 6.58499100
1.26990800 0.03807300 4.73936500
2.54171100 0.02755200 6.13623900
2.45327400 0.03807300 4.24919800
4.04327800 0.02755200 5.26930600
3.46945400 0.03807300 3.46945400
5.26930500 0.02755200 4.04327800
4.24919800 0.03807300 2.45327400
6.13623900 0.02755200 2.54171100
4.73936500 0.03807300 1.26990800
6.58499200 0.02755200 0.86693100
4.90654900 0.03807300 0.00000100
6.58499100 0.02755200 -0.86692900
7.07212400 -0.01306900 -2.92936400
6.55797300 0.00884900 -3.78624200
7.31447000 0.00884900 -1.95990300
6.07296800 -0.01306900 -4.65994700
5.35455800 0.00884900 -5.35455700
4.65995000 -0.01306900 -6.07296600
3.78624500 0.00884900 -6.55797100
2.92936800 -0.01306900 -7.07212200
1.95990500 0.00884900 -7.31446600
0.99915400 -0.01306900 -7.58931700
0.00000100 0.00884900 -7.57248800
-0.99915100 -0.01306900 -7.58931800
-1.95990300 0.00884900 -7.31446700
-2.92936500 -0.01306900 -7.07212300
-3.78624200 0.00884900 -6.55797200
-4.65994800 -0.01306900 -6.07296700
-5.35455800 0.00884900 -5.35455800
-6.07296700 -0.01306900 -4.65994900
-6.55797200 0.00884900 -3.78624400
-7.07212400 -0.01306900 -2.92936600
-7.31446900 0.00884900 -1.95990400
-7.58931900 -0.01306900 -0.99915200
-7.57249000 0.00884900 0.00000000
-7.58932000 -0.01306900 0.99915300
-7.31446900 0.00884900 1.95990500
-7.07212400 -0.01306900 2.92936800
-6.55797300 0.00884900 3.78624500
-6.07297000 -0.01306900 4.65995100
-5.35456300 0.00884900 5.35456000
-4.65995200 -0.01306900 6.07296900
-3.78624500 0.00884900 6.55797500
-2.92936700 -0.01306900 7.07212500
-1.95990400 0.00884900 7.31447000
-0.99915200 -0.01306900 7.58932200
0.00000000 0.00884900 7.57249300
0.99915300 -0.01306900 7.58932200
1.95990500 0.00884900 7.31447100
2.92936800 -0.01306900 7.07212600
3.78624500 0.00884900 6.55797600
4.65995100 -0.01306900 6.07297100
5.35456000 0.00884900 5.35456200
6.07297000 -0.01306900 4.65995200
6.55797600 0.00884900 3.78624600
7.07212600 -0.01306900 2.92936800
7.31447200 0.00884900 1.95990600
7.58932300 -0.01306900 0.99915300
7.57249300 0.00884900 0.00000100
7.58932200 -0.01306900 -0.99915100
7.39144500 -0.02037600 3.06163400
7.55285100 -0.02037600 2.02377900
6.77170100 -0.02037600 3.90964000
7.93199300 -0.02037600 1.04426700
7.81928200 -0.02037600 0.00000100
7.93199200 -0.02037600 -1.04426500
7.55284900 -0.02037600 -2.02377600
7.39144300 -0.02037600 -3.06163000
6.77169800 -0.02037600 -3.90963600
6.34717200 -0.02037600 -4.87035100
5.52906400 -0.02037600 -5.52906100
4.87035500 -0.02037600 -6.34716900
3.90963900 -0.02037600 -6.77169600
3.06163400 -0.02037600 -7.39143900
2.02377900 -0.02037600 -7.55284600
1.04426700 -0.02037600 -7.93198800
0.00000100 -0.02037600 -7.81927700
-1.04426400 -0.02037600 -7.93198800
-2.02377600 -0.02037600 -7.55284700
-3.06163100 -0.02037600 -7.39144100
-3.90963700 -0.02037600 -6.77169700
-4.87035200 -0.02037600 -6.34717200
-5.52906300 -0.02037600 -5.52906400
-6.34717100 -0.02037600 -4.87035400
-6.77169800 -0.02037600 -3.90963800
-7.39144200 -0.02037600 -3.06163200
-7.55284800 -0.02037600 -2.02377800
-7.93199100 -0.02037600 -1.04426600
-7.81927800 -0.02037600 0.00000000
-7.93199100 -0.02037600 1.04426600
-7.55284800 -0.02037600 2.02377800
-7.39144200 -0.02037600 3.06163300
-6.77169900 -0.02037600 3.90963900
-6.34717600 -0.02037600 4.87035500
-5.52906900 -0.02037600 5.52906500
-4.87035800 -0.02037600 6.34717400
-3.90963900 -0.02037600 6.77170000
-3.06163300 -0.02037600 7.39144400
-2.02377800 -0.02037600 7.55285000
-1.04426600 -0.02037600 7.93199300
0.00000000 -0.02037600 7.81928100
1.04426600 -0.02037600 7.93199300
2.02377800 -0.02037600 7.55285100
3.06163400 -0.02037600 7.39144400
3.90963900 -0.02037600 6.77170200
4.87035500 -0.02037600 6.34717500
5.52906600 -0.02037600 5.52906800
6.34717500 -0.02037600 4.87035600
7.61798600 -0.02037500 -3.15546800
7.04521300 -0.02037600 -4.06754900
7.85791400 -0.02037600 -2.10551800
6.54170900 -0.02037500 -5.01962400
5.75238800 -0.02037600 -5.75238400
5.01962800 -0.02037500 -6.54170600
4.06755300 -0.02037600 -7.04520900
3.15547100 -0.02037500 -7.61798300
2.10552100 -0.02037600 -7.85791100
1.07627300 -0.02037500 -8.17509800
0.00000100 -0.02037600 -8.13510300
-1.07627000 -0.02037500 -8.17509800
-2.10551800 -0.02037600 -7.85791200
-3.15546800 -0.02037500 -7.61798400
-4.06755000 -0.02037600 -7.04521200
-5.01962600 -0.02037500 -6.54170900
-5.75238600 -0.02037600 -5.75238800
-6.54170800 -0.02037500 -5.01962700
-7.04521200 -0.02037600 -4.06755200
-7.61798600 -0.02037500 -3.15547000
-7.85791400 -0.02037600 -2.10552000
-8.17510100 -0.02037500 -1.07627200
-8.13510500 -0.02037600 0.00000000
-8.17510100 -0.02037500 1.07627200
-7.85791400 -0.02037600 2.10552000
-7.61798600 -0.02037500 3.15547000
-7.04521400 -0.02037600 4.06755300
-6.54171300 -0.02037500 5.01962900
-5.75239300 -0.02037600 5.75238800
-5.01963000 -0.02037500 6.54171000
-4.06755300 -0.02037600 7.04521400
-3.15547000 -0.02037500 7.61798700
-2.10552000 -0.02037600 7.85791500
-1.07627200 -0.02037500 8.17510300
0.00000000 -0.02037600 8.13510800
1.07627200 -0.02037500 8.17510400
2.10552000 -0.02037600 7.85791600
3.15547100 -0.02037500 7.61798800
4.06755300 -0.02037600 7.04521500
5.01962900 -0.02037500 6.54171200
5.75238900 -0.02037600 5.75239000
6.54171100 -0.02037500 5.01962900
7.04521500 -0.02037600 4.06755400
7.61798900 -0.02037500 3.15547100
7.85791700 -0.02037600 2.10552100
8.17510400 -0.02037500 1.07627300
8.13510800 -0.02037600 0.00000100
8.17510200 -0.02037500 -1.07627100
6.13623700 0.02755200 -2.54170800
4.63813200 0.03807300 -1.92117300
3.98285200 0.03807300 -3.05614700
3.05614900 0.03807300 -3.98285000
1.92117600 0.03807300 -4.63813000
0.65527800 0.03807300 -4.97732400
-0.65527600 0.03807300 -4.97732400
-1.92117400 0.03807300 -4.63813100
-3.05614700 0.03807300 -3.98285100
-3.98285200 0.03807300 -3.05614800
-4.63813200 0.03807300 -1.92117500
-4.97732500 0.03807300 -0.65527700
-4.97732500 0.03807300 0.65527700
-4.63813200 0.03807300 1.92117600
-3.98285400 0.03807300 3.05614900
-3.05615000 0.03807300 3.98285300
-1.92117500 0.03807300 4.63813300
-0.65527700 0.03807300 4.97732700
0.65527800 0.03807300 4.97732700
1.92117600 0.03807300 4.63813400
3.05614900 0.03807300 3.98285400
3.98285300 0.03807300 3.05615000
4.63813400 0.03807300 1.92117600
4.97732800 0.03807300 0.65527800
4.97732700 0.03807300 -0.65527600
6.99581600 0.00884900 -2.89775700
6.00744100 0.00884900 -4.60966600
4.60966900 0.00884900 -6.00743800
2.89776000 0.00884900 -6.99581300
0.98837300 0.00884900 -7.50742900
-0.98837000 0.00884900 -7.50743000
-2.89775700 0.00884900 -6.99581500
-4.60966700 0.00884900 -6.00744000
-6.00744000 0.00884900 -4.60966800
-6.99581600 0.00884900 -2.89775800
-7.50743100 0.00884900 -0.98837100
-7.50743100 0.00884900 0.98837200
-6.99581600 0.00884900 2.89776000
-6.00744300 0.00884900 4.60967000
-4.60967200 0.00884900 6.00744200
-2.89775900 0.00884900 6.99581800
-0.98837100 0.00884900 7.50743400
0.98837200 0.00884900 7.50743400
2.89776000 0.00884900 6.99581900
4.60967000 0.00884900 6.00744400
6.00744200 0.00884900 4.60967100
6.99581900 0.00884900 2.89776100
7.50743500 0.00884900 0.98837300
7.50743300 0.00884900 -0.98837000
7.22381300 -0.02037600 2.99219900
7.75210300 -0.02037600 1.02058400
7.75210100 -0.02037600 -1.02058200
7.22381100 -0.02037600 -2.99219500
6.20322300 -0.02037600 -4.75989600
4.75989900 -0.02037600 -6.20322100
2.99219800 -0.02037600 -7.22380800
1.02058400 -0.02037600 -7.75209700
-1.02058100 -0.02037600 -7.75209800
-2.99219600 -0.02037600 -7.22380900
-4.75989700 -0.02037600 -6.20322300
-6.20322300 -0.02037600 -4.75989800
-7.22381100 -0.02037600 -2.99219700
-7.75209900 -0.02037600 -1.02058300
-7.75210000 -0.02037600 1.02058300
-7.22381000 -0.02037600 2.99219800
-6.20322700 -0.02037600 4.75990000
-4.75990200 -0.02037600 6.20322500
-2.99219700 -0.02037600 7.22381200
-1.02058300 -0.02037600 7.75210100
1.02058300 -0.02037600 7.75210200
2.99219800 -0.02037600 7.22381300
4.75990000 -0.02037600 6.20322700
6.20322600 -0.02037600 4.75990100
7.51558600 -0.02037600 -3.11305200
6.45377600 -0.02037600 -4.95215100
4.95215500 -0.02037600 -6.45377300
3.11305600 -0.02037600 -7.51558400
1.06180600 -0.02037600 -8.06521000
-1.06180300 -0.02037600 -8.06521000
-3.11305300 -0.02037600 -7.51558400
-4.95215300 -0.02037600 -6.45377600
-6.45377600 -0.02037600 -4.95215400
-7.51558600 -0.02037600 -3.11305500
-8.06521300 -0.02037600 -1.06180500
-8.06521300 -0.02037600 1.06180500
-7.51558600 -0.02037600 3.11305500
-6.45378000 -0.02037600 4.95215600
-4.95215700 -0.02037600 6.45377800
-3.11305500 -0.02037600 7.51558700
-1.06180500 -0.02037600 8.06521500
1.06180500 -0.02037600 8.06521600
3.11305500 -0.02037600 7.51558800
4.95215600 -0.02037600 6.45377900
6.45377800 -0.02037600 4.95215700
7.51558900 -0.02037600 3.11305600
8.06521600 -0.02037600 1.06180600
8.06521400 -0.02037600 -1.06180400
-0.00000100 11.05288100 -6.46549000
1.67339100 11.05288100 -6.24518200
3.23274400 11.05288100 -5.59927300
4.57178500 11.05288100 -4.57179100
5.59927200 11.05288100 -3.23274500
6.24518300 11.05288100 -1.67339100
6.46549200 11.05288100 0.00000100
6.24518300 11.05288100 1.67339200
5.59927400 11.05288100 3.23274700
4.57179400 11.05288100 4.57178900
3.23274600 11.05288100 5.59927500
1.67339200 11.05288100 6.24518600
-0.00000000 11.05288100 6.46549500
-0.00000100 1.61073200 -8.04868500
2.08315200 1.61073200 -7.77442900
4.02434100 1.61073200 -6.97035900
5.69127100 1.61073200 -5.69127900
6.97035800 1.61073200 -4.02434300
7.77443100 1.61073200 -2.08315300
8.04868700 1.61073200 0.00000000
7.77443100 1.61073200 2.08315300
6.97036000 1.61073200 4.02434400
5.69128200 1.61073200 5.69127500
4.02434400 1.61073200 6.97036100
2.08315300 1.61073200 7.77443400
-0.00000000 1.61073200 8.04869000
8.80239500 9.36270800 2.35859400
9.11291400 9.36270700 -0.00000000
8.80239500 9.36270700 -2.35859500
7.89200400 9.36270700 -4.55645700
6.44379300 9.36270700 -6.44380200
4.55645400 9.36270700 -7.89200600
2.35859300 9.36270700 -8.80239300
-0.00000100 9.36270700 -9.11291300
0.00000000 9.36270700 9.11291600
2.35859500 9.36270700 8.80239700
4.55645800 9.36270700 7.89200700
6.44380500 9.36270700 6.44379700
7.89200600 9.36270700 4.55645800
10.63767900 6.04030000 2.85035700
11.01294000 6.04030000 -0.00000100
10.63767900 6.04030000 -2.85035800
9.53747400 6.04030000 -5.50647100
7.78731200 6.04030000 -7.78732300
5.50646800 6.04030000 -9.53747400
2.85035600 6.04030000 -10.63767500
-0.00000100 6.04030000 -11.01293800
0.00000100 6.04030000 11.01294400
2.85035800 6.04030000 10.63768000
5.50647100 6.04030000 9.53747500
7.78732600 6.04030000 7.78731600
9.53747700 6.04030000 5.50647000
9.00962200 4.24804600 5.20171300
10.04893100 4.24804600 2.69260300
10.40342400 4.24804600 -0.00000000
10.04893100 4.24804600 -2.69260400
9.00961900 4.24804600 -5.20171300
7.35631900 4.24804600 -7.35633000
5.20171000 4.24804600 -9.00961900
2.69260200 4.24804600 -10.04892800
-0.00000100 4.24804600 -10.40342200
0.00000100 4.24804600 10.40342800
2.69260400 4.24804600 10.04893500
5.20171400 4.24804600 9.00962100
7.35633400 4.24804600 7.35632500
10.48993100 7.77907300 -0.00000000
10.13249000 7.77907300 -2.71499300
9.08453600 7.77907300 -5.24496600
7.41749000 7.77907300 -7.41750000
5.24496300 7.77907300 -9.08453600
2.71499100 7.77907300 -10.13248600
-0.00000100 7.77907300 -10.48992700
0.00000100 7.77907300 10.48993400
2.71499400 7.77907300 10.13249100
5.24496600 7.77907300 9.08453700
7.41750200 7.77907300 7.41749300
9.08453800 7.77907300 5.24496600
10.13249000 7.77907300 2.71499200
6.16391400 10.61080600 -3.55874200
5.03281300 10.61080600 -5.03281900
3.55874000 10.61080600 -6.16391500
1.84213800 10.61080600 -6.87495800
-0.00000100 10.61080600 -7.11748200
-0.00000000 10.61080600 7.11748700
1.84214000 10.61080600 6.87496200
3.55874300 10.61080600 6.16391700
5.03282200 10.61080600 5.03281600
6.16391600 10.61080600 3.55874300
6.87495900 10.61080600 1.84214000
7.11748400 10.61080600 0.00000000
6.87495900 10.61080600 -1.84213900
0.00000000 2.12294400 8.49424100
2.19847000 2.12294400 8.20480300
4.24711900 2.12294400 7.35621800
6.00633300 2.12294400 6.00632600
7.35621800 2.12294400 4.24711900
8.20480000 2.12294400 2.19846900
8.49423700 2.12294400 -0.00000000
8.20480000 2.12294400 -2.19846900
7.35621500 2.12294400 -4.24711800
6.00632100 2.12294400 -6.00633000
4.24711600 2.12294400 -7.35621500
2.19846800 2.12294400 -8.20479800
-0.00000100 2.12294400 -8.49423500
-0.00000000 1.20027900 8.02507200
2.07704000 1.20027900 7.75162100
4.01253500 1.20027900 6.94990700
5.67458200 1.20027900 5.67457400
6.94990600 1.20027900 4.01253600
7.75161700 1.20027900 2.07704000
8.02506800 1.20027900 0.00000000
7.75161700 1.20027900 -2.07704000
6.94990400 1.20027900 -4.01253400
5.67457000 1.20027900 -5.67457900
4.01253200 1.20027900 -6.94990500
2.07703900 1.20027900 -7.75161600
-0.00000100 1.20027900 -8.02506700
-0.00000000 0.57912300 8.02507200
2.07704000 0.57912300 7.75162100
4.01253500 0.57912300 6.94990700
5.67458100 0.57912300 5.67457400
6.94990600 0.57912300 4.01253500
7.75161700 0.57912300 2.07704000
8.02506800 0.57912300 0.00000000
7.75161700 0.57912300 -2.07704000
6.94990400 0.57912300 -4.01253400
5.67457000 0.57912300 -5.67457900
4.01253200 0.57912300 -6.94990500
2.07703900 0.57912300 -7.75161600
-0.00000100 0.57912300 -8.02506700
-0.00000100 10.87597800 -6.65589000
0.84388300 11.05288100 -6.40994000
1.72266900 10.87597800 -6.42909300
0.92898200 10.61080600 -7.05633000
2.47414400 11.05288100 -5.97310900
3.32794300 10.87597800 -5.76416300
2.72364100 10.61080600 -6.57544900
3.93579200 11.05288100 -5.12922500
4.70641800 10.87597800 -4.70642400
4.33268500 10.61080600 -5.64646600
5.12922100 11.05288100 -3.93579600
5.76416300 10.87597800 -3.32794500
5.64646200 10.61080600 -4.33268900
5.97311000 11.05288100 -2.47414500
6.42909500 10.87597800 -1.72267000
6.57545000 10.61080600 -2.72364200
6.40994200 11.05288100 -0.84388400
6.65589100 10.87597800 0.00000000
7.05633200 10.61080600 -0.92898300
6.40994200 11.05288100 0.84388500
6.42909500 10.87597800 1.72267100
7.05633200 10.61080600 0.92898400
5.97311000 11.05288100 2.47414600
5.76416400 10.87597800 3.32794700
6.57545000 10.61080600 2.72364400
5.12922700 11.05288100 3.93579500
4.70642700 10.87597800 4.70642100
5.64646900 10.61080600 4.33268800
3.93579800 11.05288100 5.12922500
3.32794600 10.87597800 5.76416500
4.33269100 10.61080600 5.64646500
2.47414500 11.05288100 5.97311300
1.72267100 10.87597800 6.42909700
2.72364300 10.61080600 6.57545200
0.84388400 11.05288100 6.40994400
-0.00000000 10.87597800 6.65589400
0.92898300 10.61080600 7.05633400
-0.00000100 1.43635700 -8.02506700
1.05052400 1.61073200 -7.97953200
2.07703900 1.43635700 -7.75161600
1.04744100 1.20027900 -7.95611700
3.07998400 1.61073200 -7.43573500
4.01253200 1.43635700 -6.94990500
3.07094600 1.20027900 -7.41391600
4.89954300 1.61073200 -6.38521100
5.67457000 1.43635700 -5.67457900
4.88516500 1.20027900 -6.36647500
6.38520600 1.61073200 -4.89954900
6.94990400 1.43635700 -4.01253500
6.36646900 1.20027900 -4.88517200
7.43573600 1.61073200 -3.07998500
7.75161700 1.43635700 -2.07704000
7.41391700 1.20027900 -3.07094700
7.97953400 1.61073200 -1.05052500
8.02506900 1.43635700 0.00000000
7.95611900 1.20027900 -1.04744200
7.97953400 1.61073200 1.05052500
7.75161700 1.43635700 2.07704000
7.95611900 1.20027900 1.04744200
7.43573600 1.61073200 3.07998600
6.94990600 1.43635700 4.01253500
7.41391700 1.20027900 3.07094800
6.38521300 1.61073200 4.89954700
5.67458200 1.43635700 5.67457300
6.36647700 1.20027900 4.88516900
4.89955100 1.61073200 6.38520900
4.01253500 1.43635700 6.94990700
4.88517400 1.20027900 6.36647300
3.07998600 1.61073200 7.43573900
2.07704000 1.43635700 7.75162100
3.07094800 1.20027900 7.41391900
1.05052500 1.61073200 7.97953700
-0.00000000 1.43635700 8.02507200
1.04744300 1.20027900 7.95612100
9.03461600 9.36270800 1.18942900
9.91429100 8.59700200 -0.00000000
9.57646600 8.59700200 2.56600600
10.39980300 7.77907400 1.36915900
9.03461600 9.36270800 -1.18942900
9.57646600 8.59700200 -2.56600600
10.39980300 7.77907400 -1.36915900
8.41891700 9.36270800 -3.48723200
8.58601800 8.59700200 -4.95714600
9.69106700 7.77907400 -4.01417400
7.22948300 9.36270800 -5.54738600
7.01045200 8.59700200 -7.01046100
8.32190100 7.77907400 -6.38563000
5.54737900 9.36270800 -7.22948800
4.95714300 8.59700200 -8.58601900
6.38562200 7.77907400 -8.32190800
3.48723100 9.36270800 -8.41891500
2.56600500 8.59700200 -9.57646300
4.01417200 7.77907400 -9.69106500
1.18942800 9.36270800 -9.03461500
-0.00000100 8.59700200 -9.91428900
1.36915800 7.77907400 -10.39979900
0.00000000 8.59700200 9.91429400
1.18943000 9.36270800 9.03461800
2.56600700 8.59700200 9.57646700
1.36916000 7.77907400 10.39980500
3.48723200 9.36270800 8.41891900
4.95714700 8.59700200 8.58602000
4.01417400 7.77907400 9.69106700
5.54738800 9.36270800 7.22948600
7.01046500 8.59700200 7.01045600
6.38563200 7.77907400 8.32190500
7.22949100 9.36270800 5.54738300
8.58602000 8.59700200 4.95714700
8.32191100 7.77907400 6.38562600
8.41891700 9.36270800 3.48723200
9.69106700 7.77907400 4.01417400
10.91831800 6.04030000 1.43742200
10.89483600 5.19088500 -0.00000100
10.52359900 5.19088500 2.81978900
10.31403900 4.24804700 1.35786800
10.91831800 6.04030000 -1.43742300
10.52359900 5.19088500 -2.81979000
10.31403900 4.24804700 -1.35786900
10.17424600 6.04030000 -4.21431400
9.43519400 5.19088500 -5.44741900
9.61114800 4.24804700 -3.98107100
8.73681600 6.04030000 -6.70400600
7.70380000 5.19088500 -7.70381100
8.25327400 4.24804700 -6.33297000
6.70399800 6.04030000 -8.73682300
5.44741500 5.19088500 -9.43519400
6.33296300 4.24804700 -8.25328000
4.21431200 6.04030000 -10.17424400
2.81978900 5.19088500 -10.52359700
3.98107000 4.24804700 -9.61114700
1.43742200 6.04030000 -10.91831600
-0.00000100 5.19088500 -10.89483500
1.35786700 4.24804700 -10.31403800
0.00000100 5.19088500 10.89483900
1.43742400 6.04030000 10.91832100
2.81979100 5.19088500 10.52360200
1.35786900 4.24804700 10.31404300
4.21431400 6.04030000 10.17424600
5.44742000 5.19088500 9.43519500
3.98107100 4.24804700 9.61115000
6.70400800 6.04030000 8.73681900
7.70381500 5.19088500 7.70380400
6.33297300 4.24804700 8.25327700
8.73682600 6.04030000 6.70400200
9.43519600 5.19088500 5.44741900
8.25328400 4.24804700 6.33296600
10.17424600 6.04030000 4.21431400
9.61114800 4.24804700 3.98107100
9.10807500 3.09314600 2.44050100
8.16607300 3.09314600 4.71468900
7.84735500 2.12294400 3.25048400
9.42937900 3.09314600 -0.00000000
8.42125500 2.12294400 1.10867900
9.10807500 3.09314600 -2.44050200
8.42125500 2.12294400 -1.10867900
8.16607100 3.09314600 -4.71468900
7.84735500 2.12294400 -3.25048400
6.66756600 3.09314600 -6.66757500
6.73867100 2.12294400 -5.17077300
4.71468700 3.09314600 -8.16607100
5.17076600 2.12294400 -6.73867700
2.44050100 3.09314600 -9.10807400
3.25048200 2.12294400 -7.84735400
-0.00000100 3.09314600 -9.42937700
1.10867800 2.12294400 -8.42125400
0.00000000 3.09314600 9.42938100
2.44050200 3.09314600 9.10807800
1.10867900 2.12294400 8.42125900
4.71469000 3.09314600 8.16607300
3.25048400 2.12294400 7.84735800
6.66757900 3.09314600 6.66757000
5.17077500 2.12294400 6.73867500
6.73867900 2.12294400 5.17077000
10.49676800 6.91493500 -2.81260100
10.86706000 6.91493500 -0.00000100
9.41113800 6.91493500 -5.43353000
7.68415900 6.91493500 -7.68417000
5.43352700 6.91493500 -9.41113900
2.81259900 6.91493500 -10.49676500
-0.00000100 6.91493500 -10.86705600
0.00000100 6.91493500 10.86706200
2.81260200 6.91493500 10.49676900
5.43353100 6.91493500 9.41113900
7.68417300 6.91493500 7.68416300
9.41114000 6.91493500 5.43352900
10.49676800 6.91493500 2.81260000
5.69825900 10.07017900 -5.69826700
6.97891600 10.07017900 -4.02928400
4.02928200 10.07017900 -6.97891700
2.08570900 10.07017900 -7.78397400
-0.00000100 10.07017900 -8.05856600
-0.00000000 10.07017900 8.05857100
2.08571100 10.07017900 7.78397800
4.02928400 10.07017900 6.97891900
5.69826900 10.07017900 5.69826300
6.97891800 10.07017900 4.02928500
7.78397600 10.07017900 2.08571000
8.05856900 10.07017900 0.00000000
7.78397600 10.07017900 -2.08571000
-0.00000000 1.73420000 8.11954400
2.10149200 1.73420000 7.84287500
4.05977200 1.73420000 7.03172300
5.74138400 1.73420000 5.74137600
7.03172200 1.73420000 4.05977200
7.84287100 1.73420000 2.10149100
8.11954200 1.73420000 0.00000000
7.84287100 1.73420000 -2.10149100
7.03172000 1.73420000 -4.05977100
5.74137300 1.73420000 -5.74138100
4.05976800 1.73420000 -7.03172100
2.10149000 1.73420000 -7.84287000
-0.00000100 1.73420000 -8.11954000
-0.00000000 0.89170100 8.02507100
2.07704000 0.89170100 7.75162000
1.04744300 0.57912300 7.95612100
4.01253500 0.89170100 6.94990700
3.07094800 0.57912300 7.41391900
5.67458100 0.89170100 5.67457400
4.88517400 0.57912300 6.36647300
6.94990600 0.89170100 4.01253500
6.36647700 0.57912300 4.88516900
7.75161700 0.89170100 2.07704000
7.41391700 0.57912300 3.07094800
8.02506900 0.89170100 0.00000000
7.95611900 0.57912300 1.04744200
7.75161700 0.89170100 -2.07704000
7.95611900 0.57912300 -1.04744200
6.94990400 0.89170100 -4.01253500
7.41391700 0.57912300 -3.07094700
5.67457000 0.89170100 -5.67457900
6.36646900 0.57912300 -4.88517200
4.01253200 0.89170100 -6.94990500
4.88516500 0.57912300 -6.36647500
2.07703900 0.89170100 -7.75161600
3.07094600 0.57912300 -7.41391600
-0.00000100 0.89170100 -8.02506700
1.04744100 0.57912300 -7.95611700
-0.00000000 0.33104600 8.02507100
2.07704000 0.33104600 7.75162000
4.01253500 0.33104600 6.94990700
5.67458100 0.33104600 5.67457400
6.94990600 0.33104600 4.01253500
7.75161700 0.33104600 2.07704000
8.02506900 0.33104600 0.00000000
7.75161700 0.33104600 -2.07704000
6.94990400 0.33104600 -4.01253500
5.67457000 0.33104600 -5.67457900
4.01253200 0.33104600 -6.94990500
2.07703900 0.33104600 -7.75161600
-0.00000100 0.33104600 -8.02506700
0.86873400 10.87597800 -6.59870300
2.54700400 10.87597800 -6.14900800
4.05169500 10.87597800 -5.28027300
5.28027000 10.87597800 -4.05170000
6.14900900 10.87597800 -2.54700500
6.59870500 10.87597800 -0.86873500
6.59870500 10.87597800 0.86873600
6.14901000 10.87597800 2.54700600
5.28027500 10.87597800 4.05169900
4.05170200 10.87597800 5.28027200
2.54700500 10.87597800 6.14901200
0.86873600 10.87597800 6.59870700
1.04744100 1.43635700 -7.95611700
3.07094600 1.43635700 -7.41391600
4.88516500 1.43635700 -6.36647500
6.36646900 1.43635700 -4.88517200
7.41391700 1.43635700 -3.07094700
7.95611900 1.43635700 -1.04744200
7.95611900 1.43635700 1.04744200
7.41391700 1.43635700 3.07094800
6.36647700 1.43635700 4.88516900
4.88517400 1.43635700 6.36647300
3.07094800 1.43635700 7.41391900
1.04744300 1.43635700 7.95612100
9.82910900 8.59700200 1.29402600
9.82910900 8.59700200 -1.29402600
9.15926600 8.59700200 -3.79389500
7.86523400 8.59700200 -6.03521600
6.03520900 8.59700200 -7.86524000
3.79389300 8.59700200 -9.15926400
1.29402500 8.59700200 -9.82910600
1.29402700 8.59700200 9.82911100
3.79389500 8.59700200 9.15926600
6.03521800 8.59700200 7.86523800
7.86524300 8.59700200 6.03521300
9.15926600 8.59700200 3.79389500
10.80122900 5.19088500 1.42200700
10.80122900 5.19088500 -1.42200900
10.06513700 5.19088500 -4.16911900
8.64312300 5.19088500 -6.63211200
6.63210400 5.19088500 -8.64312900
4.16911800 5.19088500 -10.06513500
1.42200700 5.19088500 -10.80122800
1.42200900 5.19088500 10.80123200
4.16912000 5.19088500 10.06513800
6.63211400 5.19088500 8.64312600
8.64313200 5.19088500 6.63210800
10.06513600 5.19088500 4.16911900
8.71128000 3.09314600 3.60833400
9.34836200 3.09314600 1.23073400
9.34836200 3.09314600 -1.23073500
8.71128000 3.09314600 -3.60833300
7.48054000 3.09314600 -5.74002900
5.74002300 3.09314600 -7.48054600
3.60833200 3.09314600 -8.71127900
1.23073400 3.09314600 -9.34836100
1.23073500 3.09314600 9.34836600
3.60833400 3.09314600 8.71128300
5.74003200 3.09314600 7.48054300
7.48054900 3.09314600 5.74002600
10.77369100 6.91493500 -1.41838300
10.03947400 6.91493500 -4.15849000
8.62108600 6.91493500 -6.61520200
6.61519400 6.91493500 -8.62109300
4.15848800 6.91493500 -10.03947300
1.41838100 6.91493500 -10.77368700
1.41838300 6.91493500 10.77369300
4.15849000 6.91493500 10.03947400
6.61520500 6.91493500 8.62108900
8.62109600 6.91493500 6.61519900
10.03947400 6.91493500 4.15848900
10.77369100 6.91493500 1.41838200
6.39304600 10.07017900 -4.90556400
4.90555900 10.07017900 -6.39305100
3.08376500 10.07017900 -7.44486400
1.05181300 10.07017900 -7.98932800
1.05181500 10.07017900 7.98933200
3.08376600 10.07017900 7.44486700
4.90556600 10.07017900 6.39304900
6.39305300 10.07017900 4.90556200
7.44486500 10.07017900 3.08376700
7.98933000 10.07017900 1.05181500
7.98933000 10.07017900 -1.05181500
7.44486500 10.07017900 -3.08376600
1.05977300 1.73420000 8.04978300
3.10709900 1.73420000 7.50119800
4.94268300 1.73420000 6.44142000
6.44142400 1.73420000 4.94267800
7.50119500 1.73420000 3.10710000
8.04978000 1.73420000 1.05977300
8.04978000 1.73420000 -1.05977300
7.50119400 1.73420000 -3.10709900
6.44141700 1.73420000 -4.94268100
4.94267500 1.73420000 -6.44142200
3.10709800 1.73420000 -7.50119400
1.05977200 1.73420000 -8.04977800
1.04744300 0.89170100 7.95612100
3.07094800 0.89170100 7.41391900
4.88517400 0.89170100 6.36647300
6.36647700 0.89170100 4.88516900
7.41391700 0.89170100 3.07094800
7.95611900 0.89170100 1.04744200
7.95611900 0.89170100 -1.04744200
7.41391700 0.89170100 -3.07094700
6.36646900 0.89170100 -4.88517200
4.88516500 0.89170100 -6.36647500
3.07094600 0.89170100 -7.41391600
1.04744100 0.89170100 -7.95611700
1.04744300 0.33104600 7.95612100
3.07094800 0.33104600 7.41391900
4.88517400 0.33104600 6.36647200
6.36647700 0.33104600 4.88516900
7.41391700 0.33104600 3.07094800
7.95611900 0.33104600 1.04744200
7.95611900 0.33104600 -1.04744200
7.41391700 0.33104600 -3.07094700
6.36646900 0.33104600 -4.88517200
4.88516500 0.33104600 -6.36647500
3.07094600 0.33104600 -7.41391600
1.04744100 0.33104600 -7.95611700
0.00000100 11.05288100 -6.46549000
-1.67339100 11.05288100 -6.24518200
-3.23274400 11.05288100 -5.59927300
-4.57178500 11.05288100 -4.57179100
-5.59927200 11.05288100 -3.23274500
-6.24518300 11.05288100 -1.67339100
-6.46549200 11.05288100 0.00000100
-6.24518300 11.05288100 1.67339200
-5.59927400 11.05288100 3.23274700
-4.57179400 11.05288100 4.57178900
-3.23274600 11.05288100 5.59927500
-1.67339200 11.05288100 6.24518600
0.00000000 11.05288100 6.46549500
0.00000100 1.61073200 -8.04868500
-2.08315200 1.61073200 -7.77442900
-4.02434100 1.61073200 -6.97035900
-5.69127100 1.61073200 -5.69127900
-6.97035800 1.61073200 -4.02434300
-7.77443100 1.61073200 -2.08315300
-8.04868700 1.61073200 0.00000000
-7.77443100 1.61073200 2.08315300
-6.97036000 1.61073200 4.02434400
-5.69128200 1.61073200 5.69127500
-4.02434400 1.61073200 6.97036100
-2.08315300 1.61073200 7.77443400
0.00000000 1.61073200 8.04869000
-8.80239500 9.36270800 2.35859400
-9.11291400 9.36270700 -0.00000000
-8.80239500 9.36270700 -2.35859500
-7.89200400 9.36270700 -4.55645700
-6.44379300 9.36270700 -6.44380200
-4.55645400 9.36270700 -7.89200600
-2.35859300 9.36270700 -8.80239300
0.00000100 9.36270700 -9.11291300
-0.00000000 9.36270700 9.11291600
-2.35859500 9.36270700 8.80239700
-4.55645800 9.36270700 7.89200700
-6.44380500 9.36270700 6.44379700
-7.89200600 9.36270700 4.55645800
-10.63767900 6.04030000 2.85035700
-11.01294000 6.04030000 -0.00000100
-10.63767900 6.04030000 -2.85035800
-9.53747400 6.04030000 -5.50647100
-7.78731200 6.04030000 -7.78732300
-5.50646800 6.04030000 -9.53747400
-2.85035600 6.04030000 -10.63767500
0.00000100 6.04030000 -11.01293800
-0.00000100 6.04030000 11.01294400
-2.85035800 6.04030000 10.63768000
-5.50647100 6.04030000 9.53747500
-7.78732600 6.04030000 7.78731600
-9.53747700 6.04030000 5.50647000
-9.00962200 4.24804600 5.20171300
-10.04893100 4.24804600 2.69260300
-10.40342400 4.24804600 -0.00000000
-10.04893100 4.24804600 -2.69260400
-9.00961900 4.24804600 -5.20171300
-7.35631900 4.24804600 -7.35633000
-5.20171000 4.24804600 -9.00961900
-2.69260200 4.24804600 -10.04892800
0.00000100 4.24804600 -10.40342200
-0.00000100 4.24804600 10.40342800
-2.69260400 4.24804600 10.04893500
-5.20171400 4.24804600 9.00962100
-7.35633400 4.24804600 7.35632500
-10.48993100 7.77907300 -0.00000000
-10.13249000 7.77907300 -2.71499300
-9.08453600 7.77907300 -5.24496600
-7.41749000 7.77907300 -7.41750000
-5.24496300 7.77907300 -9.08453600
-2.71499100 7.77907300 -10.13248600
0.00000100 7.77907300 -10.48992700
-0.00000100 7.77907300 10.48993400
-2.71499400 7.77907300 10.13249100
-5.24496600 7.77907300 9.08453700
-7.41750200 7.77907300 7.41749300
-9.08453800 7.77907300 5.24496600
-10.13249000 7.77907300 2.71499200
-6.16391400 10.61080600 -3.55874200
-5.03281300 10.61080600 -5.03281900
-3.55874000 10.61080600 -6.16391500
-1.84213800 10.61080600 -6.87495800
0.00000100 10.61080600 -7.11748200
0.00000000 10.61080600 7.11748700
-1.84214000 10.61080600 6.87496200
-3.55874300 10.61080600 6.16391700
-5.03282200 10.61080600 5.03281600
