66.29704300 27.71809600 -29.51864400
-69.44385500 6.76474100 -34.54288900
-39.39718200 40.91678200 -0.63281800
59.32807900 44.87823500 -24.11570700
-22.40876000 26.57938200 -72.08287000
-46.59375000 -17.68092300 -41.07371100
-32.81366000 38.52600100 27.56193000
10.19844000 -7.19286400 62.09199100
26.14308700 12.14576900 64.61010000
3.00121100 7.44399500 70.53131900
-30.32423600 62.72738600 -66.22593700
15.56796900 -27.96112400 24.29799100
-84.92619300 83.10491900 -5.72441900
-27.35660200 -35.92702500 36.79434600
30.20054800 -19.89922700 -58.91592400
22.67326000 41.91114000 -60.10275300
16.48085800 12.90930200 68.49089800
-18.84272400 -74.09384900 -56.82011000
9.20996800 -3.48301200 65.79135900
42.93795400 -1.16264500 -67.41851000
7.32472100 54.57323800 -65.68264000
39.09962500 62.14174700 45.63917900
-75.47546400 73.59940300 -34.68791600
-57.21563700 67.09194200 -33.78577800
34.19278700 5.22709500 63.38134000
-42.98688900 -66.96244000 35.19138000
-59.46644600 -41.47578800 23.68079800
-30.31880000 36.94586200 -50.05656400
-7.58570900 40.09637500 -65.89789600
-72.36838500 77.20813000 -31.02431100
-50.48199800 -69.28829200 12.28467200
-78.11914100 77.14341000 9.18466200
-54.18959800 38.82206300 -23.37964600
50.85514100 -16.32559600 -36.95483400
-17.93782200 45.40087100 -28.18915700
61.32771300 1.44989000 -48.11122500
41.73899100 49.71122700 40.31943500
-76.82898700 71.43843100 6.90779400
-21.39564700 -32.28498800 3.41646000
57.46602200 62.75756500 27.92711100
35.36029800 63.45480300 -60.81522000
-49.32104500 -39.95246100 40.32016800
66.18643200 6.46312000 -43.22741700
72.90808100 18.23371700 -27.32129900
-42.27689700 61.90864900 37.36062600
-80.54917900 75.15554000 0.49244300
-43.84818600 -3.30576500 57.45233900
19.01459700 46.01152400 52.68301800
-46.03221500 56.52103400 22.48738300
1.29567500 9.89618300 68.59644300
61.98951700 58.66128200 -26.64349000
81.59503200 79.76164200 -29.03126300
-40.54261800 62.74501400 -52.44332500
-66.95518500 72.64677400 -37.64881900
-4.38572500 43.63802300 -64.91782400
39.93273200 62.17629200 49.57247200
-80.26464800 77.67521700 -4.38496000
18.29825400 36.93564600 -60.59579800
39.35565900 54.10467500 40.28440500
18.60817100 42.70594400 -61.67163500
-44.51496100 -74.41729700 14.20838500
-81.92674300 78.41214000 -16.34397500
2.71836000 63.41983000 -70.73030100
-59.73881100 57.26149700 -0.27025600
-19.11607200 -24.48771300 43.20880900
72.82017500 68.25578300 14.98122900
36.87023500 -4.40927900 57.04390300
-33.18556600 -68.03466800 17.15491700
-56.58550300 64.26849400 -33.16289500
40.00302100 -14.00363000 -58.40404900
-11.32910300 23.27880900 -76.60568200
-62.42825300 -0.13736400 -43.31631100
87.71591900 77.05527500 -9.63011000
-73.44226800 70.38240800 6.42921200
59.10140600 64.57923100 -31.61038200
-60.48931900 -8.29815400 -35.54038200
-54.60913500 62.78895600 16.28840300
-20.99021100 3.58152800 67.87655600
-64.59809900 66.62035400 -37.96422200
9.23239300 20.62291700 -78.25627900
-3.64763800 -23.69376600 -75.11835500
57.90201200 42.66533300 -15.88078400
-1.31843400 -39.80781900 -69.74400300
58.47486900 0.35233300 42.25948300
-71.87680100 76.95902300 10.70278900
-52.82001500 24.02091000 47.05277600
61.97407500 60.53693400 8.88840100
60.37250900 65.57408900 14.97686500
48.50429500 -45.30391300 31.41933400
-35.12861300 -7.69787500 59.74638000
41.31504800 44.12690000 -50.45522700
-39.44644500 -20.27830900 -52.83212300
-23.34880400 4.53824600 -78.15908800
-58.97693600 57.64316200 3.69240200
-35.14780400 62.50821700 -57.13087500
35.67540400 51.92875700 42.83137100
55.76258900 61.61790500 -42.62475200
-45.74002100 14.02115800 -65.42636100
5.33298800 22.89146400 69.53030400
7.64240900 -2.08192000 66.90522000
51.51355000 -6.36972000 -54.40914900
33.74843200 -68.33100900 6.26663100
-47.21881100 -69.05878400 13.07443800
-14.59466600 -31.49679600 6.81110000
6.89959600 13.32196900 70.18489100
37.63525400 -21.53957200 45.73649200
19.90382600 -0.90001500 61.30955900
78.01304600 8.97432900 -3.86780300
79.69690700 74.24018100 -24.81413100
21.39918100 -15.67276200 51.22766100
-72.24420900 -7.91054100 10.06569400
85.38194300 75.86539500 -17.15517800
-7.89244800 14.54908900 71.42831400
-2.46049700 -34.13147400 -24.29762800
-57.17325600 38.56935500 -9.55561100
-43.72193900 47.53691100 -44.26811200
48.27282300 23.95987500 50.29115300
34.17433500 -18.75759100 -55.82415000
-35.39210100 37.51643400 35.64040400
-31.70452500 -67.46847500 19.94331400
-16.80340400 -45.60559500 -39.50505100
23.65823200 42.74838600 18.37519500
-56.41385300 -61.69940600 19.45408100
-20.50297900 47.18272800 -62.89492000
-65.78444700 63.80406200 12.35784200
5.82520600 39.88804200 -49.14106400
-11.08499600 3.62784600 69.45190400
70.12341300 72.63648200 12.68739300
44.08305000 58.08456000 -49.04817600
22.87139900 -38.23676300 12.80106300
33.72772600 49.07162100 46.16149100
14.16369400 38.23102200 52.10975600
43.39447800 -15.00866200 -51.91663400
-14.24614900 -10.26965400 60.59822500
27.74519700 -75.42944300 16.11788000
81.93940000 82.73055300 -6.94970400
4.26060900 60.99777200 -68.05287200
7.91151700 43.38388400 -64.26347400
-55.96047600 -19.95905500 40.49303800
-69.23233800 22.47920400 -29.09951000
-74.37120100 19.54738000 7.95749900
-13.38378900 63.19062400 -66.00592800
-60.03192500 61.82807900 -33.45052000
-80.73034700 75.24578900 -27.08796300
58.44556000 36.66819000 -13.00327200
51.71023600 62.13597500 -48.95542500
-23.24756200 -3.69036400 64.96345500
7.04829700 16.41166300 67.04896500
-67.57498200 22.33026300 26.94714900
86.75437900 77.24118800 -23.03319400
56.43665700 62.12803300 -34.09022100
45.69189500 38.75660300 -14.41020600
7.19557300 -1.38005100 -81.31542200
66.63129400 68.46981800 14.91849900
-35.41854100 44.37404300 42.67798200
58.36989200 41.84796500 -18.67883100
-11.51195200 -21.29307700 -75.75064100
26.82779100 0.08767900 62.89304700
13.21497100 59.67309200 -71.13655900
-86.49978600 80.82931500 -18.69464700
-46.50025900 63.81880600 35.01026900
-32.55640800 -0.31279000 64.18317400
60.81146600 62.07989500 14.91861400
-31.69464100 -73.40370900 11.40668800
41.33560900 -7.78162600 54.65498400
-28.41080500 -13.47512600 57.64429900
46.49794800 4.53555700 56.48613700
72.45484200 23.65667700 -19.66942400
-59.50147200 65.87924200 -40.01794100
-35.68977700 58.37468000 41.25517300
12.75091700 -36.47785900 -50.67619300
68.76269500 72.24871100 -29.70863900
73.78681900 75.77604700 7.53479200
58.76565600 64.03762800 -33.18938800
-63.15011200 -13.63402500 -15.92561900
66.05085800 60.71086900 11.96612500
57.98590900 61.81018100 -27.61909100
5.35577900 40.67611700 55.29759600
56.70879400 -68.45414700 15.04041300
69.39600400 3.14793200 -35.60517100
-70.46097600 22.46090900 19.26517900
-64.02957900 63.95662300 -33.72278200
54.59188100 -76.11629500 17.65487300
-59.36217500 67.58225300 14.96498400
-31.00145900 -27.51204900 -57.33375200
3.49344200 1.84702700 67.80593100
-57.36291100 66.94696800 -40.99169200
49.98546600 -20.67358800 41.11694700
-69.41735100 68.36583700 -35.62949000
65.89429500 -22.09181400 -2.21856500
70.44281000 70.53472900 14.51991600
-55.96145200 64.45718400 11.87628000
31.16457600 9.69245300 63.76507600
-7.54406600 2.30951800 69.14891800
-48.04853100 54.94881100 22.61727000
-7.02709300 10.81430800 69.78754400
9.08765900 10.55891300 69.52400200
2.93852700 -34.47312200 -29.17541100
62.77620300 8.32233300 40.98080400
-25.63091700 -23.20016100 -68.33596000
-46.77986900 52.42903500 -43.50931900
75.77585600 -4.28522200 0.94628900
8.68409400 -29.64357900 10.00592500
-25.59331300 -11.73881900 -74.06126400
53.46556500 40.31531900 24.72927700
50.75139200 -75.63009600 25.04190300
24.40649200 -56.40940500 9.19529200
-40.18454400 -35.96009800 4.15396200
4.00075700 -9.48910800 -80.18506600
-76.03082300 12.14419600 8.26894700
46.35506100 41.79573400 34.90889000
20.76891700 63.74993900 -66.54598200
26.27986300 -13.04036100 54.80732000
58.96817000 61.19184900 -24.53950300
20.85718700 37.39643100 52.24502200
3.69820600 -42.07114400 -66.63530700
57.66842300 60.55311600 29.98749900
-41.98626300 42.10002100 -47.80044900
23.06658700 38.34988400 -62.11342600
45.11709600 7.76403900 54.87019300
-13.17986600 -7.88836600 -79.53048700
52.36095800 -50.77718700 4.22135400
-41.64378000 -69.03696400 12.55835300
-75.61055000 1.38428300 5.09194800
-31.40285300 -67.45981600 15.10514000
45.56706600 63.16801800 -53.62695300
54.69022400 63.46863900 -42.12948600
85.86830900 77.87704500 -12.48579200
55.53250100 59.38415900 24.46908000
-35.60183700 -75.20761900 17.66661100
36.77103000 39.80687300 40.93114900
31.81759500 -52.20796600 26.18695300
-60.88246500 35.72366700 6.57947300
-74.78134900 71.23742700 -35.42598300
63.84516500 -17.65504300 -14.81810100
15.68188200 3.29856300 68.44548800
66.72022200 -2.89559800 -35.65022300
-23.96983700 -34.71383300 33.88543300
-46.90671900 49.99889000 -40.30544300
-69.30174300 -8.77269800 21.63893300
-43.09901400 64.70270500 -51.15274800
-79.29991100 82.73681600 -1.51690800
-56.64547300 66.77792400 -35.98954800
5.06632000 12.28270000 67.37741900
76.15187800 3.95490800 -18.17605200
-79.68171700 82.61579100 2.93765900
63.97839400 68.08646400 10.87744900
59.21446600 60.43044300 -22.69519400
81.08965300 72.73687000 -29.28672800
-38.96767400 -75.48653400 32.92527800
-36.05271100 61.86464300 -55.74493000
49.64170800 55.44204700 29.81442300
77.60073100 12.60203100 -10.70551100
-50.58540300 -65.87046800 12.40653300
-1.04743500 63.44082600 57.41692700
-43.49952300 57.83709300 30.77901800
-3.51487900 -8.50190400 62.19047900
73.56225600 -9.61445900 -3.62944500
74.61897300 75.72216000 -27.45297600
-10.95081200 11.23598700 69.62107100
11.79195900 41.47147000 -64.93918600
-58.96621700 63.73761700 -19.59766600
0.01555400 -8.08672600 -80.43975800
-4.60675500 64.15748600 -70.76764700
-36.37398900 -73.18775900 19.17505300
-63.36388000 66.88488800 6.89165100
-53.33363700 17.56965800 50.31658600
71.76201600 66.92352300 8.18172500
79.58397700 80.70334600 1.24929600
-1.30500100 7.72613100 68.15992000
-0.64452900 61.36634100 -73.67456800
-7.87730300 -75.58199300 -58.80606500
-8.11653300 -75.66842700 -51.70626800
-72.28959700 15.65890400 21.66732200
-25.22014800 -16.15854500 -72.19358100
76.69770100 1.32136700 -10.77592800
85.85247000 81.73528300 -21.87302200
-30.65584200 64.61618000 -63.16738100
87.68706500 79.79441100 -1.32928900
70.07820900 26.91249800 -19.69058600
61.45821000 16.15977700 -50.44825700
-59.47078300 53.18224700 -3.01691300
65.68183900 59.73918200 9.69425500
-33.86576100 -68.25436400 30.02854700
6.46492300 -73.62514500 -54.85924500
-75.11584500 7.78168800 -14.65592600
77.86008500 69.54361700 10.65908500
-21.56775100 7.24226400 69.03582800
-43.45087100 62.39971200 34.10263800
32.63863000 24.37355400 60.74732600
-10.47207900 50.66843000 -66.24420900
-27.63339200 47.36162600 -59.71388200
62.43470800 64.77212500 8.28269700
-7.15526100 11.13598100 71.30612900
56.28513000 -67.20749700 20.58690500
62.93112600 63.62724700 19.30139400
-72.42887100 9.06371900 -26.90343700
-44.57501600 55.22875200 26.36379800
-6.39291300 -8.91419900 -79.99562800
-2.13540200 -43.51524400 -32.35939400
7.08859300 6.68988500 69.39160900
66.75003100 60.34818600 8.30679300
-0.52155600 -4.47414500 65.92721600
-75.47490700 13.46518600 -13.94101800
-85.94503000 81.62517500 -21.71617900
-69.80870100 74.15354900 -35.67230600
81.66442900 75.82773600 -0.96996900
54.57328400 1.35002500 46.96640400
-58.19124200 65.92462200 7.68755200
-34.12833400 -74.65242800 32.61766800
-0.39521000 -67.22280100 -63.84242200
-75.12494700 79.55485500 3.68148400
-72.71069300 25.53502700 -6.17480100
35.63974400 6.69004300 62.99734900
-28.86033100 -28.13086500 44.54830900
-60.77618000 62.87824200 15.05561700
-1.61967400 57.34355500 -68.04115300
27.72089800 20.02339900 -74.12908200
-37.43105700 51.83462500 -53.19495800
-62.83305400 68.43979600 -30.51272200
-68.96767400 26.38416300 -24.27833700
38.69044900 42.24681500 -1.64640000
-45.53368000 -66.71847500 34.49154300
56.29063400 64.90443400 -36.10366100
2.44192400 12.15937400 67.37326000
9.84875100 21.26936100 69.11998700
-34.93068700 39.30756400 20.75211900
-3.33699900 8.85484000 -81.82903300
-2.67738300 9.97482100 69.33933300
61.19640700 51.70798900 -20.47059800
-57.72141300 62.02708100 -26.24944900
-26.57645200 37.30882600 -57.61239600
24.52774400 13.47701800 68.38376600
-5.97188000 -14.07450100 -79.00777400
11.51276600 6.02888500 68.30275700
71.85864300 -0.94966500 -25.80692700
-54.10230600 -68.69371800 15.91337000
54.82519500 26.30579400 -51.33694800
-60.78750200 62.42222200 -19.02932000
-76.37472500 7.16344000 5.07942800
57.98003400 63.34414300 -30.64295600
55.90068400 62.79646300 -37.85869600
-58.03076200 63.91223900 19.90044200
-31.22306600 8.90618900 -74.94773900
56.27444500 52.23456200 17.21109000
-55.05764800 -52.83675400 15.89468200
-76.75260200 14.20369400 -0.58788600
36.43171300 -68.65117600 19.89533200
2.69357400 9.70540400 68.13873300
-62.16195300 -19.41719200 -1.92147000
67.38742100 60.30317300 -10.45488600
-57.03699500 -33.64812500 9.79873300
-61.14132700 68.48314700 8.60701800
28.24616600 -26.43399000 37.85560200
60.99134800 52.69672800 -6.78967800
53.16484500 -27.38566400 -10.68033900
-63.18071400 64.28499600 8.44097600
16.83423800 -6.95732400 -78.10920000
-23.67564200 52.25941800 50.44674300
-59.77426100 59.21622500 -13.42519000
-22.51513900 59.93488700 49.61305600
-71.03260000 77.08415200 -33.79137000
28.66899900 61.23984500 55.00334200
28.27450900 -66.67880200 14.72775400
-56.23653400 64.51656300 19.90803300
-85.76200100 77.51970700 -18.45700500
18.22180600 52.09218200 -62.68716400
-65.72752400 65.37931800 7.92972800
71.35376000 68.40622700 -29.72671100
56.46785400 61.62415300 20.08763900
1.94257400 -5.62240600 64.58837100
-60.08986300 -18.71101200 34.48895600
4.22354700 48.88543300 0.88553500
-58.16262800 56.58118400 2.54508300
-64.13547500 67.97332800 -37.95266000
75.68225100 76.18711100 -32.15768100
-51.66949100 38.26408000 -34.94044900
78.17464400 79.86553200 -26.38278800
32.82956700 36.03990200 -44.76293600
49.55808300 61.35857800 40.74598300
-59.46926100 67.51228300 -31.19978900
-44.09421500 26.53412600 -60.66600000
-22.56220600 -40.81522000 -45.45906100
-65.47647100 63.71795700 12.98275500
39.04371600 53.85664000 42.75474900
88.26435900 77.90530400 -11.72669900
37.47963300 61.44850900 44.77959800
-64.02613100 -5.50970500 -33.60435500
-76.54022200 15.01254700 -7.17502100
-47.06117200 -70.93396000 35.75208700
-65.97038300 5.26921900 -40.00565300
60.43094600 50.02471200 -11.58074500
-16.92399000 25.12679300 66.43386100
-4.86524000 52.34957100 55.65976300
83.21214300 73.80015600 0.43294400
56.28339000 41.26702100 -13.41477700
56.73783100 -51.01030000 9.31452100
19.37670300 35.59328100 54.29126000
48.09735500 51.44633500 -41.40327800
10.12750400 37.14465700 -59.26720000
-20.15169300 61.48300200 -70.35672000
53.54522700 27.87628200 41.09972400
-60.95685600 66.95173600 -38.37802100
-24.34269100 -36.17558300 6.40744800
71.11927800 25.54122400 8.61051600
-72.72182500 -4.12976800 -6.15093600
-65.77032500 9.09472100 -42.03653300
-81.48215500 77.41269700 5.78533600
62.70877100 66.83068800 15.18024800
-63.22691700 17.59435800 -45.75943400
8.58510400 37.88575000 51.68602000
-77.76374800 81.82253300 -4.33631800
-15.90123300 4.51831200 -80.20029400
-14.59637800 -11.90641800 -78.31861900
-32.47261800 0.22103000 -73.26586200
74.49374400 -3.61789500 12.68852000
-4.03985600 64.06935900 -69.29031400
-61.08257300 60.94534700 -15.66541300
-50.68647400 8.87404300 54.65005100
-62.24794800 69.56073800 14.14253700
39.03603700 -70.78002200 5.11112100
-83.12207800 85.32117500 -13.51403400
64.09160600 61.43535600 15.89167500
-46.14948300 -44.93788500 8.62661700
63.05194500 61.94752900 11.10497100
-27.81796500 -72.12151300 20.23509800
21.16127600 -36.03318400 3.35843300
-44.38231300 35.61973200 -48.97082900
-32.71213500 -71.38211100 32.24053600
-6.11878900 64.09551200 55.23307000
17.15285700 63.02906000 59.00035900
-71.66645100 13.57142800 -30.17890000
-19.07581300 -75.14754500 -46.38454400
45.75261700 36.24751700 -46.34277300
-25.24241300 -30.30455400 -34.39683500
59.43595500 61.40348800 -28.25430100
-59.59450900 54.27663000 -7.77970800
-73.79737100 18.56702600 12.78048100
9.21033700 37.36852600 45.22295800
61.92898900 38.95414400 -11.40156700
-59.33036800 56.75412800 -15.94068700
-69.85729200 28.53634800 6.39375500
-76.50820200 72.68486000 -26.43632100
-34.16922400 62.06053200 -64.24300400
-56.71406600 63.70124400 -30.51591500
-74.32600400 18.69149600 -16.66883300
70.37039200 -10.70447800 20.34912900
-41.04040100 51.46826200 34.72411300
-16.54021800 -11.43687400 -77.78068500
48.19630100 -5.22215000 46.76563300
-56.43796200 -67.76346600 20.50470900
-45.07469200 -67.56796300 13.75278000
-53.64759100 -53.16854900 14.14082500
-82.05557300 77.17858100 -13.20114000
57.02420800 -69.87181900 17.00878100
-37.18182400 45.86607000 -52.71132700
12.73479700 41.42945500 54.04729800
20.15844200 53.76314200 53.05532500
-75.95522300 3.27639700 0.10777100
41.52905700 -72.32473800 8.93792400
-4.01054300 -73.49441500 -62.48832700
9.83542800 -43.29184700 -53.09486400
60.66029400 35.53926500 5.81956800
-11.12381100 -70.35734600 -62.76276000
-84.53640700 79.00883500 -2.44206800
31.20241000 61.90538400 49.41690800
57.36508900 61.80535100 -37.64359700
31.47259100 26.48475100 -68.30706800
61.72723400 63.39819700 10.65603000
59.93825500 60.98144900 -28.29950700
-62.54669200 -3.56183400 -39.83422900
66.36789700 67.27996100 -29.35078600
25.28107100 -29.76110600 30.94060300
54.78546500 53.74569700 21.12665600
-4.23519800 -74.29911800 -61.00270500
-47.84399000 -69.49278300 34.99217600
-38.41249800 -2.00367900 -69.42905400
63.52737400 59.58050200 -7.70666500
10.39737500 3.14544600 67.73748000
-60.36330400 -1.05398400 40.87879200
2.34205400 61.36631400 -73.67976400
-60.22710000 20.91741200 -48.27857200
54.54158800 46.75246800 -34.79844300
36.65084500 27.91787000 55.59346000
-64.22390000 71.56839800 8.19071800
37.73949400 -69.55161300 3.45877100
-73.66422300 6.11713800 -19.80437700
-54.67996600 62.24141700 -33.67573200
-43.40489200 -70.18229700 12.38747100
-56.09609200 65.38403300 19.31930000
-35.07753800 -14.96569800 56.06516300
56.00174300 -35.83075000 -0.29839900
26.22471400 61.48093800 -60.47985800
88.81742900 79.16690800 -10.59702500
1.57228100 4.93388200 70.34589400
29.68961300 -13.31618100 -67.90483100
-70.75260900 69.87718200 12.59941000
59.65717700 59.20823700 15.06225400
24.51110500 61.82936100 52.28368000
-62.13614300 61.13636400 -27.85997200
2.41447300 26.99791500 -74.58615900
57.07399400 -67.57646900 20.28657000
-50.02186600 -69.96247100 30.26760500
71.91411600 73.99990100 11.54675400
-36.49578100 -68.36302900 32.49790600
62.34311700 -14.51324700 -24.11041800
68.11071800 65.86397600 9.47541100
-65.81698600 71.17336300 7.12043900
47.84392900 0.23819800 -63.84357500
-58.58762400 63.28247800 -21.69258900
-28.73359100 17.87132600 66.08824200
-34.10156300 -74.66631300 21.74742700
-30.98745500 38.52045400 43.82551200
-44.50781300 -73.00656100 13.31643300
70.99716900 69.30861700 7.25281900
-71.98532900 78.38615400 -28.49377800
-26.50294300 62.86858400 55.58520100
-86.90733300 80.96350900 -10.41583300
-76.99618500 75.49481200 -23.44880500
-43.73372300 53.12123100 27.08006500
-53.18674100 -12.50887800 -41.90381200
-37.50933800 5.09075000 62.87831900
60.05606100 56.05104800 -17.99291800
-3.33652500 -29.63139900 4.12209700
57.01951600 51.20808800 20.20997400
69.60199700 66.12478600 -36.43554700
-65.64351700 11.12563800 -43.52210200
17.98174900 4.91737400 66.69323000
-77.03876500 77.54785200 -33.54583700
-68.67827600 65.86868300 -33.42130300
18.86622600 38.86023300 -45.65702400
10.24891900 -6.83590100 -80.08532000
25.68836800 60.58990900 49.70482600
70.55516800 67.13497200 -29.79040300
15.28966900 9.82489500 70.40621200
-60.73671000 1.81268500 -47.77985000
-72.04019200 72.05796800 -28.13759800
53.32155600 59.22934700 27.55275200
46.20769100 -47.88047800 31.29909100
-0.79673100 -73.35951200 -35.41640900
-56.80377200 37.41491700 13.36221100
-56.46502700 45.04071000 4.04259300
27.70495400 37.76609400 46.87725100
-3.89270300 -30.17904900 -4.87860100
83.11847700 76.33658600 -19.52515000
36.95998400 -61.64996000 29.65670000
-39.10263100 -23.62139900 -18.36216900
29.13175800 -0.03369400 63.51080300
-36.97359500 -72.86851500 35.98966600
-56.62626600 57.37482500 9.47920300
58.77244200 61.61666100 -33.62766300
-54.89700300 37.19961200 -4.35812200
-8.56863200 5.91079600 -81.47893500
8.21634800 1.57603400 -81.45405600
67.22264100 1.04640700 -38.52848400
-33.78265400 -19.74832200 52.62707100
59.63732900 44.23079700 -3.36504500
57.41181600 -23.08874900 -13.40964900
9.90169800 -23.08659600 -73.30158200
79.62980700 79.02851100 8.21869600
-5.38598200 -8.62172300 -80.61696600
25.41820300 -17.35572400 50.12875700
-11.69211000 2.31064700 -81.01159700
59.45266300 62.70746200 14.95865000
56.00716800 52.84414700 -29.60435500
47.39349700 -72.84250600 29.31710400
25.15759800 -47.16776300 6.61752700
70.86911000 27.46361700 -10.14980200
-70.96160100 12.58583200 25.48074500
19.29450400 61.80081900 -65.37507600
-84.10646100 82.90547900 -18.08679200
-54.40610900 -68.77692400 32.71150200
6.57957900 61.17234400 -69.28466800
-63.34264400 -26.77240900 18.41112700
-31.28014900 -68.14880400 23.89129100
-72.25545500 -7.16926000 -1.27143200
-70.28504900 -5.48993200 -16.97681600
-77.57836200 74.60771200 -31.52884900
-70.60337100 71.87778500 13.19720500
42.35919600 23.71820800 55.38850800
64.21645400 -29.79479800 15.58659200
46.92426700 17.80387700 54.94158900
32.77573800 64.42663600 50.40800100
76.79809600 76.69982100 5.91450100
61.38415100 58.55693400 -9.78982400
-10.91635600 26.97293300 -74.13045500
81.82025100 78.29756900 -13.77611000
-57.41765200 65.94534300 -41.96367300
64.04859200 69.89018200 -31.06305300
61.40726900 41.54342300 -3.24642900
44.26488500 25.13656800 52.50649600
31.80845300 -2.02199100 55.35057800
22.94015300 11.89514400 68.85331700
-42.34702300 -67.63445300 38.12759400
-65.77234600 74.02121000 -32.84109100
83.88851200 83.28131900 -5.66089400
-34.79208400 -65.95732900 29.20944400
-43.38359800 -17.20221100 -51.20386100
-59.84724800 56.86745800 -9.79197600
-51.81412100 45.52734400 -35.71898700
41.44114300 -69.21541600 29.01718500
-58.57481400 55.57685900 -10.38757100
9.80318400 14.06219600 71.07388300
-59.64779700 62.68518800 -18.36062000
-37.65018800 -38.56800100 5.64656400
-49.60557200 15.73914200 54.69303900
37.02454000 64.28137200 45.80477100
-4.26101400 44.13738600 53.45655100
33.92167700 -48.94498400 28.73061800
-43.65935100 13.46016800 -66.85451500
-21.90720900 -36.43780100 7.57962000
60.91753800 62.35728800 9.67316200
39.38639500 62.77946900 -52.68682100
-74.73365800 1.50332100 10.86159100
32.27378800 48.59590100 -57.48022100
-57.96933000 -50.40735200 27.82126800
-46.15877500 38.72192800 28.76219900
-45.21115100 -12.14067000 -56.55783500
5.45804500 -29.48898700 -71.60901600
43.96258500 -2.86971800 54.01784100
-23.31662900 1.02971300 66.79964400
-40.69818100 -6.13783200 57.92530800
-24.69427700 8.07944500 67.80643500
67.83070400 15.16731300 -40.25735100
4.96871700 62.59080900 56.57942600
-24.27479900 -40.46081500 26.84141300
66.63345300 17.62662500 32.16648900
-15.02978900 5.74856300 69.51828800
-29.71350500 -18.08893800 53.71256600
10.42639200 53.28072400 55.04920200
23.52260400 12.58217600 64.82158700
18.41912300 62.02944600 -70.38997700
61.55850200 62.41828500 6.82650800
-80.95735200 77.77841900 -5.15012200
11.22133700 -2.32407200 -80.51089500
-56.29353000 67.00194500 17.95829600
-5.23999900 8.07129200 69.43824000
64.29087100 62.07100700 -34.73539400
0.76165800 63.22243900 -71.88543700
58.29542200 30.58100700 29.20052500
11.24246100 -5.99649900 63.69812800
62.66328400 56.80824700 -0.32610700
51.97590300 63.55689600 -45.40891600
-36.14924600 -71.14070100 30.89865100
-45.62436700 -35.49187100 43.18609600
38.73049200 -75.19709000 28.79774500
-80.03616300 77.07344800 -20.83082400
73.98355900 67.93177800 -33.55073900
-58.87103700 38.32368900 -9.90535300
-3.34361200 -11.29180000 -80.02412400
-40.85001800 -71.45961000 34.46943700
17.84555400 -9.47393500 -76.74076100
70.39524100 -0.65708000 26.19466400
-28.00668900 46.34400200 45.64503100
73.10107400 11.26983100 20.48679500
48.82855200 -57.00673300 3.87208400
-15.96080700 -29.47901200 -2.07769900
-67.22461700 -18.25730900 16.65282100
24.65607800 61.31942400 57.70467000
29.98599600 0.80290100 -75.28743000
-59.03141400 60.48223900 9.66632700
-51.02619900 -32.45924000 4.33082200
-76.22588300 77.16562700 -23.13991700
-10.41971200 61.52131300 -72.86133600
-76.98470300 79.46325700 -2.42468000
33.57576400 -39.38417800 -1.20418200
-54.09276200 -0.19034500 50.36209900
57.94788000 61.47636400 23.52110700
-58.55445900 50.04927800 -14.68368000
18.02664800 11.15449000 67.66693900
52.82373800 37.95080900 20.71121400
57.35096000 35.90881700 16.61337100
11.66093300 48.25947600 -65.74529300
55.09077800 62.61196500 -39.25699200
-55.71917700 -3.80003700 -50.60854300
48.03327200 42.68227400 -43.16892200
67.12774700 -13.39365600 -16.42958600
12.65120800 61.65621600 60.55779600
-58.72309500 64.85615500 -40.94890200
-13.21496900 -17.36073900 -76.82814800
54.34311300 -65.09269700 24.48529400
-32.39398600 -69.53395100 27.24218900
-76.91324600 80.38885500 -24.35431500
39.69498400 2.92286600 -70.51306900
-66.44921900 67.00982700 -31.96382300
76.73886100 8.39843900 -18.31187800
62.00510000 58.81464800 -28.65074900
40.54085900 36.29798500 -48.74653600
-43.53476000 63.47388500 -54.27226600
54.10045600 62.54818000 -38.94923800
11.76690700 61.94170800 -66.17308800
42.10403400 62.27918600 43.58143200
68.18407400 16.28617500 29.77078400
-73.92196700 75.80478700 2.23939400
-0.09004100 8.58714300 67.93147300
67.54705800 -20.83630400 -1.08785700
-20.41991800 60.36904900 52.17832900
-55.23936100 55.68899200 14.20205800
82.40562400 75.87085000 -1.30460700
4.61392800 -9.76127800 60.81212600
-4.89179400 37.08743700 -63.29985400
70.92283600 -6.76162000 -19.92329600
12.54893800 44.06869900 54.07991000
3.15526400 55.39373400 -66.21981800
30.26925500 7.62011200 65.90765400
74.80663300 70.15635700 14.76503900
85.38819100 79.23362700 4.23012600
-61.68703800 -5.42776900 32.83382400
77.35266900 7.67271100 5.80464400
20.79877100 58.91125100 -62.55452700
-59.30475200 59.70573000 -32.62662100
-39.42811600 -69.20009600 19.28700100
65.92931400 -7.67979800 -30.92565300
52.94687300 -73.91497800 21.94051400
-30.02993800 -4.96087400 62.31763100
-29.74708000 -45.84162900 9.14530800
-43.29070300 48.59625200 -47.31946600
-44.15002800 -70.42009000 37.88275900
-44.38398400 58.44332900 -44.43213300
-54.20324300 62.55035400 -32.73831200
-80.06141700 74.05705300 6.67928600
-44.50507700 63.36389900 37.17773800
-50.28387100 9.40881200 -62.08805500
57.36918600 11.54127500 47.74438900
-75.89342500 79.53040300 -30.63757500
-41.42443800 -27.89226300 -3.80792800
-47.33009700 50.00043100 26.30045300
-50.42788700 58.91782000 19.18399200
-62.99419800 -22.08586700 5.11295800
29.63587400 -37.82802600 27.89230200
77.99873400 11.47161100 -7.55527300
18.79369900 -28.57494500 -43.79986200
71.61486800 71.42485000 14.01339500
45.93563500 24.93114300 -60.49410200
21.49120300 4.77549100 -79.23141500
83.64328000 76.44597600 7.83973200
57.94219200 57.95465900 -30.11470200
57.16481000 -3.17764300 38.60653700
-78.89811700 83.25272400 -13.50464200
50.97867200 63.08430100 30.70456300
-40.42447700 -46.30181100 40.93782800
61.95010800 24.55995900 34.17432400
-29.96099700 21.62412100 64.27941900
-53.81684100 43.56115000 18.57537800
-34.40691400 10.15870400 -72.86970500
66.79053500 7.90771400 -42.44191700
54.18913700 23.41980600 -54.25275400
-12.88853100 -70.63588700 -60.55151400
52.20324300 -8.66925300 42.36258300
60.76659400 60.11378900 -36.81155400
-73.81681800 79.36963700 -26.83023100
-27.71242100 61.77108400 -67.59526800
-2.19240600 8.10866900 68.90557900
-52.63475400 43.84266700 16.86359000
81.33135200 75.62602200 -19.94066800
15.47777700 11.25612000 70.32644700
6.09631300 -10.02665900 60.42190200
16.92532500 1.58537800 67.30051400
27.53458000 48.17500700 49.83747100
-44.23674400 58.38894700 33.00140800
44.81200800 -33.50083200 36.39194500
-33.06927900 61.97952300 -62.92656300
-54.31673400 37.05238300 -13.68570700
-34.11391800 -71.25238000 28.08481800
15.17587100 57.77169800 54.50236900
-78.33709700 79.83142100 -17.43359600
9.31223200 59.82286500 -72.97811100
-35.49493800 50.58688400 42.92639500
53.30622500 -17.21267100 -31.37344000
4.86705600 54.56596800 -67.54834000
29.14959700 -12.90507500 54.55839200
-67.83750200 69.81365200 7.25833700
-67.31021100 73.61618000 -35.40193200
6.33557900 5.27020100 70.75640100
53.07593200 61.30917700 35.39060200
27.66216100 -73.89454700 11.46130800
64.25155600 58.82293300 -27.95246900
-80.61591300 75.45495600 -25.46795300
10.68691200 -25.31345400 30.00739500
-35.02869000 -74.94480900 32.80971500
-5.15613400 23.97759600 68.97148100
61.38047800 62.60151700 -21.56896600
-51.53199800 -68.48802200 13.97022100
-59.74748600 14.46914100 44.03986400
-82.68128200 77.66958600 -7.79297400
56.71865800 -58.11295300 21.83001300
-0.81145100 37.11882000 -64.21101400
-63.12377900 18.24947000 38.47161100
-83.75975800 81.98057600 -26.01874400
-44.15072600 61.47876700 -45.76017400
-73.88541400 -0.57302800 -10.31490500
-69.92971800 -8.87932800 -7.45192100
-66.55580100 -20.02949100 12.75167600
-45.11840100 59.82408900 31.70842400
-38.15154600 31.50863300 51.03271900
-56.67725400 -13.70378000 -29.25838700
32.51300800 -64.06476600 26.66555600
-2.84112300 -36.46254300 -71.09507800
-30.51042600 27.17331300 60.26878700
19.41729400 22.21442800 67.60573600
41.86325500 -16.83390200 -49.90317200
56.58452200 44.57202500 12.99118300
40.49322900 -18.87871200 -44.06847000
-66.57885000 66.57074700 -37.14100600
29.50516500 -8.62721900 -72.17427100
-81.96060200 80.94046000 -27.85868100
-1.67773600 12.34091300 68.53430900
84.15906500 83.80952500 -15.13871200
82.60412600 82.32291400 1.18933100
49.00180400 -8.39969500 45.56190100
38.49460200 47.40624600 -52.72293500
-76.56823000 81.69888300 0.97735100
2.93701100 33.32666400 60.84218200
76.78992500 8.29587200 8.25493000
-41.92615900 -72.52845000 33.76278700
-64.25889600 26.05136900 28.86757500
-51.46220400 27.34284200 45.11465500
2.92037800 1.68680400 -81.93005400
40.63114900 -39.98371100 -2.49616900
57.57972300 62.47332400 -28.05522500
76.23441300 73.72920200 13.62114700
-47.30819700 -68.83981300 30.67547600
51.35205100 61.45594000 -42.83216900
1.62756000 61.63143200 -72.68061100
65.20207200 61.51809700 15.80626400
-69.86293000 29.34025600 -6.86414200
-58.07908600 53.39835400 -20.77702000
67.37590000 -23.33969300 7.99313800
-69.58300800 76.81476600 -32.76778800
-57.60994700 49.11856500 -20.56129500
-62.96473700 -3.19669200 30.02052300
61.34389500 63.55360800 12.11225600
64.15767700 -5.68944700 35.28608700
-11.99427600 3.94159400 69.67083700
64.08077200 65.12715100 -28.50271400
-73.30511500 77.23061400 10.28673800
57.36588700 -55.34014900 20.88804800
-37.81403400 37.43710700 41.00162900
3.09977600 13.86923200 67.61156500
47.10268400 12.59120700 56.66026300
-13.76038400 11.89256000 -80.38796200
63.64849900 24.88250200 -38.96334100
-82.13267500 75.52943400 -26.67847400
54.98647700 -4.44585300 44.62040300
-80.31938900 85.08805100 -6.63443000
44.23019000 -71.86990400 3.93226700
-1.84203600 4.74011800 68.91245300
60.13532600 60.37521400 24.34064300
-53.12347000 63.49813500 16.53343400
1.87583400 60.17339700 -72.40823400
-56.63461700 61.87817400 -30.05669600
-68.72193100 66.03872700 10.75267900
43.83147800 38.97048600 9.62397400
62.32328000 59.48965100 2.55098900
-47.13684100 -67.40511300 12.92736700
-1.83273500 63.65625000 61.41977300
75.57424900 71.36789700 6.72241400
-50.89544700 -16.02574900 46.97979000
-55.56550600 -34.09494800 36.38143900
-32.31381600 -64.27903000 25.47912400
-32.16210200 64.31690200 45.08800900
-79.81240800 75.45990000 2.23108900
-41.26819600 -71.10782600 35.65397600
-78.72454100 74.52690900 0.24823200
29.00415600 29.82487700 -65.91127800
-71.78537800 26.88459800 -2.30325500
-43.68087400 38.67669700 31.99232900
29.53650500 64.09545100 49.54097400
-21.60430500 -29.67075300 -28.45796200
56.68342200 61.11922800 -28.88779100
-7.79916200 61.41656100 -67.85192100
-40.38920200 -8.86590400 -64.62895200
-38.11988800 -72.78770400 32.11711900
0.35289400 10.64473700 69.89244100
32.82651500 -15.50031600 51.70384600
-43.37067000 63.78588500 -50.19380200
-32.42750900 3.85030700 -73.69602200
-61.58435100 62.55210500 -36.68027900
48.10459500 35.40027200 34.18997200
-52.18909500 -10.88444400 48.24239000
-56.61451300 50.21033900 3.88605300
-14.80748000 20.07133300 69.44781500
61.96716700 62.62950100 10.51218600
56.88394900 -68.35321000 20.96090700
-4.86401500 -1.62316100 67.66545900
-69.73026300 3.85585900 25.79525400
64.18459300 65.99007400 -37.24671600
46.97408700 61.29499100 34.05096800
-41.84533300 1.73537300 59.77199600
21.05606100 9.80163400 -79.14405800
-53.13187000 64.53041100 -35.90263400
6.05451700 -74.87858600 -48.99542200
8.49710400 -0.39012000 65.48139200
-20.63039400 -57.92056700 -50.22351800
-13.00642400 -72.02710000 -61.16197600
-55.55358500 -60.35841800 17.77981800
-47.91652700 -19.77680000 -22.43304300
-63.19062400 26.19832400 -38.41734300
10.09957100 -14.90758400 52.33390000
-3.86274200 -6.66254300 63.81806200
-1.35101200 -75.62718200 -60.43827800
17.16245700 -1.90972400 65.20259900
-72.18254100 67.71412700 10.63228300
60.66489400 61.06511300 -32.68835100
-60.81320200 70.43491400 -37.09368900
84.81128700 82.71060900 -0.69726200
24.14290000 -4.56113400 58.79416300
73.44283300 66.80978400 -33.51684600
-33.75367400 -73.71286000 22.70126000
-58.20116000 58.29859500 7.27804400
-62.72171800 8.86018800 40.24231700
70.31518600 70.37577800 8.81498100
82.18093100 77.39125800 -12.49744900
-65.77827500 28.10409400 -30.16874300
45.30469500 4.31729100 -67.20073700
-85.44285600 83.97934700 -14.41296300
42.37539700 7.63222800 56.02521500
64.49539900 32.32954000 -18.44304300
51.00130100 0.32856900 -61.14556500
37.26396200 59.98183400 -54.92710100
-60.91294100 29.10030400 31.20054100
-14.41092500 39.26171500 -64.53334000
66.63167600 64.06890100 -29.11697200
61.77591700 64.65607500 17.66789100
-56.36727500 65.60353100 14.62871200
81.02497900 79.41979200 -8.96181500
-24.37214300 39.07418100 32.09344900
45.67107800 -60.15255000 30.64217800
-79.81718400 84.70710800 -9.05139200
47.55246000 52.41295600 -45.14587800
-36.87237500 61.96750600 -59.90363300
-8.64514600 -24.39935700 37.20628700
78.27858700 73.25267000 -33.30901000
9.66200100 47.12591600 53.22486100
-46.79140100 -73.87284900 14.11511300
-37.89839900 25.38732900 57.98297900
60.27003100 49.74214900 -0.20277000
39.05849100 -18.11911400 48.48424100
-48.33277900 21.02216000 -60.97351800
-78.11386900 73.08620500 -25.94077700
36.89410800 35.91769000 -47.61038200
55.62001800 62.51530500 -33.15128300
-0.67426000 -7.34822900 62.90626900
-57.10227200 -64.51895100 26.80637700
-25.05533600 -3.34149200 -76.30351300
29.69620300 -66.81806900 19.64328400
65.97499800 67.07646900 15.13677400
-28.11646700 -42.42441900 33.21112100
31.47513000 51.60071600 -58.13890100
-59.56748200 57.06818000 -5.61449900
45.58743300 52.52221300 36.98640100
-45.52900300 -1.10473800 57.15581100
70.89683500 65.05883000 14.54828100
62.62189900 67.25611900 -33.19144100
-75.22078700 73.44677000 12.20049000
-44.56253400 21.78377000 55.98158600
26.91304000 -70.14503500 10.98646500
27.56955100 -7.08554000 57.75923900
63.14099900 68.18357100 13.51480100
9.54013100 11.62126500 71.25400500
-44.24214200 50.33586500 30.46553000
-39.97128300 3.42451100 -69.50054200
56.58860800 63.74488100 -32.26329000
35.04941600 -2.56585400 52.52888900
-58.90897800 69.20600900 -36.40400700
-25.36037100 5.45652700 -77.55896000
-10.08489200 53.44125400 -65.21783400
11.05541800 -1.00213900 65.24768800
27.70632900 44.25964000 49.57262400
-27.03629700 2.39247300 -76.68663800
-77.86961400 80.83004000 6.22812400
-22.01434500 63.47615800 52.98771300
42.63560500 60.69473600 -51.23461900
6.49398500 60.98059100 -68.07305100
74.29615800 2.61409800 -23.10031500
-35.36452900 -73.11010700 28.80934500
68.21543900 64.32833900 -35.74285900
67.47394600 72.39042700 -31.76437600
-72.47351800 7.26835300 -26.18011500
47.99985500 37.91241500 32.86794300
67.64410400 24.52383800 20.55140900
-43.18050400 -74.92922200 35.13088200
-41.53009800 22.79095600 57.32042300
23.42454900 9.73361300 68.40118400
-24.42985900 62.83995800 50.91283400
-60.20763800 68.18343400 14.79801000
47.78123900 1.36193900 48.73975000
21.37585300 36.03355800 -62.18405500
-78.44263500 79.88266800 -14.30088500
-74.33860800 5.62631100 -15.44586100
-68.08226000 71.68525700 6.25770600
-13.72995900 -74.55683900 -59.05089600
-42.42313800 -66.79039800 34.88327400
52.12014800 63.09531400 35.90838200
83.17534600 74.25708800 -25.63953400
-37.01936300 46.91373100 41.35313000
27.06718600 60.70884300 -67.19808200
74.35659000 -3.20490500 -13.15248100
-57.97082900 8.72804500 -53.89201700
-6.70823100 42.99425100 30.06499500
16.44413200 -17.38999200 -73.32543900
2.06190800 61.30687300 -70.72226700
-21.76067700 -28.02252000 -21.12606400
-21.27460500 36.29371300 -62.24574700
-27.88115700 -4.25195900 -75.14319600
-30.22262600 -29.70304900 -45.94408000
-64.20841200 -2.22726500 -37.22897300
-54.93749600 54.75073200 -30.67029000
73.20367400 4.64593700 20.54910300
-47.54514700 26.74107700 -57.67765400
-14.18398400 27.52210600 65.94869200
-39.20917500 37.05767400 -48.80732000
-44.26036500 65.17826800 39.16373800
-69.22496000 -13.73261900 10.20114100
-74.85856600 9.91486700 14.59605600
80.07521100 75.59455900 10.72882100
-64.10682700 64.02584800 -32.29532600
61.34844600 35.14373800 -17.85036300
44.99430800 42.45063000 -46.47830200
-48.19530100 -70.78757500 37.02719100
25.54214100 -66.77434500 8.16553500
68.86786700 7.58854800 31.30045700
-53.82014100 -15.75432300 -27.41731300
48.17229800 61.95581100 -47.94735300
-50.75835000 55.41843400 -38.41170500
-75.98808300 78.39477500 -25.61928400
47.31542200 39.73458100 33.98901000
-57.26012000 62.85505300 8.53779700
39.07136200 16.84754200 -69.88630700
-58.05358900 62.05299400 16.99929200
63.44223000 -4.26951500 34.20835500
-48.13721800 -18.43929300 -30.32420000
43.68442200 14.16093000 58.91078600
9.93218100 -36.25202200 -42.45669600
-60.44374100 65.71563700 -29.94762000
30.83476300 -69.04148900 21.94787000
-58.79218700 67.55847200 9.86508000
57.86220600 -53.51238600 13.67416600
25.76251800 -74.79311400 10.09490800
86.60594900 77.10636100 -5.62818900
11.93222000 64.02624500 55.20525700
-49.12801700 39.41136600 -35.77338400
-44.99886300 64.10775800 -47.34919700
-68.80426800 16.59125900 29.34789700
65.87084200 58.58682600 5.48054400
-12.21346300 64.34741200 54.20123300
-35.27065700 18.06568300 -71.23220100
-71.58166500 78.03295900 9.34211000
-36.32055300 41.77129400 42.36548600
46.27997600 -10.84469600 -55.77468100
-49.19506500 44.79304500 22.14242700
7.55019800 15.84689700 68.47171800
39.26218800 14.66698000 -70.51491500
62.82062500 58.69450800 -1.54223300
74.67361500 66.98725100 11.85344100
-34.87374900 65.10980200 48.82807500
64.58248900 3.46335000 -44.94286700
87.84242200 82.08570100 -9.22469100
-22.31123700 -47.37375300 -55.59713000
66.75499700 60.96839500 12.03344000
42.68598900 -70.47112300 30.69079800
48.94868100 -16.92317400 -37.91090800
51.48968500 56.65275200 -40.86937300
-63.82825500 -20.39493600 27.47619200
-85.29436500 77.12430600 -14.35838600
-87.02978500 82.58130600 -9.38911300
41.05988300 61.54126000 -58.19405000
-57.33180200 47.04745100 7.68941900
88.07813300 81.54322100 -8.23714700
2.39294600 -53.40647900 -64.20123300
-55.60893600 27.88777000 -48.25003100
59.63733700 61.42663600 -25.79124300
2.52766100 2.75182200 66.59146100
-74.14331100 74.69470200 -34.73247500
-58.91321600 -37.08559400 15.54568100
57.82860900 -53.73216600 13.68022200
4.09065100 0.30002000 68.39884900
-10.32086500 -16.24425700 -77.50642400
34.06290100 -7.53317800 57.94577800
-53.31193200 6.27060000 -58.35618200
35.48112900 3.67500800 62.87180700
-22.09878000 -35.77290000 -39.09200700
-82.81896200 85.10216500 -3.40668900
-46.18486800 -72.30369600 10.65443700
-69.58273300 70.01784500 -38.22198900
47.80166200 -12.05965900 -51.60368000
-11.53073100 -65.18201400 -37.14887600
-58.66061800 67.04778300 -39.60260000
59.06862600 46.77710700 4.30137800
51.96809800 61.82464200 31.72942500
60.11670700 46.43391000 -3.46534600
43.87091100 -71.28939100 27.20919400
-57.68080500 43.12344000 -16.82811700
-15.85451200 63.62987900 -71.05297900
-21.11865200 -47.98135000 -59.17195500
-33.52636700 -72.56452900 20.00759700
9.20642300 51.31481900 -64.77607000
-4.18894100 -27.89367500 18.75420200
-31.50703400 -63.95600900 14.01074300
63.19285200 9.75402200 -48.55096400
9.06746500 10.40029400 69.77104200
70.80715200 7.42510800 -33.85944400
-77.23778500 81.17272200 -4.66595300
-31.32723000 64.44995100 -59.66014900
59.21923800 49.64519900 14.39435100
-18.98327600 42.72505200 -62.92147100
42.54277400 55.32202900 -50.56059600
6.87671100 46.02581000 15.67863700
-64.50313600 64.61072500 -38.12635400
-32.96564100 -2.15667700 63.23789200
54.81315600 -0.16270300 42.36266300
4.86280300 63.13110400 -71.36871300
85.74708600 83.29538700 -19.49781400
84.28798700 84.45392600 -11.42262600
48.25729400 -37.69156300 -3.38618100
-40.08181400 62.87723500 40.58502600
-51.07437900 42.52946100 -36.10297000
59.93885400 5.97952700 -52.47003600
37.38533000 -71.80133100 5.45724200
7.71848500 4.75514300 65.37558700
81.51100900 82.84623000 -15.93172400
60.84785100 65.20635200 -29.82776600
60.03780000 31.46491800 23.62429000
65.46374500 58.60120400 4.56667100
74.15687600 -7.10394000 8.16653300
6.99387800 40.97932800 32.91234200
44.97505200 24.23972900 52.76310000
14.45205200 -0.98443400 -79.87551100
52.60848200 10.59944500 52.12885700
-73.44602200 8.86900100 19.34118100
57.30484000 37.90495300 6.79000800
12.48825500 58.82518800 -66.39233400
43.43862500 7.85218100 59.16215900
70.70424700 25.48330500 -22.02054800
-68.82830000 -0.60544100 -29.67161600
2.53923000 41.88847000 -64.82020600
-40.34937700 -68.29933900 21.73983600
8.17937200 7.27291800 71.02421600
-85.64662900 80.13478900 -3.93230300
-77.52003500 74.91508500 9.79854800
-16.09548400 -1.06193200 -79.90965300
0.95298000 8.40928600 68.21130400
68.49931300 70.98495500 -28.66319100
27.55961400 -69.74900100 10.45974500
6.32809500 54.43786200 -65.87896700
14.83366500 17.62144100 -78.68854500
27.42834700 10.11723500 63.92379400
50.54060400 -60.06347300 28.29747000
-32.62003300 -49.98756800 9.49882400
-67.34111800 -2.52306200 -30.86356000
49.29418600 5.15167200 52.24768800
-28.12759400 56.44227200 46.35065500
57.72135900 45.62702900 -22.47335600
4.54200400 26.30122000 67.61602000
-3.13974100 62.31723000 -70.07375300
-49.36010000 -69.01107000 13.27142500
-73.33719600 11.96664600 -24.40119200
-72.70098900 78.00783500 -27.04261600
-72.75853000 9.28435500 21.53260400
62.11233500 59.93932300 -21.10711700
-36.96322600 -8.69891900 -68.02623000
51.44574000 61.04238500 -49.08541500
82.00320400 80.12094900 -13.21346000
-52.72341200 24.99384700 -54.50719800
8.07379900 16.45374100 66.16928900
-40.80452700 33.64976500 -54.91866300
-39.71694600 -25.13050500 -11.79097100
64.25273100 63.19212700 18.37557400
58.87033500 41.01457200 1.55349100
32.73224600 -23.44676400 -29.32318700
42.17761200 60.12415300 -51.33087500
-40.46197500 -68.25706500 33.39450800
-74.30088000 69.70400200 -32.99090600
74.79306000 74.49087500 11.47641200
55.38030200 61.26976400 -45.27505900
-43.21748000 3.47573400 -66.87469500
-71.40259600 -8.54159100 2.24261400
-48.64205900 -18.39242200 48.47160700
42.98696500 -2.72911000 56.62334100
-52.79437300 63.45583700 -33.80958900
15.94042900 -19.72321100 45.07729300
-70.23586300 27.56426400 -15.68585800
31.54350300 -73.61609600 25.85374800
-14.03756600 10.10385300 70.53431700
26.69559700 -18.82492400 -65.67528500
-18.28967100 36.91779300 -61.36081300
71.06501800 -14.48997200 7.87493900
-49.69122700 -72.79935500 13.45449300
-6.74987800 -73.51220700 -33.69331000
-46.27431500 -16.10921700 -47.77676800
-85.68554700 79.43268600 -12.79178200
-49.31901200 -10.01495300 -54.22373600
60.66222800 61.25195300 9.10514600
-62.02533000 18.06919100 40.12989800
54.83270600 53.29150800 -35.77986100
15.83478500 63.37631200 -69.05071300
52.22495300 -76.16817500 23.67651000
-58.50781600 14.95034800 -52.79192000
-5.18541800 38.52310600 52.84122800
-15.59085700 26.98988500 -73.49758900
60.93708000 59.55764000 -22.64357200
-50.44237500 -58.55431000 12.21714500
-67.36058800 73.01797500 -30.65800900
-46.59800700 44.89449300 29.81642500
44.07362000 14.28609500 -67.49014300
-58.61636700 59.82734700 -14.97178600
42.42366000 48.47427000 -47.55931500
-31.61565600 -65.48700700 23.31766700
-51.87518700 -47.64111300 37.54721800
-51.03820400 -71.38012700 35.34460400
59.40102400 45.72379700 -9.40670200
62.37763600 63.95267500 8.94262100
-74.57575200 -0.16476700 8.10183300
5.02649900 -75.72965200 -53.99351500
80.53043400 72.91915900 5.45117100
12.23979200 64.48803700 58.12521400
2.28872700 62.47516300 -70.51754000
-22.34432800 44.07798000 19.70955300
-33.71392800 15.12990400 64.70216400
-66.34350600 -14.10722400 25.34206200
-16.71662500 -9.15388400 61.33452600
63.60611700 63.74782900 -36.90272500
60.68524200 52.82233800 9.82645100
65.17091400 62.22935900 0.31682000
-39.87723200 61.93656900 -52.26210800
-19.80364600 -28.06773400 -15.55711700
45.78411100 61.93423800 -54.36754600
47.77175500 -72.45350600 15.77227200
-61.20424300 29.03539300 -38.09539400
26.90485800 -4.21296400 61.66850300
-77.91529100 79.95275900 -6.30677700
-22.33561900 12.01714300 -78.09849500
-58.13754300 65.11285400 -41.91506600
-1.83909200 9.21472700 68.91593200
55.35246700 -3.40678500 46.98206700
44.66262100 -64.08108500 3.73249800
-42.99121100 51.12038800 33.98511100
-20.55522300 6.41981700 68.56826000
-45.36120200 55.71393600 23.78701000
-19.94560400 64.22233600 -64.60116600
-9.06749200 -29.89106800 -2.28161000
-59.46252100 62.72273300 -32.65652500
-75.91369600 72.17218000 10.74398700
13.52011100 -0.26956000 64.31921400
-53.82757600 -8.51235800 -49.28140600
58.88175600 63.37688400 -38.14496200
-65.51773100 70.24241600 -38.97272900
60.77841200 -12.86956800 36.63195400
-82.57000000 78.04454800 -17.44854200
-71.22373200 8.84693500 -29.75954100
-46.58113900 -73.48764000 35.65351100
-18.80779600 -30.03568800 -0.03528200
-49.26718900 -72.20745800 13.02385300
-48.07289100 40.76994700 25.57313500
57.35437800 62.05971100 -38.61315500
-9.84475200 9.27914200 69.38065300
-56.85360000 -67.34706100 22.16626000
72.98233000 -2.47029200 18.63410800
-39.80832300 62.56298100 -59.67275600
29.28336500 -64.25359300 18.56147000
85.59632900 78.38587200 1.42215800
-26.88983300 37.60115800 -43.93457400
-9.10393500 11.01260900 69.87880700
1.58032100 11.51266300 67.36306800
35.70242300 23.91700600 -68.45835900
-57.76187900 66.66187300 17.03005800
-74.66912100 0.33037600 -4.64249100
-14.82090800 -73.99221000 -59.92468600
14.06204100 12.86345200 69.16335300
70.09648900 -9.46799600 -16.01319300
-44.18479900 -6.14574800 -62.88150400
-31.84569500 6.98689900 -74.72189300
-37.23903700 7.76198500 63.42923000
5.43560000 -30.97250900 -24.79993200
-44.56677600 60.12831900 30.28539700
71.24230200 -7.60710900 -16.16953700
-53.83356500 52.53791000 14.04328300
-1.82282900 -71.78157800 -63.07939100
76.86109200 69.51004000 12.53661100
60.29101900 43.96090700 7.01409900
73.81230200 77.35147900 -29.36489700
-11.56042300 -17.00820200 52.06518600
-70.02209500 75.55950900 -34.80879600
-59.73111000 61.44343900 15.63140700
-38.10168800 -71.83847800 16.84151800
-38.24372100 35.69642600 -44.20234300
76.46704100 3.53829300 -14.94177000
-84.54113000 85.14739200 -13.41881400
58.14382900 42.61986900 6.29079400
-49.83082600 38.57314700 20.85517700
-42.43300200 -14.31622200 54.05869300
-35.89753300 -68.26891300 10.61158700
-11.85221800 -6.67933000 64.32511100
10.70256900 -30.68363400 -3.69857700
-24.30556900 38.82183500 47.45994900
40.51801700 36.13630300 -51.10603000
77.34180500 2.90717200 -8.95287000
-31.34046900 -69.09023300 19.59692600
-52.84130100 17.18248600 50.93862200
-20.27721400 -7.59742500 -77.53750600
68.26273300 63.98822800 15.74888500
