-21.98558800 36.03505600 1.57240300
-21.49413900 37.17970600 3.09039500
-22.32173200 34.83703900 0.00000200
-22.42343000 33.50091900 1.60371700
-22.09394700 34.83703300 3.17663400
-21.53801700 36.03505600 4.68535600
-21.96694500 33.50091900 4.77866400
-21.41754800 34.83703300 6.28876400
-20.83610100 37.17970600 6.11803600
-22.44661300 31.94197700 0.00000200
-22.21817900 30.21997400 1.58903700
-22.21755100 31.94197700 3.19440600
-22.02408900 28.39467800 0.00000100
-21.52831100 26.31082800 1.53969800
-21.79934100 28.39467800 3.13427700
-21.76587100 30.21997400 4.73492300
-21.09004800 26.31082800 4.58790600
-21.13196300 28.39467800 6.20491000
-21.53736700 31.94197700 6.32394700
-20.84464900 23.81317000 0.00000100
-19.88272600 21.10301400 1.42200500
-20.63193500 23.81317000 2.96642900
-18.97797900 18.38166500 -0.00000000
-17.96389600 15.82714400 1.28477100
-18.78431900 18.38166500 2.70078100
-19.47796200 21.10301400 4.23721400
-17.59819600 15.82714400 3.82829300
-18.20924200 18.38166500 5.34672200
-20.00029900 23.81317000 5.87262300
-17.06312900 13.61746400 -0.00000100
-16.11327800 11.65466200 1.15241500
-16.88900600 13.61746400 2.42827600
-15.30236500 9.84077800 -0.00000200
-14.60291900 8.38783400 1.04439500
-15.14621000 9.84077600 2.17770000
-15.78524900 11.65466200 3.43390700
-14.30564000 8.38783400 3.11203400
-14.68251300 9.84077600 4.31118100
-16.37195100 13.61746400 4.80724400
-14.30331300 7.50786400 -0.00000200
-14.12919500 6.96258300 1.01051400
-14.15735300 7.50786400 2.03552300
-14.10166500 6.51371000 -0.00000200
-14.10399800 6.12365200 1.00871200
-13.95776100 6.51371000 2.00682600
-13.84155900 6.96258300 3.01107900
-13.81687300 6.12365200 3.00570900
-13.53044700 6.51371000 3.97290500
-13.72393000 7.50786400 4.02971600
-14.30980100 5.75481600 -0.00000200
-14.52871700 5.39099300 1.03908800
-14.16377300 5.75481600 2.03644700
-14.86482800 5.01598100 -0.00000200
-15.21120900 4.59027700 1.08789900
-14.71313800 5.01598100 2.11543400
-14.23294700 5.39099300 3.09622200
-14.90154600 4.59027700 3.24166800
-14.26269700 5.01598100 4.18791400
-13.73015300 5.75481600 4.03154300
-15.76675300 4.07438900 -0.00000300
-16.30844100 3.51168200 1.16637200
-15.60585600 4.07438900 2.24378700
-16.93737800 2.94553100 -0.00000300
-17.42628900 2.41214500 1.24632000
-16.76453600 2.94553100 2.41038000
-15.97643600 3.51168400 3.47549900
-17.07152700 2.41214700 3.71372400
-16.25129100 2.94553500 4.77181800
-15.12808700 4.07438900 4.44201500
-17.89480100 1.94772600 -0.00000300
-18.19760600 1.53070300 1.30148500
-17.71218700 1.94772600 2.54663200
-18.55573600 1.13950100 -0.00000300
-18.73693200 0.80630700 1.34005700
-18.36637700 1.13950100 2.64069100
-17.82714500 1.53070100 3.87810000
-18.35549200 0.80630900 3.99303600
-17.80409700 1.13950300 5.22776300
-17.16993300 1.94772800 5.04155500
-18.88875100 0.56330500 -0.00000300
-18.87083300 0.37271100 1.34963400
-18.69599500 0.56330300 2.68808200
-18.92954300 0.19675100 -0.00000300
-18.88100400 0.02810800 1.35036100
-18.73637200 0.19675300 2.69388800
-18.48666800 0.37271100 4.02157200
-18.49663200 0.02810800 4.02373900
-18.16276400 0.19675300 5.33307800
-18.12362400 0.56330500 5.32158400
-14.61552300 54.27530500 5.45127700
-13.63424100 52.73887900 5.08528100
-13.70962500 53.50236200 6.26097600
-12.73528800 51.31762100 4.74999000
-12.77667800 51.99433600 5.83491200
-12.77172800 52.73887900 6.97392000
-11.92964200 51.31762100 6.51410500
-11.81655100 51.99433600 7.59403200
-13.69093200 54.27530500 7.47584600
-12.67938500 53.50236200 8.14854500
-12.10255400 50.23746600 4.51399500
-12.03201100 50.75762300 5.49483600
-11.58120500 48.93221400 4.31954200
-11.48490400 49.68030700 5.24498000
-11.33693600 50.23746900 6.19046300
-10.84856900 48.93221400 5.92379200
-10.62184700 49.68030400 6.82624500
-11.12784000 50.75761700 7.15142800
-11.19079700 46.58598000 4.17392800
-11.03053300 47.83928200 5.03747500
-11.20717600 44.38632800 4.18003800
-10.76320800 45.35678400 4.91539300
-10.48285600 46.58598000 5.72409800
-10.49820000 44.38632800 5.73247800
-9.95438500 45.35678100 6.39729300
-10.20161800 47.83928200 6.55618100
-12.44124500 43.70815100 4.64032000
-11.36903800 43.90926200 5.19206700
-14.11116200 43.38595600 5.26316300
-12.85729800 43.56557900 5.87173200
-11.65420200 43.70815100 6.36370400
-13.21847800 43.38595600 7.21786700
-11.89110900 43.56557600 7.64195100
-10.51468900 43.90925900 6.75737900
-15.98483100 42.67059900 5.96200100
-14.59905900 43.07370000 6.66716800
-17.75197000 41.65684200 6.62110700
-16.42115900 42.21843300 7.49929400
-14.97361800 42.67059900 8.17625000
-16.62896600 41.65684200 9.08014500
-15.18715500 42.21843000 9.76019400
-13.50198100 43.07370000 8.67719800
-18.98908400 40.08684400 7.08252600
-17.88527400 40.92547600 8.16793200
-19.97437900 38.24462600 7.45002000
-18.94501500 39.20344800 8.65190000
-17.78782200 40.08684100 9.71292900
-18.71078200 38.24462300 10.21690800
-17.52135000 39.20344800 11.26029000
-16.54124600 40.92547600 10.63041300
-20.65202300 36.03505600 7.70276600
-19.75281200 37.17970600 9.02081100
-21.06330900 33.50091900 7.85616600
-20.30402500 34.83703300 9.27254000
-19.34556100 36.03505600 10.56352400
-19.73082300 33.50091900 10.77389500
-18.77823500 34.83703300 12.06804100
-18.26844600 37.17970600 11.74041700
-20.87050500 30.21997400 7.78425700
-20.41761900 31.94197700 9.32441800
-20.22248700 26.31082800 7.54255900
-20.03329600 28.39467800 9.14890100
-19.55021700 30.21997400 10.67527800
-18.94319500 26.31082800 10.34381600
-18.52784900 28.39467800 11.90712600
-18.88329200 31.94197700 12.13555500
-18.67671100 21.10301400 6.96601900
-18.96046300 23.81317000 8.65895800
-16.87427100 15.82714400 6.29374900
-17.26252700 18.38166500 7.88353600
-17.49520700 21.10301200 9.55315200
-15.80679200 15.82714400 8.63120400
-15.96529400 18.38166500 10.26027600
-17.53563800 23.81317000 11.26947500
-15.13590100 11.65466200 5.64537500
-15.52076000 13.61746400 7.08809800
-13.71715900 8.38783400 5.11621300
-13.91915300 9.84077600 6.35667200
-14.17839400 11.65466200 7.74202900
-12.84939700 8.38783300 7.01634000
-12.87316900 9.84077600 8.27308900
-14.35441600 13.61746400 9.22502900
-13.27217100 6.96258300 4.95024200
-13.01040800 7.50786400 5.94166100
-13.24850000 6.12365200 4.94141400
-12.82698500 6.51371000 5.85789600
-12.43255900 6.96258200 6.78872800
-12.41038700 6.12365000 6.77662200
-11.86307300 6.51371000 7.62394100
-12.03271000 7.50786400 7.73296100
-13.64745600 5.39099300 5.09021700
-13.01630700 5.75481600 5.94435700
-14.28855100 4.59027700 5.32933100
-13.52116500 5.01598100 6.17491700
-12.78410600 5.39099100 6.98068800
-13.38464500 4.59027700 7.30860900
-12.50508800 5.01597900 8.03653900
-12.03816700 5.75481400 7.73646900
-15.31922800 3.51168400 5.71375200
-14.34156300 4.07438900 6.54958000
-16.36927200 2.41214900 6.10539600
-15.40637100 2.94553400 7.03586200
-14.35011900 3.51168200 7.83579900
-15.33373600 2.41214700 8.37289900
-14.24862500 2.94553400 9.15704200
-13.26383400 4.07438700 8.52415500
-17.09380500 1.53070300 6.37563200
-16.27725200 1.94772800 7.43357900
-17.60041500 0.80630900 6.56458700
-16.87844400 1.13950500 7.70813600
-16.01243900 1.53070300 8.74349800
-16.48699800 0.80630900 9.00263100
-15.61007700 1.13950300 10.03199300
-15.05406200 1.94772800 9.67466600
-17.72619600 0.37271300 6.61150100
-17.18135800 0.56330700 7.84647200
-17.73575100 0.02811000 6.61506500
-17.21846300 0.19675300 7.86341900
-16.60482200 0.37271300 9.06696800
-16.61377300 0.02811000 9.07185600
-15.92454700 0.19675300 10.23409200
-15.89022800 0.56330700 10.21203700
-12.48768900 54.27530500 9.34812900
-11.64927200 52.73887900 8.72049900
-11.39036900 53.50236200 9.86980700
-10.88119200 51.31762100 8.14552500
-10.61524800 51.99433600 9.19816300
-10.28960500 52.73887900 10.28963900
-9.61117500 51.31762100 9.61120700
-9.19840900 51.99433600 10.61552600
-11.03016400 54.27530500 11.03020300
-9.87007200 53.50236200 11.39066700
-10.34057600 50.23746900 7.74082800
-9.99655700 50.75761700 8.66206500
-9.89513000 48.93221400 7.40737200
-9.54200200 49.68030400 8.26819300
-9.13365600 50.23746900 9.13369100
-8.74020100 48.93221400 8.74023300
-8.26841100 49.68030400 9.54225500
-8.66229600 50.75761700 9.99682100
-9.56156000 46.58598000 7.15766400
-9.16449700 47.83928200 7.94108000
-9.57555600 44.38632800 7.16814200
-8.94239700 45.35678100 7.74863100
-8.44556400 46.58598000 8.44559400
-8.45792500 44.38632800 8.45795700
-7.74883600 45.35678100 8.94263300
-7.94129200 47.83928200 9.16473800
-10.62996200 43.70815100 7.95745700
-9.44573900 43.90925900 8.18477900
-12.05675800 43.38595600 9.02554000
-10.68223100 43.56557600 9.25620600
-9.38926500 43.70815100 9.38929800
-10.64953000 43.38595600 10.64957000
-9.25645100 43.56557600 10.68251200
-8.18499700 43.90925900 9.44598800
-13.65764200 42.67059900 10.22394600
-12.12933800 43.07370000 10.51013100
-15.16750900 41.65684200 11.35421200
-13.64319000 42.21843000 11.82189300
-12.06356400 42.67059900 12.06361100
-13.39720300 41.65684200 13.39725500
-11.82220500 42.21843300 13.64355500
-10.51040800 43.07370000 12.12965700
-16.22451800 40.08684400 12.14547500
-14.85962200 40.92547600 12.87593700
-17.06636500 38.24462600 12.77567200
-15.74008500 39.20344800 13.63886400
-14.33084100 40.08684400 14.33089600
-15.07443100 38.24462600 15.07448700
-13.63922400 39.20344800 15.74050300
-12.87627600 40.92547600 14.86001600
-17.64535500 36.03505600 13.20909600
-16.41123400 37.17970600 14.22041200
-17.99675900 33.50091900 13.47215100
-16.86919700 34.83703900 14.61724100
-15.58584300 36.03505600 15.58589900
-15.89623300 33.50091900 15.89629200
-14.61762700 34.83703300 16.86964100
-14.22078700 37.17970600 16.41166500
-17.83202800 30.21997700 13.34883700
-16.96357400 31.94197700 14.69901900
-17.27834800 26.31082800 12.93436300
-16.64426100 28.39467800 14.42233400
-15.75072800 30.21997400 15.75078600
-15.26167100 26.31082800 15.26173200
-14.42271600 28.39467800 16.64470200
-14.69940600 31.94197700 16.96401800
-15.95762000 21.10301200 11.94568300
-15.75292200 23.81317000 13.64998900
-14.41759300 15.82714200 10.79283800
-14.34222300 18.38166500 12.42761200
-14.09509300 21.10301200 14.09515200
-12.73481400 15.82714400 12.73486800
-12.42793200 18.38166500 14.34260700
-13.65034500 23.81317000 15.75334200
-12.93230900 11.65466200 9.68097300
-12.89511300 13.61746200 11.17368300
-11.72011200 8.38783400 8.77354000
-11.56445100 9.84077500 10.02066000
-11.42288900 11.65466200 11.42293900
-10.35217500 8.38783400 10.35222300
-10.02091800 9.84077500 11.56476200
-11.17397100 13.61746400 12.89545700
-11.33990900 6.96258300 8.48892400
-10.80943600 7.50786400 9.36643700
-11.31968500 6.12365200 8.47378500
-10.65704600 6.51371000 9.23438900
-10.01634900 6.96258200 10.01639300
-9.99848800 6.12365200 9.99853100
-9.23462500 6.51371000 10.65733300
-9.36667700 7.50786400 10.80972800
-11.66055900 5.39099100 8.72896000
-10.81433900 5.75481400 9.37068500
-12.20831900 4.59027900 9.13900600
-11.23378900 5.01598100 9.73414200
-10.29957600 5.39099300 10.29962200
-10.78340100 4.59027900 10.78345000
-9.73439100 5.01597900 11.23409400
-9.37092500 5.75481400 10.81463100
-13.08894000 3.51168200 9.79822800
-11.91539900 4.07438900 10.32476000
-13.98611600 2.41214700 10.46983900
-12.80007500 2.94553400 11.09133500
-11.56123700 3.51168200 11.56128900
-12.35369600 2.41214700 12.35375000
-11.09162100 2.94553400 12.80042100
-10.32502300 4.07438700 11.91572000
-14.60516800 1.53070300 10.93325400
-13.52362800 1.94772800 11.71829900
-15.03802200 0.80630900 11.25728300
-14.02311700 1.13950500 12.15110900
-12.90049100 1.53070300 12.90054900
-13.28282500 0.80630900 13.28288400
-12.15141800 1.13950300 14.02349500
-11.71860000 1.94772800 13.52399300
-15.14548800 0.37271300 11.33773500
-14.27478800 0.56330700 12.36918300
-15.15365100 0.02811000 11.34384500
-14.30561500 0.19675300 12.39589500
-13.37775100 0.37271300 13.37781100
-13.38496200 0.02811000 13.38502200
-12.39621000 0.19675300 14.30600300
-12.36949600 0.56330700 14.27517200
-9.34817900 54.27530500 12.48765400
-8.72054500 52.73887900 11.64923600
-8.14833500 53.50236200 12.67905000
-8.14557000 51.31762100 10.88116100
-7.59383500 51.99433600 11.81623500
-6.97387500 52.73887900 12.77175400
-6.51406600 51.31762100 11.92966700
-5.83507000 51.99433600 12.77701400
-7.47579900 54.27530500 13.69096100
-6.26114500 53.50236200 13.70998700
-7.74087100 50.23746900 10.34054900
-7.15124300 50.75761700 11.12754700
-7.40741300 48.93221400 9.89510300
-6.82606600 49.68030400 10.62156600
-6.19042200 50.23746900 11.33696100
-5.92375600 48.93221400 10.84859100
-5.24511900 49.68030400 11.48520800
-5.49498300 50.75761700 12.03232900
-7.15770300 46.58598000 9.56153300
-6.55601100 47.83928200 10.20135000
-7.16818100 44.38632800 9.57552900
-6.39712800 45.35678100 9.95412200
-5.72406100 46.58598000 10.48287800
-5.73244000 44.38632800 10.49822300
-4.91552200 45.35678100 10.76349300
-5.03760900 47.83928200 11.03082300
-7.95749800 43.70815100 10.62993100
-6.75720300 43.90925900 10.51441100
-9.02558600 43.38595600 12.05672500
-7.64175300 43.56557600 11.89079500
-6.36366300 43.70815100 11.65422700
-7.21782000 43.38595600 13.21850600
-5.87188900 43.56557600 12.85763900
-5.19220500 43.90925900 11.36934000
-10.22399700 42.67059900 13.65760700
-8.67697000 43.07370000 13.50162700
-11.35426800 41.65684500 15.16746800
-9.75993500 42.21843300 15.18675500
-8.17619600 42.67059900 14.97365000
-9.08008100 41.65684200 16.62900100
-7.49948700 42.21843300 16.42159400
-6.66734200 43.07370000 14.59944600
-12.14553600 40.08684100 16.22447400
-10.63013200 40.92547600 16.54081000
-12.77573700 38.24462300 17.06631900
-11.25999500 39.20344800 17.52088800
-9.71286200 40.08684100 17.78785700
-10.21683900 38.24462600 18.71082300
-8.65212900 39.20344800 18.94551400
-8.16814800 40.92547600 17.88574400
-13.20916300 36.03505600 17.64530600
-11.74010800 37.17970600 18.26796400
-13.47222100 33.50091900 17.99671000
-12.06772500 34.83703300 18.77774500
-10.56345100 36.03505600 19.34559800
-10.77382100 33.50091900 19.73086700
-9.27278300 34.83703300 20.30456500
-9.02104600 37.17970600 19.75333600
-13.34890300 30.21997400 17.83197900
-12.13523600 31.94197700 18.88279400
-12.93442400 26.31082800 17.27830400
-11.90681200 28.39467800 18.52736200
-10.67520200 30.21997700 19.55026100
-10.34374200 26.31082800 18.94323400
-9.14913900 28.39467800 20.03382300
-9.32466000 31.94197700 20.41815900
-11.94573700 21.10301400 15.95757900
-11.26917300 23.81317000 17.53517900
-10.79288500 15.82714400 14.41755700
-10.25999900 18.38166500 15.96487900
-9.55308200 21.10301200 17.49524800
-8.63113900 15.82714200 15.80682800
-7.88373600 18.38166500 17.26298200
-8.65918200 23.81317000 18.96096600
-9.68101500 11.65466200 12.93227800
-9.22477800 13.61746200 14.35404400
-8.77357700 8.38783400 11.72008700
-8.27286500 9.84077500 12.87283600
-7.74196800 11.65466200 14.17842900
-7.01628300 8.38783400 12.84943100
-6.35682900 9.84077500 13.91952500
-7.08827700 13.61746400 15.52117300
-8.48895600 6.96258300 11.33988600
-7.73274800 7.50786400 12.03240100
-8.47381900 6.12365200 11.31966200
-7.62373200 6.51371000 11.86276700
-6.78867300 6.96258200 12.43259300
-6.77656700 6.12365200 12.41041900
-5.85803900 6.51371000 12.82733000
-5.94180800 7.50786400 13.01075600
-8.72899600 5.39099100 11.66053600
-7.73625700 5.75481400 12.03785800
-9.13904200 4.59027900 12.20829300
-8.03632000 5.01598100 12.50476500
-6.98063200 5.39099300 12.78413900
-7.30855000 4.59027900 13.38467900
-6.17507000 5.01597900 13.52152900
-5.94450500 5.75481400 13.01665800
-9.79826700 3.51168200 13.08891300
-8.52392200 4.07438900 13.26348900
-10.46988200 2.41214700 13.98608100
-9.15679200 2.94553400 14.24825600
-7.83573600 3.51168200 14.35015400
-8.37283200 2.41214700 15.33377500
-7.03603600 2.94553400 15.40678300
-6.54974100 4.07438700 14.34194500
-10.93330100 1.53070300 14.60513200
-9.67439800 1.94772800 15.05367300
-11.25732800 0.80630900 15.03798500
-10.03171900 1.13950500 15.60967100
-8.74342700 1.53070300 16.01247600
-9.00255800 0.80630900 16.48703900
-7.70832600 1.13950300 16.87889600
-7.43376600 1.94772800 16.27768700
-11.33777900 0.37271300 15.14545300
-10.21175700 0.56330700 15.88981600
-11.34389100 0.02811000 15.15361800
-10.23381200 0.19675300 15.92413300
-9.06689200 0.37271300 16.60486300
-9.07178200 0.02811000 16.61381500
-7.86361200 0.19675300 17.21892500
-7.84666600 0.56330700 17.18182100
-5.45133200 54.27530500 14.61550300
-5.08533300 52.73887900 13.63422200
-4.24616800 53.50236200 14.46111100
-4.75003800 51.31762100 12.73527100
-3.95721200 51.99433600 13.47702600
-3.09316400 52.73887900 14.21917700
-2.88922200 51.31762100 13.28165700
-1.99900400 51.99433600 13.90338700
-3.31578600 54.27530500 15.24255700
-2.14497100 53.50236200 14.91860500
-4.51403800 50.23746900 12.10254000
-3.72657200 50.75761700 12.69154200
-4.31958700 48.93221400 11.58119000
-3.55712200 49.68030400 12.11444300
-2.74567500 50.23746900 12.62177900
-2.62739800 48.93221400 12.07806200
-1.79689800 49.68030400 12.49769700
-1.88249600 50.75761700 13.09305400
-4.17397000 46.58598000 11.19078100
-3.41639400 47.83928200 11.63516600
-4.18007900 44.38632800 11.20716200
-3.33359800 45.35678100 11.35319000
-2.53882800 46.58598000 11.67090400
-2.54254200 44.38632800 11.68798800
-1.68398300 45.35678100 11.71236100
-1.72580700 47.83928200 12.00325900
-4.64036800 43.70815100 12.44123000
-3.52123800 43.90925900 11.99222800
-5.26321500 43.38595600 14.11114300
-3.98218300 43.56557600 13.56206700
-2.82251300 43.70815100 12.97500200
-3.20136000 43.38595600 14.71655900
-2.01161500 43.56557600 13.99111600
-1.77876900 43.90925900 12.37161600
-5.96205800 42.67059900 15.98481000
-4.52163900 43.07370000 15.39930100
-6.62117200 41.65684200 17.75194500
-5.08598400 42.21843300 17.32127700
-3.62643500 42.67059900 16.67061200
-4.02734000 41.65684200 18.51356500
-2.56920800 42.21843300 17.86925400
-2.28412800 43.07370000 15.88647300
-7.08259500 40.08684100 18.98905900
-5.53945300 40.92547600 18.86564600
-7.45009000 38.24462300 19.97435500
-5.86767500 39.20344800 19.98347600
-4.30800000 40.08684100 19.80375500
-4.53153000 38.24462600 20.83132300
-2.96408100 39.20344800 20.61567700
-2.79827800 40.92547600 19.46248200
-7.70283900 36.03505600 20.65199900
-6.11786700 37.17970600 20.83555600
-7.85624200 33.50091900 21.06328000
-6.28858900 34.83703300 21.41698500
-4.68526700 36.03505600 21.53803700
-4.77857100 33.50091900 21.96696500
-3.17671000 34.83703300 22.09453400
-3.09046700 37.17970600 21.49471100
-7.78432900 30.21997400 20.87048000
-6.32377400 31.94197700 21.53680000
-7.54262900 26.31082800 20.22246200
-6.20473900 28.39467800 21.13140700
-4.73483300 30.21997400 21.76589100
-4.58781900 26.31082800 21.09007300
-3.13435100 28.39467800 21.79992500
-3.19448100 31.94197700 22.21814300
-6.96608000 21.10301200 18.67669100
-5.87246100 23.81317000 19.99977600
-6.29380300 15.82714200 16.87425400
-5.34657100 18.38166400 18.20876300
-4.23713200 21.10301200 19.47798200
-3.82821500 15.82714200 17.59821200
-2.70084200 18.38166500 18.78481800
-2.96649800 23.81317000 20.63249100
-5.64542200 11.65466200 15.13588900
-4.80710700 13.61746100 16.37152600
-5.11625300 8.38783400 13.71714500
-4.31105400 9.84077500 14.68213200
-3.43383700 11.65466000 15.78526800
-3.11196700 8.38783400 14.30565500
-2.17774600 9.84077500 15.14661700
-2.42833200 13.61746200 16.88945600
-4.95028100 6.96258300 13.27215600
-4.02959700 7.50786400 13.72357200
-4.94145200 6.12365200 13.24848800
-3.97278600 6.51371000 13.53009600
-3.01101500 6.96258200 13.84157600
-3.00564500 6.12365200 13.81689100
-2.00686800 6.51371000 13.95813600
-2.03556400 7.50786400 14.15773200
-5.09025700 5.39099100 13.64744400
-4.03142400 5.75481400 13.72979700
-5.32937100 4.59027900 14.28853800
-4.18779100 5.01598100 14.26232800
-3.09615700 5.39099300 14.23296400
-3.24160000 4.59027900 14.90156300
-2.11547800 5.01597900 14.71353100
-2.03648900 5.75481400 14.16415300
-5.71379600 3.51168200 15.31920900
-4.44188500 4.07438900 15.12769200
-6.10544500 2.41214700 16.36925500
-4.77167700 2.94553400 16.25087000
-3.47542500 3.51168200 15.97645400
-3.71364500 2.41214700 17.07154700
-2.41043000 2.94553400 16.76498100
-2.24383500 4.07438700 15.60627100
-6.37568400 1.53070300 17.09378800
-5.04140900 1.94772800 17.16948700
-6.56464000 0.80630900 17.60039800
-5.22760900 1.13950500 17.80363000
-3.87801800 1.53070300 17.82716500
-3.99295200 0.80630900 18.35551300
-2.64074800 1.13950300 18.36686900
-2.54668700 1.94772800 17.71266200
-6.61155100 0.37271300 17.72618000
-5.32143000 0.56330700 18.12315400
-6.61511600 0.02811000 17.73573500
-5.33292200 0.19675300 18.16229400
-4.02148800 0.37271300 18.48669100
-4.02365600 0.02811000 18.49665700
-2.69394700 0.19675100 18.73687600
-2.68814200 0.56330500 18.69649800
-1.11285100 54.27530500 15.55929100
-1.03813400 52.73887900 14.51464700
0.00000100 53.50236200 15.07161900
-0.96968700 51.31762100 13.55764500
0.00000000 51.99433600 14.04598800
1.03813600 52.73887900 14.51464700
0.96968600 51.31762100 13.55764500
1.99900400 51.99433600 13.90338700
1.11285300 54.27530500 15.55929300
2.14497200 53.50236200 14.91860500
-0.92151000 50.23746900 12.88405500
-0.00000100 50.75761700 13.22734400
-0.88181400 48.93221400 12.32904000
-0.00000100 49.68030400 12.62588200
0.92150900 50.23746900 12.88405500
0.88181200 48.93221400 12.32903900
1.79689600 49.68030400 12.49769900
1.88249500 50.75761700 13.09305400
-0.85208700 46.58598000 11.91342100
-0.00000100 47.83928200 12.12636900
-0.85333400 44.38632800 11.93085900
0.00000100 45.35678100 11.83248900
0.85208700 46.58598000 11.91342100
0.85333500 44.38632800 11.93085900
1.68398300 45.35678100 11.71236000
1.72580600 47.83928200 12.00325700
-0.94729700 43.70815100 13.24461700
0.00000100 43.90925900 12.49850600
-1.07444700 43.38595600 15.02236200
0.00000100 43.56557600 14.13461800
0.94730000 43.70815100 13.24461700
1.07445200 43.38595600 15.02236200
2.01162100 43.56557600 13.99111600
1.77877000 43.90925900 12.37161600
-1.21711000 42.67059900 17.01702000
0.00000300 43.07370000 16.04941400
-1.35166200 41.65684200 18.89827000
0.00000300 42.21843300 18.05253300
1.21711500 42.67059900 17.01702000
1.35166900 41.65684200 18.89826500
2.56921200 42.21843300 17.86925400
2.28413200 43.07370000 15.88647500
-1.44585900 40.08684100 20.21526800
0.00000300 40.92547600 19.66210000
-1.52088000 38.24462300 21.26418900
0.00000500 39.20344800 20.82712100
1.44586700 40.08684100 20.21526800
1.52088900 38.24462600 21.26418500
2.96408900 39.20344800 20.61567700
2.79828500 40.92547600 19.46248200
-1.57247600 36.03505600 21.98558800
0.00000400 37.17970600 21.71517000
-1.60379100 33.50091900 22.42343000
0.00000500 34.83703300 22.32114700
1.57248600 36.03505600 21.98558800
1.60380100 33.50091900 22.42343000
3.17671800 34.83703300 22.09453400
3.09047600 37.17970600 21.49471100
-1.58911200 30.21997400 22.21817900
0.00000500 31.94197700 22.44602400
-1.53976900 26.31082800 21.52831600
0.00000500 28.39467800 22.02351700
1.58912200 30.21997400 22.21817900
1.53978100 26.31082800 21.52831600
3.13436000 28.39467800 21.79992500
3.19448900 31.94197700 22.21814300
-1.42207200 21.10301200 19.88272600
0.00000600 23.81317000 20.84411000
-1.28483100 15.82714200 17.96389600
0.00000700 18.38166400 18.97748400
1.42208300 21.10301200 19.88272600
1.28484300 15.82714200 17.96389600
2.70085400 18.38166500 18.78481800
2.96650800 23.81317000 20.63249100
-1.15246800 11.65466000 16.11328000
0.00000700 13.61746100 17.06268200
-1.04444000 8.38783400 14.60292100
0.00000700 9.84077500 15.30196700
1.15248100 11.65466000 16.11327800
1.04445500 8.38783400 14.60291700
2.17776100 9.84077500 15.14661400
2.42834300 13.61746200 16.88945500
-1.01055900 6.96258300 14.12919800
0.00000800 7.50786400 14.30294200
-1.00875700 6.12365200 14.10400100
0.00000700 6.51371000 14.10129700
1.01057500 6.96258200 14.12919600
1.00877200 6.12365200 14.10399900
2.00688300 6.51371000 13.95813400
2.03558000 7.50786400 14.15772900
-1.03913400 5.39099100 14.52871900
0.00000700 5.75481400 14.30942700
-1.08794800 4.59027900 15.21121100
0.00000700 5.01598100 14.86444100
1.03914900 5.39099300 14.52871900
1.08796200 4.59027900 15.21120900
2.11549200 5.01597900 14.71353100
2.03650500 5.75481400 14.16415100
-1.16642400 3.51168200 16.30843700
0.00000700 4.07438900 15.76633900
-1.24637600 2.41214700 17.42628600
0.00000900 2.94553400 16.93693200
1.16644100 3.51168200 16.30843800
1.24639400 2.41214700 17.42628600
2.41044600 2.94553400 16.76498100
2.24385000 4.07438700 15.60627100
-1.30154300 1.53070300 18.19760600
0.00001000 1.94772800 17.89433000
-1.34011600 0.80630700 18.73693200
0.00001000 1.13950500 18.55524900
1.30156200 1.53070300 18.19760600
1.34013600 0.80630700 18.73692900
2.64076600 1.13950300 18.36686900
2.54670400 1.94772800 17.71265900
-1.34969500 0.37271100 18.87083700
0.00001000 0.56330500 18.88825700
-1.35042100 0.02810800 18.88100900
0.00000900 0.19675100 18.92905300
1.34971400 0.37271100 18.87083300
1.35044200 0.02810800 18.88100900
2.69396400 0.19675100 18.73687600
2.68815800 0.56330500 18.69649400
3.31578400 54.27530500 15.24255800
3.09316400 52.73887900 14.21917900
4.24616400 53.50236200 14.46111500
2.88922000 51.31762100 13.28165700
3.95721000 51.99433600 13.47702600
5.08532900 52.73887900 13.63422500
4.75003600 51.31762100 12.73527400
5.83506600 51.99433600 12.77701800
5.45133000 54.27530500 14.61550400
6.26113900 53.50236200 13.70999000
2.74567400 50.23746900 12.62178100
3.72657100 50.75761700 12.69154400
2.62739500 48.93221400 12.07806200
3.55712000 49.68030400 12.11444600
4.51403700 50.23746900 12.10254200
4.31958300 48.93221400 11.58119300
5.24511600 49.68030400 11.48521100
5.49497900 50.75761700 12.03233300
2.53882500 46.58598000 11.67090300
3.41639100 47.83928200 11.63516700
2.54254200 44.38632800 11.68798800
3.33359600 45.35678100 11.35319100
4.17396800 46.58598000 11.19078300
4.18007700 44.38632800 11.20716400
4.91552200 45.35678100 10.76349500
5.03760600 47.83928200 11.03082600
2.82251400 43.70815100 12.97500200
3.52123600 43.90925900 11.99223000
3.20136400 43.38595600 14.71656000
3.98218300 43.56557600 13.56206700
4.64036600 43.70815100 12.44123100
5.26321500 43.38595600 14.11114700
5.87188700 43.56557600 12.85764000
5.19220200 43.90925900 11.36934100
3.62643700 42.67059900 16.67061500
4.52164300 43.07370000 15.39930300
4.02734400 41.65684200 18.51356500
5.08598600 42.21843300 17.32127700
5.96206000 42.67059900 15.98481300
6.62117200 41.65684200 17.75194900
7.49949000 42.21843300 16.42159600
6.66734200 43.07370000 14.59944600
4.30800600 40.08684100 19.80375500
5.53945500 40.92547600 18.86565100
4.53153800 38.24462300 20.83132300
5.86768000 39.20344800 19.98348100
7.08259500 40.08684100 18.98906400
7.45009300 38.24462600 19.97435500
8.65212800 39.20344800 18.94551800
8.16814600 40.92547600 17.88574800
4.68527300 36.03505600 21.53803700
6.11787300 37.17970600 20.83555600
4.77857900 33.50091900 21.96696500
6.28859600 34.83703300 21.41698500
7.70284300 36.03505600 20.65199900
7.85624400 33.50091900 21.06328000
9.27278500 34.83703300 20.30456500
9.02104800 37.17970600 19.75333600
4.73484200 30.21997400 21.76589100
6.32377800 31.94197700 21.53680400
4.58782700 26.31082800 21.09007300
6.20474500 28.39467800 21.13140700
7.78433200 30.21997400 20.87048000
7.54263300 26.31082800 20.22245800
9.14914200 28.39467800 20.03382300
9.32466100 31.94197700 20.41815900
4.23714200 21.10301200 19.47798200
5.87246700 23.81317000 19.99977600
3.82822800 15.82714200 17.59821200
5.34658000 18.38166400 18.20876300
6.96608700 21.10301200 18.67669100
6.29381100 15.82714200 16.87425200
7.88374300 18.38166400 17.26298200
8.65918500 23.81317000 18.96096600
3.43384900 11.65466000 15.78526600
4.80711700 13.61746100 16.37152300
3.11198200 8.38783400 14.30565200
4.31106600 9.84077500 14.68212900
5.64543000 11.65466200 15.13588600
5.11626200 8.38783400 13.71714200
6.35683700 9.84077500 13.91952500
7.08828500 13.61746400 15.52117000
3.01102900 6.96258300 13.84157400
4.02960900 7.50786400 13.72357000
3.00565900 6.12365200 13.81689000
3.97280000 6.51371000 13.53009300
4.95029100 6.96258200 13.27215300
4.94146300 6.12365200 13.24848500
5.85804900 6.51371000 12.82732700
5.94181600 7.50786400 13.01075400
3.09616900 5.39099100 14.23296400
4.03143700 5.75481400 13.72979400
3.24161300 4.59027900 14.90156100
4.18780300 5.01598100 14.26232600
5.09026700 5.39099300 13.64744100
5.32938400 4.59027900 14.28853500
6.17508000 5.01597900 13.52152600
5.94451200 5.75481400 13.01665500
3.47543900 3.51168200 15.97645300
4.44189600 4.07438900 15.12768900
3.71366100 2.41214700 17.07154700
4.77169200 2.94553400 16.25086700
5.71380700 3.51168200 15.31920600
6.10545600 2.41214700 16.36925200
7.03604700 2.94553400 15.40677900
6.54975100 4.07438700 14.34194200
3.87803400 1.53070300 17.82716500
5.04142200 1.94772800 17.16948200
3.99296800 0.80630900 18.35550800
5.22762400 1.13950500 17.80363000
6.37569500 1.53070300 17.09378500
6.56465200 0.80630900 17.60039400
7.70833700 1.13950300 16.87889300
7.43377400 1.94772800 16.27768200
4.02150400 0.37271300 18.48668800
5.32144400 0.56330700 18.12314900
4.02367200 0.02811000 18.49665200
5.33293700 0.19675300 18.16228900
6.61156600 0.37271300 17.72617500
6.61513100 0.02811000 17.73573000
7.86362400 0.19675300 17.21892100
7.84667700 0.56330700 17.18181600
7.47579400 54.27530500 13.69096400
6.97387200 52.73887900 12.77175800
8.14832800 53.50236200 12.67905400
6.51406000 51.31762100 11.92967100
7.59383100 51.99433600 11.81623800
8.72054100 52.73887900 11.64924200
8.14556500 51.31762100 10.88116800
9.19840500 51.99433600 10.61553300
9.34817400 54.27530500 12.48765800
9.87006800 53.50236200 11.39067200
6.19041800 50.23746900 11.33696400
7.15123700 50.75761700 11.12755200
5.92375000 48.93221400 10.84859400
6.82606200 49.68030400 10.62157000
7.74086500 50.23746900 10.34055400
7.40740700 48.93221400 9.89510700
8.26840800 49.68030400 9.54225900
8.66229200 50.75761700 9.99682700
5.72405800 46.58598000 10.48288100
6.55600700 47.83928200 10.20135300
5.73243700 44.38632800 10.49822600
6.39712400 45.35678100 9.95412600
7.15770000 46.58598000 9.56153700
7.16817700 44.38632800 9.57553300
7.74883400 45.35678100 8.94263700
7.94128900 47.83928200 9.16474400
6.36366100 43.70815100 11.65423000
6.75720000 43.90925900 10.51441500
7.21781800 43.38595600 13.21850900
7.64174900 43.56557600 11.89079800
7.95749600 43.70815100 10.62993500
9.02558500 43.38595600 12.05672700
9.25644800 43.56557600 10.68251600
8.18499400 43.90925900 9.44599200
8.17619400 42.67059900 14.97365100
8.67696700 43.07370000 13.50162800
9.08008000 41.65684200 16.62900200
9.75993400 42.21843300 15.18675800
10.22399500 42.67059900 13.65761000
11.35426600 41.65684500 15.16747100
11.82220500 42.21843000 13.64355800
10.51040700 43.07370000 12.12966100
9.71286200 40.08684100 17.78786200
10.63013200 40.92547600 16.54081300
10.21683700 38.24462300 18.71082600
11.25999100 39.20344800 17.52089200
12.14553500 40.08684100 16.22447700
12.77573500 38.24462600 17.06631900
13.63922300 39.20344800 15.74050600
12.87627400 40.92547600 14.86001700
10.56345100 36.03505600 19.34560200
11.74010800 37.17970600 18.26796700
10.77382000 33.50091900 19.73086700
12.06772200 34.83703300 18.77774500
13.20916100 36.03505600 17.64530600
13.47222100 33.50091900 17.99671000
14.61762700 34.83703300 16.86964300
14.22078700 37.17970600 16.41166700
10.67520400 30.21997700 19.55026100
12.13523600 31.94197700 18.88279400
10.34374400 26.31082800 18.94323400
11.90681200 28.39467800 18.52736200
13.34890400 30.21997400 17.83197900
12.93442700 26.31082800 17.27830400
14.42271600 28.39467800 16.64470200
14.69940600 31.94197700 16.96402100
9.55308700 21.10301200 17.49524800
11.26917600 23.81317000 17.53517900
8.63114500 15.82714200 15.80682700
10.26000500 18.38166500 15.96487600
11.94574100 21.10301200 15.95757900
10.79289200 15.82714400 14.41755700
12.42793900 18.38166500 14.34260400
13.65034800 23.81317000 15.75334000
7.74197500 11.65466200 14.17842600
9.22478400 13.61746200 14.35404100
7.01629000 8.38783400 12.84942800
8.27287000 9.84077500 12.87283300
9.68102100 11.65466200 12.93227800
8.77358200 8.38783400 11.72008500
10.02092200 9.84077500 11.56475900
11.17397800 13.61746400 12.89545400
6.78868100 6.96258300 12.43258800
7.73275600 7.50786400 12.03239900
6.77657400 6.12365200 12.41041600
7.62374000 6.51371000 11.86276400
8.48896600 6.96258200 11.33988300
8.47382700 6.12365200 11.31965900
9.23463100 6.51371000 10.65732800
9.36668300 7.50786400 10.80972500
6.98064000 5.39099100 12.78413700
7.73626300 5.75481400 12.03785500
7.30855800 4.59027900 13.38467600
8.03632700 5.01598100 12.50476200
8.72900200 5.39099300 11.66053200
9.13905000 4.59027900 12.20828900
9.73439800 5.01597900 11.23408900
9.37093100 5.75481400 10.81462700
7.83574500 3.51168200 14.35015000
8.52393000 4.07438900 13.26348600
8.37284000 2.41214700 15.33377100
9.15680100 2.94553400 14.24825100
9.79827700 3.51168200 13.08890700
10.46989100 2.41214700 13.98607600
11.09162700 2.94553400 12.80041400
10.32503100 4.07438700 11.91571500
8.74343600 1.53070300 16.01247100
9.67440900 1.94772800 15.05366700
9.00256700 0.80630900 16.48703500
10.03172800 1.13950500 15.60966800
10.93330800 1.53070300 14.60512700
11.25733900 0.80630900 15.03798100
12.15142700 1.13950300 14.02348900
11.71860700 1.94772800 13.52398700
9.06690400 0.37271300 16.60485800
10.21176600 0.56330700 15.88981200
9.07179300 0.02811000 16.61380900
10.23382100 0.19675300 15.92412900
11.33779000 0.37271300 15.14545000
11.34390300 0.02811000 15.15361300
12.39622200 0.19675300 14.30599800
12.36950800 0.56330700 14.27516800
11.03016100 54.27530500 11.03020900
10.28960000 52.73887900 10.28964500
11.39036800 53.50236200 9.86981400
9.61117100 51.31762100 9.61121300
10.61524700 51.99433600 9.19816700
11.64926900 52.73887900 8.72050300
10.88119400 51.31762100 8.14553000
11.81654800 51.99433600 7.59403500
12.48768800 54.27530500 9.34813300
12.67938600 53.50236200 8.14854900
9.13365400 50.23746900 9.13369500
9.99655600 50.75761700 8.66207000
8.74019800 48.93221400 8.74023700
9.54200200 49.68030400 8.26819600
10.34057800 50.23746900 7.74083300
9.89513000 48.93221400 7.40737500
10.62184600 49.68030400 6.82624800
11.12784000 50.75761700 7.15143100
8.44556100 46.58598000 8.44559900
9.16449500 47.83928200 7.94108600
8.45792400 44.38632800 8.45796100
8.94239700 45.35678100 7.74863500
9.56155900 46.58598000 7.15766800
9.57555500 44.38632800 7.16814500
9.95438500 45.35678100 6.39729700
10.20161800 47.83928200 6.55618400
9.38926200 43.70815100 9.38930200
9.44573800 43.90925900 8.18478200
10.64952900 43.38595600 10.64957200
10.68223000 43.56557600 9.25620700
10.62996100 43.70815100 7.95745900
12.05675800 43.38595600 9.02554200
11.89110900 43.56557600 7.64195300
10.51469000 43.90925900 6.75738100
12.06356400 42.67059900 12.06361400
12.12933800 43.07370000 10.51013300
13.39720300 41.65684200 13.39725800
13.64319300 42.21843000 11.82189600
13.65764500 42.67059900 10.22394600
15.16751100 41.65684200 11.35421200
15.18715800 42.21843000 9.76019300
13.50198400 43.07370000 8.67719800
14.33084100 40.08684400 14.33089600
14.85962400 40.92547600 12.87593700
15.07443100 38.24462600 15.07448900
15.74008900 39.20344800 13.63886400
16.22451900 40.08684400 12.14547500
17.06636800 38.24462600 12.77567200
17.52135500 39.20344800 11.26028800
16.54124800 40.92547600 10.63041200
15.58584100 36.03505600 15.58590100
16.41123400 37.17970600 14.22041300
15.89623300 33.50091900 15.89629200
16.86919900 34.83703900 14.61724100
17.64535700 36.03505600 13.20909400
17.99676400 33.50091900 13.47215100
18.77823900 34.83703300 12.06803600
18.26844800 37.17970600 11.74041700
15.75072800 30.21997400 15.75078600
16.96357400 31.94197700 14.69901700
15.26167600 26.31082800 15.26173100
16.64426400 28.39467800 14.42233300
17.83203100 30.21997700 13.34883400
17.27835400 26.31082800 12.93435800
18.52785200 28.39467800 11.90712100
18.88329600 31.94197700 12.13555200
14.09509900 21.10301200 14.09514900
15.75292700 23.81317000 13.64998500
12.73482100 15.82714200 12.73486400
14.34222900 18.38166400 12.42760600
15.95762600 21.10301400 11.94567700
14.41759900 15.82714200 10.79283100
15.96530000 18.38166500 10.26027000
17.53564500 23.81317000 11.26946900
11.42289400 11.65466200 11.42293400
12.89511700 13.61746200 11.17367700
10.35218300 8.38783400 10.35221800
11.56445700 9.84077500 10.02065500
12.93231500 11.65466000 9.68096600
11.72012100 8.38783400 8.77353200
12.87317700 9.84077600 8.27308100
14.35442400 13.61746400 9.22502100
10.01635600 6.96258300 10.01639000
10.80944300 7.50786400 9.36643100
9.99849200 6.12365200 9.99852600
10.65705200 6.51371000 9.23438300
11.33991800 6.96258200 8.48891700
11.31969500 6.12365200 8.47377900
11.86308100 6.51370800 7.62393300
12.03271900 7.50786400 7.73295300
10.29958100 5.39099100 10.29961500
10.81434600 5.75481400 9.37067900
10.78340800 4.59027900 10.78344300
11.23379800 5.01598100 9.73413500
11.66056800 5.39099300 8.72895200
12.20832800 4.59027900 9.13899800
12.50509600 5.01597900 8.03653000
12.03817600 5.75481400 7.73645900
11.56124600 3.51168200 11.56128300
11.91540600 4.07438900 10.32475100
12.35370300 2.41214700 12.35374300
12.80008200 2.94553400 11.09132700
13.08895000 3.51168200 9.79821900
13.98612200 2.41214700 10.46983000
14.24863300 2.94553400 9.15703100
13.26384100 4.07438700 8.52414400
12.90050000 1.53070300 12.90054300
13.52363700 1.94772800 11.71829000
13.28283400 0.80630900 13.28287800
14.02312500 1.13950500 12.15109900
14.60517300 1.53070300 10.93324400
15.03802800 0.80630900 11.25727400
15.61008500 1.13950300 10.03198300
15.05407000 1.94772800 9.67465400
13.37776000 0.37271300 13.37780300
14.27479600 0.56330700 12.36917300
13.38497200 0.02811000 13.38501400
14.30562600 0.19675300 12.39588700
15.14549700 0.37271300 11.33772400
15.15366100 0.02811000 11.34383500
15.92455400 0.19675300 10.23408100
15.89023600 0.56330500 10.21202500
13.69093200 54.27530500 7.47585000
12.77172900 52.73887900 6.97392400
13.70962700 53.50235600 6.26097900
11.92964300 51.31762100 6.51410800
12.77667800 51.99433600 5.83491600
13.63424200 52.73887900 5.08528300
12.73528900 51.31762100 4.74999200
13.47738000 51.99433600 3.95731900
14.61552300 54.27530500 5.45127900
14.46149100 53.50236200 4.24628100
11.33693800 50.23746900 6.19046600
12.03201300 50.75762300 5.49483900
10.84856900 48.93221400 5.92379500
11.48490400 49.68030700 5.24498200
12.10255500 50.23746900 4.51399700
11.58120600 48.93221400 4.31954400
12.11476300 49.68030400 3.55721800
12.69187500 50.75761700 3.72667400
10.48285700 46.58598000 5.72410000
11.03053200 47.83928200 5.03747700
10.49820200 44.38632800 5.73247900
10.76320900 45.35678400 4.91539500
11.19079600 46.58598000 4.17393000
11.20717700 44.38632800 4.18003900
11.35348800 45.35678400 3.33368800
11.63547100 47.83928200 3.41648600
11.65420400 43.70815100 6.36370600
11.36903900 43.90925900 5.19206700
13.21848000 43.38595600 7.21786800
12.85730000 43.56557900 5.87173300
12.44124800 43.70815100 4.64032000
14.11116300 43.38595600 5.26316300
13.56242200 43.56557900 3.98228800
11.99254300 43.90925900 3.52133000
14.97361900 42.67059900 8.17625000
14.59906200 43.07369700 6.66716800
16.62896700 41.65684200 9.08014200
16.42116100 42.21843000 7.49929200
15.98483300 42.67059900 5.96200100
17.75197100 41.65684200 6.62110400
17.32173300 42.21843300 5.08612100
15.39970600 43.07370000 4.52176300
17.78782300 40.08684400 9.71292600
17.88527700 40.92547600 8.16793000
18.71078600 38.24462300 10.21690500
18.94501600 39.20344800 8.65189700
18.98908700 40.08684100 7.08252300
19.97438400 38.24462600 7.45001500
19.98400300 39.20344800 5.86783200
18.86614500 40.92547600 5.53960000
19.34556400 36.03505600 10.56352100
19.75281700 37.17970600 9.02080600
19.73082900 33.50091900 10.77388900
20.30403000 34.83703300 9.27253600
20.65202600 36.03505600 7.70276200
21.06331000 33.50091900 7.85616100
21.41754800 34.83703300 6.28875800
20.83610400 37.17970600 6.11803100
19.55022400 30.21997400 10.67527200
20.41762100 31.94197700 9.32441100
18.94319800 26.31082800 10.34380900
20.03329600 28.39467800 9.14889500
20.87050800 30.21997400 7.78425100
20.22248800 26.31082800 7.54255100
21.13196700 28.39467800 6.20490300
21.53737000 31.94197700 6.32394000
17.49521200 21.10301200 9.55314600
18.96046900 23.81317000 8.65895100
15.80679800 15.82714400 8.63119600
17.26252900 18.38166400 7.88352800
18.67671700 21.10301200 6.96601000
16.87427800 15.82714200 6.29373900
18.20924400 18.38166500 5.34671300
20.00030400 23.81317000 5.87261500
14.17840000 11.65466200 7.74202000
15.52076400 13.61746400 7.08808900
12.84940500 8.38783400 7.01633000
13.91916000 9.84077600 6.35666200
15.13591000 11.65466200 5.64536500
13.71716300 8.38783400 5.11620300
14.68251600 9.84077600 4.31117200
16.37195600 13.61746400 4.80723600
12.43256600 6.96258200 6.78871900
13.01041400 7.50786400 5.94165200
12.41039500 6.12365000 6.77661200
12.82699100 6.51371000 5.85788500
13.27217400 6.96258300 4.95023200
13.24850500 6.12365200 4.94140400
13.53045200 6.51371000 3.97289500
13.72393200 7.50786400 4.02970600
12.78411500 5.39099100 6.98067900
13.01631300 5.75481600 5.94434600
13.38465300 4.59027700 7.30859800
13.52117300 5.01598100 6.17490600
13.64746200 5.39099300 5.09020600
14.28855700 4.59027700 5.32932000
14.26270300 5.01598100 4.18790300
13.73015700 5.75481600 4.03153300
14.35012500 3.51168200 7.83578800
14.34156800 4.07438700 6.54956700
15.33374500 2.41214700 8.37288700
15.40637800 2.94553400 7.03585000
15.31923200 3.51168400 5.71373900
16.36927800 2.41214900 6.10538300
16.25129700 2.94553500 4.77180600
15.12809000 4.07438900 4.44200300
16.01244500 1.53070300 8.74348600
16.27725800 1.94772600 7.43356600
16.48700600 0.80630900 9.00261700
16.87845200 1.13950300 7.70812100
17.09381100 1.53070300 6.37561800
17.60042300 0.80630900 6.56457400
17.80410000 1.13950500 5.22775000
17.16993900 1.94772800 5.04154200
16.60483100 0.37271300 9.06695600
17.18136600 0.56330700 7.84645800
16.61378200 0.02811000 9.07184200
17.21847400 0.19675100 7.86340500
17.72620400 0.37271300 6.61148700
17.73575900 0.02811000 6.61505100
18.16277000 0.19675300 5.33306500
18.12363000 0.56330500 5.32157200
15.24254200 54.27530500 3.31584500
14.21916400 52.73887900 3.09322100
14.91821000 53.50236200 2.14491900
13.28164500 51.31762100 2.88927500
13.90301800 51.99433600 1.99895600
14.51464800 52.73887900 1.03808600
13.55764600 51.31762100 0.96964100
14.04635600 51.99433600 0.00000500
15.55929300 54.27530500 1.11279800
15.07201500 53.50236200 0.00000500
12.62176700 50.23746600 2.74572600
13.09270600 50.75762300 1.88245100
12.07805100 48.93221400 2.62744600
12.49736700 49.68030400 1.79685400
12.88405600 50.23746900 0.92146600
12.32904000 48.93221400 0.88177100
12.62621200 49.68030400 0.00000500
13.22769000 50.75761700 0.00000500
11.67089200 46.58598000 2.53887300
12.00293900 47.83928200 1.72576600
11.68797600 44.38632800 2.54258900
11.71205000 45.35678400 1.68394200
11.91342100 46.58598000 0.85204600
11.93086000 44.38632800 0.85329300
11.83279900 45.35678400 0.00000400
12.12668600 47.83928200 0.00000500
12.97498900 43.70815100 2.82256400
12.37128800 43.90925900 1.77872600
14.71654500 43.38595600 3.20141900
13.99074600 43.56557900 2.01156800
13.24461800 43.70815100 0.94725200
15.02236600 43.38595600 1.07439600
14.13498800 43.56557900 0.00000400
12.49883300 43.90925900 0.00000400
16.67059800 42.67059900 3.62650100
15.88605300 43.07370000 2.28407200
18.51354800 41.65684200 4.02741300
17.86878200 42.21843300 2.56914500
17.01702400 42.67059900 1.21705300
18.89827100 41.65684500 1.35159800
18.05300800 42.21843000 0.00000400
16.04983700 43.07370000 0.00000400
19.80373800 40.08684400 4.30807900
19.46196600 40.92547600 2.79821100
20.83130200 38.24462600 4.53161300
20.61513100 39.20344800 2.96401000
20.21527300 40.08684400 1.44578900
21.26419100 38.24462300 1.52080700
20.82767000 39.20344800 0.00000300
19.66261700 40.92547600 0.00000300
21.53801900 36.03505600 4.68535100
21.49414200 37.17970600 3.09039200
21.96694600 33.50091900 4.77865800
22.09394800 34.83703300 3.17663100
21.98559300 36.03505600 1.57240100
22.42343400 33.50091900 1.60371500
22.32173300 34.83703900 0.00000200
21.71574200 37.17970600 0.00000300
21.76587400 30.21997400 4.73491700
22.21755400 31.94197700 3.19440200
21.09005100 26.31082800 4.58790000
21.79934700 28.39467800 3.13427300
22.21818200 30.21997400 1.58903500
21.52831700 26.31082800 1.53969500
22.02409700 28.39467800 0.00000100
22.44661400 31.94197700 0.00000200
19.47796300 21.10301400 4.23720700
20.63194400 23.81317000 2.96642500
17.59819900 15.82714200 3.82828600
18.78432000 18.38166500 2.70077600
19.88273000 21.10301400 1.42200300
17.96390100 15.82714400 1.28476800
18.97798500 18.38166500 -0.00000000
20.84465500 23.81317000 0.00000100
15.78525400 11.65466200 3.43389900
16.88900900 13.61746400 2.42827000
14.30564100 8.38783400 3.11202600
15.14621400 9.84077800 2.17769400
16.11328100 11.65466200 1.15241200
14.60292200 8.38783400 1.04439200
15.30236800 9.84077500 -0.00000200
17.06313200 13.61746400 -0.00000100
13.84156200 6.96258300 3.01107100
14.15735600 7.50786400 2.03551800
13.81687800 6.12365200 3.00570100
13.95776400 6.51371000 2.00682000
14.12919900 6.96258300 1.01051100
14.10400100 6.12365200 1.00870900
14.10166800 6.51371000 -0.00000200
14.30331600 7.50786400 -0.00000200
14.23295100 5.39099300 3.09621200
14.16377600 5.75481600 2.03644000
14.90154900 4.59027700 3.24165800
14.71314200 5.01598100 2.11542700
14.52872000 5.39099300 1.03908400
15.21121200 4.59027700 1.08789600
14.86483200 5.01598100 -0.00000200
14.30980400 5.75481600 -0.00000200
15.97644000 3.51168400 3.47548900
15.60585900 4.07438900 2.24378000
17.07153300 2.41214700 3.71371300
16.76453900 2.94553400 2.41037200
16.30844100 3.51168400 1.16636900
17.42629200 2.41214700 1.24631700
16.93737800 2.94553100 -0.00000300
15.76675300 4.07438900 -0.00000300
17.82715000 1.53070600 3.87808900
17.71219200 1.94772800 2.54662400
18.35549600 0.80631100 3.99302400
18.36638200 1.13950500 2.64068300
18.19761000 1.53070300 1.30148100
18.73693500 0.80631100 1.34005300
18.55573700 1.13950100 -0.00000300
17.89480300 1.94772600 -0.00000300
18.48667400 0.37271500 4.02156000
18.69600100 0.56330500 2.68807500
18.49663800 0.02810800 4.02372800
18.73638200 0.19675300 2.69388000
18.87083700 0.37271100 1.34963000
18.88101000 0.02810800 1.35035700
18.92954900 0.19675100 -0.00000300
18.88875600 0.56330500 -0.00000300
-15.55929300 54.27530500 -1.11278700
-14.91821000 53.50236200 -2.14490700
-14.51464700 52.73887900 -1.03807400
-15.24254200 54.27530500 -3.31583300
-14.46149300 53.50236200 -4.24626700
-14.21916400 52.73887900 -3.09320900
-13.90301700 51.99433600 -1.99894500
-13.47738200 51.99433600 -3.95730700
-13.28164500 51.31762100 -2.88926300
-13.55764600 51.31762100 -0.96963100
-13.09270500 50.75761700 -1.88244000
-12.88405500 50.23746600 -0.92145600
-12.69187500 50.75761700 -3.72666200
-12.62176400 50.23746600 -2.74571400
-12.49736600 49.68030100 -1.79684300
-12.11476200 49.68030100 -3.55720700
-12.07805000 48.93221400 -2.62743600
-12.32904100 48.93221400 -0.88176200
-12.00293600 47.83928200 -1.72575600
-11.91342000 46.58598000 -0.85203700
-11.63546900 47.83928200 -3.41647500
-11.67089100 46.58598000 -2.53886400
-11.71204800 45.35678400 -1.68393300
-11.35348700 45.35678400 -3.33367800
-11.68797500 44.38632800 -2.54258100
-11.93085900 44.38632800 -0.85328500
-12.37128900 43.90925900 -1.77871800
-13.24461500 43.70815100 -0.94724500
-11.99254200 43.90925900 -3.52132300
-12.97498600 43.70815100 -2.82255600
-13.99074400 43.56557600 -2.01156100
-13.56242100 43.56557600 -3.98228100
-14.71654400 43.38595600 -3.20141300
-15.02236300 43.38595600 -1.07438900
-15.88605200 43.07370000 -2.28406600
-17.01702400 42.67059900 -1.21704600
-15.39970600 43.07370000 -4.52175600
-16.67059600 42.67059900 -3.62649500
-17.86878400 42.21843000 -2.56913900
-17.32173200 42.21843300 -5.08611600
-18.51354400 41.65684500 -4.02740900
-18.89827000 41.65684500 -1.35159200
-19.46196300 40.92547600 -2.79820500
-20.21526800 40.08684400 -1.44578400
-18.86613800 40.92548200 -5.53959600
-19.80373400 40.08684400 -4.30807500
-20.61512500 39.20344800 -2.96400600
-19.98400000 39.20345200 -5.86783000
-20.83129900 38.24462600 -4.53161200
