51.40033722 63.75663376 1.02053785
-15.35710430 65.95394135 -26.18261909
-55.36549377 3.24071574 35.34981918
14.13109398 64.19479370 12.13406372
42.76317215 59.37241364 -6.99720144
-58.03136063 -17.81678391 -31.43126869
37.54279709 66.08164215 31.94408798
27.02560806 62.92078781 33.53036499
10.59969711 68.27367401 -20.90186882
44.34875107 68.12404633 20.86717606
23.38873100 71.27684784 -2.64303923
31.27788162 33.74180603 -49.10000992
-3.94614172 69.72892761 -24.38755989
50.77397919 58.64503860 -2.23477578
28.64112854 74.88568878 30.37589264
-30.63209534 68.36133575 13.82804489
35.53977585 59.61670303 -16.87850380
40.40335846 60.62199020 34.72726059
-35.27736282 51.29486465 -32.12520218
16.62041092 75.06991577 -42.65654373
4.18551159 58.78450012 40.07994461
11.62381935 73.36733246 -29.45055580
-64.20294189 11.74214458 7.97637987
38.63740540 38.75442505 43.20312500
51.20030594 49.59468460 38.21424866
5.77163363 68.34524536 23.29308510
-18.80647659 50.67308044 43.57003403
40.57292938 -6.41232204 52.90230179
-1.70271552 71.89243317 -34.97058868
-11.18443489 46.28205109 49.78182220
-5.19340467 70.28850555 -30.12339020
30.07806396 66.36487579 14.07270813
21.64231873 64.22271729 -36.31126785
-59.71873474 22.28483200 -17.50101089
30.15976143 58.56455612 37.21755600
-64.52496338 1.45499849 -14.63107109
-41.49826431 54.24927902 14.11608791
21.09133720 60.36301422 15.13261318
22.01305580 71.80218506 -13.70291138
-17.43703651 64.32978821 26.73936462
-27.87988281 -83.08145905 -27.40830231
46.08068466 69.04881287 -1.03323054
29.96986008 73.40805817 31.19950867
31.13985634 58.60223770 36.18561935
9.53578568 66.25920105 10.33186722
32.93501282 41.70431519 44.17484665
49.14145279 55.18712997 -2.23987389
55.64155960 -23.59266663 33.34349060
3.66412926 76.16786957 -30.82233047
53.42350769 48.11822891 17.95603943
-15.01353455 -82.82215118 -35.66418076
13.40871429 68.80162048 -32.87370682
63.05136490 -22.68672752 -14.35877132
45.10580063 47.24672318 27.34975433
54.38689804 32.39957428 23.53558540
35.91095352 65.19485474 28.64850044
21.09826469 71.04344940 11.45729160
23.81826973 56.37162781 -35.49734116
8.68349838 67.71623993 27.66233444
26.25689888 79.19522858 -8.45450878
29.18153381 67.85377502 -11.61415386
-51.74349594 11.49360657 38.56145859
-53.92798233 -41.37957764 29.24736786
-11.73504639 67.32467651 -18.66457748
-32.29755020 69.52913666 2.14783478
53.21133423 12.09852695 -36.84098053
29.12820053 74.48222351 -11.40521622
11.16829777 68.21927643 -35.74576569
-57.09391403 -34.41876221 -27.25469589
21.67029762 60.55609894 -36.23766327
-17.70183182 73.41636658 13.08318710
58.44655991 -32.46956253 -22.65950203
-37.74556351 26.08175659 -47.94892883
19.82427216 73.27788544 -41.15249252
-29.92928123 55.14117050 32.61208344
18.67072487 61.82236862 -38.63287354
30.25315666 62.14046860 -20.77296638
50.90132904 64.84272766 3.20832109
25.08474922 64.32816315 -27.21344376
27.85724640 -86.05684662 17.62937546
21.65753174 -78.50540924 4.93164062
-18.39936829 -78.05946350 24.58739662
45.59349442 58.67845154 33.41498566
50.34433746 -42.83143616 33.22676849
2.63366604 39.41217422 -55.36670685
0.07024806 66.18851471 -22.90178108
-30.65879631 -78.12989807 -10.24439716
33.47100067 -79.12073517 -22.17980194
5.03032494 68.80403900 24.10610962
37.34098816 46.06576157 40.08486176
-4.71996069 33.89799881 -57.81866455
18.11823654 -79.06974792 -15.56124973
-6.30183649 67.00578308 -21.27159309
35.86945724 -84.55543518 0.35455677
40.29358673 39.45113373 42.69267273
48.09282684 34.82838821 32.12625885
1.96457458 75.77950287 -33.37054062
41.19116211 -75.62550354 12.77592850
43.21562576 59.55728149 31.27358818
52.33741379 -35.44744492 33.98778152
-22.91506386 -80.61225128 25.61689949
-1.69375157 -77.67802429 -9.09725857
44.11137772 -4.73895693 49.84231949
-15.19261456 -64.42620087 49.46212387
39.99140167 12.34325790 51.11284637
-20.51624680 -83.18418121 33.72563934
61.29549789 26.39370537 5.29548407
-26.90668869 50.90828705 38.63993454
14.38953018 69.63109589 6.89541245
26.13280487 52.02000809 38.96765518
26.56795692 68.06993866 27.92308044
-3.19050121 70.39498901 -25.78938484
-63.60120010 -23.08910751 -15.18496227
42.24304199 62.84994507 31.32266426
9.74299431 58.92128372 -15.27923679
9.56667805 77.61962891 11.26772881
11.47404957 76.14913177 -10.74634266
10.01251221 69.13776398 9.76222420
27.25601578 60.02035141 -27.94204330
-20.46170616 74.15520477 2.03194165
18.83366585 50.29792404 44.68160629
22.77810287 72.70115662 12.44384575
-3.61670113 14.29822731 -64.34248352
15.76863003 66.40755463 -28.33971024
28.86324501 77.13215637 19.22477150
32.83918762 43.37030792 -42.02196121
44.59354019 57.03653336 -4.70895481
41.35369492 45.61978531 32.07592773
-41.65616226 47.48040390 -26.86894989
22.44446564 63.20770645 12.36660385
49.33041763 59.72936630 24.00529480
-32.47391510 39.65837097 -44.13901520
43.36549759 -33.67760849 -44.95322800
27.10598183 50.55662155 39.47655869
51.45434570 47.32450485 33.11596680
16.28330421 66.31211853 25.51366425
34.63262939 66.68849182 30.37656403
-33.61143875 -22.68693161 -55.90620422
21.15491486 75.18260956 -35.16196442
15.28544331 47.42952347 -47.94297791
-59.01757812 -35.92047119 -21.68946838
24.67069054 67.20576477 9.04556656
22.06729317 65.39899445 -30.02597237
-38.74366760 -81.40547943 15.05155659
30.40007210 58.01116562 36.89867783
38.62654495 65.10533905 32.58657837
-34.54782104 -84.73873138 9.19673347
-40.87102890 46.39305496 -29.38674736
33.43182755 64.06142426 26.54877090
-46.41317368 49.27470398 -12.63503265
41.14272690 63.00309753 -8.83656120
-31.40261841 65.36421967 18.35956955
5.20976543 67.68834686 -23.68241310
0.80489528 60.76963806 -43.65449905
-50.65436172 -40.35821152 -35.27737045
53.68262863 65.02475739 22.53335190
27.72807693 80.17677307 18.37460899
-62.64109802 -2.35165906 -22.18142509
4.39674664 64.48735046 23.31257629
6.51804972 77.63925171 -32.39184570
49.84766769 68.32653809 18.82546425
-30.65782166 59.25004196 -25.70925903
31.59385300 58.72263718 -24.88879776
19.36113358 -82.71553802 -32.24133682
-29.15259361 -77.78777313 11.74945831
17.72180367 -70.47842407 43.94181824
10.02367878 72.91651154 10.87896442
-34.45615387 -32.47100830 -53.34484482
11.09864712 -75.04530334 -42.13992691
20.77055359 70.27684784 -39.91680145
4.97151566 76.11513519 -34.57844543
44.48806381 49.89892578 -20.28586388
-63.86024857 -6.51722383 -18.78121948
19.00811005 66.21771240 25.45339012
-29.70495224 70.62468719 -1.86835074
25.82979393 -79.00726318 10.95982742
4.08034277 76.23479462 -32.16760254
-0.35094526 -30.49695206 63.76784515
-54.32150269 -59.29549408 -5.65211916
-31.31838608 60.06068802 20.35594559
53.37290192 47.91687775 13.40875816
-53.78292084 6.93221092 36.97292709
24.25590324 58.92021561 0.93119889
28.02656555 54.98989487 38.48570251
3.85477901 74.74261475 -18.26930618
66.23793030 -0.45293826 -0.07692926
-28.16156769 58.19704056 -32.70317459
10.39375877 67.40685272 -21.62040329
55.86937714 -53.56292725 4.27044725
15.72750568 75.68114471 -29.05447769
45.04714584 62.75902557 4.65569735
3.55188632 50.39251709 -47.51897430
4.93501377 67.75173187 -27.91333580
-63.85932159 -29.03163910 6.92717886
-25.41215706 76.56431580 4.27887821
-9.08853149 -83.91255188 37.37548065
-18.64290047 66.56141663 -22.87238121
-40.66663742 -55.65571594 38.91416168
-22.44552994 -85.07477570 27.10238647
-14.10456276 -72.04087830 45.02038193
29.91600418 50.34655762 38.38572311
50.80815506 67.09354401 22.53728676
-15.18316269 58.93330383 36.28915405
48.47699738 57.71330261 28.08526802
15.29416847 59.80143738 -37.53929520
61.76604843 -31.39071083 -12.50942993
18.92585373 -7.25913191 63.71245956
-51.33824921 26.04113388 32.09224319
0.33380422 69.00901794 24.48933411
-20.47979546 73.55242920 2.05976748
13.58370781 85.61069489 11.73851204
24.82553673 64.26458740 -6.81421661
-36.50119019 -85.12318420 -5.57192755
44.74575806 62.64683151 -7.44052887
-9.90448093 69.40502167 -23.65777779
52.41611099 58.82656860 19.09099960
-21.86191559 -78.20499420 -22.27169800
-10.71642780 -80.91713715 -30.48233414
36.42330551 44.29823303 41.78330231
-64.49465942 -28.66341400 -0.05226988
39.42684174 57.79031372 32.91550064
40.83994293 52.74095917 34.79711914
43.58961868 -74.71984100 2.90006733
46.74103165 51.98842239 -2.17232919
24.62552071 68.91361237 15.95952511
43.88726044 61.81298065 17.52733803
-21.29498100 74.83869171 9.52861786
31.70671463 72.63057709 27.26544380
36.90343475 71.77458191 -1.84583032
3.49985552 75.98654175 -32.82873154
12.94624710 12.70432186 63.55078506
-20.66733360 77.26062775 3.51352978
-34.75226212 -82.81256104 20.67846298
-31.35611534 -40.94467163 -52.67892075
-1.13411629 -65.75316620 -49.90211105
-33.31433868 64.99012756 14.87188816
55.17943954 -54.27064133 8.13171673
-37.56297684 66.47576904 9.87400532
-49.20336914 47.40808105 7.23863697
19.81516266 66.84682465 25.67080688
20.79611206 79.69098663 -32.89310074
28.39389420 -23.98760796 -57.87739944
22.55393219 67.42949677 -17.14905357
18.25375938 72.03571320 -41.76809311
28.35842514 63.27042389 -21.76587105
35.81488800 -43.02103806 48.38550949
8.76133347 6.91944170 -64.97985840
-38.36226654 -43.66059113 -46.92338943
63.67485428 -24.05451775 -9.79397106
22.22842789 81.19097137 24.21082878
-35.82378769 61.48467636 -4.67697001
26.71804619 64.34998322 -26.15056229
63.56788254 -4.16842794 19.64300919
-34.06080627 -77.68788147 -26.64022064
-18.56307030 71.59584808 7.11991978
-12.46712875 64.02602386 -17.06564713
-16.96535110 -84.93619537 -29.26021957
-29.10047150 59.71033859 31.29501343
38.64695740 61.20699310 2.35848045
-59.78871918 -39.11789322 16.42566109
-17.72064018 -48.91667175 56.02257919
-25.09836578 73.17031097 -1.68969989
-34.47527313 -82.70867157 -2.50920558
-43.55683517 54.54619980 -10.09907532
18.33846474 -19.23691559 -62.48055649
14.23298168 73.75003815 -25.45782280
27.50563240 71.19523621 15.35685730
-30.01592636 -73.75808716 35.32926941
4.58471394 28.15064049 -60.19437790
62.87262726 -15.35459709 19.84862137
40.06213760 58.81503296 7.02772903
6.36775923 71.44557953 -23.90928841
30.20689201 72.15459442 17.88645363
38.79940033 31.85515785 -44.53930283
-26.37294197 75.89138794 8.66724777
32.78230286 -10.00959396 -57.21683884
31.98772049 64.82996368 10.81375980
19.37356567 62.22650528 30.10719109
-3.83257580 68.73600006 26.37942505
0.19156900 6.16463566 65.60085297
19.86638260 63.72197342 -40.01768875
-28.02690315 60.42263794 -26.27439308
28.20552635 63.68783569 33.20225906
-28.61931992 -78.47510529 16.77672195
43.25146484 38.51078415 38.88468170
11.58843327 75.21726227 -26.16068840
22.56038284 -48.86558151 -53.16841507
44.98952103 68.99533844 -1.24094808
27.32501030 43.39533234 45.56415176
-7.01855326 -25.43383980 -63.99174881
2.97011590 -19.54648590 65.41946411
35.42488861 60.10367203 33.69601059
48.32205582 64.45681763 4.41096306
-34.54154968 -31.14319801 53.73711777
46.27792740 57.85550308 15.64090919
31.35716438 32.76898575 49.69607925
-19.70226860 77.43975067 7.21766901
-26.64754486 -67.62823486 -41.56634903
61.80756378 18.82089424 -13.52631855
-8.62529850 -52.89036179 56.43740082
14.92326164 74.86821747 -25.54980278
-45.62891388 17.35956955 -44.65523148
17.27465630 66.95308685 13.53554630
16.53263664 66.61371613 -25.28982162
-37.72394943 65.00341034 8.13360500
40.86898041 58.82656097 39.91456604
26.40609550 69.62395477 32.35292435
-32.27066422 -78.38553619 -6.36793327
-14.53442001 68.85193634 19.99594307
15.20525455 74.09074402 -41.85455322
49.34049988 42.19129562 36.33566666
-62.20177078 -22.27104378 -20.44674492
16.37478065 67.74044800 -22.16818810
46.47463989 66.27432251 18.48545265
5.76432562 82.85657501 -38.88375092
49.51916504 42.95528793 32.50735855
34.98091888 24.70396042 -50.51676559
37.80672073 66.25673676 27.09806633
-1.33457935 -37.28806305 62.28755188
-33.82297897 -81.02276611 8.17171288
38.02462769 63.21398163 10.43317509
2.87355804 47.57649612 50.17546082
-47.52294159 49.91111755 -3.41488266
18.00844574 73.79552460 -35.52775955
-26.16836739 55.09599686 34.26951218
-50.40165710 34.12352371 -27.94107246
-17.77848244 -76.00990295 -40.02166748
-3.54079127 -85.23652649 -34.88207626
53.74496841 -1.91265440 -38.54569626
-63.72473145 -31.72590446 -3.04853177
41.03850555 60.74279785 14.66790962
-9.43657017 32.42113495 -57.81102371
14.98879623 73.97863770 10.72783470
5.06948328 44.85443115 51.98990250
-41.72853088 45.98254013 -28.69614220
61.42424393 8.36096764 -22.07730293
51.07880020 60.41187286 23.08335304
-52.35786819 -63.76270676 3.30687070
32.09426117 72.13918304 21.46082687
48.84733963 -66.93906403 1.97662759
-19.38653183 70.31063080 8.24081993
-42.76503372 25.89522171 42.95389557
1.38457823 -78.50769806 -22.17272186
-26.40567780 48.42926407 41.35416794
14.40901852 68.43707275 16.97879982
38.27652740 -78.17001343 15.48196125
-32.41174698 8.62929916 56.63988495
-31.41339493 63.31859589 19.03184509
35.24932480 -84.45172119 -6.75508404
-6.09539795 69.21808624 -30.82941055
28.64884949 52.45483398 38.49354935
21.10696220 63.33075333 -33.51360321
35.58583832 38.55950928 45.23568726
51.95079422 60.59870148 20.31109428
38.73130798 46.31661987 38.69696426
36.46007156 62.08021545 2.56850052
0.88914943 65.11655426 -22.72721100
34.41373444 -83.13650513 -14.06891537
-59.03977585 29.77625656 5.16783285
-47.31275177 39.12802124 -28.27299881
25.49737358 66.68922424 28.66365242
-64.76316071 11.20924664 0.64663553
41.75220871 56.48750687 -8.08992577
38.51228333 60.28392410 -8.75009823
16.66109467 79.93959045 -43.09137726
-64.55659485 -24.60583687 -8.28371525
-49.00906372 48.15365219 3.48969817
-26.89953995 -47.78187180 -52.33704376
-21.09240150 77.55148315 4.99232054
41.08654404 39.46183014 41.68412399
-36.26203156 18.58141518 51.60504150
54.24251556 50.55716705 36.28150177
13.62643623 72.82555389 21.02100372
-34.38133621 12.50213814 54.59524536
61.00757599 23.04144669 -12.38703060
-31.77210236 -84.52251434 21.51963806
-25.64405632 -84.37662506 -27.45919609
19.03376961 77.15594482 -42.47036743
51.15835571 64.32243347 1.25223196
25.22630119 67.98320007 18.02369308
12.58224010 78.59543610 -18.97600365
19.94500160 66.47045898 -11.59995651
6.63853502 -76.79433441 -41.86216354
-0.45292199 -77.53969574 7.63498354
1.69321573 80.47309875 -34.76929474
-6.97392464 -38.39513397 61.60568237
21.42353821 69.88562012 -38.64868927
-39.85072327 43.93426132 -33.48212433
15.85361481 72.75389099 19.48881149
6.60690165 77.28511810 -35.27400589
29.34038925 -85.95008087 16.90153503
-35.57054520 -84.80364990 0.67323536
19.65686417 65.53532410 -35.32106400
9.80688000 72.24091339 15.12307739
16.82113266 77.74419403 24.67416954
45.23288345 -29.38867950 -44.49766541
58.77019501 33.51058578 4.34427404
-36.85867310 45.31019211 -35.22544861
13.81444454 62.23567963 33.47682953
61.22642899 -36.13019180 10.55487251
21.74534035 64.02354431 -37.02968216
33.01745605 37.49358749 46.45632172
-6.77803850 38.53339386 -55.27124786
-22.59954643 -85.19074249 -27.70322800
12.47113800 7.17558622 -64.31965637
-11.10516453 -52.51841354 56.19226837
50.59543991 42.10345078 19.43075562
0.73065448 81.32704926 -30.29257584
20.38189697 78.41957855 -39.67615128
18.92930412 78.93018341 -24.81792450
-61.72098541 4.50707102 -23.23902512
43.51002884 59.61530685 33.93287659
26.84247208 -85.26534271 -16.13665199
14.10274601 67.94551849 23.85388374
31.09707069 45.69532394 41.12793732
-8.20588207 -35.58398819 62.25174332
-19.77149391 -43.35875320 -56.87331009
32.05771637 69.75517273 24.53151703
29.84435463 49.00099945 39.14685059
20.67696190 73.33602142 -15.51147461
34.79385376 -84.59904480 8.87766075
-4.80879354 -79.64179993 -30.90168571
40.34690857 63.75225067 2.90045786
28.52845383 75.78675842 -3.83109260
50.10136795 48.20989609 -0.89582008
39.20670700 44.72591782 35.41674805
22.70670128 66.55425262 -28.84200859
43.88733673 45.12988663 26.76412773
19.17359734 78.35177612 -14.36587811
28.22845650 -80.85338593 12.00861549
43.73712921 9.60241604 -48.22558975
10.05859947 60.96086121 -42.26745605
-33.09680939 35.48066330 -46.47009659
48.67258453 66.46657562 1.59301126
37.70884323 57.58219910 40.71296310
-27.79939842 -84.54573059 26.21120262
2.93989444 76.38478088 -31.37735939
46.15831757 45.23202515 34.92244720
29.71377945 53.31098557 38.57520294
29.59397316 28.64590645 52.76101303
-43.32564545 -76.42126465 -10.46659184
-33.20981598 -79.81655884 -7.13150406
38.25872040 -81.86504364 3.10982943
-34.19560242 -84.20111847 8.96634293
45.62053299 26.65029335 -40.48041153
27.85392189 70.41420746 17.41099358
-17.35269737 71.39308167 5.85755396
44.60245514 64.51403046 20.07223511
34.85350037 73.34626007 -2.61569738
52.14551163 67.69021606 18.76251221
45.83470535 39.95253754 31.81929970
3.17871332 78.85931396 -18.40889168
34.92731094 7.76865196 55.79871750
-30.96028900 56.90205002 32.19541550
-34.72787476 -4.51387024 -56.78284073
-10.60857201 68.60965729 -20.22848320
35.83775711 -8.62938976 55.93667984
17.21607399 83.49568176 16.58535004
-8.96138954 63.78084564 -19.25891304
2.34307432 -85.59415436 34.14103699
-19.95835304 71.30987549 2.54284501
-40.93589783 -81.97785187 -0.63378084
-11.00745869 63.16397095 -31.97452164
25.29796791 62.96895599 -6.57317495
52.20711899 63.95910645 4.35021830
57.08604813 32.36971283 -14.98884392
31.80744553 44.67335892 42.10654831
-42.47869873 -75.44282532 -15.41990662
-25.57802582 -50.69057465 52.19599915
43.71080399 49.93015671 -21.88066673
17.71690750 -85.37357330 26.95802498
19.53384209 -81.04652405 34.51366425
13.93260574 48.94169617 47.52428055
-16.70063591 70.89043427 5.46878910
15.87520027 67.37660980 -24.91195869
55.53699875 -29.10379219 -30.60595131
14.08736134 72.10291290 23.52776718
-29.78970337 48.76531219 38.69975662
-40.63749695 48.15587997 -27.44304085
25.68055344 -75.50547028 -34.35560226
14.60357380 59.09666061 -38.55940247
37.77277374 60.28064346 2.09519100
53.50644302 63.80194855 23.22262383
7.37569427 -77.85607910 -1.21706223
28.05495453 77.63770294 24.40863228
-45.21490479 -29.01604462 45.69092560
-36.66648102 61.00195694 -6.21565914
58.30574799 33.11999893 -8.01362419
56.21833038 35.39950180 14.31042957
22.48749924 76.66333771 -34.94679642
-63.73225021 -30.71363068 6.17624092
26.42546272 67.48869324 5.64165497
37.29097366 74.02518463 -4.06590891
7.85843849 64.11933899 -41.02967453
37.13611984 37.80822754 43.75637817
32.22974014 47.92964172 38.59383392
11.81606865 19.48999023 -61.95891190
16.81576920 65.59772491 -38.25627899
-59.95378494 25.83612442 9.52748203
-33.20718384 -47.29140854 -48.94892883
-13.73435116 -77.82304382 21.82680511
51.96564102 54.73377991 33.09525299
41.76924515 63.63907242 27.66344833
8.03117275 80.95746613 -38.55425644
52.75550079 59.93516541 33.70320511
-16.46046257 68.30445099 13.79305935
-37.17236710 -56.02066803 -41.50371933
40.92762756 64.61102295 27.85944176
9.82907867 67.19454956 9.96367073
41.06232834 60.87044907 13.87406635
27.32764244 64.36737823 -19.25198174
-61.21426010 -31.49752998 -17.99686432
56.64261246 59.13946152 35.82535172
31.90193558 -25.69153786 -55.68173599
58.43933868 8.10153866 29.76962662
37.65656281 49.38249969 30.18243217
12.68461227 64.19161224 20.84677124
-29.88967896 -80.94566345 -27.73339462
34.45133972 63.61174393 4.56193352
-27.92804527 51.19141388 -37.83806229
26.49758339 65.54319000 20.47288704
-22.43048477 72.20970917 -5.86874390
-16.54182434 -83.37428284 -28.56408501
37.85774612 32.31674194 -45.01073456
31.59207916 66.32991791 28.23926735
-41.85754013 -80.66564178 1.14248025
-11.49529076 -53.38257599 -55.09264755
42.58330917 55.67431641 13.11887836
11.99897957 -0.64350086 -65.03009033
35.90514755 65.71828461 11.42057800
5.90557766 78.54149628 -40.78676605
-31.11973953 29.92639542 -50.77029800
46.53141403 34.27354813 -34.86900330
-31.86844063 -69.85616302 -36.11403656
-3.90134859 -48.20380020 58.74211121
39.39629745 53.97565079 42.39403534
-6.29974222 -14.76000977 65.74164581
37.47373962 37.03237534 42.28351593
48.67132950 44.68767166 -19.92131805
6.54044724 69.10139465 -23.40575981
-34.94264221 -83.63335419 2.20047665
11.39830685 71.67736816 -31.36361122
18.82856369 64.50041962 27.03413010
14.88910770 66.95599365 -31.66667175
11.43450642 72.54228973 10.06715679
31.15701294 50.37783432 37.93178558
30.83443642 73.25774384 20.47739983
-8.90374660 53.21946716 44.54931641
1.50439823 66.55461121 -33.02388382
50.35858154 57.52529526 -2.58134127
54.90706635 41.15112686 -0.19793969
-26.83673286 51.79734421 -37.68099594
-44.35130310 -71.73410797 -17.39483070
37.64651108 51.19425201 31.41590500
31.52372742 75.93181610 27.47218132
22.87808418 63.42545700 11.45988750
3.00951052 65.50689697 23.11229324
-11.65340042 -77.35520172 -9.97491169
25.54840851 79.96639252 14.37455654
22.62874031 76.21446991 -13.72647476
15.78499699 72.84644318 19.59637260
-34.17279053 36.34127045 45.07075500
40.30838394 47.25275421 29.04279709
-8.60916519 -5.67145014 65.92803955
-19.46154976 69.74673462 7.92856121
7.01124716 -84.26099396 -35.67405701
28.13067055 67.32765198 12.46986675
-13.55980492 38.78514862 -53.81111145
7.56772518 -68.22094727 -47.64585876
-21.37715912 65.98481750 26.91129684
19.72562408 62.58018875 -39.30801773
13.75447464 73.70458984 11.97281075
20.55662155 82.13009644 23.15474510
41.29062271 63.66544342 24.61013412
-17.30281067 73.53015900 13.36557865
45.94163132 59.00887299 28.93464279
12.33054352 -3.23130774 -65.00913239
-24.63941002 75.99422455 2.68274069
37.07563019 64.50942993 1.70080817
31.86923218 58.17580795 36.21430969
21.41123009 -4.04453516 62.98443604
9.90708351 -84.97657013 -30.47357941
23.51252556 71.78122711 29.80418587
0.02662105 73.40883636 -38.55583191
28.57927895 64.88524628 20.54301262
26.83000565 72.93898773 29.32220078
9.31691647 70.11904144 10.28614235
-21.31564522 -48.71627808 -54.29096222
17.25698853 61.68854141 -36.44433975
56.54106522 19.09380531 -28.09669495
-46.08121490 -66.24908447 22.22964859
46.72751617 52.24467468 -1.23917747
19.24686623 73.99217987 26.64369965
-65.40579224 -22.43084526 0.58538908
19.29497147 80.98488617 -37.46212387
-36.67034912 44.88557816 36.23885345
-33.30665970 -84.47840881 12.15184689
51.13941956 46.31900024 32.83594131
-22.41369629 73.72090149 11.04892635
11.57005119 79.03473663 10.76652050
27.66892433 69.27829742 27.03901291
16.78256798 81.83418274 -41.16877747
-16.61463737 74.26158905 4.20463514
-38.44990158 -72.18125153 -27.09840393
15.88138390 69.63824463 -39.64050674
-19.43879700 -83.38758850 28.14654350
12.22501659 61.24481201 -40.69911957
-66.04489899 -0.11616470 -3.88706255
-37.17842484 60.85467911 1.62027144
-32.06250381 -78.81642151 -8.72892284
-28.90196419 -81.47245026 -28.17380524
52.74472427 40.31165314 17.18527412
19.07459641 82.37142181 11.21921158
55.67651367 59.83328629 35.12877274
-40.12945175 43.83580017 33.43481064
35.29564285 -65.13847351 -35.04876709
31.68865395 59.27089691 -24.17646790
21.99888611 72.23612976 28.96311188
-32.96044922 -81.79062653 11.55198288
32.60568237 66.88029480 14.58024120
29.89136124 55.29547882 -32.09565735
-28.73622894 74.86249542 8.65895367
18.88212013 -81.96296692 -24.13803864
11.17535591 68.66462708 16.59540749
59.87850189 -14.87104225 -26.50773048
-18.90894127 49.46813583 -44.01132965
-11.93378448 -80.23981476 -29.87534142
46.18953705 66.30161285 24.46342468
42.82288742 61.09661484 31.55700874
21.58512497 63.71510696 13.28865528
27.98776054 78.04977417 -6.06885576
1.29844439 68.44070435 -25.98529434
16.50084305 58.55207062 -37.54850769
-28.23777771 73.35324097 10.28866386
28.99890900 71.84860229 29.66039276
-33.03191757 -79.32813263 -6.79306746
17.06934357 72.26274109 -41.87452698
51.37691498 60.30617142 -1.60530758
22.44012833 56.32525253 36.64535904
17.72761536 63.97873688 28.39488029
27.77415657 64.23006439 19.21912003
57.67724609 6.62929630 31.64110756
4.64536142 75.11238098 -35.78332520
-34.49655151 59.24431229 -16.94563484
1.27116466 76.61749268 -26.56537437
-50.45923996 30.95440865 29.92906189
27.45313072 52.68024063 38.40085220
-12.63304043 68.68965912 -22.70161819
47.32772827 42.42737579 37.04511642
22.97153854 -23.73185539 60.69603348
42.43828964 1.53717864 51.07859421
-38.37716293 -10.67582989 -54.29840469
31.26509666 74.41266632 25.45351219
-49.11493301 -39.23504639 -37.88107300
0.94337755 79.57842255 -32.71456909
14.57543850 73.74709320 -6.36015129
9.92575741 -25.64022255 63.88087463
-46.10557938 46.30333328 20.71323395
32.11513519 71.76559448 24.43861008
5.51516390 34.52214813 57.69836426
24.80386353 69.41899109 32.66743851
31.88823509 65.59405518 21.17367744
-0.88796395 6.96249485 -65.64270020
-26.01135063 -77.71657562 13.99386787
-34.54493713 -82.39243317 3.16312408
63.04177475 7.02080631 -17.64681816
-32.07099915 47.34255600 -38.87288284
20.10468102 57.69198608 35.80369949
65.68347168 3.46501970 7.36389589
63.29285812 17.11604500 -7.86177158
39.91662598 -21.15239525 51.69352722
-9.63952923 -79.07049561 30.83916283
6.22135210 70.80537415 -21.57747269
15.12598610 68.13040924 20.04178047
6.43782187 -79.71026611 40.66099930
41.18829727 65.32439423 22.36534882
18.12543488 -38.87085724 58.91862488
-0.05439482 -83.75633240 38.29739380
-7.19277763 61.89846039 -34.63857651
32.05506897 -63.64862442 -39.18969727
29.94885445 -85.74927521 -15.56011772
-22.74701691 -47.54433060 -54.22158432
39.24272919 54.14675140 -22.41837120
5.83514023 -77.90056610 -6.39169359
61.28414917 15.27575111 19.53810501
-0.00664998 79.91300201 -28.49999046
-0.65365821 75.69781494 -35.67029572
36.30523682 45.54798126 36.85507965
22.38286591 25.64504051 57.24320221
-20.33277893 -69.79281616 -43.33778763
56.75117874 37.60897446 -3.54969549
13.29289055 -40.83355713 -59.10860443
-11.48581696 -77.69335938 20.13602448
26.49926758 80.80244446 16.41917801
3.77622676 56.75968552 -47.16743469
64.04532623 -23.40341949 -8.41856956
36.03976059 62.72699738 35.21297455
36.81738663 37.55354691 44.51618958
51.54491806 55.45341873 40.37309265
31.98378754 -16.91785622 -57.04946899
55.19295120 40.38288116 5.39528942
24.55082512 70.13406372 13.22877598
-4.67665100 68.90280914 -22.83603859
-23.18902397 73.34056091 -2.18448019
37.70566940 43.48004913 42.22345352
8.66910553 71.04843903 12.56176281
-11.77765846 -7.93269825 -65.43067932
27.09155083 60.36146545 36.83996582
0.10119330 9.75549507 -65.26377106
-5.05748844 70.64486694 -29.34625816
-41.47949982 -74.11428833 20.81326294
-24.13714790 72.49948883 -0.06114355
49.33471680 43.06280518 36.76552582
36.55899811 64.52788544 28.03208923
24.55218887 60.34731293 2.36286044
46.77223206 58.26899338 10.10836601
21.05624771 63.39300156 14.17507076
0.65719295 67.56490326 -35.85524750
28.57944298 63.04028320 34.50759506
-12.49042034 63.10954285 -16.49213409
40.04971695 32.50657654 43.10849380
-23.84531975 -81.65505981 25.06351662
28.78174019 78.80307770 -8.63838005
47.79539108 67.42228699 -0.33841187
47.00273895 47.91342545 35.99194336
41.63910675 53.73916245 34.56475449
26.57013512 77.63521576 25.74410439
41.98191452 61.69573593 10.93019104
17.60725403 81.87980652 -41.17977142
37.35147476 61.19668198 3.59903622
31.03574944 -19.20631218 57.71220016
-34.28781509 -80.24005890 -2.35852981
-12.85448265 25.98997116 -59.67307281
60.37501144 25.45087051 13.41750622
31.62429619 55.88147354 36.80301666
39.04011154 48.61462784 29.28144646
-62.03802109 -16.85203743 -22.66300011
31.92401505 66.70838165 14.68585777
-23.67297745 73.17333984 -1.62795937
-11.93153286 63.98908615 -30.57859993
24.41648102 68.15398407 32.78782654
10.06612396 69.55776978 -17.43750572
50.04265213 45.16514969 37.22578812
1.82189465 57.55944061 41.54586411
3.30250096 80.78682709 -19.98896408
-4.63609886 70.48591614 -24.65466309
20.27740860 61.30979919 31.18293762
39.67047882 -63.94339371 32.03936005
63.20197296 -19.08691406 17.41164398
7.17811251 67.40254211 28.66643143
-27.68776894 63.56345367 25.69464684
-22.92423820 45.48392105 -45.58024979
-25.47581673 -37.28626251 56.96786499
15.47422981 71.44184875 -40.23819351
-25.36348534 72.29883575 -5.85400438
65.32185364 5.04525042 -8.43040180
42.69439316 -7.37676811 51.04592133
36.16535568 42.03013992 44.02385330
-60.97832108 20.57025337 12.82957745
17.39123154 79.09420776 -43.41335297
-38.74224472 54.82072830 -19.72146797
-46.47056580 41.21772766 27.06917763
-41.38838959 -81.08242035 4.58580446
31.47639656 66.40592957 26.22740746
-26.25755692 -77.92149353 17.56169891
-35.06602097 -84.21280670 3.59331346
44.52216339 -20.53153419 -47.21411896
15.20195007 68.41004181 22.23059273
-32.37049103 -78.86202240 -8.08210468
-4.16591692 -71.34789276 -46.30496216
-55.58970261 5.21969557 34.54962921
43.08913422 -27.22081375 47.62452316
-4.14634562 -75.12700653 -43.74102783
-57.53518295 3.93161488 -32.44996262
33.09996033 56.04948044 39.00574112
21.20383453 72.22311401 -21.03038216
17.48388290 68.61779022 12.02884960
44.92299271 67.21022797 19.60020828
19.22141075 78.86868286 9.58582211
35.16554260 62.04618835 33.49093246
-1.49036956 64.02310181 23.08673286
29.70864868 68.16575623 25.24772072
-37.05108261 63.17501068 -8.79633427
21.47938919 74.10276031 -19.06105995
29.62948418 68.02513885 21.90734100
33.52486420 16.40703583 54.67751312
54.13635254 49.96634293 10.00027084
41.33010864 -6.65754843 52.30087662
43.01840591 59.45933151 34.06642532
9.87177372 81.26435089 12.19886684
50.96081543 61.07280731 -1.80289567
42.50608826 61.45491791 10.51107597
-4.02844334 65.99637604 -33.27523422
21.30773926 72.74085999 -14.52886772
51.63999176 7.09708214 -40.17406464
1.97941852 75.93421936 -25.85933876
-43.65921783 56.88051605 -9.42126369
39.95175171 60.75030899 15.82672119
15.82133007 74.46875763 10.73176956
-31.20567703 59.58196259 -28.85833549
45.69342041 54.71578979 30.57214165
12.13962269 60.31196976 20.33682632
-39.36511230 -43.11387634 -46.30914307
-32.07077789 16.01609993 55.16983032
-35.25553131 62.31674576 -6.22043467
24.00350571 55.24616241 37.40052414
-19.81171227 68.63996124 -17.02649498
30.61479378 66.18795013 23.88895035
20.71369934 66.78984833 26.39384270
50.22073746 60.08283997 19.41848183
18.35669327 79.68589020 -32.61889267
62.39148712 -3.38100171 -21.82348061
32.58909607 10.22920704 56.58744812
39.33648300 -26.94023514 -50.50664902
-62.62702179 -11.63367939 21.29984474
60.76330185 -23.87828636 -21.26583862
12.63635731 72.39743042 8.67555428
41.53990555 51.65068817 39.99255371
34.07833099 42.85898590 41.40440369
16.16584969 78.06172180 -28.27094460
-16.89670944 55.99373627 -41.77557755
8.02133369 66.60782623 14.00818539
25.49580574 69.95174408 32.37501526
-19.80395508 71.12932587 10.27125931
-32.74153519 -84.32347870 13.31353378
44.09531021 66.70307922 19.88712692
3.11510539 70.79980469 -36.59180069
16.53761292 77.58599091 -20.65604782
16.39350128 60.49048233 -36.70769119
41.32004547 35.04575729 40.31092453
47.87088013 -68.51867676 1.25461459
-53.18363190 -51.81190109 22.89661026
36.75450134 62.48274612 33.65573120
37.63839340 45.72154999 34.45124817
13.73706818 69.81860352 20.17938805
43.14358521 -19.52589417 -48.72220230
24.25690842 65.74600220 -28.69306564
-1.27417767 54.21761322 -47.96226883
9.45769978 73.49935150 13.79677391
35.58219528 63.69900513 19.80897331
36.49625015 73.94393158 -3.69176412
30.14969444 77.31011200 -9.09139824
-33.41598511 66.92179871 13.04554462
31.84469223 56.53071594 37.38356018
49.50539780 61.02102280 9.24542618
25.65476036 67.20301819 28.49637222
-28.98222160 -80.78391266 18.96051025
46.01598740 55.77144241 15.55575085
33.82365417 75.11551666 30.19233131
-12.37639332 61.06636429 -38.48070908
10.14099693 77.60771179 15.15728092
-25.65224457 61.86415482 -31.71820831
34.75707626 64.90208435 2.09608293
28.10143471 71.33067322 -0.86597645
21.49357796 62.50202179 -38.01644135
42.20219421 65.32513428 22.13000870
16.80991745 66.73690033 24.71857834
66.03758240 -9.34161568 6.23440790
18.89888954 74.33255005 -35.93440247
34.17076492 47.39910507 39.03010941
37.59670639 65.42513275 -10.37970352
48.33289719 51.68740463 37.69266510
18.86967087 77.45771027 -42.68735123
12.00927925 75.07296753 -26.06869888
29.23674202 65.09030151 16.04550362
27.38555527 -68.58860779 39.82305527
24.54659843 -16.64422226 61.02367783
53.34937286 -12.27507114 39.23543930
-46.08763504 -48.49331665 -36.72670364
28.98424530 66.98567200 21.24280167
15.33030701 76.16955566 10.73334503
54.03892517 -9.81921005 -37.87912369
17.24402809 82.97135925 17.19696617
45.97945404 -51.61380386 33.87364197
15.94308090 65.21225739 8.26184750
38.30473328 23.88429260 -48.39005280
-36.31764603 64.05355072 1.81242752
-21.61789703 69.69033813 2.25807571
62.88655853 -30.10770035 -7.87687063
7.72402668 67.67005157 28.08790779
38.40462875 58.46272659 40.32527542
-36.03216934 -63.61297989 -37.38216400
18.43263626 63.75485229 28.28052711
38.61394119 37.73724365 41.07013702
-43.45254135 -74.68113708 -14.23640537
21.76239777 55.85050964 1.89944196
14.26917076 67.78656006 17.29867744
-34.93846130 -85.12007904 13.07400894
31.62130547 66.38290405 2.62861633
13.23603535 41.73189163 52.62228394
44.15108490 42.41995239 29.86867142
20.47566414 -81.56787872 23.85467148
43.73810577 62.35226822 29.20652008
53.97557068 35.47518158 21.07659721
26.07953835 -7.71365118 61.06567383
47.69548416 -47.58326340 -33.17456055
-32.84326935 -84.83536530 14.01002693
-34.24951935 52.48434830 30.24608612
-41.82994843 -63.78669357 -31.08455849
-12.26675606 -55.86810684 54.50807571
-17.90811729 54.48922729 -40.78908539
59.03484344 13.88667679 26.17658424
-34.33413315 50.83829498 -34.83726120
-34.53786469 -83.51904297 -18.58167458
-22.88491058 60.45073318 30.21006775
20.59449768 72.95095062 11.36825466
23.12467194 77.58164215 -28.04521561
-20.82905769 65.95550537 3.52446127
-61.84952545 13.42021465 16.96264458
-7.01702785 40.03841782 54.58641052
10.57869244 76.38695526 -23.68648148
21.18739128 70.41713715 -39.19805527
-33.46112442 29.73478889 -49.32802200
-0.83796328 13.96472836 64.29762268
-56.32150650 -38.89716721 -26.08430862
17.15888786 71.87461090 -41.70191956
23.30276299 -26.54252243 -59.66611099
-43.60515976 14.01932049 47.07650757
26.08855057 65.35440826 17.40382195
40.76425171 64.97978973 28.12754631
20.22911263 64.41533661 14.75325298
-34.59888840 -81.58120728 1.42995524
41.49401855 59.35152054 39.02469254
46.91489029 40.68972397 28.28458977
34.06730652 42.39873886 41.89015198
53.12851334 30.80428505 27.47837830
11.87919521 77.41315460 11.76480770
31.42075157 64.09227753 25.19684410
-0.98258877 59.95657730 -42.48482132
41.56009293 42.19975281 41.29813766
51.96020889 46.12707901 35.12018585
3.34178567 -51.18583679 -56.85642624
-34.15500641 57.30241013 21.74001884
-58.06829071 -43.05342484 18.22143936
13.75256538 76.89393616 -22.27953339
-5.60830832 -23.87277603 64.79681396
-36.29096222 68.62196350 8.59782124
-0.32943803 64.72297668 -22.10450363
14.91856480 72.61146545 18.52286720
34.27927780 64.61886597 19.59236908
-37.74046707 -44.06525040 -47.19167328
43.24893188 62.34820557 12.47908211
-32.03740692 64.81149292 15.80975723
-0.29733586 -3.53643155 66.30982208
15.26892757 0.16441497 64.57052612
-29.86256409 50.54381561 -37.50604630
-24.54336548 -28.36868668 59.57031631
28.03620148 59.17275238 37.56984711
58.23056030 18.08414459 -25.08125877
4.77714539 -77.74559021 1.37741792
42.21355057 57.32075882 -6.25373554
40.34194183 58.45684814 7.18942404
-29.43733215 62.50859451 21.00481033
31.53860092 72.71871185 23.20618629
16.89305496 74.35786438 10.60002899
4.96069241 -78.51107025 -20.01053238
0.64691848 -83.43297577 -37.49263763
55.41560364 55.22084808 17.42815018
-6.45829916 63.62634659 33.30163956
20.99463654 9.44762325 61.85867310
-34.77160263 -84.95341492 -6.84070539
-13.85885715 -58.07366562 53.13222885
-3.19096231 65.19598389 -21.95638084
36.05251694 45.01833344 41.55075455
45.54795074 56.44593430 42.29531479
-32.04449844 48.69038010 -38.65523148
26.66656303 71.33275604 -1.17645216
-28.84337616 62.34122086 -19.42099762
52.73487473 42.58407211 11.82246017
-4.09316015 56.11643219 -47.60448456
22.56165314 77.93274689 26.37015533
-43.64946747 -41.29660797 -43.09194565
37.85558701 46.69176102 37.67109299
61.38121796 19.22764015 -14.99050999
22.20701599 61.06100082 31.88006973
46.31614304 38.94565201 33.61395264
-38.36080933 47.81093216 -30.71846390
-25.81762314 21.60579491 56.60546875
46.34782028 -19.84465218 -45.57708740
19.78697395 62.86146927 -39.57152557
-52.84275055 42.82132339 0.10430182
24.84417343 66.55524445 16.96331596
7.06128454 -15.94545555 65.53205872
20.15080643 63.59844208 -31.76959419
-6.42145967 63.11140823 -33.66159058
21.57605171 12.65449905 61.13190842
4.26686668 82.97953796 -32.41921997
-22.78423309 -84.81082916 -28.61201286
18.07737350 -80.72737885 -24.32884407
14.79867744 73.91130066 -25.47929764
-17.73761749 55.20500946 -40.84501266
-32.80726242 59.18619537 19.66173553
-45.27072144 11.04561329 -46.85747147
-11.09788895 69.22531128 -21.95565033
33.31589127 42.75387573 42.12903595
45.43342590 40.49562454 31.64496422
-33.98451996 -83.07518005 7.80326843
36.67419434 68.42807770 0.44374511
45.15267563 64.20814514 3.55884075
-49.39865875 14.25295448 40.63715744
42.11950302 62.42901611 31.72521591
11.85738087 -53.53479767 55.24844360
40.07743835 38.18825531 40.81369019
-33.74779510 -82.56546021 22.49016571
63.11896133 20.37536621 3.11646175
47.19724655 47.35269547 36.61408234
18.21667480 69.07632446 -14.44540977
31.64836502 73.12626648 -1.91984212
-8.05670547 53.70562363 44.28921509
42.95474243 48.81934357 29.00066185
22.00734711 6.35648298 62.05281448
34.23484039 -85.58181763 -0.42688048
1.54917336 65.99359131 -23.39309120
49.09846115 65.96253204 2.82398582
21.75323868 74.32275391 -32.85773087
-34.65163803 -82.03541565 -20.66802216
-29.63223457 1.74764884 59.00949478
41.24805069 43.81120682 35.14387131
37.10379791 63.21182632 37.18663788
-29.52518463 -84.04940033 -24.21883965
55.24403763 50.86968231 14.36958599
45.56512070 44.63054276 33.68961334
21.57374763 63.12401199 -34.65734482
-15.64295673 55.96437454 -42.77967072
-61.93417358 13.90668869 -17.77206993
-20.91938591 72.95345306 12.46863651
-20.27199936 67.94330597 4.15339327
-63.43575668 13.96619034 -10.85495090
27.84268570 76.54282379 27.45650101
2.54299474 73.99546051 -34.07492447
19.74533272 -43.57711029 56.87493896
32.55826569 44.26641083 42.06187820
39.40542221 61.67829514 14.67841244
18.21590614 73.52569580 -35.69678497
-11.37616920 69.16510773 20.92231178
6.15746689 -17.44237709 65.43711090
29.21817780 67.37436676 26.99095345
-28.77225494 71.20613861 -2.71887183
-12.06186295 41.17801666 52.95315933
-30.21962738 -77.73730469 -8.85050106
7.41726351 69.96771240 -19.28939438
13.32806492 64.78971100 20.34689903
-60.61032104 -33.19413376 -18.77502060
19.14204979 63.38784790 -39.76194763
17.01799202 58.43612671 36.79824066
53.50660324 24.36621094 -30.75557899
43.36764526 -38.61063766 43.69045639
37.69914627 -74.12387848 23.57253647
48.07968140 48.91809464 37.64992523
31.35409546 72.54255676 20.94790649
27.01920319 69.98127747 -1.06847596
48.82772827 48.46962357 26.60613632
-28.70997047 -82.11593628 -27.75255203
12.03092861 -35.89968872 61.36275101
34.99069977 42.78841782 41.93505478
18.72157478 72.36589813 -26.18291664
-36.68811417 64.27371979 -1.42260897
30.86009789 21.62687111 -54.24139404
14.96345806 80.69660187 -40.80768967
54.99686050 -51.76934052 -13.55705833
-34.10112762 -81.03905487 6.74627352
-35.12606430 64.11713409 12.37168980
42.83233643 -36.50664902 -44.47749710
0.39447662 59.29368973 -46.32343674
22.48354149 66.58811188 -19.97213173
-44.94022369 44.67185211 25.46592331
32.91094208 -75.04495239 -27.83561325
-13.32014561 54.52473450 42.02296448
24.68103409 73.39183044 28.49525070
6.07097340 -77.96741486 -10.50101948
19.64063454 74.48379517 -41.38814545
-46.44154358 50.11469269 -9.03166008
-24.05727386 63.86083984 28.86926460
32.89229584 62.68733597 11.66670322
9.35799789 68.67197418 23.73401642
-52.23627853 -37.48556900 34.03438187
48.92195511 -66.07115936 -6.70669174
21.07514954 66.22698212 -10.38660908
31.52307892 66.10802460 25.50702477
-28.17032814 75.59107208 7.32002211
42.70577240 56.06650543 7.64099169
5.78664780 76.12458801 -27.45034981
-14.98151970 61.90386581 -38.26075363
-52.86306763 -62.83821487 -1.31500578
37.01627731 36.44405746 43.50453949
13.70672417 -68.52758026 -45.95529938
37.82096863 58.77385712 40.07117462
36.32558060 65.57971191 13.66211128
45.32317734 49.97782135 -18.21998787
1.38193595 -78.33106232 -25.68324852
-15.95968437 -70.34864044 -44.64882278
30.52108002 72.32259369 25.13982391
-36.23427582 49.16803360 -31.98622894
40.79636765 61.82875443 12.70400429
-39.81092453 19.83303452 48.35291672
7.95312977 61.61448669 -42.80669403
65.60462189 -10.16709328 -8.04020691
35.34675980 -9.74765015 56.24196625
22.78443146 16.61454582 59.83998489
51.96508026 1.16990447 41.12210083
21.03884506 65.21936798 -39.51978683
32.60306549 73.88954163 27.85726738
-5.97522879 -58.62601089 -53.53571320
0.38450396 -18.06008911 -65.41686249
-38.64217377 15.61859989 50.78564072
-29.36931801 61.78432846 25.77446938
30.04323006 76.54074097 28.76561356
12.70582104 78.25418854 -20.50599670
-27.16029358 72.76567841 10.89086151
30.36554146 -84.48540497 -5.08539248
48.80270386 55.89951706 41.83032990
-59.15422058 -46.03868484 9.89334011
21.64066124 -65.91674805 45.17163467
26.41866493 66.77380371 14.53822708
46.86642838 60.64378738 25.05569458
30.66440773 47.95449066 40.70564651
27.55563927 -79.24307251 7.60401821
30.72052383 73.60098267 22.63631248
-9.73103046 -84.83977509 -31.84857368
14.48555565 73.56974792 -40.68308640
7.17572355 78.95007324 -39.57875061
38.86757660 58.32198334 32.87353516
45.23427582 63.27253342 18.15459824
4.78674936 78.50167084 -16.27701759
-23.78186798 69.66671753 -8.48476982
19.65727234 80.81658936 10.87040806
15.53167915 -19.73653793 63.60360718
42.63868713 66.36123657 27.32174301
38.41572189 42.32470322 43.55564117
14.78760147 57.67128754 38.83146286
13.85735416 66.52400208 6.30774832
-11.65522099 -55.72330856 -54.07592010
-15.36072159 -84.75516510 30.86639404
29.15043449 61.32323837 -28.31184387
44.45165253 64.08702087 18.98901749
56.25794983 54.40834045 34.92786789
56.47671127 -48.73729706 -12.65754128
-7.20637608 -67.49509430 -48.44304276
42.50208664 -66.39576721 25.32054710
41.64798355 57.16794968 9.83406162
-0.51230150 43.87767410 52.83510208
57.54544449 9.38912868 31.03595161
-7.70866156 -44.52406693 59.69940186
3.99499154 66.42532349 -23.42419243
29.42387199 75.29550171 19.59474945
53.89219284 59.64115524 16.81756210
57.60457993 -32.55847931 25.61531448
50.68642807 46.03958893 8.15181255
44.00234222 48.12092209 28.55550003
20.04456520 72.83967590 -3.79854846
-32.20812225 -78.20841980 -5.40601587
-10.80147457 -77.32453918 -7.46886206
-0.44068247 68.31297302 -36.40088654
49.13483047 49.79705048 5.34218884
28.16876602 64.58449554 -26.06865883
-25.30015755 33.98566055 -51.90055084
25.81734657 -78.93442535 -3.80345225
61.26963425 14.46527958 -19.34097862
16.46566010 63.55553818 14.69597816
-7.72044039 -71.87299347 46.45417404
28.09148979 41.60720062 46.43763351
29.97882271 45.26654053 42.37165070
-36.93488693 -83.82939911 -12.31771374
43.87925339 61.66614914 -8.06420803
14.68036842 77.47146606 -35.84735870
13.04337692 68.39135742 23.31980705
7.95852089 78.88011932 -36.08253098
24.30962753 65.87832642 8.43941021
33.90938950 64.12805176 36.56480026
-43.62181854 32.80069351 -38.62460327
25.76503754 47.19143295 43.57085037
14.45806122 51.26916885 45.48612595
27.09473991 -81.49408722 15.20257854
51.13862610 57.94299698 17.86367035
0.93749624 78.61280823 -23.09245682
9.05950832 74.74568176 12.01253033
57.04080200 57.44577026 35.76928329
12.70953655 -5.32823229 -64.91319275
17.44341660 66.03853607 25.40058708
27.82301521 -82.66517639 14.19064617
7.27226973 -36.48830414 61.98660660
45.54059601 42.96332550 36.49969101
39.68966675 60.45282745 5.13379955
11.36038113 25.02363777 -60.45600510
18.87034035 78.41904449 -42.68663788
-16.51548195 57.79290390 -8.36820698
62.95812225 -2.29131222 -20.37313843
13.39596081 80.36731720 17.93541145
17.66603851 58.93282700 35.78164673
22.63519859 57.09821701 6.15796757
21.69864082 -8.30811310 62.79063797
-21.72288513 69.37238312 1.91915131
37.32253647 61.25300598 4.48620415
-7.36761236 -39.31746292 61.32684708
39.44458008 64.45667267 22.01990891
-18.95797348 -27.81525993 61.59803772
28.47298050 73.83613586 -2.10969067
10.78116894 65.71569061 8.68212700
37.09223557 46.54987335 -35.40130234
17.32305527 73.96593475 25.90599823
-24.49907494 75.89682770 2.53168678
-63.15280533 -30.49596596 -10.32652760
20.57080841 -78.81954193 -13.04424667
46.39508057 40.43186569 37.21689606
11.23469257 -12.15971470 65.31166077
-13.54014969 62.89116669 31.57078743
39.36216736 47.59685898 33.26085663
31.96900558 36.77077103 47.19975281
35.77240753 35.94548798 45.11125183
-32.23780823 -81.14124298 26.06236458
52.35476685 59.47457886 20.19213676
31.03227615 -28.97397804 -55.53885651
48.30780411 51.19549179 2.53987360
8.63575745 74.51816559 -24.91286469
14.20079136 75.11154938 -24.84118843
5.58354139 48.91512680 49.01671982
21.70523834 63.27751160 -35.57188797
-1.46930540 68.40113831 -36.09275436
-57.43761063 1.94098485 32.06937408
-35.12318039 -47.51469421 -47.48888779
-29.12359428 73.82188416 9.76128101
19.26031113 63.30465317 -29.18164253
29.21112061 -79.87351227 -3.33122611
62.71699524 7.41305017 19.85320473
46.08591080 38.33402634 33.66645432
-35.05994415 64.52239990 12.41775513
45.30821609 67.41232300 19.60642052
39.19213486 36.51587296 41.26597595
41.43621063 55.44099045 11.34062576
-21.17587852 77.29214478 3.37936997
12.18145561 83.80043793 14.87004948
29.52944756 58.98257446 37.47416687
-51.02096939 12.57353020 39.15233612
44.46527100 57.83517838 40.90161896
-35.79667282 63.15370178 12.19177055
-35.07500076 66.96517181 -1.51635826
-11.43305111 35.44943619 -56.03346252
52.18342209 -13.55927849 -39.96874237
-10.67450428 64.78114319 18.47918892
35.92545319 37.25560379 45.19065475
33.00764847 71.85834503 24.23315430
-55.74011993 -11.42976284 35.62401962
33.44736099 71.85488129 23.29490852
10.93152046 1.17886746 -65.16029358
30.84937859 71.76366425 -0.84803355
30.94686317 61.82391357 -23.98751640
-63.49841309 -33.40126801 -1.38422453
39.56865311 64.10505676 21.70452881
9.37205219 79.37993622 13.47185898
50.25403976 59.23311615 20.03311920
32.13794327 54.98502350 37.41282272
2.13067079 60.36662674 -39.48510742
35.57091522 62.00830460 -10.41768551
16.94125175 69.38664246 7.84634733
16.69843483 -79.20038605 -18.40540504
-63.76571274 -30.65073204 -5.75162792
23.69336319 66.88665771 -21.13558197
-45.16007614 -20.37154770 47.66845703
14.38842773 73.33718109 23.92465591
34.20418549 -22.08971977 55.46175003
66.26588440 -1.25247085 3.29303741
-25.15069389 75.33593750 2.24539495
49.35567474 48.58982849 8.43729401
-27.04871559 74.40574646 9.85736847
-0.82595718 75.66670990 -36.46962357
34.91074753 43.74173355 42.05348969
61.82019043 18.23352623 15.30425262
-30.32175636 -75.63639832 33.44840240
-43.44215012 -24.99689484 48.39963150
35.40713120 69.99327087 24.72349548
46.24438477 45.81591415 35.06012344
-11.93712330 67.01718140 -26.18832970
-8.97699070 -42.35333633 60.24314880
17.13830376 85.78739929 12.04020786
18.99995232 74.31053162 -35.53694916
26.69202995 73.68091583 -2.05823922
-0.09511954 78.80321503 -28.91337967
19.56460762 66.05628204 -40.58051300
30.58611679 58.63751221 36.91672134
-12.78661537 68.14046478 -23.90182114
35.01990891 8.31869125 -55.09741592
-4.43800735 59.55574417 -42.22147751
14.64573383 57.78184128 -39.25828934
39.03732681 61.04394531 3.97973347
-64.20452881 -24.60520363 -10.41540337
-21.99410057 74.32827759 1.91978669
17.12245750 65.18552399 -38.94699478
10.28729153 69.55303955 15.90741158
16.27623749 79.74679565 23.24563026
-31.92849541 54.77548599 31.56976318
23.83525085 46.06552505 -45.60667801
-3.23821735 64.08588409 -33.94713211
31.30772972 64.16918182 -12.70825005
30.74443054 72.81195831 25.47224998
23.06777573 68.85155487 -4.31180668
25.35997772 61.83199310 3.78988290
18.35619545 63.24366760 -39.38958740
14.16293430 57.12674332 39.70778275
22.41287994 63.28412628 29.64490891
15.17356300 85.58298492 10.93141556
13.73780251 71.94577026 22.76710320
-36.93779373 54.35637665 23.23272324
-22.87707138 54.34918213 37.59464264
58.99188614 33.17015839 -1.02791071
29.16333580 60.77223969 36.84918594
46.38129807 69.01654816 -1.32951784
51.49032211 -5.81297255 -41.58304977
-6.80967140 68.80458832 -22.26671982
-6.41737080 19.71583176 62.56409836
