-2.42943000 -1.59751000 8.49543000
-2.39842000 -1.57899000 8.51964000
0.52655200 2.34043000 1.33697000
-3.35971000 0.36260400 2.22158000
-0.44850500 -3.76170000 6.88436000
-0.40596600 -3.77499000 6.80547000
-0.38749200 -3.76796000 6.93990000
-0.44044400 -3.80138000 2.07120000
-0.48519700 -3.79288000 2.04952000
5.61310000 -2.64219000 6.77620000
-0.19535700 -3.76976000 6.99888000
-0.60043200 -3.80297000 2.28433000
-0.65420900 -3.79405000 2.25749000
5.56396000 -2.66238000 6.85198000
-3.33499000 -1.32602000 7.23209000
-0.33891000 -3.78150000 6.82830000
-0.63399200 -3.80505000 2.31091000
-0.60268600 -3.80262000 2.35613000
-1.26409000 -0.02951660 -0.08780240
-3.47031000 -2.79022000 4.08033000
1.04790000 -4.96441000 0.91452900
0.98259500 -4.98543000 0.91580100
0.83602400 2.00694000 7.94849000
-3.78012000 -1.23397000 3.06365000
-3.80305000 -1.17591000 3.07159000
6.37706000 -1.62438000 3.68029000
6.39020000 -1.52723000 3.59171000
-3.49085000 -2.68554000 3.86952000
-3.77461000 -1.17454000 3.01144000
-0.55069100 -3.79799000 2.17171000
-1.95170000 -4.61732000 6.76545000
-1.88028000 -4.58830000 6.85352000
2.53225000 1.09507000 0.11122500
4.70106000 -3.68840000 4.82413000
2.73185000 -2.06924000 9.37993000
1.49161000 -0.24971200 9.98096000
-3.80297000 0.25367700 3.25315000
-2.44403000 -5.16440000 3.64218000
6.45876000 -1.56492000 5.02972000
6.46851000 -1.50355000 5.09089000
6.47242000 -1.51007000 5.02968000
6.47588000 -1.52454000 4.95743000
6.46315000 -1.57188000 4.91220000
6.45537000 -1.61101000 4.97282000
2.87400000 -3.76035000 7.34549000
6.49386000 -1.44648000 4.83276000
0.14349300 -3.75396000 1.69209000
6.18207000 0.24043200 3.04363000
2.79656000 -3.76374000 7.21481000
5.14971000 -2.41028000 7.57040000
6.08365000 0.36813500 2.93478000
-1.78034000 2.24191000 5.59912000
6.06646000 0.36483000 2.90141000
3.58943000 1.39722000 8.27134000
-2.01878000 0.45388500 8.72482000
4.72639000 2.28467000 4.56577000
-2.87283000 0.41542000 7.66383000
3.76397000 1.79670000 7.38467000
4.80688000 -3.10767000 7.32424000
6.48772000 -1.48484000 4.90445000
0.30116100 -2.52645000 9.50141000
1.39670000 -1.49735000 -0.76640000
3.31815000 -3.70006000 1.78498000
6.46154000 -1.61608000 4.84200000
3.63213000 -4.31204000 7.22115000
1.61927000 1.04242000 -0.14142600
6.02232000 -2.76580000 5.16657000
-0.40545100 -4.66732000 8.11412000
-2.79353000 0.79593200 1.81313000
6.23054000 -0.01187270 2.97700000
-0.61406600 -3.76420000 2.73251000
-0.24209400 -2.82579000 9.15232000
0.44392500 0.93127400 9.49297000
0.28014400 0.92021500 9.46503000
-2.72282000 0.93499000 1.93506000
-0.56666600 -3.77169000 2.65241000
-3.99072000 -0.33352000 4.90991000
2.73398000 -3.82980000 7.83714000
-0.49110800 -3.76527000 2.61245000
0.22049300 -4.70717000 0.92001000
-0.82230300 -2.61744000 0.10383700
-0.85048000 -2.63089000 0.12035700
3.84842000 -5.19099000 6.99653000
0.19705800 -3.43998000 8.43726000
1.59688000 -0.95956600 9.86635000
1.54661000 -0.99775500 9.86856000
1.44803000 -1.05093000 9.85829000
-3.18773000 -1.39907000 7.60001000
-2.02892000 -4.15552000 2.92624000
-3.11475000 -0.14422700 1.49933000
-0.96995600 1.93155000 7.12865000
-0.65565600 -1.36295000 9.52538000
0.01070670 -3.44656000 8.39209000
-1.76418000 -3.80360000 2.48099000
-3.84469000 -1.69176000 5.05054000
2.85959000 -3.34276000 8.42329000
3.00064000 -3.37205000 8.31516000
3.09083000 -3.29116000 8.41872000
-0.13489500 -3.43693000 8.36669000
2.07929000 2.44478000 8.01999000
2.06618000 2.47690000 8.06727000
2.05561000 2.43766000 8.00752000
2.03427000 2.38599000 7.88625000
6.35140000 -0.22192600 3.23506000
-3.85106000 -1.49853000 5.34571000
-1.43041000 -3.75171000 3.95418000
2.11429000 -1.93690000 9.65132000
5.95640000 -2.10348000 2.94020000
-0.07601650 2.54377000 7.56745000
3.63615000 -4.13926000 1.93435000
3.51675000 -4.14969000 1.82958000
5.94255000 -2.10698000 2.87333000
-1.59624000 -2.28066000 8.89812000
-1.63978000 -2.30094000 8.85870000
5.90166000 -2.00289000 2.66491000
3.32482000 -3.89332000 5.15095000
1.98641000 1.86283000 8.01093000
4.35705000 1.28005000 1.48919000
-2.29349000 -3.77153000 4.20804000
-2.30009000 -3.76901000 4.30372000
-0.68212700 1.14277000 0.89899600
3.29935000 -2.06496000 -0.10841800
1.70209000 0.53127500 -0.44896700
1.76614000 0.53710100 -0.45098700
-1.22780000 -1.03053000 -0.22983700
-1.18019000 -1.08964000 -0.23970100
-0.22267400 -1.04535000 9.77526000
-0.07320070 -0.95367000 9.81609000
0.12987200 -2.08890000 -0.45428700
4.10660000 -1.89771000 0.26421000
3.99064000 -2.21059000 8.79637000
3.89995000 -2.21619000 8.84493000
-2.38115000 0.56354300 1.00524000
0.12603600 -3.80691000 5.52750000
-3.14282000 -1.91417000 7.51170000
-2.78436000 -2.71163000 7.52770000
-0.45992000 -1.22966000 -0.55693300
2.99325000 -2.61494000 9.11878000
2.56134000 1.34500000 0.48066900
2.56783000 1.33563000 0.45594800
5.81555000 1.18622000 5.36389000
5.75530000 1.23753000 5.35440000
-0.40233300 -1.25585000 -0.56390600
-1.78907000 -2.83986000 8.47002000
-2.91116000 -0.81024800 1.22425000
-0.39603200 -1.30911000 -0.56480200
-0.36224100 -1.25949000 -0.58319800
-1.86293000 -1.70173000 8.90977000
-1.92538000 -4.23017000 6.70162000
-1.90511000 -4.32878000 6.75824000
-3.16930000 -1.90507000 7.47733000
-3.17968000 -1.90104000 7.45171000
5.27198000 -0.72213600 8.06985000
-2.93601000 0.18424500 1.37454000
0.35283200 0.67952300 9.60563000
-1.84694000 -4.43790000 2.57910000
5.25740000 -0.80054700 8.08659000
-3.01649000 -2.51371000 7.35013000
-3.00317000 -2.50488000 7.39282000
-0.09138150 -2.69726000 9.34464000
6.10594000 0.63595900 6.04803000
-2.98007000 -2.42391000 7.48603000
5.57948000 -3.08937000 3.25428000
5.63555000 -3.08970000 3.44975000
5.59733000 -3.11458000 3.48329000
6.13391000 0.58986500 6.06935000
4.18584000 -2.46358000 0.69111600
5.23760000 -0.75577800 8.10783000
3.43300000 0.80223500 0.34345100
-3.01370000 0.22331800 1.69491000
6.48771000 -1.39401000 5.16401000
0.82488100 -2.30487000 9.57456000
-1.51094000 2.14613000 6.26397000
4.36474000 -4.16066000 2.97673000
4.68356000 0.06125910 0.55423300
5.17219000 1.17522000 7.11423000
2.05172000 -1.03156000 -0.76909300
1.99940000 -0.95923200 -0.78284200
3.77529000 -5.07462000 7.30774000
4.69693000 -3.68809000 4.63114000
-0.33593400 -4.37136000 8.10406000
-0.29121800 -4.25992000 8.10192000
5.71734000 0.83867200 2.65061000
-3.60514000 -1.61695000 6.70634000
-3.59288000 -1.56748000 6.76804000
-1.19083000 0.70500200 9.11031000
-1.08104000 0.70892000 9.17611000
-1.08529000 0.65030300 9.20685000
4.38845000 -4.22528000 6.39058000
-0.96933000 -3.82549000 4.39715000
-1.16284000 -3.47004000 7.65958000
-1.23170000 -3.50591000 7.53084000
2.06633000 -0.99753600 -0.76218700
4.24252000 -4.79271000 6.69868000
4.96111000 -0.64217800 0.80936900
-0.10070200 -3.85061000 5.49641000
-3.37560000 0.21427300 7.16560000
-3.38875000 0.18285800 7.17300000
0.49290400 -3.63557000 8.02830000
-3.33909000 0.22184900 7.21906000
-2.41042000 -3.19369000 2.03127000
2.21505000 -0.43988700 9.81317000
0.38621800 -3.65824000 7.94583000
2.51156000 -0.37493000 9.75502000
2.38299000 -0.36990700 9.79077000
0.12873600 -3.73434000 7.62173000
-1.20995000 -3.76416000 4.81798000
1.22285000 -1.37938000 9.81490000
-2.57556000 -5.16456000 4.68967000
-2.57688000 -5.13555000 4.72831000
-4.00393000 -1.07677000 4.08361000
-3.44302000 -0.63395800 2.23614000
-4.00420000 -0.99409900 3.98283000
-2.63376000 0.00974301 8.19011000
-0.80293200 -2.91837000 0.19974500
-0.59498700 -1.94833000 -0.35811900
4.81329000 1.27714000 2.40584000
-4.01943000 -1.03236000 4.13317000
-4.03823000 -0.89422300 4.19148000
-4.02278000 -0.96026500 4.10512000
-0.56742300 -1.87827000 -0.38469700
-3.74402000 -2.08891000 5.12537000
-0.34368300 -1.58397000 9.64560000
-0.31608000 -1.63928000 9.64853000
1.89220000 -3.67319000 1.05461000
4.49920000 -3.77406000 5.24966000
4.43350000 -3.78310000 5.24966000
1.34424000 0.46209800 -0.50445100
-1.93454000 -3.75375000 4.44952000
3.61160000 0.31827600 9.18919000
-0.60383100 -3.13084000 0.29725700
-0.63315200 -3.10038000 0.26961700
6.07349000 0.87883700 3.93075000
6.11377000 0.83089200 3.94813000
6.47395000 -1.46477000 5.05211000
-2.49772000 -2.03771000 8.29509000
-2.49047000 -2.00330000 8.31047000
-0.42253000 -3.28582000 8.57690000
-0.59032800 -3.27419000 8.52899000
-0.68607100 -3.25382000 8.52992000
-0.67102100 -3.21614000 8.60146000
2.61392000 -3.78417000 2.70747000
-2.08216000 0.35145700 0.54988400
-2.09145000 0.29644600 0.51201500
-0.69770600 -3.11098000 0.30227200
4.69805000 -3.59757000 5.89500000
4.80279000 -3.55600000 5.83256000
-0.50493600 -3.32175000 8.47886000
-1.68495000 -3.44179000 1.60381000
-0.42671900 -3.78470000 6.60556000
4.77784000 2.42874000 4.00449000
-0.52195600 -1.95931000 -0.37866000
5.34546000 -3.27860000 5.79893000
-1.12229000 -3.69881000 7.50635000
-0.37236700 -3.27859000 8.61721000
-0.41665900 -2.01219000 -0.39826300
1.73587000 -3.83966000 2.28291000
-0.43578000 -1.79872000 -0.45816600
6.05607000 -2.52493000 3.98692000
6.04188000 -2.56467000 3.94991000
-0.43946500 -3.72737000 6.68559000
-0.49885700 -3.70936000 6.93142000
6.17342000 -2.03738000 3.35989000
1.19743000 -0.95379200 -0.85730700
5.83587000 -1.59742000 7.09684000
-0.25852000 -3.73547000 6.61666000
0.60022300 0.95675100 9.49963000
2.88339000 -4.55677000 7.94417000
3.49602000 -3.79690000 6.51510000
3.39630000 -3.78536000 6.68142000
1.48171000 -3.86064000 2.64945000
1.55903000 -3.86722000 2.67285000
1.68732000 -3.86186000 2.69643000
2.26645000 1.79456000 8.18062000
0.84572700 -3.88939000 5.22814000
-2.03240000 -3.82503000 3.08334000
-2.03240000 -3.82503000 3.08334000
1.54974000 -4.52386000 8.38799000
1.57789000 -4.54462000 8.37951000
-3.13545000 -2.50698000 2.26880000
4.41535000 2.48004000 3.38520000
-1.94424000 -3.86462000 2.89075000
-2.00626000 -3.83077000 3.03879000
0.72927700 -3.87921000 5.52543000
0.83801700 -3.88535000 5.52840000
-2.36692000 -5.16433000 3.87824000
-2.35514000 -5.19534000 3.63151000
-1.61000000 -3.74143000 4.56471000
-1.53762000 -3.75056000 4.54725000
-1.47879000 -3.74604000 4.66210000
6.36530000 -0.12719200 3.29585000
6.37935000 -0.11262400 3.38868000
0.57118000 -0.89253200 -0.81156500
0.38712400 -0.78153700 -0.79015500
-1.57220000 -3.73699000 4.66472000
4.43383000 -5.20072000 6.10240000
6.37297000 0.35879000 4.66972000
2.74398000 -2.87354000 9.03134000
5.31193000 -0.09412010 1.21800000
5.33422000 -0.11529200 1.24846000
2.43770000 -3.39905000 0.66968700
0.35292700 -3.88357000 4.96781000
2.97795000 1.25935000 8.81474000
-3.04971000 0.94000200 2.56043000
5.24173000 1.10766000 2.26403000
5.23014000 1.07039000 2.17049000
6.50862000 -0.99560700 5.43061000
6.53681000 -0.86038900 5.32076000
1.60382000 -1.91220000 -0.64661000
1.69918000 -1.90089000 -0.63332100
-1.81320000 -3.60302000 2.48464000
4.46482000 -1.05740000 8.77858000
0.44243700 -3.83558000 4.53850000
4.11407000 -3.77450000 3.03852000
2.07739000 2.30234000 1.20415000
0.07680720 1.14917000 0.10376700
0.15823000 1.19917000 0.14315900
-3.52970000 -1.75927000 2.85674000
3.36492000 1.59507000 7.95563000
4.33509000 -3.64898000 3.07214000
2.98176000 1.36094000 8.67323000
2.91946000 1.32756000 8.76094000
-3.09641000 -2.33046000 7.23602000
-2.18308000 2.61864000 3.70995000
3.94105000 -3.77910000 2.76681000
4.29158000 -3.68592000 3.16047000
-0.95002300 0.56443600 9.33642000
5.03448000 1.20825000 2.16524000
-1.30229000 -1.53374000 -0.02740830
-1.19166000 -3.02932000 8.55079000
-2.21871000 2.53068000 3.72294000
-2.23168000 2.57153000 3.77038000
4.21381000 -1.48198000 0.28070600
4.26709000 -1.52578000 0.32359000
6.60579000 -0.44184700 4.53914000
-1.51860000 0.07843480 9.13250000
6.29971000 -0.58208100 6.09440000
2.25690000 -2.70917000 -0.12468900
2.32603000 -2.67989000 -0.12805100
-0.91269700 -3.78634000 4.66093000
4.69421000 1.39404000 7.30725000
4.47853000 -2.42863000 8.25043000
2.36735000 -3.77494000 2.36928000
2.21986000 -2.77552000 -0.09786990
-2.51992000 -3.05925000 1.97628000
-1.67115000 -3.86952000 2.34676000
-1.67319000 -3.94561000 2.32010000
-2.64391000 -3.02507000 2.08689000
2.27194000 -3.77425000 2.39348000
0.09652640 0.55792300 -0.42600700
0.02902340 0.51468000 -0.42968300
-2.58444000 -1.22593000 8.41612000
-2.54597000 -1.24683000 8.44572000
-2.59673000 -1.34991000 8.38815000
3.15128000 2.37954000 7.23928000
-1.91714000 1.88403000 3.03128000
4.29576000 -1.55938000 0.36318000
1.57530000 1.05076000 9.40651000
0.21853200 -0.76658700 9.89640000
0.23931400 -0.72038900 9.89767000
-2.40180000 -0.68502800 0.62058000
0.25859300 -0.76549900 9.89449000
0.25190500 -0.79325700 9.89958000
1.44947000 -1.55454000 9.83057000
0.60966700 -3.29940000 8.71775000
0.66976500 -3.35201000 8.62078000
1.43621000 -2.13041000 9.68334000
6.19453000 -2.29419000 3.94418000
5.07714000 -3.46556000 4.23768000
5.16452000 -3.37121000 5.82603000
5.17028000 -3.37694000 5.76426000
5.19903000 -3.34354000 5.85537000
5.07519000 0.89029700 1.52133000
6.44555000 -1.33202000 5.21033000
-2.51191000 -1.26405000 8.47191000
-2.42040000 -1.31240000 8.54997000
-2.34476000 -0.83012800 0.57637500
2.61005000 -4.14578000 1.26871000
2.30263000 -3.80461000 1.86665000
-2.54552000 -1.31358000 8.43202000
5.59181000 0.65179900 2.08062000
5.56328000 0.67774300 2.09725000
-1.77817000 -3.75875000 2.94573000
0.57336600 -2.19364000 9.59156000
0.60897800 -2.27626000 9.56851000
-2.34041000 -4.41965000 5.52305000
0.93762400 -3.46300000 0.47869300
2.20626000 -0.40852700 9.88000000
2.26818000 -0.31246800 9.87101000
6.02588000 -1.26758000 2.45025000
-2.37265000 -4.54869000 5.42415000
-2.45224000 -4.00162000 4.55215000
4.39637000 -3.77758000 4.63697000
4.46012000 -3.76902000 4.51905000
-3.16897000 -0.18544800 7.67525000
-0.24356100 -3.80021000 3.40808000
-3.93330000 -1.29107000 5.44111000
-3.92458000 -1.27463000 5.53549000
-1.46097000 1.02925000 8.67033000
1.61215000 -3.62055000 8.22211000
1.48470000 -3.67165000 8.23555000
3.50552000 -3.38519000 1.33682000
6.54299000 -0.00361481 5.15196000
-2.94886000 -1.47481000 1.53657000
-2.91950000 -1.44778000 1.48053000
-0.77183900 0.12845500 9.50796000
-3.00063000 -1.39513000 1.59644000
-2.96856000 -1.40912000 1.54317000
-2.98249000 -1.36159000 1.56381000
-1.44399000 -0.25612500 9.22531000
-1.53384000 0.95436400 8.69596000
-3.61205000 -0.70351200 6.87653000
-1.67851000 -0.47269100 9.07902000
-1.59820000 -0.53238800 9.12639000
-1.93037000 -5.04263000 6.50727000
-1.52731000 -3.75151000 4.38265000
5.78716000 -0.64200600 7.38612000
5.81911000 -0.63823000 7.34747000
5.79098000 -0.68435500 7.39511000
2.74864000 -0.20479800 9.67360000
-0.88370400 0.64862800 0.09445470
0.32154900 -3.84227000 4.20371000
0.36144200 -3.83618000 4.35419000
0.98379900 -2.35444000 9.61714000
-1.84440000 -4.21940000 6.82137000
-1.87988000 -4.23984000 6.78375000
-1.17850000 -2.65271000 0.22498100
-1.92920000 2.46812000 6.04951000
4.57714000 0.38442200 8.45138000
4.47753000 0.42866500 8.51218000
-0.00734708 2.23124000 7.59462000
2.93582000 -3.86525000 6.02286000
2.84707000 -3.86131000 6.02858000
6.44686000 0.27287100 3.95971000
-3.77946000 0.58032600 4.30867000
0.24099000 0.54412600 -0.46572700
2.67232000 0.57815300 -0.30140200
-3.87689000 -0.87744200 5.79773000
0.42056700 -2.33447000 9.52026000
0.21852500 -3.74661000 6.84298000
4.70648000 2.40312000 3.85902000
4.90977000 -1.30638000 0.83132100
-1.19173000 -2.50666000 0.15292300
-1.23489000 -2.55003000 0.19884700
1.88996000 1.74403000 0.87882100
5.11151000 -2.33597000 1.55374000
-2.37415000 -4.52950000 5.75975000
-4.00508000 -0.97819300 5.28125000
1.76443000 -3.86515000 4.45189000
2.35244000 -3.18363000 8.85653000
6.31216000 0.30009700 3.71480000
-4.00593000 -0.95125300 5.25627000
2.10814000 -3.19837000 8.89437000
6.37810000 0.17548400 3.78498000
-0.93164500 -2.89158000 8.93369000
-2.22924000 -4.71408000 5.97621000
-0.70918900 -4.73578000 1.32846000
-1.66954000 2.35148000 6.08457000
6.33213000 0.15787100 3.49136000
-0.38825800 -2.03396000 9.52792000
-1.96367000 0.43206100 8.78894000
-2.37174000 -3.27771000 6.87188000
-4.03178000 -0.83207300 5.18927000
-3.75675000 -1.22164000 6.14060000
5.78624000 -3.09131000 5.42059000
1.84421000 -3.79893000 1.60351000
-0.41674100 -0.06439730 -0.53329100
6.06325000 -2.21693000 6.03023000
-2.83520000 -2.71149000 1.90436000
-2.81152000 -2.64583000 1.81677000
2.66831000 -0.29346900 9.70963000
6.37331000 0.52751400 4.89973000
1.66979000 -3.79244000 1.50831000
-0.81816100 1.16150000 8.86525000
-0.95233200 1.14337000 8.81573000
0.82469500 -3.77330000 7.43341000
5.82141000 -3.05875000 5.31582000
-0.82278000 1.14092000 8.88068000
6.25821000 -1.30747000 6.05842000
4.60381000 -1.45511000 0.49393800
4.60595000 -1.40151000 0.47248400
5.04531000 0.26228600 8.18046000
-2.24149000 -4.37042000 3.37126000
3.59451000 -3.96925000 2.04545000
-2.69271000 0.56015500 7.95294000
0.24801900 -3.61459000 8.00791000
-1.78780000 -0.31416200 0.20658800
-1.86919000 -0.33905400 0.25918400
-1.90200000 -0.32336000 0.29142400
4.12475000 -1.42292000 0.11978800
4.75890000 -0.17745100 0.55030200
4.37362000 -1.55897000 0.32933000
4.28225000 -1.58442000 0.27907400
4.27842000 -1.62919000 0.28282100
2.52232000 -3.40816000 8.41053000
5.58009000 1.24027000 3.46314000
3.47735000 -3.86384000 1.96961000
4.23783000 -1.64971000 0.26916800
-1.81933000 -0.38598900 0.22834700
-2.46803000 0.98798100 1.65905000
-2.41823000 1.00192000 1.63390000
-2.55372000 0.91340800 1.65121000
6.46429000 -0.84233900 5.75382000
4.18463000 -3.79166000 4.41896000
4.20167000 -3.78499000 4.35930000
4.34176000 1.26394000 7.90585000
4.36856000 1.23470000 7.93097000
4.31653000 1.33594000 7.81647000
4.29316000 -2.11274000 0.49052300
4.85805000 -4.38939000 4.74541000
-0.80322900 -3.76569000 5.49699000
-0.83575500 -3.77108000 5.29870000
-0.91654100 -3.76040000 5.41067000
-0.40541000 -3.85316000 3.48063000
0.13071600 -1.32359000 9.80281000
4.39409000 1.29207000 7.82106000
4.47866000 1.27962000 7.74913000
4.23542000 -1.58861000 0.25154000
4.85754000 -4.42877000 4.81289000
-2.42674000 -4.49566000 4.24059000
4.30074000 1.33487000 7.83786000
4.33581000 1.29742000 7.85059000
4.60684000 -2.80433000 7.95721000
-0.33313200 -3.80480000 5.03371000
3.87472000 -1.33573000 0.03876640
3.82826000 -3.83562000 3.66718000
3.81671000 -3.83009000 3.71766000
5.94140000 0.98133800 3.79733000
5.97517000 0.97458200 3.84537000
0.66855100 -3.60794000 0.92570400
-2.49352000 -2.53317000 1.28745000
4.13430000 -3.73885000 6.64140000
6.34540000 0.37662700 5.70981000
6.37553000 0.29918300 5.71642000
-2.31569000 -2.95373000 7.86156000
-0.38154600 -0.51405400 9.69499000
-2.20830000 -0.65643100 0.54846200
1.45481000 -3.52301000 0.75735300
6.03618000 -2.25073000 3.34316000
6.47669000 -0.80431200 3.41200000
0.26896400 -2.03749000 9.67375000
4.70438000 1.92370000 3.90810000
0.27325000 -2.00655000 9.67804000
1.16067000 -3.66709000 8.25329000
-4.04306000 -0.43639700 5.12283000
0.26653100 -1.96335000 9.69094000
3.62558000 1.23050000 0.83292200
3.78698000 1.21451000 0.91556700
4.45249000 -1.28471000 8.74511000
4.59174000 -3.78809000 4.55798000
-0.50019600 1.34626000 0.64931200
1.56920000 -1.01646000 9.85293000
1.51104000 -1.02587000 9.86170000
-3.90680000 0.22253700 5.35523000
-3.92364000 0.22708600 5.25864000
6.18075000 -1.15138000 2.78003000
6.16820000 -1.21829000 2.78043000
6.17780000 -1.23955000 2.85586000
-3.60644000 -1.87820000 6.30430000
3.63884000 -3.85588000 4.53900000
6.17444000 -1.27532000 2.85505000
6.15390000 -1.27714000 2.78228000
6.15346000 -1.16513000 2.73702000
3.69267000 -3.85946000 4.46318000
-3.64339000 -1.69905000 6.28317000
-3.67246000 -1.60088000 6.26535000
-2.16377000 1.94709000 4.11590000
-2.19708000 1.85622000 3.93800000
4.36473000 -5.09922000 3.18322000
5.57440000 0.76726300 2.45867000
-2.07689000 -4.25923000 6.40896000
4.83975000 -2.73044000 1.44956000
-2.55579000 -4.78348000 4.37088000
5.47468000 0.80525300 2.32095000
3.06134000 0.80741400 9.22053000
4.89117000 -3.33327000 6.61188000
-0.43159800 0.63048200 9.49991000
-0.32911400 1.24552000 0.37137400
-0.32736800 1.21044000 0.32883700
3.84268000 -0.18470300 -0.05381680
-2.43092000 -3.68318000 4.33493000
5.91601000 0.96708300 5.90535000
0.74560600 2.15547000 7.85616000
-3.16661000 -2.97923000 6.48390000
4.87848000 -2.70844000 7.77174000
4.75306000 1.34187000 2.49576000
4.43755000 2.61405000 6.25885000
-0.18396900 0.83368700 -0.15997400
0.06613270 -3.82495000 4.00256000
0.02928640 -3.83196000 3.95719000
-1.01816000 -3.82135000 1.85104000
6.39677000 -0.07277690 5.59959000
1.40500000 0.18539900 9.95753000
2.70200000 -3.87800000 1.49573000
6.20709000 -2.38891000 4.57921000
6.19080000 -2.44084000 4.49630000
-3.66760000 -2.38081000 4.91340000
-2.00597000 -2.19874000 0.69272000
3.05644000 -3.77566000 1.74653000
3.09924000 -3.77740000 1.77767000
5.00818000 -2.56018000 7.74000000
5.01373000 -2.53552000 7.74367000
5.36750000 1.39369000 6.06349000
5.36403000 1.38818000 6.14342000
5.78408000 -2.41142000 2.66752000
1.60237000 -3.85812000 4.72748000
-0.40087500 2.42139000 7.52250000
-0.45482300 2.41916000 7.50656000
5.83161000 -1.19474000 7.23968000
2.54852000 -3.80877000 6.35177000
3.38759000 -5.17455000 7.61873000
1.75142000 1.97815000 7.94686000
1.69093000 0.97109400 9.39211000
3.72098000 -3.81545000 3.86618000
3.66311000 -3.82458000 3.96210000
6.15212000 0.05385360 6.62698000
6.12821000 0.02503950 6.68229000
3.22219000 1.32520000 0.74008700
5.74363000 -2.59560000 6.46569000
3.69200000 -3.82840000 4.08794000
2.85657000 2.36776000 1.35682000
2.76910000 2.35739000 1.36062000
2.85892000 2.41068000 1.26690000
-2.49426000 -4.35397000 4.95711000
4.39098000 0.11182700 8.80798000
-1.81446000 -0.77882400 9.08777000
-1.70119000 -0.72599200 9.16332000
-1.63626000 -0.73808700 9.19955000
-1.70996000 -0.63714800 9.15999000
-0.67493200 -4.19101000 1.49336000
-3.86956000 -0.56968600 3.49840000
-3.87927000 -0.61084000 3.57582000
3.56037000 -5.20479000 1.78013000
0.57554100 0.09660590 9.86688000
0.56868200 -0.00973309 9.87816000
5.22106000 -2.25632000 1.53186000
5.28148000 -2.30547000 1.63391000
3.82730000 -3.80473000 3.73543000
3.83528000 -3.79747000 3.60857000
3.77326000 -3.81027000 3.66691000
-1.74652000 -3.73021000 3.45998000
5.07751000 0.78831800 1.70852000
-0.29706200 -3.78649000 6.62953000
5.63913000 -1.46884000 7.43977000
5.58860000 -1.56659000 7.48354000
5.67080000 -1.50448000 7.38171000
5.68330000 -1.46824000 7.38383000
-2.19358000 -3.37960000 2.26653000
4.11810000 0.38320700 0.28969700
4.18908000 0.42781600 0.37897300
-2.30022000 -4.88210000 3.52180000
3.54268000 -3.86689000 4.12232000
3.56142000 -3.86152000 4.02896000
6.33371000 -0.67695200 6.22051000
0.91843200 -4.80072000 0.82197600
-2.50692000 -1.79961000 1.04570000
-2.55462000 -1.72513000 1.08452000
3.89278000 -3.02591000 0.83386100
1.37313000 -4.99072000 8.28700000
1.40629000 -3.99125000 8.32005000
1.66981000 -4.31977000 8.32933000
2.47259000 -3.84957000 3.90466000
5.77049000 -1.81284000 2.10573000
3.89390000 -4.83678000 2.08248000
3.79457000 -4.89516000 1.97986000
4.72554000 -5.18769000 4.75969000
5.86265000 -1.62546000 2.16742000
3.41611000 -1.92850000 9.15557000
3.43045000 -1.81215000 9.18264000
-2.47677000 -4.79211000 5.46389000
2.19086000 -3.87548000 5.88386000
2.12218000 -3.87243000 5.98811000
4.79455000 -4.59279000 5.36537000
-3.90483000 -1.14907000 4.00324000
1.99841000 -4.84713000 0.93301200
1.91550000 -4.79991000 0.92173800
-3.41288000 -2.62712000 3.37531000
-0.46550100 0.32181600 9.66747000
2.66516000 -3.77534000 2.62601000
2.79780000 -3.76801000 2.56799000
0.60472900 -0.90229000 -0.81821700
4.71823000 -5.17760000 5.66608000
3.03326000 0.82401900 9.13774000
1.32127000 -5.13267000 1.00606000
-2.09693000 -1.46743000 8.79617000
-2.04687000 -1.45839000 8.82926000
-3.86350000 0.20341700 5.00214000
-3.03396000 -2.69897000 7.01452000
-0.33437000 -4.10220000 1.32622000
-0.34962200 -4.21367000 1.31581000
1.98765000 -1.80396000 -0.61120600
-0.13863200 -3.81567000 3.82444000
-2.53304000 -2.08014000 8.13242000
6.16541000 0.22186500 2.99448000
-1.80970000 1.35852000 1.73291000
-1.83413000 1.33326000 1.69444000
-0.41317900 -4.27318000 1.33052000
1.42815000 -3.59523000 0.77958900
2.88523000 -1.76962000 -0.32224900
4.20392000 -2.23408000 8.57872000
0.33562100 1.52195000 0.84241600
-1.66637000 1.39275000 1.69343000
-1.76917000 1.36434000 1.69805000
5.99738000 -0.70343700 2.25857000
1.63576000 -4.16537000 0.94980000
-0.52407800 0.34850800 -0.37304100
-0.50951200 0.28448100 -0.41547100
-2.04836000 1.84391000 3.76463000
0.36178400 -3.68666000 7.79697000
4.60503000 -3.25302000 2.12335000
-0.09876790 -3.34802000 8.44311000
-0.83203100 -0.61471200 9.53676000
-1.18775000 -4.38539000 7.47146000
-1.14939000 -4.42088000 7.51067000
-3.33731000 -2.09481000 2.35254000
0.41960500 2.26781000 1.15337000
3.51578000 -4.25211000 7.45347000
1.28380000 -3.49151000 0.55344100
1.31174000 -3.53690000 0.64483100
1.46069000 -3.57188000 0.73294600
1.30884000 -3.55736000 0.67458000
4.55199000 -3.28738000 2.10848000
-1.26022000 -4.26011000 7.39595000
3.86734000 -3.40151000 1.67133000
-0.55091300 0.08532660 9.62368000
-0.58296300 0.10059900 9.60175000
-0.61085300 0.05349290 9.59234000
1.33452000 -3.46223000 0.50061300
0.96691700 -5.02117000 0.78619100
-0.67420700 -2.31781000 9.33610000
2.11055000 0.52067200 9.65216000
2.11055000 0.52067200 9.65216000
4.74670000 -3.31242000 2.60397000
4.82138000 1.87216000 4.78036000
4.16988000 -3.40439000 1.99921000
0.35409500 -3.84985000 5.96210000
6.60404000 -0.51979200 4.61059000
6.60382000 -0.45008600 4.68388000
6.60822000 -0.46870900 4.64926000
6.46251000 0.12270800 4.32849000
-0.71922500 -3.81510000 2.84505000
1.15914000 -3.83059000 5.84182000
-0.76565800 -2.98645000 0.32437900
6.60205000 -0.49533900 4.65089000
6.60604000 -0.54662100 4.68333000
1.12349000 -3.82314000 5.86246000
-0.64069000 -3.81565000 2.71727000
3.30569000 -1.70975000 9.32708000
-0.64455100 -3.82054000 2.81799000
-0.27820500 -4.24875000 1.18019000
-1.03984000 1.47643000 8.13314000
-1.10214000 1.48217000 8.07140000
-2.72937000 -1.91510000 1.27318000
-0.93282900 -2.66295000 9.00358000
-3.43546000 -2.96588000 5.30305000
-3.30988000 -0.58167600 7.35041000
2.61105000 -1.76495000 -0.46559300
2.69122000 -1.79171000 -0.44101500
2.64445000 -1.81798000 -0.44352400
2.75469000 -1.88750000 -0.38785000
-0.73037600 -2.90460000 0.24677300
-0.75868200 -2.93435000 0.28165200
-1.10393000 1.47745000 8.12552000
0.67505300 -2.24060000 9.64448000
-1.17052000 1.47883000 8.07211000
-0.64771900 -2.11350000 9.42210000
-3.57316000 -0.65838000 2.33116000
6.49651000 -0.58707500 5.23652000
2.09719000 1.04640000 9.34924000
2.07277000 1.01257000 9.39874000
-3.39715000 -0.73581700 1.95770000
2.15490000 2.54003000 0.97408200
-2.07843000 -2.89538000 8.16757000
-2.01932000 -2.91855000 8.20403000
5.55453000 -3.21373000 4.39143000
2.48359000 -3.79699000 6.65580000
-1.59582000 2.09976000 2.83766000
-1.63360000 -2.15488000 0.37366600
1.24764000 -3.88809000 5.60352000
1.39988000 -3.88325000 5.67792000
1.19598000 -3.89140000 5.57719000
5.77972000 1.08027000 6.01744000
5.83952000 0.84919800 2.95967000
-2.11409000 -2.87271000 8.14841000
1.30807000 1.70441000 8.24514000
2.02560000 2.53370000 1.13103000
1.28156000 -5.03193000 0.78421600
-3.49476000 -0.63415300 2.13700000
5.06290000 -3.42312000 5.85234000
-3.17058000 0.85142300 6.64692000
2.24071000 0.61719300 9.56275000
-2.77646000 0.96842800 7.19401000
-1.94697000 -4.22520000 2.78080000
1.60526000 0.64329900 9.74405000
-3.44482000 -0.55217500 2.03711000
4.53947000 -3.94077000 3.60694000
-0.48790800 -3.66318000 7.89621000
-3.90136000 -1.79970000 4.71970000
-3.06647000 0.53116900 7.26241000
-3.91602000 -1.71528000 4.80445000
-3.92463000 -1.72348000 4.85764000
-3.89757000 -1.82215000 4.88868000
3.50552000 -1.86581000 9.13291000
1.12237000 -4.38632000 0.87383400
5.58341000 1.35491000 5.48183000
-3.92652000 -1.65298000 4.71544000
-2.00930000 -5.07274000 2.58606000
-1.99364000 -5.16471000 2.58265000
-1.97415000 -5.09966000 2.53935000
0.14687200 -3.81774000 6.55095000
1.10010000 -2.66429000 -0.33763700
-2.67689000 0.66784600 1.48223000
-2.62611000 0.67411600 1.43000000
2.24754000 0.05338110 9.79470000
2.24961000 0.13858500 9.77249000
-2.52015000 -2.74695000 7.84119000
-1.21083000 -5.22274000 1.71954000
1.00854000 -3.83958000 5.06401000
1.20166000 -1.06140000 9.92468000
0.92380200 -3.84010000 5.01107000
-0.21572000 -3.43122000 0.65752800
6.29396000 0.08186160 3.23542000
1.15102000 -3.84876000 3.52231000
6.20852000 0.28862600 3.21474000
5.21504000 -2.31211000 1.66025000
4.59849000 2.36384000 5.55258000
-2.46125000 -4.69901000 5.47663000
2.10509000 -0.07315480 -0.67271800
0.38948100 -1.25948000 9.84627000
0.32719300 -1.30736000 9.83108000
0.38034200 -1.29576000 9.84719000
0.34420400 -1.26993000 9.84378000
4.66443000 -4.38723000 5.26655000
4.68389000 -4.46852000 5.18395000
3.17524000 -3.83438000 4.84501000
-0.92236600 -0.54697900 -0.34094900
-1.45640000 -4.39764000 7.20717000
1.72601000 -3.90016000 3.64085000
1.94665000 -3.90093000 3.47771000
-1.79344000 -4.20746000 6.90218000
4.60861000 -4.28014000 3.84794000
0.37033500 -2.90978000 -0.10954400
-0.36965800 -0.71335500 9.77043000
-0.24143600 -0.61381800 9.80606000
-0.28920500 -0.60966000 9.79664000
-0.04505750 -4.45118000 1.15942000
5.36211000 1.11923000 2.52416000
6.01907000 -1.71602000 2.72536000
4.55925000 -1.59068000 0.58984000
0.86365400 -4.68667000 0.93978800
-2.84818000 -0.06420940 8.11668000
-2.77535000 -0.08096640 8.20073000
0.63092100 -5.02418000 0.98504800
0.61860400 -5.05178000 1.00139000
2.73938000 0.76961900 9.30949000
2.42519000 1.23950000 9.04545000
0.10472700 -4.09352000 8.13745000
0.06883750 -4.01410000 8.11023000
2.05480000 -2.00393000 9.57823000
1.95980000 -2.87482000 9.29648000
6.37296000 0.27309800 5.74530000
-3.46502000 -1.71309000 6.79906000
-3.48522000 -1.72187000 6.75614000
6.11156000 -1.24602000 6.68989000
6.09532000 -1.26743000 6.70536000
5.41195000 -0.70766400 1.18392000
5.43028000 -0.55046200 1.21481000
5.20603000 -3.08702000 6.99349000
6.03914000 -0.40868800 2.29188000
0.61786300 -3.86774000 2.98975000
-1.97671000 1.48118000 7.03462000
3.83040000 -5.07683000 6.91266000
3.87912000 -5.10946000 6.89398000
-1.39691000 -4.47464000 1.88297000
-1.74041000 -3.77064000 3.53331000
0.72396400 2.60352000 0.91017400
-0.04102350 -1.89472000 9.63953000
1.99397000 -2.06633000 9.57516000
-2.09928000 -1.20418000 8.73569000
2.35091000 -3.40071000 0.71113000
1.04689000 -3.82816000 1.97309000
1.15369000 -3.82642000 2.01294000
5.77810000 -2.22507000 6.81435000
5.04063000 0.07286040 0.89221500
3.82710000 0.02050700 -0.10124400
-3.46438000 -2.83248000 4.19130000
3.39648000 -3.74606000 2.37134000
-2.77090000 -1.40509000 8.18153000
-2.83082000 -1.30434000 8.12282000
2.92001000 1.15367000 0.35437400
2.01113000 -4.04748000 1.16182000
5.41964000 1.40777000 3.83998000
3.75321000 -1.75549000 -0.00551852
3.83197000 -1.77753000 0.05037390
3.77379000 -1.84845000 0.03951070
1.22797000 -4.84307000 0.81044200
4.13693000 0.06736270 0.12482800
1.10543000 -2.04633000 -0.58566500
-3.53984000 -1.68820000 6.62952000
-3.56604000 -1.74201000 6.52288000
-3.57617000 -1.60380000 6.55964000
3.77273000 -1.90103000 0.05949270
-1.90572000 0.67807100 8.67986000
1.59084000 2.20339000 1.10362000
4.32381000 -4.93732000 2.85741000
0.70927200 -2.44710000 9.57245000
0.64766000 -2.45022000 9.57167000
6.05416000 -1.81307000 6.51463000
5.63486000 -2.04725000 7.10877000
-3.84851000 -1.24344000 3.28263000
-3.84934000 -1.30699000 3.34614000
3.94967000 -1.14503000 9.10920000
1.93207000 -3.49714000 8.31483000
3.57181000 -2.03311000 0.00986698
3.65465000 -2.00787000 0.03354070
5.87819000 -0.12245000 2.07037000
-2.06790000 -2.47552000 8.48308000
5.68690000 -2.97714000 6.11993000
5.66536000 -2.98186000 6.19942000
1.55770000 -3.79216000 7.38947000
1.54479000 -3.80488000 7.31493000
2.96189000 -3.81430000 5.83995000
0.17638500 1.23476000 9.12317000
2.96606000 -1.54034000 9.50864000
2.86585000 -1.63934000 9.52055000
4.77236000 -2.50442000 1.17637000
2.76371000 -3.81211000 3.19896000
2.85230000 -3.80691000 3.14791000
2.93575000 -3.80434000 3.14212000
-3.76853000 -2.00143000 5.66796000
-1.76760000 0.04922450 8.96172000
-1.80306000 0.05852800 8.93846000
-1.81213000 -0.01396230 8.94446000
3.76576000 0.36469400 9.15428000
1.62391000 -3.81358000 7.14132000
6.38489000 -0.17685600 3.36384000
6.41270000 -0.22863600 3.42609000
6.41510000 -0.28027800 3.42720000
-3.78339000 -1.91732000 5.65642000
6.34604000 -1.75520000 5.20571000
0.22221800 -1.40782000 9.80480000
0.14189300 -2.78064000 9.34352000
3.31315000 -3.82990000 3.89476000
-1.33686000 -3.85989000 2.11098000
-1.99814000 2.29757000 4.91171000
6.03190000 0.98820000 4.24979000
6.02589000 0.14023100 6.86456000
-3.46715000 -1.07171000 7.01797000
2.87704000 -0.21899500 -0.50447000
2.91757000 -0.21070900 -0.49267700
1.95416000 -2.39804000 -0.36342700
3.93048000 -3.80348000 5.66348000
6.47347000 0.01855480 4.86832000
4.95375000 -3.38312000 3.07718000
4.80304000 -3.46873000 3.12253000
0.58222300 -3.23300000 8.82912000
-1.67628000 -2.91973000 8.36945000
4.77232000 -3.51655000 3.25393000
3.84763000 -0.24791400 -0.07206850
6.50069000 -1.36997000 4.18571000
6.49657000 -1.29873000 4.03317000
6.47803000 -1.42535000 4.06255000
-3.88107000 -0.80760200 3.58824000
4.96727000 -3.36448000 3.04625000
4.97419000 -3.33897000 2.94841000
4.89186000 -3.38963000 2.99545000
2.43425000 -2.77581000 -0.08221870
5.95630000 -2.13711000 6.40134000
-0.40233300 0.65513300 9.41068000
4.98360000 -3.38063000 3.14496000
-2.80923000 -2.53781000 1.72192000
-2.83552000 -2.44849000 1.69612000
4.84134000 2.65040000 5.38876000
4.87745000 2.64809000 5.31864000
4.84497000 2.64607000 5.43127000
0.11688100 -2.83534000 9.31784000
5.38500000 -3.31778000 4.42765000
3.34506000 -3.85589000 3.45514000
5.33169000 -3.33862000 4.42319000
-1.38624000 -0.94414700 -0.15430100
-1.48743000 -1.04143000 -0.07929630
-0.35785900 2.45799000 7.66734000
-0.24350700 -3.61160000 1.04637000
2.29031000 -1.82335000 9.57656000
-0.33047000 1.26416000 0.59069800
-2.99233000 1.26397000 3.98009000
-2.82580000 -2.14091000 7.87427000
2.17908000 -1.77490000 9.61321000
2.34604000 -1.84525000 9.56046000
2.63998000 -4.85309000 1.18723000
4.50085000 -2.92663000 1.28000000
4.46036000 -2.91256000 1.22502000
4.35726000 -3.00120000 1.21503000
1.74013000 -1.12040000 -0.74247500
-3.01050000 -2.26453000 1.84868000
4.43126000 -2.88453000 1.17598000
3.91505000 -1.40347000 0.06492580
4.87566000 -3.07745000 7.44373000
2.15313000 -0.48780000 9.88580000
2.15451000 -0.44669600 9.89285000
-3.69660000 0.68969200 4.50826000
-0.32590700 -4.22992000 8.09765000
0.00122362 -1.97903000 -0.52889700
4.04571000 -3.77164000 2.70155000
-2.75928000 1.27764000 3.05374000
-3.30667000 -0.20960800 7.32402000
1.62564000 0.28542800 -0.67959700
2.99766000 -0.25878400 9.65275000
0.49347800 -3.79880000 2.56084000
0.47381100 -3.79379000 2.42930000
-1.86553000 -1.62837000 8.84354000
-1.90089000 -1.63041000 8.81365000
-1.82835000 -1.57439000 8.88480000
1.40133000 -3.54647000 8.24382000
3.55350000 2.57088000 7.21293000
3.85523000 -1.30007000 0.00616918
0.77068700 0.35336100 9.83703000
-3.24707000 -0.83260800 7.58003000
-3.25721000 -0.89361500 7.55608000
4.41526000 -1.13947000 8.73657000
2.17616000 -0.92953700 9.79286000
4.72227000 -4.28925000 5.58761000
3.44356000 -0.17784900 9.44684000
0.67636100 1.24516000 0.11291000
0.67462600 1.22301000 0.09637120
0.83438700 1.27350000 0.14073400
-1.46921000 -4.22254000 1.99048000
0.86678400 1.29277000 0.15922000
6.44135000 -1.66443000 4.89198000
2.16545000 -3.83810000 3.32784000
2.09788000 -3.82986000 3.15481000
6.54876000 -0.95151700 5.15040000
6.53293000 -1.00914000 5.17677000
0.42900700 -0.02621140 9.87378000
0.54059300 0.02164390 9.87597000
0.49224200 0.03062480 9.87381000
-3.66654000 0.68692900 3.89444000
-0.58138700 -3.77459000 3.38138000
-2.30712000 -4.08060000 3.45278000
0.48070500 0.29820800 9.81134000
1.01637000 -0.05001850 -0.81206300
-2.22630000 -3.96643000 5.74597000
2.26480000 -0.61368100 9.84963000
-1.80978000 0.65022900 8.64749000
0.83839200 -2.95376000 -0.12740100
0.76582100 -2.95054000 -0.13517700
-2.59631000 1.16775000 7.07330000
-1.75653000 1.03515000 8.45798000
3.91879000 -3.80739000 3.38492000
-1.79098000 0.68466100 8.61813000
-2.67050000 1.21430000 6.81099000
-0.05979280 -0.65041000 -0.64173100
-2.26389000 -3.90054000 5.51425000
6.25287000 -1.45667000 3.02448000
-4.05459000 -0.68865800 4.68040000
6.24429000 -1.23573000 2.85029000
6.24404000 -1.16794000 2.82029000
-2.52797000 -3.24776000 6.70183000
-2.07913000 1.76255000 5.45923000
0.18257200 -3.78336000 1.50330000
6.32586000 -1.17441000 3.04857000
6.31664000 -1.10470000 3.00499000
3.91766000 2.11098000 6.93236000
3.88023000 2.06059000 6.96927000
4.73730000 -4.32535000 5.56059000
4.74522000 -4.31281000 5.50502000
1.90260000 -1.41655000 9.76068000
1.86577000 -1.45871000 9.75206000
1.82549000 -1.45233000 9.75510000
1.76309000 -1.57105000 9.74027000
-0.79318500 -0.57102000 -0.40234900
-4.04911000 -1.05890000 4.70576000
-4.04231000 -1.06735000 4.58961000
-2.56285000 -4.76317000 4.68361000
6.24808000 -2.18434000 5.09182000
6.45422000 -1.32727000 4.20681000
5.16910000 0.82174900 7.44977000
-0.62495500 -4.96827000 8.03467000
-2.55856000 -4.77461000 4.61694000
-1.39759000 -4.05199000 2.09630000
0.54429200 0.28021300 -0.56195000
3.15072000 -3.95075000 1.70377000
-0.03387320 0.35571100 9.77626000
-0.10752100 0.30750700 9.77347000
3.64882000 -4.94036000 7.11115000
5.98077000 0.86802700 4.06113000
5.28535000 1.18243000 3.07042000
4.88485000 -2.16902000 1.17342000
1.01782000 -3.80516000 1.72383000
4.16294000 -1.36790000 0.12876400
-3.92978000 -1.00117000 5.33399000
0.99818500 -5.01214000 8.30580000
-2.88148000 0.27629700 7.94405000
1.45067000 -1.84023000 -0.68927800
5.97785000 0.66324300 6.03039000
5.94571000 0.71192000 6.05227000
6.40085000 0.48220400 4.90656000
6.41683000 0.44326400 4.87037000
-0.74387100 0.09684960 9.54503000
5.98360000 0.63622800 6.03365000
-2.88506000 0.29650800 7.90164000
-2.36218000 -4.86619000 3.74702000
0.57099600 -0.98523300 9.91380000
-0.39515800 -0.56148600 -0.61231400
-1.54771000 -3.76663000 2.67951000
-1.40818000 2.09518000 2.54806000
-1.30984000 2.09616000 2.42151000
3.16156000 -1.47042000 9.39065000
3.20724000 -1.35519000 9.39742000
-1.59332000 -3.76249000 2.83453000
3.15088000 -3.79164000 2.27863000
4.63226000 -4.06436000 3.48273000
4.59053000 -4.03945000 3.40023000
3.64391000 -3.85855000 5.06102000
2.73359000 -3.80382000 2.15571000
6.27001000 -0.78271800 6.16984000
5.57580000 0.87217800 6.94089000
5.33257000 -0.39406500 7.99763000
5.30620000 -0.37633600 8.02521000
-0.69380700 -3.84023000 3.33147000
5.69887000 0.72993900 6.90072000
5.67339000 0.77166400 6.90161000
-3.76518000 -2.29543000 4.84520000
0.70413000 -3.81292000 5.83561000
-1.54858000 -2.01370000 9.01982000
4.07686000 -0.46869400 -0.01679700
3.98132000 -0.43999600 -0.07834730
0.75292300 -3.81380000 5.94511000
-1.35320000 -2.11511000 0.08264250
2.51529000 -3.81991000 2.21194000
0.98894200 -3.80478000 6.27530000
-0.73241000 -3.84197000 3.29148000
1.80553000 -1.95368000 9.70932000
1.87036000 -1.89429000 9.70919000
1.91053000 -1.92656000 9.69946000
-1.47127000 -2.17356000 0.17746000
-1.69839000 2.34281000 2.96702000
0.06400210 -3.97511000 1.10696000
1.46363000 1.33737000 9.06082000
2.54538000 -3.82723000 2.25671000
4.39867000 -3.77060000 4.70776000
-3.06107000 -1.72745000 1.81927000
-2.92566000 -2.93621000 2.50148000
2.37410000 -4.79749000 8.23513000
2.82329000 0.25931300 -0.43173300
-1.67396000 0.81040900 8.73877000
-1.68377000 0.78939900 8.74981000
-1.70820000 0.82220600 8.73044000
-1.66485000 -0.27075100 9.07573000
5.71891000 0.02422420 7.27847000
5.71158000 0.11318800 7.25502000
3.64017000 0.51513900 0.08978420
3.72217000 0.51975500 0.13843000
3.75065000 0.43758300 0.10052500
1.36533000 0.67527000 9.67287000
-3.28684000 -3.09278000 4.61610000
5.85584000 0.62117100 2.56707000
-0.46229400 -1.72657000 9.52917000
-2.46327000 -4.95515000 4.99464000
-3.76426000 -2.08012000 5.55495000
-3.42515000 -1.99834000 2.72991000
0.58996000 0.76587900 -0.28992500
-0.11443700 -1.98588000 9.55364000
-0.13683600 -1.82803000 9.59576000
6.50758000 -0.54130800 5.15784000
1.55185000 -3.80488000 2.67410000
-2.85823000 -0.57794700 8.02983000
-2.89900000 -0.57843300 7.96935000
-2.89946000 -0.49554400 7.97166000
-1.48909000 -3.73034000 2.84339000
-1.56617000 -3.71963000 2.75275000
-0.92286500 -2.34367000 -0.06290960
-0.18057500 -2.85284000 9.22027000
-0.21430900 -2.84302000 9.23295000
2.36578000 -3.86154000 4.98775000
-2.27510000 -3.77806000 4.01033000
4.40702000 -3.68366000 3.40230000
-1.06588000 -4.04482000 1.79966000
-2.27740000 -3.80241000 3.96156000
-2.29351000 -3.87380000 3.89135000
-0.96438000 -4.02128000 1.73249000
-1.65547000 1.44136000 7.75925000
4.83617000 -4.22779000 4.31388000
4.83106000 -4.16524000 4.28932000
-2.34863000 -4.54608000 5.83007000
-2.35627000 -4.63185000 5.85751000
5.90570000 -1.63147000 6.94152000
-0.06293590 -1.97903000 -0.50804300
1.88121000 -3.21168000 0.17063900
-1.56012000 -4.32786000 7.24098000
-1.46054000 -4.32508000 7.35189000
-1.57203000 -4.35816000 7.22354000
-1.40172000 -4.36798000 7.41602000
-1.42306000 -4.30341000 7.37888000
-1.51710000 -3.71335000 2.15534000
0.60196200 2.16651000 1.24533000
2.95386000 -2.06921000 9.30136000
2.91882000 -2.19673000 9.27848000
-3.22319000 -0.31345600 1.79474000
0.69017500 -3.78353000 2.16719000
-0.42881200 -3.61274000 7.80113000
5.99609000 0.97173900 5.58766000
4.17796000 -3.69949000 2.70477000
0.90001300 -1.49461000 -0.76480500
2.45419000 -2.08879000 9.52430000
6.01468000 0.96268800 5.55035000
0.20364500 -0.69193800 9.82134000
0.08749600 -0.81284600 9.79272000
5.86245000 -2.98176000 4.77132000
0.19761100 -0.74751100 9.82290000
5.87484000 -2.96117000 4.61643000
5.88426000 -2.94330000 4.66059000
5.83235000 -3.00187000 4.67507000
3.31747000 2.45297000 1.89512000
0.43455300 -3.53968000 0.80153500
0.49567000 -3.54189000 0.78522000
-0.94095500 -3.81005000 3.14012000
4.98160000 -2.17141000 7.90465000
4.78133000 0.70399000 8.00613000
-1.48063000 -4.64068000 1.94212000
1.98576000 -3.82287000 6.97066000
5.00890000 -2.34229000 7.88735000
5.03451000 -2.29232000 7.88965000
-2.37935000 -5.06663000 4.80538000
-1.43744000 -2.83889000 0.50170200
-0.60401700 -4.46242000 1.41724000
6.34026000 -1.49918000 5.89136000
3.43340000 -0.39138000 -0.30686500
6.38113000 -1.69329000 4.16999000
-3.91459000 -0.73243200 5.62957000
2.96479000 -4.50374000 7.88546000
-2.33607000 -3.49958000 6.07042000
3.04675000 0.53576100 9.42072000
3.18713000 0.42038800 9.41987000
3.35782000 -0.52521600 -0.34458400
0.60187600 -3.32022000 8.75009000
0.53265600 -3.32074000 8.74463000
-3.86837000 -0.84786000 3.17431000
0.81437200 -3.29384000 8.82522000
-3.08178000 0.66357800 2.08841000
-1.66605000 -2.24228000 8.77698000
0.00201253 -3.75391000 1.67865000
3.38359000 -3.87353000 4.61937000
5.03206000 -2.32570000 7.85141000
5.02664000 -2.37751000 7.84524000
-3.96018000 -1.21264000 3.80657000
0.84556400 -3.31830000 8.79745000
4.52805000 -1.44433000 8.65253000
4.40104000 -4.39694000 3.02105000
-3.26729000 -2.51864000 2.76254000
5.06391000 -2.32509000 7.83671000
-2.97966000 -3.03331000 6.73996000
3.44895000 -5.17654000 7.55136000
0.14807800 -3.72339000 1.42963000
0.81030300 -2.17684000 9.67277000
1.22132000 -4.24632000 8.36614000
-2.40449000 -4.75484000 3.99616000
4.03365000 -1.89174000 0.21644000
-2.40437000 -4.70677000 4.06206000
4.02083000 -5.04370000 6.61170000
6.33660000 -0.36685200 6.21635000
6.36309000 -0.40495900 6.15724000
1.49038000 -4.19599000 8.33565000
1.46029000 -4.22871000 8.35066000
3.12824000 -3.84055000 4.62516000
0.65667200 -3.78486000 1.38104000
-2.26960000 -5.16184000 3.10678000
1.39950000 -4.20275000 8.34332000
3.96517000 -5.03422000 6.68666000
6.14951000 -1.22191000 6.40675000
1.16332000 -2.59138000 -0.41787600
1.13421000 -2.51004000 -0.46510500
-0.99899800 2.44943000 1.83627000
-1.02794000 2.45502000 1.82973000
1.49021000 -3.87157000 6.01948000
1.54085000 -3.86610000 6.13028000
0.81056000 -3.78303000 1.39081000
4.89032000 2.63639000 4.88547000
4.77890000 2.58469000 4.84547000
6.02777000 -2.46153000 3.69864000
6.47824000 -0.92784100 3.47719000
1.57141000 -3.77927000 1.20079000
1.54707000 -3.77798000 1.16041000
6.09961000 -2.53223000 5.22800000
5.11516000 0.61607900 1.34467000
-3.49250000 -0.94677300 2.38795000
2.72297000 1.79294000 1.32421000
2.61308000 1.84756000 1.30224000
4.15498000 -3.60851000 6.90384000
2.42151000 -3.81655000 2.07711000
2.66811000 -2.87695000 9.10195000
2.63718000 -2.89170000 9.09866000
2.48232000 -2.99558000 9.10738000
-2.60329000 -1.19495000 8.39572000
2.24691000 -1.72561000 9.61270000
2.30553000 -1.74753000 9.59766000
-0.62346800 -3.25015000 8.57869000
5.13596000 -2.60591000 7.53137000
4.58037000 -4.91430000 3.56925000
2.30420000 0.37105300 9.75840000
2.52167000 -2.95955000 9.10654000
2.55389000 -2.96232000 9.09665000
1.55296000 -3.78738000 1.12409000
1.55296000 -3.78738000 1.12409000
1.60162000 -3.78443000 1.15470000
0.42628500 -3.87979000 4.98298000
5.26317000 -1.99446000 7.75023000
5.28667000 -1.99933000 7.72451000
-0.63158600 -3.20380000 8.65881000
4.14152000 -3.63908000 6.86860000
2.98493000 -3.65659000 7.75159000
2.44309000 0.16060900 9.78767000
2.44277000 0.13516400 9.79121000
6.19985000 0.53407000 5.48272000
6.21893000 0.54614700 5.38291000
4.19332000 -3.57755000 6.95584000
4.33363000 -0.60716000 8.92492000
4.39010000 -0.61749800 8.88590000
3.30556000 -5.10832000 1.83148000
5.73932000 1.10239000 3.38072000
3.68497000 2.58959000 1.81517000
3.69431000 2.57485000 1.87374000
6.05826000 -2.01865000 2.95788000
6.53210000 -0.23960500 4.67928000
6.08178000 -1.94610000 2.93272000
-0.99314800 -1.41535000 9.44907000
5.84353000 0.50503300 6.67092000
-1.40586000 -2.01210000 9.08947000
6.23669000 0.57210200 5.03586000
-2.12143000 -1.85132000 8.59569000
-1.98576000 -1.80288000 8.71434000
4.36055000 -3.04222000 8.00240000
4.77773000 1.57734000 6.18044000
-2.32923000 1.02389000 1.56231000
1.93101000 -3.30698000 0.41750000
-2.06222000 -1.80623000 8.64458000
-2.03984000 0.50045300 0.61881400
3.91655000 0.63452600 0.34570500
4.04619000 0.58949000 0.39653100
3.86267000 0.64792900 0.30725100
-1.38509000 0.37455200 0.04073790
6.40637000 -1.68340000 4.57839000
3.62576000 1.35480000 1.06461000
2.63493000 -3.84510000 2.78328000
5.99513000 -1.84342000 6.63808000
5.99001000 -1.76980000 6.69206000
2.60393000 -1.21182000 9.69424000
2.60702000 -1.30513000 9.68164000
0.19917300 -0.90140900 -0.71658000
2.82429000 -1.05334000 9.65300000
4.88074000 -0.74404100 0.59965700
4.90711000 -0.79164800 0.62701300
5.66506000 -1.66339000 7.33684000
0.60471300 -1.86454000 -0.66805900
0.64314100 -1.94803000 -0.64537400
2.87891000 -1.17007000 9.61607000
4.85934000 -0.84624000 0.58977800
4.93510000 -0.83396800 0.65694400
-0.95441300 -1.83526000 -0.21757700
-0.91733400 -1.85154000 -0.23567100
-2.00649000 -0.62304800 8.95997000
-2.05974000 -0.70270900 8.91384000
-1.95946000 -0.62349800 8.99030000
4.66985000 -5.05672000 4.72133000
-2.94008000 1.20975000 3.29025000
-1.09846000 -3.80512000 4.97696000
-1.16105000 -3.79545000 5.01808000
-0.98575800 -1.93559000 -0.18036300
2.24303000 -3.78723000 1.33721000
2.24303000 -3.78723000 1.33721000
4.68936000 -5.01674000 4.80784000
5.44753000 -0.49086100 1.24164000
4.30506000 -2.60788000 8.30719000
-1.65581000 -4.62725000 7.02059000
5.46866000 -0.54153300 1.26069000
6.01322000 -1.80596000 6.63820000
4.91887000 -0.81252700 0.64828500
-2.93892000 1.10709000 6.51386000
-2.89538000 1.13248000 6.51524000
2.82021000 -2.63085000 9.18022000
5.34044000 -0.87153200 1.11622000
6.31724000 0.18657000 5.63870000
5.35948000 -0.69864900 1.12288000
3.67750000 -3.79241000 6.23892000
1.92283000 -4.45598000 0.97000400
1.84819000 -4.43404000 0.96528100
-0.12769600 -3.87012000 4.09732000
0.91439600 2.46012000 8.09058000
4.00047000 -5.16806000 6.78003000
3.17135000 -3.86377000 5.61485000
4.03872000 -4.37106000 6.94256000
4.82591000 0.50954300 1.07935000
4.85278000 0.44542400 1.04397000
4.45009000 1.13223000 8.00380000
-3.52004000 -2.71590000 5.18288000
-3.53449000 -2.67549000 5.16441000
-0.87634200 -4.28164000 7.82332000
0.72404300 -3.80453000 7.03563000
5.96347000 0.48501600 6.40842000
6.02882000 0.43717500 6.29493000
-0.25243100 2.65093000 7.79897000
-0.13074800 2.63964000 7.78351000
2.59059000 -3.87014000 5.89180000
