-20.60180000 -37.23740000 -35.96980000
-21.40460000 -37.91710000 -34.55890000
-21.83920000 -37.25620000 -35.14460000
-22.61570000 -37.97220000 -33.72870000
-23.07070000 -37.32410000 -34.31450000
-23.78480000 -38.01410000 -32.85780000
-24.27020000 -37.37570000 -33.43800000
-24.93510000 -38.05340000 -31.94480000
-25.43650000 -37.42360000 -32.51000000
-26.06840000 -38.10500000 -31.00590000
-26.59810000 -37.49180000 -31.55340000
-27.19300000 -38.19500000 -30.04270000
-27.72050000 -37.54780000 -30.55210000
-28.25700000 -38.21950000 -29.00040000
-28.80770000 -37.58180000 -29.50210000
-29.29530000 -38.25320000 -27.94010000
-29.86810000 -37.62660000 -28.42390000
-30.28470000 -38.26620000 -26.82220000
-30.87930000 -37.65250000 -27.29220000
-31.22990000 -38.27120000 -25.67140000
-31.84860000 -37.66890000 -26.12580000
-32.19320000 -38.34900000 -24.52730000
-32.78000000 -37.68250000 -24.93280000
-33.05040000 -38.35270000 -23.32090000
-33.68260000 -37.71520000 -23.71900000
-33.88280000 -38.37020000 -22.09420000
-34.49840000 -37.69970000 -22.45610000
-34.68680000 -38.42160000 -20.84870000
-35.28780000 -37.72080000 -21.16770000
-35.41510000 -38.44380000 -19.54710000
-36.03670000 -37.75610000 -19.85120000
-36.10910000 -38.48430000 -18.23080000
-36.72700000 -37.78020000 -18.50140000
-36.74840000 -38.51350000 -16.87400000
-37.36330000 -37.80030000 -17.12270000
-37.31460000 -38.53010000 -15.49550000
-37.95440000 -37.81700000 -15.71830000
-37.87430000 -38.59690000 -14.10900000
-38.49800000 -37.86820000 -14.30120000
-38.33980000 -38.61210000 -12.68170000
-38.99010000 -37.91660000 -12.85700000
-38.78220000 -38.65030000 -11.22910000
-39.42080000 -37.93900000 -11.38180000
-39.17170000 -38.67900000 -9.76187000
-39.82960000 -37.98620000 -9.89761000
-39.51110000 -38.71790000 -8.26536000
-40.17290000 -38.03340000 -8.37533000
-39.79110000 -38.74650000 -6.74945000
-40.44970000 -38.05840000 -6.83985000
-40.03330000 -38.77690000 -5.21711000
-40.71220000 -38.11250000 -5.29275000
-40.23950000 -38.81510000 -3.67663000
-40.90020000 -38.13280000 -3.73321000
-40.39530000 -38.82930000 -2.12183000
-41.06660000 -38.15840000 -2.16551000
-40.39420000 -38.73170000 -0.56107000
-41.11030000 -38.11500000 -0.58536000
-40.44360000 -38.77050000 1.00318000
-41.13900000 -38.12340000 0.99776000
-40.38470000 -38.72420000 2.56577000
-41.09040000 -38.08730000 2.57823000
-40.28760000 -38.67760000 4.11392000
-40.98600000 -38.03120000 4.14813000
-40.13800000 -38.61090000 5.66059000
-40.83640000 -37.96770000 5.71135000
-39.95600000 -38.56080000 7.19540000
-40.65400000 -37.91510000 7.27130000
-39.73040000 -38.49900000 8.73237000
-40.42650000 -37.85280000 8.82468000
-39.45330000 -38.41150000 10.24190000
-40.11130000 -37.72850000 10.35570000
-39.15220000 -38.35910000 11.74850000
-39.82890000 -37.69100000 11.88830000
-38.78640000 -38.27100000 13.23980000
-39.46070000 -37.60770000 13.39420000
-38.36220000 -38.15740000 14.70890000
-39.03910000 -37.50060000 14.88940000
-37.89540000 -38.04100000 16.17060000
-38.55570000 -37.37140000 16.36710000
-37.38050000 -37.91510000 17.62660000
-38.03220000 -37.24680000 17.84020000
-36.82350000 -37.78280000 19.07130000
-37.46640000 -37.11430000 19.30190000
-36.23080000 -37.65530000 20.49600000
-36.85950000 -36.97440000 20.74870000
-35.58250000 -37.50430000 21.88790000
-36.21130000 -36.83100000 22.16490000
-34.89450000 -37.34550000 23.24870000
-35.51670000 -36.66490000 23.54550000
-34.17240000 -37.18290000 24.57350000
-34.78470000 -36.50280000 24.89640000
-33.42070000 -37.03160000 25.87520000
-34.02160000 -36.35020000 26.22650000
-32.63620000 -36.88950000 27.16160000
-33.21530000 -36.19410000 27.52050000
-31.78930000 -36.72060000 28.38290000
-32.37310000 -36.03730000 28.77200000
-30.93140000 -36.57770000 29.58470000
-31.49340000 -35.88290000 29.99250000
-30.04290000 -36.44680000 30.75840000
-30.59570000 -35.75380000 31.17880000
-29.12730000 -36.32760000 31.90110000
-29.66460000 -35.62310000 32.33780000
-28.16710000 -36.18630000 33.00750000
-28.69290000 -35.48210000 33.46220000
-27.17500000 -36.04070000 34.08110000
-27.68490000 -35.33170000 34.55160000
-26.15400000 -35.90840000 35.13100000
-26.65020000 -35.20030000 35.61670000
-25.10850000 -35.78110000 36.15030000
-25.58710000 -35.06850000 36.64610000
-24.02740000 -35.64870000 37.13100000
-24.48660000 -34.93760000 37.64470000
-22.91390000 -35.52290000 38.08420000
-23.35550000 -34.81170000 38.61350000
-21.76820000 -35.39550000 38.99110000
-22.19320000 -34.68510000 39.54110000
-20.59550000 -35.28260000 39.84330000
-21.00580000 -34.57060000 40.41110000
-21.41340000 -33.84770000 40.96820000
-19.78720000 -34.46290000 41.21780000
-20.17600000 -33.73720000 41.79100000
-18.53710000 -34.35830000 41.97550000
-18.90970000 -33.63390000 42.55710000
-17.26690000 -34.26870000 42.69010000
-17.62060000 -33.53970000 43.28700000
-15.98510000 -34.19540000 43.36330000
-16.31270000 -33.46290000 43.96740000
-14.68020000 -34.12670000 43.99030000
-14.98160000 -33.39380000 44.60280000
-13.35540000 -34.07360000 44.57690000
-13.63800000 -33.33920000 45.19780000
-12.01950000 -34.03550000 45.12220000
-12.27410000 -33.29770000 45.75380000
-10.66360000 -34.00520000 45.61960000
-10.88680000 -33.26980000 46.25780000
-9.28716000 -33.97160000 46.05570000
-9.49222000 -33.23630000 46.70520000
-7.89933000 -33.95390000 46.45260000
-8.07939000 -33.21910000 47.10710000
-6.50708000 -33.95060000 46.80610000
-6.65803000 -33.21480000 47.46890000
-5.10190000 -33.96540000 47.10850000
-5.22488000 -33.22860000 47.77520000
-3.69002000 -33.98910000 47.34700000
-3.78323000 -33.25270000 48.01860000
-2.27383000 -34.01550000 47.53150000
-2.33797000 -33.28200000 48.20620000
-0.84666000 -34.05290000 47.67490000
-0.87891000 -33.32000000 48.35180000
0.58439000 -34.10130000 47.77340000
0.57709000 -33.36950000 48.44610000
2.02652000 -34.15810000 47.81660000
2.03667000 -33.42490000 48.49070000
3.46944000 -34.22280000 47.80950000
3.50745000 -33.49510000 48.48630000
4.92085000 -34.29620000 47.75410000
4.98931000 -33.58500000 48.43680000
6.38080000 -34.37330000 47.63720000
6.47888000 -33.68260000 48.32690000
7.84481000 -34.47590000 47.47330000
7.97399000 -33.78560000 48.15880000
9.31071000 -34.55820000 47.22990000
9.46640000 -33.86260000 47.90160000
10.78020000 -34.67230000 46.96280000
10.95790000 -33.99040000 47.64100000
12.23540000 -34.78610000 46.63140000
10.59700000 -35.34330000 46.27110000
12.02960000 -35.45790000 45.94150000
13.44960000 -35.57840000 45.56890000
11.83440000 -36.11690000 45.23450000
13.21870000 -36.23800000 44.87530000
14.61060000 -36.36380000 44.46680000
12.99310000 -36.89350000 44.17430000
14.35590000 -37.02610000 43.78360000
15.71360000 -37.16900000 43.35650000
15.98880000 -36.50680000 44.02800000
17.06110000 -37.31050000 42.88620000
17.35960000 -36.65080000 43.54850000
18.39720000 -37.43760000 42.35250000
18.71570000 -36.78200000 43.00540000
19.72050000 -37.55660000 41.76740000
20.06960000 -36.90040000 42.39670000
21.03900000 -37.67490000 41.13100000
21.40150000 -37.01760000 41.75020000
22.34000000 -37.77850000 40.45080000
22.72620000 -37.13950000 41.06920000
23.63140000 -37.89400000 39.74350000
24.03870000 -37.26430000 40.35760000
24.91290000 -38.01200000 39.00420000
25.33850000 -37.38340000 39.60380000
26.16430000 -38.10040000 38.18180000
26.60170000 -37.46810000 38.75420000
27.39540000 -38.18570000 37.30550000
27.85080000 -37.55840000 37.86570000
28.57290000 -38.20990000 36.34710000
29.05810000 -37.61640000 36.91910000
29.76420000 -38.32170000 35.40470000
30.26060000 -37.72310000 35.96080000
30.92960000 -38.40680000 34.40980000
31.43620000 -37.81320000 34.95370000
32.07170000 -38.48380000 33.38000000
32.60740000 -37.91080000 33.90620000
33.18420000 -38.53430000 32.27430000
33.74060000 -37.97560000 32.79330000
34.26740000 -38.57880000 31.13720000
34.82590000 -38.00150000 31.62340000
35.30400000 -38.59340000 29.95090000
35.89680000 -38.03190000 30.41230000
36.30250000 -38.60160000 28.73490000
36.91350000 -38.03790000 29.17890000
37.25840000 -38.60340000 27.49070000
37.88000000 -38.02950000 27.90630000
38.18650000 -38.61940000 26.22640000
38.81520000 -38.03820000 26.62550000
39.06110000 -38.61410000 24.94510000
39.70940000 -38.02970000 25.32140000
39.87590000 -38.58630000 23.64280000
40.54260000 -38.00120000 24.00080000
40.62530000 -38.54080000 22.32810000
41.30750000 -37.94290000 22.65900000
41.32620000 -38.47940000 20.99880000
42.00880000 -37.87110000 21.31000000
41.99040000 -38.42830000 19.66580000
42.67200000 -37.79760000 19.94990000
42.59170000 -38.36460000 18.32040000
43.29190000 -37.73260000 18.58060000
43.14600000 -38.29770000 16.95950000
43.86240000 -37.68170000 17.21090000
43.64870000 -38.24380000 15.59790000
44.37530000 -37.62150000 15.83440000
44.10480000 -38.18620000 14.23420000
44.84050000 -37.55030000 14.44890000
44.51990000 -38.13220000 12.86990000
45.25880000 -37.48800000 13.06700000
44.87530000 -38.08240000 11.50250000
45.63050000 -37.44640000 11.67460000
45.18040000 -38.06260000 10.13300000
45.93810000 -37.41140000 10.28350000
45.42970000 -38.03610000 8.76397000
46.20110000 -37.38850000 8.89134000
45.63270000 -38.01650000 7.38736000
46.40570000 -37.36640000 7.49743000
45.77790000 -37.96890000 6.00559000
46.56410000 -37.33490000 6.09757000
45.92830000 -37.97200000 4.61971000
46.69520000 -37.31300000 4.68923000
46.00110000 -37.93280000 3.23386000
46.78230000 -37.28710000 3.27683000
46.03260000 -37.90550000 1.84545000
46.81730000 -37.26650000 1.85855000
46.00950000 -37.91100000 0.46140000
46.79910000 -37.26350000 0.44347000
45.93450000 -37.89470000 -0.92111000
46.72210000 -37.25450000 -0.96636000
45.82540000 -37.89200000 -2.30404000
46.61810000 -37.25820000 -2.37038000
45.67460000 -37.90380000 -3.67867000
46.46980000 -37.27550000 -3.77069000
45.47580000 -37.91700000 -5.05411000
46.24500000 -37.27540000 -5.16536000
45.21820000 -37.93210000 -6.42218000
45.98510000 -37.29510000 -6.55790000
44.92640000 -37.97000000 -7.79511000
45.69680000 -37.35100000 -7.95562000
44.57120000 -37.99270000 -9.16828000
45.34030000 -37.38480000 -9.34780000
44.18310000 -38.03260000 -10.53210000
44.93980000 -37.41480000 -10.73290000
43.74110000 -38.05070000 -11.88510000
44.51080000 -37.46070000 -12.10890000
43.27120000 -38.09750000 -13.21730000
44.01480000 -37.48940000 -13.47400000
42.77050000 -38.18680000 -14.54110000
43.50700000 -37.58040000 -14.82360000
42.20170000 -38.25870000 -15.84340000
42.92650000 -37.65820000 -16.15280000
41.56860000 -38.31930000 -17.12160000
42.27450000 -37.71450000 -17.45950000
40.89600000 -38.38530000 -18.37610000
41.59120000 -37.77300000 -18.73230000
40.18110000 -38.45040000 -19.60690000
40.85440000 -37.83690000 -19.98730000
39.41690000 -38.51000000 -20.81960000
40.07710000 -37.89990000 -21.22250000
38.62800000 -38.58230000 -22.00970000
39.26990000 -37.96180000 -22.43160000
37.78510000 -38.63550000 -23.16770000
38.42390000 -38.02600000 -23.61340000
36.90990000 -38.67420000 -24.30220000
37.52870000 -38.06440000 -24.76110000
36.00610000 -38.71180000 -25.41090000
36.60440000 -38.09670000 -25.88090000
35.05430000 -38.71530000 -26.48090000
35.61780000 -38.07830000 -26.96030000
34.07430000 -38.73290000 -27.53820000
34.63370000 -38.11380000 -28.04280000
33.03740000 -38.68580000 -28.53030000
33.57050000 -38.04770000 -29.03620000
32.04820000 -38.75280000 -29.56720000
32.57930000 -38.14770000 -30.11220000
30.95170000 -38.66580000 -30.48220000
31.46900000 -38.06630000 -31.04800000
29.88910000 -38.69100000 -31.41210000
30.37750000 -38.06830000 -31.98600000
28.77790000 -38.68200000 -32.28100000
29.25450000 -38.06850000 -32.87830000
27.63040000 -38.64680000 -33.09270000
28.07830000 -38.02620000 -33.69890000
26.45710000 -38.59760000 -33.85620000
26.87670000 -37.96680000 -34.46670000
25.25780000 -38.57730000 -34.58410000
25.64880000 -37.93660000 -35.20320000
24.03260000 -38.56090000 -35.26490000
24.40640000 -37.93070000 -35.90440000
22.78490000 -38.52460000 -35.88880000
23.13700000 -37.89160000 -36.53960000
21.52040000 -38.49400000 -36.47680000
21.84350000 -37.85130000 -37.13490000
20.24030000 -38.47020000 -37.01690000
20.54810000 -37.83180000 -37.68830000
18.95390000 -38.45480000 -37.52980000
19.23990000 -37.81250000 -38.20800000
17.64670000 -38.41660000 -37.98300000
17.90390000 -37.76200000 -38.65630000
16.32340000 -38.37500000 -38.39110000
16.55990000 -37.72660000 -39.08640000
14.99890000 -38.33060000 -38.77240000
15.21540000 -37.66900000 -39.46520000
13.67140000 -38.30360000 -39.12330000
13.86190000 -37.61260000 -39.79630000
12.34400000 -38.28250000 -39.43200000
12.51640000 -37.63030000 -40.15530000
11.00560000 -38.25040000 -39.69520000
11.16300000 -37.61130000 -40.43700000
9.66142000 -38.21550000 -39.91980000
9.79555000 -37.53590000 -40.62640000
8.30859000 -38.15090000 -40.08580000
8.42493000 -37.50240000 -40.81510000
6.95483000 -38.13150000 -40.23890000
7.03572000 -37.53880000 -41.01020000
5.58849000 -38.17910000 -40.38910000
5.63163000 -37.56830000 -41.15670000
4.21351000 -38.20800000 -40.47000000
4.23645000 -37.61100000 -41.24360000
2.82736000 -38.25540000 -40.50480000
2.83184000 -37.64950000 -41.27870000
1.45398000 -38.30930000 -40.50140000
1.42766000 -37.69790000 -41.26910000
0.07278000 -38.35990000 -40.46040000
0.01895000 -37.75180000 -41.22770000
-1.29201000 -38.40350000 -40.36600000
-1.38607000 -37.79650000 -41.13980000
-2.65470000 -38.43670000 -40.21550000
-2.77644000 -37.83300000 -40.99930000
-3.99719000 -38.44700000 -39.99980000
-4.14077000 -37.86720000 -40.80310000
-5.32183000 -38.47400000 -39.74780000
-5.48787000 -37.87780000 -40.53680000
-6.64330000 -38.51440000 -39.45050000
-6.82817000 -37.91120000 -40.22690000
-7.95413000 -38.55390000 -39.08970000
-8.15300000 -37.92600000 -39.84540000
-9.24850000 -38.61760000 -38.69620000
-9.48301000 -37.98440000 -39.43130000
-10.55000000 -38.70060000 -38.26350000
-10.80740000 -38.06700000 -38.98930000
-11.84060000 -38.77460000 -37.78120000
-12.12380000 -38.14660000 -38.49600000
-13.12260000 -38.84770000 -37.25980000
-13.43450000 -38.24520000 -37.97960000
-14.39190000 -38.90550000 -36.68880000
-14.72030000 -38.28920000 -37.39190000
-15.65690000 -38.96890000 -36.09090000
-15.99950000 -38.34650000 -36.77910000
-16.89740000 -39.02420000 -35.46060000
-17.27620000 -38.41450000 -36.14240000
-18.12570000 -39.07130000 -34.78290000
-18.53210000 -38.46500000 -35.45210000
-19.32700000 -39.11380000 -34.06430000
-19.75030000 -38.49990000 -34.71600000
-20.51270000 -39.15590000 -33.30350000
-20.95040000 -38.53710000 -33.93510000
-21.67000000 -39.20230000 -32.51500000
-22.14470000 -38.58650000 -33.12280000
-22.80600000 -39.23970000 -31.66300000
-23.29600000 -38.62950000 -32.26490000
-23.92340000 -39.27990000 -30.79010000
-24.43080000 -38.67050000 -31.37420000
-25.01580000 -39.32510000 -29.87700000
-25.54970000 -38.72620000 -30.44950000
-26.09980000 -39.39240000 -28.94750000
-26.65240000 -38.81040000 -29.51040000
-27.13500000 -39.44400000 -27.96440000
-27.71040000 -38.85670000 -28.49620000
-28.12020000 -39.44570000 -26.91930000
-28.70960000 -38.85760000 -27.43750000
-29.08780000 -39.48260000 -25.86620000
-29.68380000 -38.87460000 -26.34870000
-30.05290000 -39.56790000 -24.80710000
-30.65360000 -38.93560000 -25.25300000
-30.92140000 -39.56730000 -23.66430000
-31.56210000 -38.96190000 -24.09700000
-31.74630000 -39.56100000 -22.48740000
-32.39740000 -38.95600000 -22.90720000
-32.57030000 -39.61940000 -21.33200000
-33.22520000 -38.99390000 -21.71510000
-33.31340000 -39.62340000 -20.11010000
-34.01690000 -39.03820000 -20.48250000
-34.00800000 -39.63740000 -18.87090000
-34.71290000 -39.03540000 -19.20430000
-34.68260000 -39.67510000 -17.60150000
-35.39960000 -39.08350000 -17.91220000
-35.29990000 -39.70850000 -16.30340000
-36.03540000 -39.13320000 -16.60040000
-35.86470000 -39.73130000 -14.97710000
-36.58940000 -39.13270000 -15.24160000
-36.38880000 -39.76870000 -13.63370000
-37.12490000 -39.17570000 -13.87450000
-36.87100000 -39.81230000 -12.26520000
-37.60670000 -39.21480000 -12.47300000
-37.30790000 -39.84630000 -10.86820000
-38.04850000 -39.25310000 -11.04850000
-37.68980000 -39.86700000 -9.44096000
-38.43030000 -39.27680000 -9.60292000
-38.02990000 -39.89610000 -8.00072000
-38.77130000 -39.30650000 -8.13382000
-38.30530000 -39.91680000 -6.53596000
-39.05400000 -39.33880000 -6.63812000
-38.52660000 -39.91840000 -5.04634000
-39.28370000 -39.35460000 -5.13414000
-38.70370000 -39.91250000 -3.54709000
-39.48380000 -39.38310000 -3.61043000
-38.90410000 -39.98320000 -2.04490000
-39.65240000 -39.41190000 -2.08144000
-38.94170000 -39.93180000 -0.52520000
-39.64010000 -39.29850000 -0.54026000
-38.95490000 -39.92330000 0.99473000
-39.70470000 -39.35370000 1.00007000
-38.89400000 -39.87990000 2.51550000
-39.63730000 -39.30520000 2.54271000
-38.79480000 -39.83490000 4.02396000
-39.54580000 -39.26540000 4.07456000
-38.62500000 -39.73220000 5.52325000
-39.38450000 -39.17800000 5.59459000
-38.46360000 -39.70540000 7.01235000
-39.21900000 -39.14740000 7.10828000
-38.24120000 -39.64800000 8.49684000
-38.97560000 -39.06370000 8.61572000
-37.98470000 -39.59970000 9.96501000
-38.72090000 -39.01120000 10.10790000
-37.67970000 -39.52520000 11.42670000
-38.41930000 -38.94860000 11.58750000
-37.32460000 -39.44480000 12.87620000
-38.06170000 -38.87010000 13.06050000
-36.92860000 -39.35390000 14.31450000
-37.65440000 -38.77620000 14.51920000
-36.48160000 -39.24760000 15.74140000
-37.20110000 -38.66270000 15.95980000
-35.99750000 -39.13760000 17.15230000
-36.70010000 -38.53750000 17.39110000
-35.47040000 -39.01300000 18.54980000
-36.15890000 -38.41500000 18.81070000
-34.89650000 -38.89940000 19.93480000
-35.57780000 -38.29860000 20.22600000
-34.27450000 -38.76590000 21.29030000
-34.94600000 -38.16170000 21.59980000
-33.59570000 -38.60670000 22.60470000
-34.25550000 -37.99420000 22.93540000
-32.88890000 -38.45430000 23.88820000
-33.53860000 -37.83510000 24.23580000
-32.16030000 -38.31340000 25.16130000
-32.80060000 -37.68600000 25.52040000
-31.39990000 -38.17930000 26.39870000
-32.02650000 -37.54500000 26.78010000
-30.58320000 -38.02370000 27.57890000
-31.19570000 -37.38740000 27.98670000
-29.74840000 -37.89670000 28.73730000
-30.36250000 -37.26740000 29.17970000
-28.87460000 -37.75090000 29.85200000
-29.47290000 -37.11850000 30.31280000
-27.98640000 -37.62690000 30.95410000
-28.57060000 -36.99460000 31.43740000
-27.06680000 -37.50670000 32.03480000
-27.62910000 -36.86280000 32.52990000
-26.10830000 -37.35600000 33.07230000
-26.65430000 -36.72760000 33.59700000
-25.11360000 -37.22970000 34.09030000
-25.65340000 -36.60370000 34.63550000
-24.10590000 -37.12040000 35.08310000
-24.62130000 -36.47750000 35.63710000
-23.06320000 -37.00260000 36.04570000
-23.55650000 -36.34560000 36.60600000
-21.98620000 -36.87600000 36.96840000
-22.45950000 -36.22090000 37.54290000
-20.88150000 -36.76440000 37.83560000
-21.33050000 -36.09280000 38.42550000
-19.75120000 -36.65330000 38.64850000
-20.18340000 -35.98430000 39.26270000
-18.58910000 -36.54450000 39.41700000
-19.00090000 -35.88470000 40.04440000
-19.39790000 -35.18170000 40.64000000
-17.78940000 -35.78080000 40.78390000
-18.17120000 -35.07460000 41.38300000
-16.56370000 -35.70240000 41.47730000
-16.91980000 -34.99330000 42.09460000
-15.31550000 -35.63750000 42.13140000
-15.65290000 -34.92410000 42.75400000
-14.04770000 -35.57230000 42.72950000
-14.36770000 -34.85540000 43.36830000
-12.77340000 -35.51620000 43.28760000
-13.06800000 -34.80330000 43.94340000
-11.48260000 -35.47210000 43.80740000
-11.75790000 -34.76920000 44.47790000
-10.17640000 -35.42080000 44.26890000
-10.42580000 -34.73150000 44.96440000
-8.85547000 -35.38350000 44.68280000
-9.08187000 -34.69090000 45.38380000
-7.52424000 -35.36300000 45.05220000
-7.71951000 -34.67430000 45.77330000
-6.19569000 -35.34480000 45.38050000
-6.35440000 -34.66870000 46.11610000
-4.83804000 -35.34230000 45.65920000
-4.98248000 -34.67100000 46.39780000
-3.48579000 -35.35710000 45.88400000
-3.59148000 -34.68950000 46.63130000
-2.11354000 -35.38770000 46.06640000
-2.19856000 -34.71840000 46.81710000
-0.73920000 -35.42240000 46.20330000
-0.79985000 -34.75560000 46.95680000
0.64191000 -35.46510000 46.29630000
0.60795000 -34.79950000 47.04760000
2.02471000 -35.51790000 46.35410000
2.02071000 -34.85250000 47.09940000
3.41756000 -35.58640000 46.35360000
3.44045000 -34.91220000 47.08590000
4.82010000 -35.64360000 46.28970000
4.86765000 -34.97510000 47.03070000
6.21495000 -35.71300000 46.17640000
6.29775000 -35.04640000 46.91130000
7.62209000 -35.79720000 46.01750000
7.72827000 -35.13270000 46.74990000
9.02850000 -35.89290000 45.80740000
9.16356000 -35.23540000 46.53320000
10.42740000 -36.00250000 45.55390000
8.89148000 -36.56370000 45.08730000
10.26540000 -36.65920000 44.82980000
11.62900000 -36.77420000 44.52720000
10.09260000 -37.32170000 44.10760000
11.43850000 -37.44200000 43.81520000
12.77570000 -37.54600000 43.46770000
11.24430000 -38.08100000 43.07530000
12.55770000 -38.16900000 42.72750000
13.87300000 -38.29040000 42.35000000
14.11240000 -37.67660000 43.08440000
15.17130000 -38.39360000 41.91320000
15.44160000 -37.80690000 42.65800000
16.47560000 -38.52570000 41.46260000
16.76490000 -37.94130000 42.19450000
17.76270000 -38.66560000 40.97290000
18.08090000 -38.07440000 41.67820000
19.04220000 -38.77510000 40.41220000
19.37870000 -38.18520000 41.11190000
20.31370000 -38.87190000 39.79970000
20.67580000 -38.29040000 40.47400000
21.57420000 -38.95240000 39.12400000
21.95870000 -38.38390000 39.80070000
22.81780000 -39.03170000 38.41400000
23.21940000 -38.46280000 39.08210000
24.06390000 -39.16020000 37.71540000
24.48080000 -38.58890000 38.36320000
25.28640000 -39.25880000 36.94440000
25.71820000 -38.68190000 37.57040000
26.46630000 -39.31760000 36.08950000
26.93160000 -38.76930000 36.71140000
27.63360000 -39.39470000 35.19990000
28.10490000 -38.81800000 35.78570000
28.77460000 -39.45910000 34.26350000
29.27870000 -38.91930000 34.84740000
29.91830000 -39.55600000 33.30330000
30.41750000 -38.97750000 33.85050000
31.03740000 -39.63430000 32.31350000
31.55060000 -39.05490000 32.84220000
32.09950000 -39.65460000 31.23830000
32.63010000 -39.07930000 31.75160000
33.14650000 -39.70750000 30.14060000
33.69950000 -39.12900000 30.63100000
34.15210000 -39.74120000 29.01230000
34.72250000 -39.15710000 29.47760000
35.11880000 -39.76430000 27.85160000
35.70910000 -39.17620000 28.28920000
36.02690000 -39.76060000 26.65140000
36.64360000 -39.17710000 27.06360000
36.91580000 -39.76720000 25.43350000
37.54770000 -39.18610000 25.82770000
37.75290000 -39.76780000 24.19630000
38.40110000 -39.18270000 24.56510000
38.52730000 -39.74350000 22.93550000
39.19000000 -39.15040000 23.28200000
39.25680000 -39.70620000 21.65890000
39.93330000 -39.11540000 21.98930000
39.93340000 -39.65080000 20.37400000
40.62170000 -39.06010000 20.68440000
40.57460000 -39.60530000 19.07680000
41.27420000 -39.01350000 19.36920000
41.15340000 -39.54410000 17.76890000
41.87680000 -38.96250000 18.04440000
41.68950000 -39.48970000 16.44990000
42.41830000 -38.89550000 16.70690000
42.16380000 -39.44250000 15.12540000
42.90710000 -38.83900000 15.35540000
42.60190000 -39.40010000 13.79950000
43.35040000 -38.79280000 14.01420000
42.98360000 -39.35640000 12.47890000
43.74830000 -38.74230000 12.67110000
43.32850000 -39.32240000 11.15340000
44.10240000 -38.70110000 11.32940000
43.61400000 -39.30090000 9.82630000
44.39430000 -38.68170000 9.98305000
43.85490000 -39.28090000 8.49922000
44.64030000 -38.65500000 8.62513000
44.05080000 -39.26360000 7.16096000
44.83930000 -38.63950000 7.27272000
44.21410000 -39.24850000 5.81874000
45.00930000 -38.62460000 5.91095000
44.32370000 -39.21850000 4.48125000
45.12500000 -38.59370000 4.55042000
44.38520000 -39.18130000 3.15466000
45.19350000 -38.55660000 3.19576000
44.42030000 -39.16720000 1.82698000
45.22700000 -38.53280000 1.84020000
44.39380000 -39.15280000 0.49831000
45.19840000 -38.52650000 0.48208000
44.33040000 -39.14510000 -0.82968000
45.13310000 -38.51700000 -0.87668000
44.21980000 -39.13960000 -2.16554000
45.01960000 -38.51190000 -2.23130000
44.08180000 -39.14230000 -3.49222000
44.87020000 -38.51670000 -3.58811000
43.88200000 -39.14710000 -4.81603000
44.67740000 -38.52340000 -4.93201000
43.64590000 -39.15770000 -6.13866000
44.42470000 -38.54010000 -6.28216000
43.36820000 -39.18150000 -7.46977000
44.13950000 -38.56780000 -7.63643000
43.05240000 -39.21280000 -8.79629000
43.80640000 -38.59980000 -8.98297000
42.68140000 -39.26260000 -10.11980000
43.42740000 -38.63940000 -10.32770000
42.25690000 -39.28510000 -11.41270000
42.99900000 -38.67060000 -11.65440000
41.80440000 -39.34450000 -12.69670000
42.53680000 -38.71890000 -12.95830000
41.31410000 -39.41260000 -13.96560000
42.03970000 -38.79220000 -14.25310000
40.76590000 -39.47710000 -15.21740000
41.47910000 -38.85500000 -15.52580000
40.15530000 -39.53360000 -16.44590000
40.85450000 -38.91970000 -16.77840000
39.50710000 -39.59790000 -17.65370000
40.19640000 -38.98700000 -18.01130000
38.81880000 -39.66220000 -18.84610000
39.49900000 -39.05180000 -19.22060000
38.08350000 -39.71480000 -20.00780000
38.74850000 -39.11020000 -20.40880000
37.31290000 -39.76870000 -21.15370000
37.96400000 -39.17110000 -21.57950000
36.50690000 -39.82310000 -22.27800000
37.14240000 -39.22480000 -22.72220000
35.66060000 -39.85940000 -23.37660000
36.28420000 -39.26200000 -23.83630000
34.76710000 -39.87750000 -24.44370000
35.38300000 -39.29080000 -24.92260000
33.85330000 -39.88990000 -25.48340000
34.45340000 -39.30900000 -25.98740000
32.91330000 -39.90020000 -26.49810000
33.50230000 -39.32360000 -27.01930000
31.94710000 -39.90890000 -27.48910000
32.49650000 -39.30630000 -28.01700000
30.95630000 -39.90810000 -28.44890000
31.50310000 -39.34180000 -29.01870000
29.92690000 -39.86570000 -29.34570000
30.44340000 -39.27470000 -29.92140000
28.87200000 -39.83560000 -30.19660000
29.38640000 -39.27970000 -30.81490000
27.81670000 -39.83330000 -31.03830000
28.29980000 -39.26940000 -31.66190000
26.71850000 -39.80600000 -31.82880000
27.17530000 -39.23540000 -32.46490000
25.58210000 -39.74630000 -32.54680000
26.02220000 -39.19210000 -33.21890000
24.42910000 -39.72520000 -33.25540000
24.84800000 -39.17080000 -33.92870000
23.24870000 -39.70840000 -33.91000000
23.64000000 -39.14460000 -34.59440000
22.04600000 -39.67890000 -34.50790000
22.41730000 -39.11810000 -35.20670000
20.83070000 -39.64270000 -35.06440000
21.18080000 -39.08900000 -35.78030000
19.59850000 -39.62230000 -35.58570000
19.92610000 -39.07110000 -36.31610000
18.35190000 -39.59550000 -36.06900000
18.65280000 -39.05000000 -36.81300000
17.08410000 -39.55760000 -36.51040000
17.37330000 -39.01100000 -37.25980000
15.81360000 -39.52400000 -36.90640000
16.06550000 -38.96470000 -37.66410000
14.52900000 -39.48890000 -37.27030000
14.76600000 -38.92660000 -38.03110000
13.24650000 -39.46560000 -37.59580000
13.46060000 -38.88740000 -38.35500000
11.95120000 -39.43030000 -37.88230000
12.15450000 -38.85540000 -38.65200000
10.66400000 -39.39660000 -38.12970000
10.83850000 -38.82300000 -38.91110000
9.36159000 -39.37020000 -38.35130000
9.51735000 -38.81870000 -39.15350000
8.06398000 -39.34620000 -38.53570000
8.18739000 -38.76220000 -39.31980000
6.74984000 -39.32090000 -38.67580000
6.85470000 -38.72890000 -39.46080000
5.44267000 -39.34380000 -38.79920000
5.51432000 -38.75430000 -39.58900000
4.13426000 -39.36710000 -38.88010000
4.17411000 -38.78580000 -39.67800000
2.82312000 -39.41650000 -38.91470000
2.82863000 -38.81210000 -39.69520000
1.50420000 -39.47150000 -38.91310000
1.47720000 -38.87480000 -39.69960000
0.18996000 -39.52650000 -38.86400000
0.13347000 -38.93600000 -39.65540000
-1.12715000 -39.57850000 -38.76950000
-1.20771000 -38.98550000 -39.56810000
-2.42184000 -39.62380000 -38.63030000
-2.52988000 -39.02120000 -39.41530000
-3.71773000 -39.66310000 -38.44340000
-3.84796000 -39.05170000 -39.21890000
-5.00473000 -39.70820000 -38.21640000
-5.16740000 -39.09230000 -38.98500000
-6.27811000 -39.76210000 -37.93400000
-6.46636000 -39.13960000 -38.69420000
-7.53944000 -39.81020000 -37.58750000
-7.74318000 -39.18470000 -38.34090000
-8.79522000 -39.87010000 -37.21210000
-9.02255000 -39.25120000 -37.96080000
-10.03530000 -39.92400000 -36.78040000
-10.28990000 -39.30750000 -37.51940000
-11.27350000 -39.99380000 -36.31580000
-11.55440000 -39.38580000 -37.05070000
-12.51050000 -40.06550000 -35.82060000
-12.81610000 -39.45760000 -36.54420000
-13.73290000 -40.11230000 -35.26710000
-14.06580000 -39.51650000 -35.98340000
-14.94780000 -40.18170000 -34.69360000
-15.30350000 -39.57640000 -35.39680000
-16.15210000 -40.24750000 -34.08660000
-16.52500000 -39.63840000 -34.77700000
-17.32280000 -40.29300000 -33.43970000
-17.72180000 -39.68130000 -34.11260000
-18.48160000 -40.32920000 -32.74680000
-18.90340000 -39.72200000 -33.41080000
-19.62010000 -40.37810000 -32.02320000
-20.06830000 -39.76970000 -32.67110000
-20.73850000 -40.42370000 -31.25790000
-21.20330000 -39.81390000 -31.88770000
-21.83140000 -40.45680000 -30.45900000
-22.31920000 -39.84810000 -31.05880000
-22.91410000 -40.49500000 -29.61770000
-23.42000000 -39.88820000 -30.20290000
-23.96970000 -40.54480000 -28.74420000
-24.50020000 -39.93910000 -29.30830000
-25.00410000 -40.60530000 -27.84740000
-25.54990000 -39.99890000 -28.40190000
-25.99700000 -40.64600000 -26.90770000
-26.56790000 -40.04960000 -27.43940000
-26.95330000 -40.65180000 -25.90280000
-27.53530000 -40.05500000 -26.41330000
-27.89520000 -40.69600000 -24.89100000
-28.49390000 -40.09240000 -25.38310000
-28.82160000 -40.78070000 -23.87250000
-29.44400000 -40.18280000 -24.34350000
-29.64730000 -40.76970000 -22.76830000
-30.28690000 -40.17610000 -23.22640000
-30.44140000 -40.78530000 -21.66520000
-31.09310000 -40.17500000 -22.08000000
-31.22720000 -40.82330000 -20.53230000
-31.90490000 -40.22840000 -20.93330000
-31.93800000 -40.81810000 -19.36240000
-32.62180000 -40.22450000 -19.74540000
-32.62370000 -40.84090000 -18.17040000
-33.30520000 -40.22750000 -18.51750000
-33.27830000 -40.88350000 -16.95080000
-33.98760000 -40.29190000 -17.28450000
-33.87730000 -40.90620000 -15.71490000
-34.58600000 -40.30890000 -16.01150000
-34.42730000 -40.94040000 -14.43540000
-35.14430000 -40.33280000 -14.71370000
-34.94460000 -40.97910000 -13.14830000
-35.66550000 -40.37170000 -13.38920000
-35.41650000 -41.00970000 -11.81960000
-36.13800000 -40.40880000 -12.04430000
-35.84830000 -41.03630000 -10.47400000
-36.57970000 -40.44370000 -10.67710000
-36.22230000 -41.04950000 -9.10705000
-36.95380000 -40.45920000 -9.28172000
-36.55640000 -41.07710000 -7.72066000
-37.28740000 -40.48400000 -7.86465000
-36.83570000 -41.09350000 -6.30691000
-37.57480000 -40.51400000 -6.42707000
-37.07220000 -41.10660000 -4.87028000
-37.79950000 -40.51540000 -4.96078000
-37.27810000 -41.12660000 -3.42020000
-37.99440000 -40.52650000 -3.48672000
-37.41290000 -41.12110000 -1.96325000
-38.15620000 -40.55240000 -2.00584000
-37.47380000 -41.08880000 -0.49572000
-38.20770000 -40.51600000 -0.51470000
-37.46810000 -41.04700000 0.97257000
-38.20840000 -40.48380000 0.98439000
-37.38540000 -40.97530000 2.44563000
-38.13190000 -40.41830000 2.48020000
-37.32240000 -40.97900000 3.91674000
-38.05160000 -40.40090000 3.96994000
-37.14490000 -40.87040000 5.37242000
-37.87190000 -40.29060000 5.45059000
-37.00150000 -40.87210000 6.81868000
-37.73090000 -40.28970000 6.91757000
-36.80790000 -40.85310000 8.26412000
-37.51130000 -40.23820000 8.37734000
-36.51420000 -40.74740000 9.68037000
-37.24640000 -40.17060000 9.82517000
-36.22750000 -40.68940000 11.10200000
-36.93080000 -40.08030000 11.25890000
-35.87910000 -40.59770000 12.50630000
-36.59400000 -40.01680000 12.69020000
-35.48960000 -40.50550000 13.90550000
-36.20310000 -39.92920000 14.11520000
-35.05330000 -40.39850000 15.28940000
-35.76350000 -39.82710000 15.51980000
-34.57510000 -40.28170000 16.65420000
-35.28250000 -39.70920000 16.90430000
-34.06230000 -40.16350000 18.01080000
-34.76530000 -39.58970000 18.28120000
-33.50610000 -40.03730000 19.34300000
-34.19300000 -39.46190000 19.63830000
-32.90660000 -39.92360000 20.64910000
-33.57970000 -39.33630000 20.96240000
-32.25070000 -39.78420000 21.92190000
-32.92320000 -39.19690000 22.26450000
-31.56910000 -39.64280000 23.17700000
-32.22490000 -39.04700000 23.52670000
-30.85870000 -39.51620000 24.40130000
-31.51010000 -38.91810000 24.77990000
-30.12010000 -39.39430000 25.59210000
-30.75950000 -38.79020000 25.99830000
-29.34540000 -39.27610000 26.74080000
-29.95430000 -38.63470000 27.15290000
-28.51290000 -39.11860000 27.84180000
-29.13370000 -38.51860000 28.29620000
-27.68110000 -39.01710000 28.93960000
-28.28440000 -38.39480000 29.40030000
-26.80760000 -38.88530000 30.00470000
-27.39450000 -38.25520000 30.47650000
-25.89720000 -38.73160000 31.02550000
-26.47230000 -38.09990000 31.51760000
-24.97580000 -38.60220000 32.03790000
-25.53190000 -37.96120000 32.54600000
-24.01450000 -38.45480000 32.99370000
-24.56780000 -37.84280000 33.53820000
-23.03210000 -38.33860000 33.94200000
-23.57160000 -37.74040000 34.51890000
-22.02940000 -38.22330000 34.86000000
-22.54720000 -37.61660000 35.45740000
-21.00890000 -38.12160000 35.74130000
-21.49360000 -37.49380000 36.35780000
-19.95000000 -38.01840000 36.57350000
-20.42070000 -37.39870000 37.21490000
-18.86690000 -37.92280000 37.36600000
-19.30400000 -37.28810000 38.01350000
-17.74810000 -37.80910000 38.09880000
-18.16480000 -37.18010000 38.76670000
-16.61220000 -37.70830000 38.78310000
-17.00660000 -37.09480000 39.48440000
-17.39880000 -36.45100000 40.14510000
-15.81680000 -37.00740000 40.14110000
-16.18680000 -36.36720000 40.82870000
-14.61720000 -36.94830000 40.76480000
-14.95940000 -36.29650000 41.45920000
-13.39050000 -36.87530000 41.33230000
-13.72320000 -36.23980000 42.04710000
-12.16130000 -36.81910000 41.85960000
-12.46150000 -36.17350000 42.58260000
-10.91390000 -36.77460000 42.35450000
-11.20110000 -36.13030000 43.09100000
-9.66834000 -36.73810000 42.80000000
-9.91926000 -36.07890000 43.54040000
-8.40141000 -36.70560000 43.20430000
-8.62612000 -36.04280000 43.93860000
-7.12763000 -36.68380000 43.55900000
-7.32384000 -36.01900000 44.30320000
-5.83938000 -36.67420000 43.87670000
-6.01512000 -36.00140000 44.62740000
-4.54806000 -36.67610000 44.14760000
-4.69523000 -36.00190000 44.90580000
-3.24912000 -36.68750000 44.36980000
-3.36201000 -36.01780000 45.12550000
-1.93328000 -36.71500000 44.54810000
-2.02279000 -36.04420000 45.30190000
-0.60918000 -36.75090000 44.68400000
-0.67133000 -36.08080000 45.44260000
0.71767000 -36.79210000 44.78080000
0.67614000 -36.12320000 45.54170000
2.04854000 -36.84620000 44.82860000
2.03948000 -36.18130000 45.58960000
3.38255000 -36.90830000 44.83670000
3.40349000 -36.24800000 45.59740000
4.72381000 -36.97950000 44.79130000
4.76833000 -36.31530000 45.54790000
6.07082000 -37.05630000 44.69800000
6.14601000 -36.38430000 45.43920000
7.41300000 -37.13430000 44.54650000
7.52217000 -36.46290000 45.27920000
8.75709000 -37.24020000 44.35620000
7.31232000 -37.80260000 43.79830000
8.61744000 -37.89120000 43.61310000
9.93444000 -37.98680000 43.37190000
8.49083000 -38.50760000 42.82130000
9.76661000 -38.59890000 42.59620000
11.05630000 -38.67060000 42.29410000
9.62295000 -39.19440000 41.79880000
10.88390000 -39.28170000 41.52910000
12.16160000 -39.37270000 41.20550000
12.34590000 -38.77150000 41.96890000
13.41730000 -39.46330000 40.82310000
13.63340000 -38.87410000 41.58660000
14.67000000 -39.54980000 40.40270000
14.91360000 -38.98230000 41.17450000
15.92380000 -39.67500000 39.96610000
16.18660000 -39.09060000 40.71270000
17.17380000 -39.82060000 39.51520000
17.45660000 -39.22910000 40.22760000
18.41920000 -39.92450000 38.97040000
18.71310000 -39.33810000 39.68820000
19.63690000 -40.00780000 38.39230000
19.96230000 -39.42710000 39.09490000
20.85120000 -40.08790000 37.75380000
21.20080000 -39.51190000 38.43830000
22.06660000 -40.17910000 37.07970000
22.42910000 -39.59930000 37.74850000
23.27100000 -40.30670000 36.39710000
23.66480000 -39.73170000 37.05600000
24.44900000 -40.41840000 35.68160000
24.86250000 -39.83800000 36.31660000
25.58610000 -40.47460000 34.86360000
26.02430000 -39.89500000 35.47790000
26.71280000 -40.53380000 34.00750000
27.16580000 -39.96310000 34.60750000
27.82560000 -40.59840000 33.11460000
28.29670000 -40.03270000 33.69240000
28.93760000 -40.69490000 32.19460000
29.42670000 -40.13170000 32.75380000
30.01190000 -40.76660000 31.23720000
30.52920000 -40.21010000 31.78130000
31.03570000 -40.80470000 30.21480000
31.56720000 -40.23010000 30.72720000
32.05180000 -40.87780000 29.16880000
32.59860000 -40.29520000 29.65760000
33.00140000 -40.88170000 28.06440000
33.57340000 -40.31340000 28.54290000
33.92280000 -40.90070000 26.94360000
34.52140000 -40.33700000 27.39810000
34.80830000 -40.91270000 25.79720000
35.42060000 -40.34930000 26.23120000
35.66720000 -40.94780000 24.64450000
36.28870000 -40.36440000 25.04870000
36.45750000 -40.93560000 23.45250000
37.10310000 -40.35420000 23.82980000
37.22950000 -40.93550000 22.24650000
37.87410000 -40.33450000 22.58910000
37.91590000 -40.86870000 20.99860000
38.58370000 -40.28530000 21.32690000
38.56710000 -40.82780000 19.75350000
39.25320000 -40.24260000 20.05900000
39.17700000 -40.77960000 18.49830000
39.87060000 -40.19020000 18.78470000
39.73080000 -40.71790000 17.23230000
40.43690000 -40.13060000 17.49520000
40.24330000 -40.68640000 15.96090000
40.96110000 -40.08670000 16.20330000
40.69550000 -40.63380000 14.66930000
41.42810000 -40.04040000 14.89830000
41.10460000 -40.59810000 13.37950000
41.85280000 -40.00450000 13.58970000
41.46560000 -40.57670000 12.09190000
42.22760000 -39.97030000 12.28150000
41.78270000 -40.55160000 10.80390000
42.55630000 -39.94170000 10.97820000
42.06390000 -40.54750000 9.52351000
42.83820000 -39.92540000 9.67309000
42.28960000 -40.52420000 8.23265000
43.07400000 -39.90620000 8.36409000
42.47600000 -40.50160000 6.94310000
43.26740000 -39.88720000 7.04834000
42.61950000 -40.49030000 5.64760000
43.41770000 -39.87360000 5.73103000
42.71500000 -40.46620000 4.35227000
43.51720000 -39.84320000 4.41850000
42.76490000 -40.43420000 3.06511000
43.57700000 -39.80870000 3.10732000
42.78410000 -40.41390000 1.79129000
43.60340000 -39.79170000 1.81050000
42.76330000 -40.40370000 0.51636000
43.58630000 -39.77560000 0.51141000
42.70690000 -40.39420000 -0.75858000
43.51830000 -39.76680000 -0.78907000
42.62320000 -40.40520000 -2.03236000
43.42800000 -39.77740000 -2.09257000
42.48660000 -40.40300000 -3.30817000
43.28960000 -39.77530000 -3.39742000
42.30040000 -40.39450000 -4.58134000
43.09230000 -39.77260000 -4.69831000
42.09200000 -40.40160000 -5.85683000
42.86680000 -39.78050000 -6.00050000
41.84000000 -40.42000000 -7.14088000
42.60780000 -39.80120000 -7.30578000
41.53390000 -40.44360000 -8.42097000
42.29450000 -39.83290000 -8.60704000
41.18330000 -40.48340000 -9.68373000
41.92950000 -39.87240000 -9.90081000
40.78700000 -40.52440000 -10.92970000
41.52620000 -39.91450000 -11.17580000
40.35430000 -40.59510000 -12.17170000
41.07540000 -39.96640000 -12.43570000
39.87830000 -40.64440000 -13.39200000
40.59940000 -40.03650000 -13.67900000
39.34700000 -40.71350000 -14.59770000
40.06020000 -40.10460000 -14.91140000
38.75910000 -40.76000000 -15.78080000
39.45950000 -40.14930000 -16.11240000
38.15110000 -40.84230000 -16.95300000
38.83080000 -40.22540000 -17.30710000
37.46320000 -40.87700000 -18.09000000
38.14470000 -40.27610000 -18.46810000
36.75120000 -40.91770000 -19.21550000
37.42070000 -40.32360000 -19.61350000
36.00870000 -40.97010000 -20.32400000
36.66390000 -40.37270000 -20.73620000
35.23910000 -41.02800000 -21.41050000
35.87310000 -40.42900000 -21.84690000
34.41530000 -41.05810000 -22.46670000
35.04700000 -40.46610000 -22.91870000
33.56460000 -41.07410000 -23.49540000
34.16840000 -40.47550000 -23.96660000
32.68130000 -41.07910000 -24.49370000
33.26950000 -40.48990000 -24.99080000
31.77490000 -41.07830000 -25.47330000
32.34360000 -40.49530000 -25.98990000
30.85610000 -41.10400000 -26.43390000
31.40460000 -40.51450000 -26.96820000
29.89410000 -41.09050000 -27.34120000
30.42490000 -40.50750000 -27.90490000
28.89530000 -41.04240000 -28.19630000
29.40440000 -40.44720000 -28.77120000
27.88240000 -41.01920000 -29.01810000
28.38180000 -40.43170000 -29.60670000
26.85540000 -41.00330000 -29.83080000
27.33430000 -40.41680000 -30.43110000
25.79440000 -40.95040000 -30.56290000
26.25200000 -40.37780000 -31.19920000
24.70680000 -40.88270000 -31.25000000
25.13450000 -40.29660000 -31.88850000
23.61190000 -40.87960000 -31.93750000
24.01560000 -40.29450000 -32.59060000
22.47730000 -40.84240000 -32.54630000
22.85890000 -40.26950000 -33.22330000
21.31440000 -40.79250000 -33.11340000
21.68520000 -40.22950000 -33.79980000
20.14220000 -40.75880000 -33.64720000
20.48280000 -40.19760000 -34.35460000
18.95360000 -40.73810000 -34.15700000
19.27510000 -40.17600000 -34.86790000
17.75290000 -40.71580000 -34.61640000
18.05320000 -40.16500000 -35.34670000
16.53490000 -40.68520000 -35.04670000
16.81140000 -40.12250000 -35.77600000
15.30780000 -40.65600000 -35.42630000
15.55980000 -40.08770000 -36.16190000
14.06740000 -40.63840000 -35.77680000
14.29880000 -40.06640000 -36.52170000
12.82170000 -40.62130000 -36.08780000
13.03170000 -40.04850000 -36.84250000
11.57370000 -40.59260000 -36.36100000
11.76460000 -40.02490000 -37.12440000
10.32480000 -40.56220000 -36.59370000
10.48920000 -39.99140000 -37.36900000
9.06328000 -40.53810000 -36.79950000
9.21867000 -39.95490000 -37.57290000
7.80866000 -40.51370000 -36.96640000
7.92730000 -39.92960000 -37.75620000
6.55406000 -40.50220000 -37.09900000
6.65324000 -39.91550000 -37.89290000
5.30645000 -40.51860000 -37.20380000
5.37470000 -39.93580000 -38.00530000
4.04459000 -40.55600000 -37.28450000
4.09362000 -39.96940000 -38.08630000
2.79870000 -40.60050000 -37.31750000
2.80363000 -40.01430000 -38.12370000
1.53851000 -40.64910000 -37.31820000
1.52118000 -40.06470000 -38.12000000
0.28173000 -40.69930000 -37.25900000
0.23014000 -40.12090000 -38.07080000
-0.96967000 -40.75030000 -37.17200000
-1.04667000 -40.16430000 -37.96950000
-2.22509000 -40.80360000 -37.04610000
-2.32496000 -40.21270000 -37.83460000
-3.46601000 -40.84900000 -36.86680000
-3.59265000 -40.26050000 -37.65570000
-4.69883000 -40.90350000 -36.65020000
-4.85639000 -40.31260000 -37.43330000
-5.92157000 -40.95480000 -36.36670000
-6.10256000 -40.36850000 -37.15870000
-7.12455000 -41.00090000 -36.04950000
-7.33756000 -40.41620000 -36.82140000
-8.32609000 -41.05740000 -35.67670000
-8.56065000 -40.47180000 -36.45280000
-9.51773000 -41.11280000 -35.27020000
-9.77952000 -40.52250000 -36.02740000
-10.70650000 -41.17710000 -34.82920000
-10.99420000 -40.59510000 -35.58030000
-11.89050000 -41.24110000 -34.35120000
-12.20730000 -40.66520000 -35.09270000
-13.07000000 -41.29280000 -33.82260000
-13.40140000 -40.71920000 -34.55710000
-14.23390000 -41.35930000 -33.26850000
-14.59690000 -40.78000000 -33.98730000
-15.38570000 -41.41960000 -32.67700000
-15.77040000 -40.84960000 -33.39560000
-16.51690000 -41.46640000 -32.04610000
-16.92660000 -40.89450000 -32.75010000
-17.62670000 -41.50070000 -31.38750000
-18.05430000 -40.92190000 -32.07330000
-18.71590000 -41.55100000 -30.69080000
-19.16780000 -40.98010000 -31.37240000
-19.78510000 -41.58690000 -29.96460000
-20.26720000 -41.02240000 -30.62070000
-20.84160000 -41.62050000 -29.20440000
-21.33860000 -41.04920000 -29.84060000
-21.88260000 -41.67660000 -28.42210000
-22.39420000 -41.08100000 -29.01630000
-22.89750000 -41.71340000 -27.58490000
-23.43230000 -41.13570000 -28.17050000
-23.89390000 -41.76640000 -26.71780000
-24.44840000 -41.20090000 -27.29210000
-24.83450000 -41.75380000 -25.79660000
-25.42840000 -41.23280000 -26.37020000
-25.75190000 -41.77810000 -24.84730000
-26.35910000 -41.22620000 -25.38040000
-26.65550000 -41.83260000 -23.88970000
-27.28150000 -41.27770000 -24.39580000
-27.51550000 -41.86470000 -22.88160000
-28.18250000 -41.35580000 -23.39220000
-28.31360000 -41.87530000 -21.84280000
-28.98990000 -41.35040000 -22.31320000
-29.08690000 -41.89680000 -20.76680000
-29.77280000 -41.35800000 -21.21970000
-29.83350000 -41.92730000 -19.68560000
-30.54290000 -41.40160000 -20.12140000
-30.52850000 -41.93910000 -18.56830000
-31.24450000 -41.39900000 -18.97210000
-31.19050000 -41.95330000 -17.42680000
-31.91340000 -41.41060000 -17.80100000
-31.82370000 -41.98690000 -16.26410000
-32.56400000 -41.46040000 -16.61580000
-32.39600000 -41.99520000 -15.06180000
-33.14610000 -41.47010000 -15.39140000
-32.93590000 -42.03010000 -13.83820000
-33.69330000 -41.51070000 -14.14750000
-33.44610000 -42.06240000 -12.60290000
-34.21080000 -41.55080000 -12.89010000
-33.92040000 -42.10840000 -11.34250000
-34.68090000 -41.58380000 -11.59370000
-34.35160000 -42.15210000 -10.05500000
-35.10740000 -41.60950000 -10.26900000
-34.70680000 -42.14700000 -8.73149000
-35.47500000 -41.61870000 -8.92747000
-35.03440000 -42.16620000 -7.39893000
-35.80730000 -41.64260000 -7.56429000
-35.31920000 -42.16860000 -6.05166000
-36.09210000 -41.65340000 -6.17712000
-35.55790000 -42.17720000 -4.66144000
-36.33160000 -41.66890000 -4.77002000
-35.76270000 -42.19760000 -3.26756000
-36.53230000 -41.68290000 -3.34621000
-35.90920000 -42.21390000 -1.86706000
-36.67290000 -41.68890000 -1.91881000
-35.98200000 -42.19760000 -0.46101000
-36.73650000 -41.65470000 -0.47993000
-35.98310000 -42.16130000 0.95410000
-36.72810000 -41.60900000 0.96367000
-35.93740000 -42.12390000 2.36747000
-36.66280000 -41.55380000 2.40911000
-35.85550000 -42.09950000 3.79099000
-36.59180000 -41.54270000 3.85014000
-35.69580000 -42.01570000 5.19360000
-36.40800000 -41.42850000 5.28345000
-35.53860000 -42.00140000 6.60169000
-36.27310000 -41.44350000 6.70782000
-35.32140000 -41.95340000 8.00208000
-36.05240000 -41.39120000 8.12936000
-35.05790000 -41.88570000 9.38676000
-35.79210000 -41.32660000 9.53347000
-34.76290000 -41.80810000 10.76230000
-35.49390000 -41.24780000 10.93390000
-34.43240000 -41.72130000 12.12820000
-35.15570000 -41.16160000 12.31880000
-34.05770000 -41.63200000 13.48790000
-34.78000000 -41.07920000 13.69510000
-33.63380000 -41.53000000 14.82230000
-34.34780000 -40.97760000 15.05910000
-33.16280000 -41.40220000 16.14550000
-33.86980000 -40.84700000 16.40410000
-32.66800000 -41.28870000 17.45490000
-33.35810000 -40.72120000 17.73500000
-32.12840000 -41.17630000 18.74360000
-32.81490000 -40.60340000 19.03670000
-31.53290000 -41.03900000 19.99090000
-32.22150000 -40.48250000 20.31760000
-30.90650000 -40.90770000 21.21310000
-31.57390000 -40.34100000 21.56660000
-30.25050000 -40.78360000 22.41460000
-30.90170000 -40.21150000 22.79880000
-29.55970000 -40.66550000 23.59400000
-30.20520000 -40.09020000 24.00420000
-28.83690000 -40.55560000 24.74460000
-29.47340000 -39.97210000 25.16950000
-28.07670000 -40.43730000 25.85310000
-28.70610000 -39.85180000 26.28760000
-27.28240000 -40.30060000 26.92270000
-27.90270000 -39.72560000 27.38810000
-26.46800000 -40.18750000 27.97710000
-27.07180000 -39.60420000 28.46030000
-25.61590000 -40.06140000 29.00630000
-26.21480000 -39.48200000 29.51190000
-24.74240000 -39.93310000 29.99760000
-25.33120000 -39.36040000 30.53240000
-23.84910000 -39.82570000 30.96960000
-24.40580000 -39.21240000 31.50960000
-22.94430000 -39.74650000 31.91880000
-23.47240000 -39.09140000 32.45140000
-21.98800000 -39.59400000 32.78560000
-22.51600000 -38.97210000 33.36880000
-21.02580000 -39.48310000 33.64840000
-21.53090000 -38.85660000 34.26070000
-20.04530000 -39.37440000 34.47650000
-20.52480000 -38.74500000 35.11200000
-19.04120000 -39.26940000 35.27200000
-19.49260000 -38.64030000 35.92290000
-18.00910000 -39.18670000 36.02890000
-18.42870000 -38.53750000 36.69320000
-16.94400000 -39.07100000 36.72380000
-17.34470000 -38.42920000 37.40890000
-15.86660000 -38.99800000 37.40500000
-16.23460000 -38.35250000 38.09370000
-14.75650000 -38.92430000 38.04450000
-15.10900000 -38.28360000 38.75350000
-15.45770000 -37.63070000 39.43730000
-13.95350000 -38.22630000 39.35080000
-14.27580000 -37.57210000 40.05230000
-12.77670000 -38.17210000 39.89550000
-13.07790000 -37.52090000 40.61760000
-11.59550000 -38.13540000 40.41280000
-11.86670000 -37.47350000 41.13790000
-10.40450000 -38.10260000 40.89650000
