-5.23642000 -0.54241100 -7.11923000
-4.69122000 -0.87805700 -7.45105000
-5.22878000 -0.86916400 -7.10398000
-5.71524000 -0.87624800 -6.69936000
-5.22256000 -1.19697000 -7.09217000
-5.70368000 -1.20526000 -6.68704000
-6.18015000 -1.22557000 -6.27360000
-5.69719000 -1.53500000 -6.68060000
-6.16913000 -1.55906000 -6.26698000
-6.59213000 -1.59333000 -5.80671000
-6.14680000 -1.89220000 -6.25348000
-6.56419000 -1.93285000 -5.79431000
-6.95145000 -1.97521000 -5.32218000
-6.52225000 -2.27096000 -5.77685000
-6.90756000 -2.31798000 -5.30513000
-7.25853000 -2.36274000 -4.82424000
-6.85801000 -2.65788000 -5.28433000
-7.20096000 -2.70489000 -4.79556000
-7.49515000 -2.75123000 -4.27995000
-7.14445000 -3.04270000 -4.76384000
-7.42864000 -3.08625000 -4.23799000
-7.67041000 -3.13131000 -3.69579000
-7.36190000 -3.41799000 -4.19589000
-7.61467000 -3.46971000 -3.66041000
-7.80417000 -3.51631000 -3.11508000
-7.55183000 -3.80788000 -3.63581000
-7.73713000 -3.85614000 -3.09433000
-7.90362000 -3.89456000 -2.55427000
-7.63649000 -4.18661000 -3.07035000
-7.80751000 -4.22979000 -2.53795000
-7.95742000 -4.26453000 -2.01013000
-7.70152000 -4.56202000 -2.52360000
-7.84937000 -4.59942000 -1.99951000
-7.93854000 -4.61145000 -1.46496000
-7.93854000 -4.61145000 -1.46496000
-7.84937000 -4.59942000 -1.99951000
-7.70970000 -4.92081000 -1.97956000
-7.79654000 -4.93174000 -1.45053000
-7.87784000 -4.94216000 -0.92354500
-8.02226000 -4.62150000 -0.93224500
-7.62732000 -5.23684000 -1.42700000
-7.70531000 -5.24795000 -0.90672800
-7.74448000 -5.24803000 -0.38383800
-7.52263000 -5.54563000 -0.88327700
-7.56204000 -5.53980000 -0.36173900
-7.58077000 -5.53816000 0.21231000
-7.53960000 -5.52403000 0.79214800
-7.36550000 -5.82720000 -0.33575700
-7.37820000 -5.82512000 0.21967900
-7.34738000 -5.81198000 0.78670600
-7.34738000 -5.81198000 0.78670600
-7.17357000 -6.11105000 0.23094400
-7.14390000 -6.09537000 0.78703900
-7.14390000 -6.09537000 0.78703900
-7.08150000 -6.07941000 1.35440000
-6.92687000 -6.37219000 0.79209900
-6.87056000 -6.35620000 1.33280000
-6.77170000 -6.35636000 1.81685000
-6.64092000 -6.62972000 1.32614000
-6.55043000 -6.62084000 1.79005000
-6.42917000 -6.62977000 2.26244000
-6.30093000 -6.86420000 1.76399000
-6.20577000 -6.88641000 2.22609000
-6.05558000 -6.89456000 2.68607000
-5.98034000 -7.14069000 2.19492000
-5.81545000 -7.12130000 2.63441000
-5.61218000 -7.10282000 3.06520000
-5.56322000 -7.33703000 2.58531000
-5.37661000 -7.32813000 3.00436000
-5.16573000 -7.32006000 3.41862000
-5.12769000 -7.53557000 2.93808000
-4.92487000 -7.52752000 3.33479000
-4.69744000 -7.51828000 3.71784000
-4.68056000 -7.72609000 3.23696000
-4.46215000 -7.72078000 3.59669000
-4.21801000 -7.70231000 3.92643000
-4.22765000 -7.92121000 3.46116000
-3.99532000 -7.91121000 3.77078000
-3.73794000 -7.89311000 4.05355000
-3.76511000 -8.10528000 3.60574000
-3.51927000 -8.09541000 3.86860000
-3.25415000 -8.08840000 4.10054000
-3.29378000 -8.27776000 3.66999000
-3.04277000 -8.28077000 3.88789000
-2.77407000 -8.28090000 4.08470000
-2.83201000 -8.46427000 3.66966000
-2.57452000 -8.46455000 3.85130000
-2.31064000 -8.47979000 4.01898000
-2.39686000 -8.68055000 3.62585000
-2.14489000 -8.69954000 3.78275000
-1.88679000 -8.72415000 3.92581000
-1.99212000 -8.93532000 3.55309000
-1.74214000 -8.96134000 3.68207000
-1.48530000 -8.97587000 3.79808000
-1.58894000 -9.08593000 3.37638000
-1.34163000 -9.07988000 3.47226000
-1.09059000 -9.07234000 3.56444000
-1.09059000 -9.07234000 3.56444000
-1.34163000 -9.07988000 3.47226000
-1.22937000 -9.32879000 3.25476000
-0.99138300 -9.31075000 3.33922000
-0.75003400 -9.30157000 3.41162000
-0.83421100 -9.06732000 3.64466000
-0.97684600 -9.68336000 3.34584000
-0.73498400 -9.68014000 3.41611000
-0.49218700 -9.67940000 3.47561000
-0.67927800 -9.95023000 3.25349000
-0.44465400 -9.95169000 3.30031000
-0.20666000 -9.94589000 3.33071000
-0.36349900 -9.97376000 2.94630000
-0.14860400 -9.99111000 2.97593000
0.06687410 -9.98587000 2.99646000
-0.09577410 -9.79500000 2.66772000
0.09953820 -9.80064000 2.68159000
0.29463600 -9.80404000 2.68781000
0.13813600 -9.43346000 2.53813000
0.32501900 -9.45143000 2.53755000
0.51001000 -9.47735000 2.51703000
0.35097300 -9.16375000 2.28539000
0.52346500 -9.18556000 2.27968000
0.69443200 -9.19935000 2.26594000
-0.34778400 -9.13369000 2.22971000
-0.17324000 -9.13499000 2.24341000
-0.24267300 -9.41615000 2.52148000
-0.43363800 -9.41511000 2.48972000
-0.62270500 -9.41793000 2.44558000
-0.52860100 -9.13439000 2.20584000
-0.80874900 -9.42846000 2.38719000
-0.70772000 -9.14161000 2.16491000
-0.98637100 -9.43941000 2.30768000
-0.88345600 -9.15227000 2.11191000
-1.15780000 -9.44664000 2.21707000
-1.05105000 -9.16222000 2.03499000
-1.32174000 -9.45120000 2.11367000
-1.20732000 -9.17008000 1.94605000
-1.22832000 -9.80390000 2.31783000
-1.39785000 -9.79640000 2.21566000
-1.55855000 -9.79326000 2.10264000
-1.47095000 -9.45754000 1.99218000
-1.35248000 -9.16764000 1.83731000
-1.71455000 -9.79132000 1.98163000
-1.61665000 -9.46240000 1.86916000
-1.48670000 -9.16728000 1.71727000
-1.86012000 -9.79575000 1.84978000
-1.75620000 -9.46582000 1.73804000
-1.61362000 -9.17003000 1.59254000
-1.99262000 -9.80368000 1.70266000
-1.88474000 -9.46631000 1.59740000
-1.73503000 -9.17204000 1.46058000
-2.11741000 -9.80789000 1.54748000
-2.23574000 -9.93898000 1.92346000
-2.36965000 -9.94954000 1.75159000
-2.49301000 -9.95547000 1.56798000
-2.22656000 -9.81077000 1.37769000
-2.60164000 -9.95360000 1.37309000
-2.32268000 -9.81211000 1.19724000
-2.69742000 -9.94997000 1.16406000
-2.91332000 -9.94268000 1.58440000
-3.02077000 -9.95036000 1.36157000
-3.11578000 -9.96117000 1.11615000
-2.77884000 -9.94611000 0.94428000
-3.19710000 -9.97201000 0.84132400
-2.84207000 -9.94639000 0.70752000
-3.25227000 -9.97527000 0.54849100
-2.88247000 -9.94497000 0.46482000
-2.88247000 -9.94497000 0.46482000
-3.25227000 -9.97527000 0.54849100
-3.27267000 -9.97775000 0.25552500
-2.89850000 -9.94289000 0.22101000
-3.24157000 -9.96280000 -0.02948880
-2.89552000 -9.93654000 -0.01900050
-3.21068000 -9.96752000 -0.29394200
-2.87470000 -9.93290000 -0.25259900
-3.18821000 -9.97107000 -0.54096200
-2.84810000 -9.92719000 -0.47467700
-2.52434000 -9.79792000 -0.41947600
-2.80880000 -9.92346000 -0.68910800
-2.49564000 -9.79746000 -0.61339500
-2.32041000 -9.50090000 -0.58246400
-2.44583000 -9.80616000 -0.79605700
-2.28448000 -9.50591000 -0.75795100
-2.09071000 -9.23419000 -0.72135600
-2.14213000 -9.23257000 -0.56217400
-2.38599000 -9.81634000 -0.97495400
-2.23001000 -9.51766000 -0.92606900
-2.05082000 -9.24472000 -0.87902700
-2.16166000 -9.52706000 -1.08516000
-1.98917000 -9.24967000 -1.02786000
2.02830000 -9.17435000 -1.20907000
2.19527000 -9.49150000 -1.31217000
2.28713000 -9.49680000 -1.16718000
2.09974000 -9.16514000 -1.06890000
2.36598000 -9.50211000 -1.01639000
2.16593000 -9.16334000 -0.92710800
2.44423000 -9.84616000 -1.25531000
2.53216000 -9.85287000 -1.09225000
2.53216000 -9.85287000 -1.09225000
2.61232000 -9.85457000 -0.92834200
2.36598000 -9.50211000 -1.01639000
2.16593000 -9.16334000 -0.92710800
2.86932000 -9.98658000 -1.24974000
2.95842000 -9.98296000 -1.05948000
3.03412000 -9.98287000 -0.86381800
3.32272000 -9.99215000 -1.19860000
3.40913000 -9.98968000 -0.97683900
3.47509000 -9.98994000 -0.74683200
3.09597000 -9.98874000 -0.65622900
3.52383000 -9.97873000 -0.50624500
3.14433000 -9.99161000 -0.44801600
3.55200000 -9.96320000 -0.25692500
3.17849000 -9.98900000 -0.23002100
3.57260000 -9.95611000 -0.00476193
3.19234000 -9.98804000 -0.00725056
3.58014000 -9.95065000 0.25449900
3.68599000 -9.62879000 -0.00682772
3.67293000 -9.60792000 0.27802700
3.65017000 -9.59178000 0.55374500
3.66416000 -9.22351000 0.30741200
3.64823000 -9.17428000 0.62988800
3.59321000 -9.19206000 0.87903500
3.84192000 -8.99084000 0.75583000
3.78786000 -8.99518000 0.96857700
3.71919000 -8.99344000 1.19427000
3.71919000 -8.99344000 1.19427000
3.78786000 -8.99518000 0.96857700
4.03146000 -8.83771000 1.06766000
3.96197000 -8.82806000 1.30299000
3.88426000 -8.82144000 1.54124000
3.64182000 -8.99172000 1.42107000
4.21877000 -8.67356000 1.41518000
4.12954000 -8.65379000 1.66496000
4.03367000 -8.64609000 1.91374000
4.38151000 -8.48583000 1.79112000
4.28023000 -8.47804000 2.05246000
4.16111000 -8.46408000 2.30765000
4.52379000 -8.29439000 2.18906000
4.40077000 -8.28499000 2.46187000
4.25782000 -8.26939000 2.72433000
4.63274000 -8.08931000 2.60944000
4.48227000 -8.07324000 2.89157000
4.31645000 -8.06052000 3.15988000
4.10177000 -8.25929000 2.98087000
4.13114000 -8.04725000 3.42075000
3.92971000 -8.25228000 3.22540000
3.92828000 -8.03463000 3.66201000
4.32578000 -7.83011000 3.60947000
4.11214000 -7.81230000 3.86478000
3.88558000 -7.80356000 4.10734000
3.71059000 -8.02356000 3.89293000
3.63879000 -7.79512000 4.33431000
3.47743000 -8.01377000 4.11071000
3.37624000 -7.78911000 4.54534000
3.80231000 -7.56748000 4.55379000
3.52279000 -7.55837000 4.77145000
3.21878000 -7.55695000 4.97319000
3.66126000 -7.32795000 4.99660000
3.34510000 -7.33220000 5.20701000
3.01010000 -7.33882000 5.40029000
3.45861000 -7.08432000 5.42075000
3.11385000 -7.09883000 5.62479000
2.74852000 -7.11321000 5.80332000
3.22244000 -6.86767000 5.85544000
2.83999000 -6.88715000 6.04410000
2.43094000 -6.87781000 6.18066000
2.91048000 -6.61782000 6.24175000
2.49523000 -6.63694000 6.40883000
2.06664000 -6.65879000 6.55367000
2.54650000 -6.37182000 6.61035000
2.10335000 -6.39090000 6.75780000
1.65049000 -6.40468000 6.87785000
2.13237000 -6.11331000 6.94815000
1.66476000 -6.12618000 7.06916000
1.19217000 -6.13789000 7.17010000
1.67605000 -5.84082000 7.25223000
1.19275000 -5.85018000 7.35314000
0.70645900 -5.85298000 7.40113000
1.19219000 -5.55440000 7.52555000
0.69470200 -5.55368000 7.57248000
0.20179400 -5.57292000 7.59784000
0.68577300 -5.25264000 7.74090000
0.18300100 -5.27155000 7.77093000
-0.32117200 -5.28372000 7.74127000
0.16660000 -4.95678000 7.91717000
-0.34580900 -4.96847000 7.88646000
-0.85787700 -4.98533000 7.84954000
-0.36688200 -4.64650000 8.01663000
-0.88808000 -4.66306000 7.98069000
-1.40325000 -4.67409000 7.89796000
-0.91756900 -4.34039000 8.10768000
-1.44216000 -4.34808000 8.01578000
-1.96696000 -4.36255000 7.90558000
-1.96696000 -4.36255000 7.90558000
-1.44216000 -4.34808000 8.01578000
-1.47933000 -4.02183000 8.12719000
-2.01541000 -4.03778000 8.01621000
-2.54670000 -4.04800000 7.86213000
-2.48691000 -4.36864000 7.75268000
-2.06048000 -3.70749000 8.10204000
-2.59997000 -3.71919000 7.94042000
-3.14453000 -3.72725000 7.74329000
-2.65196000 -3.39059000 8.01081000
-3.20554000 -3.40475000 7.80625000
-3.77576000 -3.41592000 7.54929000
-3.26749000 -3.08587000 7.87536000
-3.83556000 -3.10444000 7.60562000
-4.39874000 -3.12928000 7.28821000
-3.88944000 -2.78842000 7.66033000
-4.44533000 -2.81382000 7.34877000
-4.97272000 -2.83973000 6.99295000
-4.48868000 -2.49085000 7.40053000
-5.01064000 -2.51093000 7.04448000
-5.49974000 -2.52871000 6.65477000
-5.04589000 -2.17849000 7.09302000
-5.53378000 -2.19166000 6.70378000
-6.00035000 -2.20047000 6.30803000
-5.55998000 -1.85119000 6.74487000
-6.02456000 -1.85216000 6.34783000
-6.45299000 -1.85124000 5.92981000
-6.03486000 -1.50139000 6.37582000
-6.46359000 -1.49708000 5.95306000
-6.84684000 -1.49827000 5.47622000
-6.46860000 -1.14474000 5.96725000
-6.85822000 -1.14719000 5.48592000
-7.21652000 -1.14939000 4.97240000
-6.86783000 -0.79747800 5.49513000
-7.24051000 -0.80062500 4.98599000
-7.57455000 -0.82074900 4.43475000
-7.23788000 -0.45137100 4.98334000
-7.57965000 -0.47060100 4.43352000
-7.91225000 -0.49472400 3.87953000
-7.56574000 -0.12100000 4.41976000
-7.90328000 -0.14550500 3.86854000
-8.15983000 -0.17243600 3.28710000
-7.89551000 0.20248000 3.85669000
-8.15565000 0.17639500 3.27573000
-8.36745000 0.14961600 2.69508000
-8.14207000 0.52348600 3.25987000
-8.35665000 0.49939000 2.68296000
-8.51882000 0.47957800 2.10469000
-8.32421000 0.84624600 2.66137000
-8.49102000 0.82765400 2.08895000
-8.62989000 0.81882200 1.51635000
-8.46169000 1.17520000 2.06701000
-8.59822000 1.16220000 1.49972000
-8.68090000 1.17226000 0.89601800
-8.71663000 0.82917200 0.90511300
-8.56417000 1.50437000 1.44727000
-8.63640000 1.51954000 0.88802500
-8.63640000 1.51954000 0.88802500
-8.67136000 1.54043000 0.29668100
-8.68090000 1.17226000 0.89601800
-8.57340000 1.86349000 0.88938400
-8.60995000 1.88676000 0.29688200
-8.62085000 1.92553000 -0.29683300
-8.53201000 2.22595000 0.29908600
-8.53330000 2.27570000 -0.29682700
-8.47687000 2.29915000 -0.78902800
-8.42190000 2.61991000 -0.29684000
-8.36062000 2.64925000 -0.76721300
-8.30078000 2.67700000 -1.27666000
-8.21397000 2.99407000 -0.73404200
-8.14756000 3.01923000 -1.23251000
-7.99682000 3.03055000 -1.85884000
-7.83420000 3.38816000 -1.80352000
-7.67999000 3.38504000 -2.48492000
-7.66426000 3.73621000 -1.75401000
-7.48136000 3.69696000 -2.48598000
-7.25571000 3.68210000 -3.02647000
-7.25571000 3.68210000 -3.02647000
-7.48136000 3.69696000 -2.48598000
-7.23597000 3.97057000 -2.47850000
-7.01588000 3.94610000 -2.99260000
-6.78667000 3.94590000 -3.48895000
-7.03224000 3.68939000 -3.55232000
-6.74325000 4.17556000 -2.94034000
-6.52543000 4.18324000 -3.41190000
-6.23589000 4.13323000 -3.83077000
-6.24855000 4.38830000 -3.31698000
-5.97939000 4.35734000 -3.72181000
-5.69817000 4.33757000 -4.10554000
-5.71671000 4.56222000 -3.59921000
-5.44308000 4.54399000 -3.95904000
-5.15392000 4.52119000 -4.29801000
-5.19037000 4.75993000 -3.80736000
-4.91834000 4.74921000 -4.12945000
-4.63549000 4.73295000 -4.43731000
-4.78181000 5.06931000 -4.05791000
-4.50392000 5.05840000 -4.35002000
-4.21076000 5.05268000 -4.62238000
-4.42709000 5.41467000 -4.31823000
-4.13953000 5.40871000 -4.58364000
-3.83804000 5.40723000 -4.83257000
-4.08681000 5.77003000 -4.56255000
-3.79161000 5.76816000 -4.80657000
-3.48011000 5.76632000 -5.03067000
-3.74291000 6.12967000 -4.77437000
-3.43698000 6.12882000 -4.99497000
-3.11858000 6.12919000 -5.19623000
-3.40151000 6.49396000 -4.96623000
-3.08724000 6.49617000 -5.16526000
-2.76348000 6.49997000 -5.34652000
-3.05468000 6.86286000 -5.12819000
-2.73486000 6.86981000 -5.30784000
-2.40162000 6.87605000 -5.46043000
-2.70617000 7.24024000 -5.26470000
-2.37712000 7.25020000 -5.41603000
-2.03854000 7.25680000 -5.54605000
-2.39288000 7.62447000 -5.46092000
-2.05073000 7.63034000 -5.59151000
-1.70226000 7.63736000 -5.70622000
5.57074000 7.66126000 -2.01849000
5.58640000 7.28045000 -1.96240000
5.46210000 7.29172000 -2.28237000
5.45413000 7.66358000 -2.33318000
5.32135000 7.30327000 -2.60074000
5.31545000 7.68324000 -2.64762000
5.51881000 6.91706000 -2.24369000
5.37673000 6.93038000 -2.57128000
5.20874000 6.93851000 -2.88775000
5.44786000 6.56642000 -2.54810000
5.28150000 6.57599000 -2.87721000
5.09191000 6.58221000 -3.19465000
5.34932000 6.21735000 -2.86374000
5.16163000 6.22346000 -3.19038000
4.95553000 6.22704000 -3.50715000
5.23610000 5.86846000 -3.18975000
5.02774000 5.87010000 -3.51278000
4.80057000 5.87013000 -3.82200000
5.09901000 5.51538000 -3.51775000
4.86975000 5.51226000 -3.83314000
4.62150000 5.50686000 -4.13201000
4.95886000 5.16259000 -3.85979000
4.70438000 5.14882000 -4.16233000
4.43919000 5.14065000 -4.45456000
4.88499000 4.85459000 -4.27722000
4.61592000 4.84111000 -4.58617000
4.32419000 4.82677000 -4.87193000
4.84466000 4.63999000 -4.76785000
4.53666000 4.63563000 -5.06857000
4.20420000 4.62883000 -5.34467000
4.75461000 4.44750000 -5.27677000
4.40789000 4.44071000 -5.56620000
4.04054000 4.43856000 -5.82892000
4.60886000 4.22987000 -5.77439000
4.22730000 4.22845000 -6.05206000
3.82367000 4.22413000 -6.30292000
4.39807000 3.98415000 -6.25004000
3.98190000 3.97985000 -6.51294000
3.55215000 3.97547000 -6.75077000
4.12806000 3.70940000 -6.69737000
3.68651000 3.70860000 -6.94864000
3.23809000 3.71928000 -7.18974000
3.68651000 3.70860000 -6.94864000
3.80346000 3.41634000 -7.11568000
3.33990000 3.42445000 -7.36123000
3.23809000 3.71928000 -7.18974000
2.83977000 3.39546000 -7.52188000
2.75354000 3.68392000 -7.34415000
3.43007000 3.11532000 -7.50906000
2.91820000 3.09470000 -7.67877000
2.40734000 3.09697000 -7.86511000
2.98706000 2.77857000 -7.80669000
2.46794000 2.78171000 -8.00134000
1.93538000 2.76458000 -8.11726000
2.52193000 2.45766000 -8.11559000
1.98152000 2.44476000 -8.24178000
1.43636000 2.43711000 -8.35218000
2.01942000 2.11252000 -8.33216000
1.46826000 2.10295000 -8.44522000
0.92151400 2.09844000 -8.53768000
1.49803000 1.76271000 -8.51617000
0.94766200 1.75764000 -8.61742000
0.38615300 1.74373000 -8.62009000
0.97098800 1.41094000 -8.66440000
0.40702600 1.39905000 -8.67539000
-0.15401100 1.40332000 -8.73303000
0.42949300 1.05569000 -8.74416000
-0.13498900 1.05959000 -8.80374000
-0.69855600 1.05384000 -8.71463000
-0.11435900 0.71036200 -8.85154000
-0.68200900 0.71035500 -8.78012000
-1.25929000 0.71795900 -8.71760000
-0.66255100 0.36162800 -8.81185000
-1.24114000 0.37172800 -8.75401000
-1.82197000 0.37683700 -8.64311000
-1.22240000 0.02324300 -8.77297000
-1.80356000 0.03231720 -8.65849000
-2.38793000 0.03692010 -8.49856000
-1.79036000 -0.31157100 -8.67061000
-2.37780000 -0.30238600 -8.50876000
-2.97137000 -0.29041500 -8.30763000
-2.36896000 -0.64014000 -8.50407000
-2.96744000 -0.62283800 -8.30083000
-3.55920000 -0.59836000 -8.06046000
-2.96527000 -0.95373500 -8.28849000
-3.55712000 -0.92693600 -8.04666000
-4.14305000 -0.90005300 -7.77988000
-3.55731000 -1.25472000 -8.03206000
-4.14256000 -1.22838000 -7.76836000
-4.68920000 -1.20556000 -7.43965000
-4.14411000 -1.55692000 -7.75445000
-4.68591000 -1.53388000 -7.42582000
-5.21525000 -1.52627000 -7.07977000
-4.67573000 -1.86284000 -7.40055000
-5.20621000 -1.85732000 -7.06925000
-5.68173000 -1.86583000 -6.66763000
-5.18233000 -2.18936000 -7.04020000
-5.65106000 -2.19648000 -6.64365000
-6.11139000 -2.22588000 -6.23507000
-5.61365000 -2.52912000 -6.61326000
-6.06570000 -2.55949000 -6.21226000
-6.47396000 -2.60620000 -5.75747000
-6.01376000 -2.89460000 -6.18376000
-6.41619000 -2.93804000 -5.73292000
-6.79628000 -2.99207000 -5.25476000
-6.35279000 -3.26694000 -5.70308000
-6.73231000 -3.32086000 -5.22371000
-7.08502000 -3.37474000 -4.72895000
-6.66700000 -3.64527000 -5.19003000
-7.01409000 -3.70105000 -4.68918000
-7.31071000 -3.75126000 -4.16824000
-6.92054000 -4.01807000 -4.64120000
-7.24457000 -4.08531000 -4.14853000
-7.44206000 -4.13383000 -3.60675000
-7.13548000 -4.40893000 -4.11334000
-7.34952000 -4.46435000 -3.58619000
-7.53378000 -4.51483000 -3.05011000
-7.53378000 -4.51483000 -3.05011000
-7.34952000 -4.46435000 -3.58619000
-7.21280000 -4.77484000 -3.54632000
-7.39879000 -4.83162000 -3.01812000
-7.56468000 -4.88137000 -2.49893000
-7.70152000 -4.56202000 -2.52360000
-7.23305000 -5.13174000 -2.97470000
-7.39920000 -5.18511000 -2.46293000
-7.54610000 -5.22840000 -1.95053000
-7.22757000 -5.48261000 -2.42266000
-7.37660000 -5.53071000 -1.91796000
-7.45109000 -5.53507000 -1.39933000
-7.17417000 -5.80705000 -1.87334000
-7.26242000 -5.82263000 -1.36672000
-7.33110000 -5.83140000 -0.85782200
-7.06358000 -6.10049000 -1.32868000
-7.12999000 -6.10938000 -0.83113300
-7.16417000 -6.10727000 -0.33064800
-6.91841000 -6.38015000 -0.79907900
-6.95408000 -6.37984000 -0.31220200
-6.95817000 -6.38570000 0.24315100
-6.92687000 -6.37219000 0.79209900
-6.73759000 -6.64857000 -0.29257700
-6.73977000 -6.65603000 0.25362600
-6.69892000 -6.64212000 0.79412300
-6.69892000 -6.64212000 0.79412300
-6.50939000 -6.91543000 0.25820100
-6.44493000 -6.88226000 0.78861200
-6.44493000 -6.88226000 0.78861200
-6.38386000 -6.87131000 1.32174000
-6.20930000 -7.13524000 0.78224200
-6.14610000 -7.12618000 1.29607000
-6.06619000 -7.12155000 1.74244000
-5.89422000 -7.36030000 1.27488000
-5.81880000 -7.35516000 1.72018000
-5.71385000 -7.34641000 2.15945000
-5.56142000 -7.56716000 1.70234000
-5.45370000 -7.55788000 2.12822000
-5.30758000 -7.54757000 2.53727000
-5.19111000 -7.76011000 2.09276000
-5.04561000 -7.74493000 2.48392000
-4.87482000 -7.73349000 2.86566000
-4.79017000 -7.93800000 2.41973000
-4.62263000 -7.92424000 2.77782000
-4.43689000 -7.92233000 3.12917000
-4.37202000 -8.10705000 2.67813000
-4.19000000 -8.10237000 3.00480000
-3.98897000 -8.10848000 3.31691000
-3.94080000 -8.27302000 2.87309000
-3.74650000 -8.27693000 3.15865000
-3.53222000 -8.28128000 3.42913000
-3.50922000 -8.45228000 2.99975000
-3.30608000 -8.46081000 3.24847000
-3.07659000 -8.46395000 3.47045000
-3.07830000 -8.63538000 3.06087000
-2.86309000 -8.64345000 3.26261000
-2.63621000 -8.66437000 3.45426000
-2.67604000 -8.86057000 3.06554000
-2.45734000 -8.87942000 3.23958000
-2.23062000 -8.90499000 3.40369000
-2.29298000 -9.10245000 3.02522000
-2.06983000 -9.10789000 3.16257000
-1.83228000 -9.10276000 3.27674000
-1.83228000 -9.10276000 3.27674000
-2.06983000 -9.10789000 3.16257000
-1.91277000 -9.31036000 2.92720000
-1.69036000 -9.32035000 3.04533000
-1.45940000 -9.32894000 3.15085000
-1.58894000 -9.08593000 3.37638000
-1.67277000 -9.67619000 3.04706000
-1.44964000 -9.68601000 3.16002000
-1.21575000 -9.68770000 3.25982000
-1.36666000 -9.94798000 3.01198000
-1.14406000 -9.94166000 3.11121000
-0.91495600 -9.94278000 3.19086000
-0.99692800 -9.97147000 2.77527000
-0.78841700 -9.96980000 2.84702000
-0.57768800 -9.96967000 2.90317000
-0.68003400 -9.79108000 2.55704000
-0.48579600 -9.79423000 2.59955000
-0.29035200 -9.79733000 2.63498000
-0.05104810 -9.42203000 2.53585000
0.00397903 -9.13847000 2.25912000
0.17783000 -9.14977000 2.27649000
-0.86749900 -9.79832000 2.48978000
-1.19902000 -9.97344000 2.68740000
-1.05023000 -9.80368000 2.40885000
-1.40008000 -9.96986000 2.59041000
-1.58354000 -9.94695000 2.90339000
-1.79547000 -9.94095000 2.78226000
-1.58632000 -9.94705000 2.48191000
-1.99359000 -9.93773000 2.65009000
-1.76748000 -9.92856000 2.35978000
-2.17616000 -9.93042000 2.50042000
-1.93411000 -9.92602000 2.22511000
-2.34687000 -9.92843000 2.33904000
-2.08951000 -9.92923000 2.08125000
-2.51009000 -9.92994000 2.16969000
-2.47167000 -9.65711000 2.46537000
-2.63830000 -9.65335000 2.28996000
-2.79936000 -9.65553000 2.10994000
-2.65966000 -9.93963000 1.98852000
-2.93821000 -9.65868000 1.91478000
-2.79463000 -9.94368000 1.79319000
-3.06489000 -9.66681000 1.71289000
-3.00226000 -9.29091000 1.97518000
-3.13558000 -9.29926000 1.79001000
-3.24856000 -9.31471000 1.59936000
-3.18679000 -9.67867000 1.50531000
-3.33964000 -9.32546000 1.42048000
-3.28268000 -9.66204000 1.26453000
-3.41061000 -9.31802000 1.14953000
-3.38241000 -9.66666000 0.98210900
-3.47838000 -9.36134000 0.66989300
-3.47645000 -9.69744000 0.63332600
-3.47645000 -9.69744000 0.63332600
-3.47838000 -9.36134000 0.66989300
-3.53181000 -9.41612000 0.26165300
-3.53335000 -9.77821000 0.27847100
-3.53471000 -9.47052000 -0.11663900
-3.50793000 -9.79011000 -0.05527630
-3.49927000 -9.48795000 -0.38324900
-3.45077000 -9.78779000 -0.33654000
-3.45705000 -9.48975000 -0.62493700
-3.45483000 -9.80877000 -0.59906700
-3.40195000 -9.48437000 -0.86663900
-3.40099000 -9.81238000 -0.85110500
-3.14343000 -9.97234000 -0.77750600
-3.32536000 -9.80118000 -1.09292000
-3.08066000 -9.97163000 -1.00471000
-2.75586000 -9.92438000 -0.89176800
-3.00462000 -9.97442000 -1.22312000
-2.68671000 -9.93586000 -1.09016000
-2.91568000 -9.98031000 -1.43485000
-2.60471000 -9.94516000 -1.28310000
-2.31156000 -9.82696000 -1.14279000
-2.50757000 -9.95102000 -1.46549000
-2.22512000 -9.83209000 -1.30901000
-2.08582000 -9.53533000 -1.24079000
-2.13108000 -9.82775000 -1.46741000
-1.99459000 -9.53587000 -1.38588000
-1.86147000 -9.27729000 -1.31695000
-1.92307000 -9.26316000 -1.17245000
-1.89195000 -9.53181000 -1.52409000
-1.75782000 -9.27013000 -1.43540000
1.84943000 -9.17821000 -1.47502000
1.72942000 -9.17370000 -1.58149000
1.86777000 -9.47531000 -1.70694000
1.99054000 -9.48034000 -1.58685000
2.09815000 -9.48609000 -1.45272000
1.94415000 -9.17729000 -1.34407000
2.11114000 -9.83001000 -1.68403000
2.22854000 -9.84009000 -1.54743000
2.34067000 -9.84294000 -1.40471000
2.52305000 -9.97049000 -1.76664000
2.64739000 -9.97572000 -1.60331000
2.76411000 -9.98759000 -1.42896000
2.97255000 -9.99452000 -1.80829000
3.09957000 -9.99644000 -1.61533000
3.21522000 -9.98892000 -1.40847000
2.86932000 -9.98658000 -1.24974000
3.26270000 -9.70566000 -1.69353000
3.37105000 -9.69128000 -1.47527000
3.37105000 -9.69128000 -1.47527000
3.47157000 -9.68379000 -1.25398000
3.21522000 -9.98892000 -1.40847000
3.36689000 -9.28657000 -1.47338000
3.45931000 -9.27955000 -1.25071000
3.52657000 -9.28491000 -1.02065000
3.55049000 -9.68055000 -1.02283000
3.58971000 -9.29550000 -0.79343600
3.60471000 -9.67391000 -0.78299000
3.62331000 -9.28104000 -0.57411100
3.64723000 -9.65931000 -0.54060800
3.65239000 -9.27170000 -0.34013800
3.67999000 -9.64289000 -0.28450800
3.66231000 -9.26642000 -0.01021060
3.87446000 -9.01744000 -0.35373200
3.88136000 -9.01789000 0.00306439
3.88786000 -9.00426000 0.36452600
3.88786000 -9.00426000 0.36452600
3.88136000 -9.01789000 0.00306439
4.16398000 -8.84707000 0.04428970
4.14631000 -8.83642000 0.42706100
4.09251000 -8.83117000 0.83243700
3.84192000 -8.99084000 0.75583000
4.41519000 -8.67454000 0.49410100
4.34601000 -8.66853000 0.91126200
4.28008000 -8.66503000 1.16238000
4.60841000 -8.50482000 0.99328300
4.54304000 -8.50272000 1.25643000
4.46769000 -8.49427000 1.52241000
4.80014000 -8.32413000 1.34690000
4.72060000 -8.31570000 1.63061000
4.63261000 -8.30688000 1.91207000
4.97254000 -8.12736000 1.73079000
4.88288000 -8.12233000 2.03081000
4.76380000 -8.10036000 2.32358000
5.11493000 -7.90841000 2.13333000
4.99421000 -7.89220000 2.44637000
4.85747000 -7.87901000 2.75164000
5.22098000 -7.67542000 2.55808000
5.07634000 -7.65993000 2.87839000
4.90652000 -7.64105000 3.19497000
4.69735000 -7.86067000 3.04980000
4.72049000 -7.62290000 3.49988000
4.51907000 -7.84757000 3.33559000
4.52129000 -7.60486000 3.79266000
4.92631000 -7.40074000 3.66120000
4.71461000 -7.37341000 3.96630000
4.48270000 -7.35577000 4.25626000
4.29777000 -7.58434000 4.06275000
4.22963000 -7.33897000 4.52225000
4.05754000 -7.57224000 4.31624000
3.95539000 -7.33063000 4.76958000
4.40507000 -7.10788000 4.72604000
4.11070000 -7.09104000 4.97670000
3.79117000 -7.07660000 5.20161000
4.25344000 -6.83669000 5.17000000
3.91579000 -6.81823000 5.39815000
3.57244000 -6.82993000 5.62870000
4.04740000 -6.57458000 5.60673000
3.68948000 -6.58648000 5.84358000
3.30851000 -6.59896000 6.05291000
3.78075000 -6.30902000 6.02741000
3.38763000 -6.32688000 6.24634000
2.97555000 -6.34600000 6.43638000
3.45486000 -6.04245000 6.42501000
3.02877000 -6.06624000 6.62133000
2.58837000 -6.09379000 6.79861000
3.07543000 -5.77961000 6.79893000
2.62508000 -5.81016000 6.98133000
2.15651000 -5.82974000 7.12998000
2.65373000 -5.51298000 7.14218000
2.17352000 -5.53310000 7.29031000
1.68527000 -5.54495000 7.41784000
2.19289000 -5.23611000 7.45168000
1.69679000 -5.24899000 7.58373000
1.19386000 -5.25802000 7.69752000
1.70753000 -4.94434000 7.73275000
1.19666000 -4.94931000 7.84460000
0.68065000 -4.94055000 7.88809000
1.20191000 -4.63355000 7.97682000
0.67794700 -4.62334000 8.02257000
0.15430900 -4.63873000 8.05440000
0.67834900 -4.30546000 8.15346000
0.14617100 -4.31929000 8.18809000
-0.38412900 -4.32372000 8.14223000
-0.38412900 -4.32372000 8.14223000
0.14617100 -4.31929000 8.18809000
0.13916900 -3.99229000 8.30164000
-0.40086300 -3.99917000 8.25756000
-0.94443100 -4.01536000 8.22304000
-0.91756900 -4.34039000 8.10768000
-0.41698100 -3.66897000 8.35216000
-0.96900600 -3.68291000 8.30995000
-1.51458000 -3.69203000 8.22012000
-0.99245700 -3.35072000 8.39139000
-1.54841000 -3.36078000 8.30144000
-2.10479000 -3.37736000 8.17947000
-1.58198000 -3.03085000 8.37561000
-2.14900000 -3.04925000 8.25863000
-2.70365000 -3.06360000 8.07860000
-2.18960000 -2.72022000 8.32335000
-2.75400000 -2.73668000 8.13879000
-3.32375000 -2.76365000 7.93075000
-2.79911000 -2.40720000 8.18190000
-3.37261000 -2.43710000 7.97302000
-3.93706000 -2.46600000 7.70803000
-3.41865000 -2.10835000 8.01043000
-3.98288000 -2.13883000 7.75417000
-4.52928000 -2.16270000 7.44836000
-4.01903000 -1.80579000 7.78577000
-4.55850000 -1.82748000 7.48243000
-5.07194000 -1.84132000 7.13089000
-4.57620000 -1.48718000 7.50446000
-5.08559000 -1.50034000 7.15552000
-5.57110000 -1.50652000 6.77143000
-5.09045000 -1.15658000 7.17478000
-5.57149000 -1.15937000 6.79303000
-6.03220000 -1.15032000 6.39168000
-5.56161000 -0.81169600 6.81129000
-6.02855000 -0.80188000 6.40968000
-6.46576000 -0.79390100 5.97408000
-6.01319000 -0.45597400 6.41608000
-6.45053000 -0.44648400 5.97206000
-6.85651000 -0.44916700 5.49057000
-6.42629000 -0.10213100 5.96350000
-6.83561000 -0.10260200 5.48087000
-7.22135000 -0.10310800 4.97348000
-6.81465000 0.24268700 5.47354000
-7.20589000 0.24358100 4.96691000
-7.56134000 0.22755400 4.41333000
-7.17664000 0.58634700 4.95507000
-7.53623000 0.57219100 4.39848000
-7.86970000 0.54804000 3.83912000
-7.49416000 0.91402800 4.38158000
-7.83149000 0.89154000 3.82007000
-8.10693000 0.86724300 3.23786000
-7.79595000 1.23360000 3.81120000
-8.07468000 1.20979000 3.22246000
-8.29394000 1.19011000 2.64062000
-8.02613000 1.54810000 3.20803000
-8.25016000 1.52824000 2.62212000
-8.41824000 1.51397000 2.04102000
-8.19570000 1.86139000 2.60683000
-8.36110000 1.84424000 2.02365000
-8.50201000 1.84648000 1.44435000
-8.29229000 2.17187000 2.01326000
-8.42549000 2.17766000 1.44554000
-8.49798000 2.19424000 0.89813200
-8.57340000 1.86349000 0.88938400
-8.33414000 2.50015000 1.42557000
-8.41197000 2.51386000 0.90895300
-8.41197000 2.51386000 0.90895300
-8.44162000 2.55411000 0.30579000
-8.49798000 2.19424000 0.89813200
-8.30814000 2.81308000 0.93054000
-8.33229000 2.87319000 0.31688100
-8.29002000 2.96267000 -0.29648700
-8.24138000 3.18552000 0.35112600
-8.19359000 3.33110000 -0.20451800
-8.18001000 3.51897000 0.41503300
-8.20502000 3.71262000 -0.14958100
-8.13031000 3.77385000 0.56118300
-8.08165000 3.91093000 0.00370158
-7.33012000 4.41087000 0.44922200
-7.09515000 4.48589000 0.47639600
-7.10425000 4.48803000 0.30135300
-7.32965000 4.40907000 0.22893300
-6.91571000 4.64479000 0.46633700
-6.93076000 4.64618000 0.25888000
-6.94504000 4.62903000 -0.27988500
-6.88037000 4.61014000 -0.81044800
-6.77603000 4.81284000 0.19326700
-6.76065000 4.78485000 -0.35925000
-6.64876000 4.76146000 -0.88195300
-6.63540000 4.95426000 -0.46094500
-6.45183000 4.90056000 -0.95620300
-6.21571000 5.03762000 -1.44533000
-6.45856000 4.79869000 -1.39920000
-6.74925000 4.62173000 -1.35767000
-6.22765000 4.87772000 -1.89476000
-6.56308000 4.64145000 -1.88572000
-6.86162000 4.43850000 -1.89123000
-6.38589000 4.62432000 -2.36902000
-6.67820000 4.42503000 -2.41507000
-6.96013000 4.20623000 -2.45550000
-7.13914000 4.21148000 -1.92365000
-7.41235000 4.00204000 -1.81407000
-7.66426000 3.73621000 -1.75401000
-6.47345000 4.40274000 -2.87946000
-6.18869000 4.60008000 -2.80747000
-5.96619000 4.57871000 -3.21544000
-5.91104000 4.79824000 -2.73605000
-5.70034000 4.77473000 -3.11539000
-5.45442000 4.77220000 -3.47443000
-5.50331000 5.09843000 -3.07386000
-5.28514000 5.08974000 -3.41811000
-5.04249000 5.08034000 -3.74761000
-5.19213000 5.44868000 -3.41666000
-4.95503000 5.43570000 -3.73490000
-4.70031000 5.42405000 -4.03597000
-4.88246000 5.79371000 -3.72814000
-4.63279000 5.78271000 -4.02190000
-4.36695000 5.77497000 -4.30032000
-4.57081000 6.14120000 -4.00878000
-4.31074000 6.13495000 -4.28113000
-4.03349000 6.13129000 -4.53562000
-4.26004000 6.49561000 -4.26184000
-3.98768000 6.49365000 -4.51303000
-3.70282000 6.49328000 -4.74996000
-3.94537000 6.85544000 -4.49070000
-3.66353000 6.85627000 -4.72246000
-3.36519000 6.85843000 -4.93322000
-3.62759000 7.21818000 -4.69402000
-3.33488000 7.22127000 -4.90498000
-3.02753000 7.22929000 -5.09710000
-3.34601000 7.57751000 -4.93666000
-3.04147000 7.58931000 -5.12932000
-2.72283000 7.60280000 -5.30345000
5.82171000 7.66835000 -1.12267000
5.85848000 7.21191000 -0.99997300
5.78927000 7.24202000 -1.31609000
5.76270000 7.67050000 -1.41161000
5.69446000 7.26861000 -1.64801000
5.67879000 7.66351000 -1.71151000
5.76727000 6.87657000 -1.56724000
5.64892000 6.89940000 -1.91315000
5.84790000 6.51274000 -1.49704000
5.72740000 6.53108000 -1.86385000
5.59485000 6.55137000 -2.20992000
5.80951000 6.17745000 -1.81676000
5.67227000 6.19565000 -2.17635000
5.51913000 6.20834000 -2.52500000
5.75188000 5.84646000 -2.14535000
5.59806000 5.85718000 -2.50615000
5.42676000 5.86465000 -2.85383000
5.67345000 5.50891000 -2.48659000
5.50158000 5.51460000 -2.84464000
5.30895000 5.51621000 -3.18789000
5.58972000 5.17062000 -2.84298000
5.39733000 5.17147000 -3.19458000
5.18605000 5.16830000 -3.53392000
5.57345000 4.88118000 -3.25410000
5.35785000 4.87203000 -3.60681000
5.12671000 4.86084000 -3.94437000
5.63269000 4.65732000 -3.74670000
5.39082000 4.65225000 -4.10387000
5.12857000 4.64856000 -4.44465000
5.66170000 4.46281000 -4.26934000
5.38053000 4.45492000 -4.62271000
5.07741000 4.44703000 -4.95957000
5.62030000 4.23845000 -4.79147000
5.30267000 4.23375000 -5.14272000
4.97746000 4.24710000 -5.47950000
5.51188000 3.98361000 -5.30516000
5.17536000 3.99359000 -5.65129000
4.79400000 3.98313000 -5.95893000
5.34882000 3.70806000 -5.80075000
4.96036000 3.70619000 -6.12183000
4.55552000 3.70973000 -6.42392000
4.96036000 3.70619000 -6.12183000
5.10636000 3.40233000 -6.25697000
4.69522000 3.41271000 -6.57449000
4.55552000 3.70973000 -6.42392000
4.25842000 3.41588000 -6.85725000
4.12806000 3.70940000 -6.69737000
4.81828000 3.09848000 -6.70348000
4.37923000 3.10987000 -7.00218000
3.90957000 3.10942000 -7.26086000
4.47842000 2.78451000 -7.11816000
3.99911000 2.78742000 -7.38028000
3.50893000 2.79421000 -7.63222000
4.07596000 2.45514000 -7.47897000
3.57545000 2.46308000 -7.73175000
3.04925000 2.45484000 -7.91880000
3.63308000 2.12605000 -7.81511000
3.10017000 2.12069000 -8.00345000
2.56804000 2.12527000 -8.20825000
3.13933000 1.78055000 -8.06805000
2.60270000 1.78483000 -8.27274000
2.05125000 1.77386000 -8.40108000
2.63000000 1.44080000 -8.32396000
2.07789000 1.42942000 -8.45124000
1.52346000 1.41640000 -8.56432000
2.10589000 1.08633000 -8.51851000
1.55266000 1.07284000 -8.63614000
0.99586100 1.06574000 -8.72480000
1.57862000 0.72554300 -8.69793000
1.01951000 0.71898500 -8.78479000
0.45202200 0.70906500 -8.80063000
1.03904000 0.36559300 -8.81479000
0.47319300 0.35767600 -8.83259000
-0.09267540 0.35807100 -8.88737000
0.49310200 0.00311907 -8.85215000
-0.07272480 0.00327157 -8.89324000
-0.64298100 0.01110490 -8.83050000
-0.05463200 -0.35191600 -8.89369000
-0.62443100 -0.34113700 -8.83487000
-1.20518000 -0.32557400 -8.78274000
-0.60757200 -0.69352400 -8.82379000
-1.19012000 -0.67336600 -8.77413000
-1.77746000 -0.65453100 -8.66494000
-1.17916000 -1.02093000 -8.76760000
-1.76889000 -0.99686700 -8.65855000
-2.36445000 -0.97577300 -8.49717000
-1.76560000 -1.33798000 -8.65000000
-2.36316000 -1.31002000 -8.48709000
-2.96681000 -1.28342000 -8.27867000
-2.36231000 -1.64276000 -8.46116000
-2.96762000 -1.61114000 -8.25681000
-3.56101000 -1.58200000 -8.01656000
-2.96905000 -1.93708000 -8.21963000
-3.56026000 -1.90836000 -7.98449000
-4.14086000 -1.88530000 -7.72769000
-3.55537000 -2.23379000 -7.93764000
-4.13295000 -2.21378000 -7.68993000
-4.65975000 -2.19325000 -7.36500000
-4.12028000 -2.54286000 -7.64064000
-4.64091000 -2.52509000 -7.32614000
-5.15495000 -2.52231000 -7.00349000
-4.61632000 -2.85786000 -7.27558000
-5.12902000 -2.85944000 -6.97211000
-5.56730000 -2.86324000 -6.57329000
-5.09314000 -3.19809000 -6.92797000
-5.52087000 -3.20032000 -6.53309000
-5.95973000 -3.23146000 -6.14695000
-5.47691000 -3.53994000 -6.48890000
-5.90572000 -3.56780000 -6.10332000
-6.28913000 -3.59535000 -5.66232000
-5.84761000 -3.90165000 -6.04717000
-6.22076000 -3.92303000 -5.60277000
-6.58665000 -3.96490000 -5.13929000
-6.13607000 -4.24373000 -5.52471000
-6.49105000 -4.28250000 -5.07214000
-6.81118000 -4.33041000 -4.58606000
-6.81118000 -4.33041000 -4.58606000
-6.49105000 -4.28250000 -5.07214000
-6.38631000 -4.60009000 -4.99874000
-6.69693000 -4.64442000 -4.52838000
-7.01458000 -4.72977000 -4.07148000
-7.13548000 -4.40893000 -4.11334000
-6.56044000 -4.94999000 -4.45093000
-6.84677000 -5.02364000 -3.99566000
-7.04903000 -5.07116000 -3.48946000
-6.67495000 -5.31871000 -3.91408000
-6.88315000 -5.37001000 -3.43052000
-7.06209000 -5.42721000 -2.92732000
-6.70639000 -5.66285000 -3.36425000
-6.87977000 -5.71340000 -2.87297000
-7.04740000 -5.77161000 -2.37712000
-6.68729000 -5.99001000 -2.80745000
-6.84996000 -6.04417000 -2.32122000
-6.97410000 -6.08056000 -1.82449000
-6.64667000 -6.30791000 -2.26092000
-6.77189000 -6.35006000 -1.77454000
-6.86047000 -6.37274000 -1.28569000
-6.56428000 -6.60886000 -1.72262000
-6.65457000 -6.63866000 -1.24147000
-6.70707000 -6.64880000 -0.76443200
-6.42314000 -6.87671000 -1.20347000
-6.46632000 -6.88565000 -0.73446500
-6.51608000 -6.91496000 -0.28007800
-6.23043000 -7.12390000 -0.71462500
-6.29482000 -7.17847000 -0.26588800
-6.25628000 -7.14995000 0.25883200
-6.20930000 -7.13524000 0.78224200
-6.01769000 -7.37463000 -0.26321200
-5.99885000 -7.37549000 0.26046800
-5.95883000 -7.37221000 0.77257100
-5.95883000 -7.37221000 0.77257100
-5.73956000 -7.59323000 0.25535200
-5.69430000 -7.58786000 0.76417000
-5.69430000 -7.58786000 0.76417000
-5.63290000 -7.57647000 1.25869000
-5.42889000 -7.79242000 0.75899100
-5.36494000 -7.77329000 1.25913000
-5.29712000 -7.76177000 1.68591000
-5.10163000 -7.96507000 1.25816000
-5.03427000 -7.95559000 1.66101000
-4.93148000 -7.95258000 2.04679000
-4.76954000 -8.13902000 1.63070000
-4.66856000 -8.13313000 1.99059000
-4.53380000 -8.12174000 2.34139000
-4.40250000 -8.29919000 1.93174000
-4.27311000 -8.28828000 2.25641000
-4.11836000 -8.27649000 2.57045000
-4.02007000 -8.46457000 2.17677000
-3.86994000 -8.45412000 2.46399000
-3.69869000 -8.44918000 2.73706000
-3.62444000 -8.63240000 2.34960000
-3.45942000 -8.62994000 2.59769000
-3.27667000 -8.63117000 2.83737000
-3.23156000 -8.82232000 2.45184000
-3.06131000 -8.83034000 2.66996000
-2.87434000 -8.84163000 2.87438000
-2.87607000 -9.06866000 2.51118000
-2.69958000 -9.07876000 2.70039000
-2.50258000 -9.09303000 2.87043000
-2.50258000 -9.09303000 2.87043000
-2.69958000 -9.07876000 2.70039000
-2.51982000 -9.29396000 2.50587000
-2.33059000 -9.30094000 2.65807000
-2.12719000 -9.30418000 2.79808000
-2.29298000 -9.10245000 3.02522000
-2.28851000 -9.65547000 2.63161000
-2.09468000 -9.66079000 2.78605000
-1.88885000 -9.66939000 2.92362000
-2.87607000 -9.06866000 2.51118000
-2.68933000 -9.29991000 2.33554000
-3.04081000 -9.06069000 2.31346000
-2.84554000 -9.30099000 2.15496000
-3.19567000 -9.06429000 2.11254000
-3.19567000 -9.06429000 2.11254000
-3.04081000 -9.06069000 2.31346000
-3.38632000 -8.82132000 2.22780000
-3.52375000 -8.82475000 1.99827000
-3.32127000 -9.06302000 1.89975000
-3.32127000 -9.06302000 1.89975000
-3.63560000 -8.83969000 1.76120000
-3.43108000 -9.07092000 1.69276000
-3.43108000 -9.07092000 1.69276000
-3.72765000 -8.86001000 1.51764000
-3.51509000 -9.07754000 1.48328000
-3.51509000 -9.07754000 1.48328000
-3.79623000 -8.88558000 1.27582000
-3.57622000 -9.09830000 1.28041000
-3.57622000 -9.09830000 1.28041000
-3.88340000 -8.93813000 0.75963600
-3.66280000 -9.13972000 0.73350200
-3.66280000 -9.13972000 0.73350200
-3.66280000 -9.13972000 0.73350200
-3.88340000 -8.93813000 0.75963600
-3.93207000 -8.96078000 0.26229800
-3.70136000 -9.16403000 0.26403100
-3.70136000 -9.16403000 0.26403100
-3.66280000 -9.13972000 0.73350200
-3.94233000 -8.97571000 -0.23393800
-3.68843000 -9.18079000 -0.21502700
-3.68843000 -9.18079000 -0.21502700
-3.94408000 -9.01132000 -0.49193800
-3.65694000 -9.19211000 -0.44407800
-3.65694000 -9.19211000 -0.44407800
-3.91635000 -9.03065000 -0.75422100
-3.61594000 -9.19809000 -0.67711500
-3.61594000 -9.19809000 -0.67711500
-3.86392000 -9.03110000 -1.01710000
-3.56019000 -9.18613000 -0.92082800
-3.56019000 -9.18613000 -0.92082800
-3.79223000 -9.02243000 -1.27873000
-3.49185000 -9.16623000 -1.16506000
-3.49185000 -9.16623000 -1.16506000
-3.33279000 -9.47636000 -1.10315000
-3.41398000 -9.15798000 -1.40775000
-3.24318000 -9.46306000 -1.33009000
-3.24571000 -9.79522000 -1.32710000
-3.14160000 -9.44889000 -1.54957000
-3.14567000 -9.79064000 -1.55284000
-3.02972000 -9.42368000 -1.76160000
-3.03166000 -9.78230000 -1.77075000
-2.81152000 -9.97711000 -1.64002000
-2.89801000 -9.76793000 -1.97481000
-2.69512000 -9.97042000 -1.84010000
-2.39961000 -9.95156000 -1.63946000
-2.55919000 -9.97315000 -2.02254000
-2.27906000 -9.95001000 -1.80427000
-2.02021000 -9.82339000 -1.61049000
-2.14885000 -9.94629000 -1.95715000
-1.90366000 -9.81782000 -1.74653000
-1.77601000 -9.51976000 -1.64792000
-1.78109000 -9.80772000 -1.87331000
-1.65852000 -9.49959000 -1.76271000
-1.52635000 -9.19539000 -1.64141000
-1.64577000 -9.22999000 -1.54048000
-1.53948000 -9.48171000 -1.87390000
-1.40393000 -9.17628000 -1.73095000
1.45924000 -9.16276000 -1.75128000
1.32062000 -9.15796000 -1.83072000
1.46282000 -9.44888000 -2.02257000
1.60326000 -9.45834000 -1.92569000
1.74143000 -9.46674000 -1.82339000
1.59472000 -9.16724000 -1.67000000
1.70167000 -9.81826000 -2.02963000
1.84484000 -9.81900000 -1.92324000
1.99126000 -9.81208000 -1.81819000
2.08463000 -9.94529000 -2.18943000
2.24069000 -9.95055000 -2.06212000
2.38753000 -9.96910000 -1.92179000
2.50707000 -9.98342000 -2.32613000
2.67308000 -9.98371000 -2.16641000
2.83149000 -10.00000000 -1.99529000
2.86097000 -9.75257000 -2.31002000
3.01098000 -9.73987000 -2.10949000
3.15127000 -9.72240000 -1.90921000
2.99939000 -9.36724000 -2.09928000
3.14199000 -9.33414000 -1.90357000
3.26185000 -9.30626000 -1.69309000
3.32147000 -9.07453000 -2.01627000
3.44852000 -9.05356000 -1.79355000
3.56219000 -9.04078000 -1.56442000
3.36689000 -9.28657000 -1.47338000
3.56219000 -9.04078000 -1.56442000
3.44852000 -9.05356000 -1.79355000
3.71593000 -8.87459000 -1.92979000
3.83584000 -8.86710000 -1.67996000
3.93981000 -8.86055000 -1.42318000
3.66066000 -9.03623000 -1.32679000
3.56219000 -9.04078000 -1.56442000
3.66066000 -9.03623000 -1.32679000
4.02635000 -8.85094000 -1.15971000
3.73956000 -9.02763000 -1.08068000
3.73956000 -9.02763000 -1.08068000
4.09538000 -8.84304000 -0.88926600
3.80171000 -9.02159000 -0.83963900
3.80171000 -9.02159000 -0.83963900
4.14344000 -8.84496000 -0.61142000
3.84929000 -9.01771000 -0.59894900
3.84929000 -9.01771000 -0.59894900
4.16724000 -8.84753000 -0.32079700
3.87446000 -9.01744000 -0.35373200
4.42771000 -8.66858000 -0.62109700
4.44733000 -8.67489000 -0.29971000
4.44446000 -8.68218000 0.09114390
4.72517000 -8.50218000 -0.27808200
4.71710000 -8.50965000 0.13682000
4.68209000 -8.50560000 0.55891000
4.99100000 -8.33684000 0.17843300
4.94984000 -8.33239000 0.61877500
4.86917000 -8.32616000 1.06021000
5.20647000 -8.14058000 0.67525800
5.12495000 -8.13893000 1.13593000
5.05793000 -8.14080000 1.43449000
5.37665000 -7.93374000 1.19673000
5.30558000 -7.93340000 1.50846000
5.21676000 -7.92185000 1.81978000
5.54670000 -7.71099000 1.57738000
5.45353000 -7.70200000 1.90233000
5.34454000 -7.68871000 2.22898000
5.69120000 -7.47891000 1.98316000
5.57284000 -7.46283000 2.31929000
5.44179000 -7.44834000 2.65988000
5.79670000 -7.22728000 2.40649000
5.65833000 -7.21392000 2.75696000
5.49514000 -7.19897000 3.11029000
5.28940000 -7.43392000 2.99827000
5.31252000 -7.18493000 3.45983000
5.11354000 -7.41871000 3.33344000
5.15107000 -7.20125000 3.82418000
5.50482000 -6.93689000 3.57423000
5.32251000 -6.93125000 3.94300000
5.08604000 -6.88320000 4.27921000
4.90323000 -7.13337000 4.13123000
4.82527000 -6.85096000 4.59515000
4.65651000 -7.10736000 4.43076000
4.56119000 -6.85195000 4.90508000
4.99965000 -6.60145000 4.75846000
4.70595000 -6.58158000 5.07105000
4.38590000 -6.56683000 5.34981000
4.84637000 -6.30883000 5.22610000
4.51005000 -6.29335000 5.51864000
4.15648000 -6.30006000 5.78887000
4.62275000 -6.01125000 5.67234000
4.25445000 -6.01673000 5.95783000
3.86171000 -6.02380000 6.20042000
4.34775000 -5.73129000 6.11458000
3.93617000 -5.73519000 6.36637000
3.51186000 -5.75230000 6.59480000
4.00826000 -5.44591000 6.52059000
3.57055000 -5.46121000 6.75754000
3.12028000 -5.48699000 6.96565000
3.63655000 -5.16862000 6.91198000
3.16849000 -5.19237000 7.12231000
2.68603000 -5.21668000 7.30154000
3.21309000 -4.88970000 7.25640000
2.71670000 -4.91436000 7.44307000
2.21196000 -4.93044000 7.59417000
2.74741000 -4.60758000 7.56869000
2.23163000 -4.62152000 7.72608000
1.71748000 -4.63186000 7.86639000
2.25544000 -4.31275000 7.85350000
1.73265000 -4.31843000 7.99793000
1.21087000 -4.31702000 8.10919000
1.21087000 -4.31702000 8.10919000
1.73265000 -4.31843000 7.99793000
1.75146000 -4.00300000 8.12234000
1.22052000 -3.99592000 8.23275000
0.68026900 -3.98232000 8.26970000
0.67834900 -4.30546000 8.15346000
1.22750000 -3.66600000 8.32749000
0.68017900 -3.65214000 8.36328000
0.13083700 -3.66106000 8.39536000
0.67999200 -3.32055000 8.44962000
0.12165900 -3.32987000 8.48418000
-0.43377700 -3.33742000 8.44009000
0.11386000 -2.99691000 8.55980000
-0.45059400 -3.00484000 8.51821000
-1.01741000 -3.01904000 8.46887000
-0.46564400 -2.67176000 8.58387000
-1.04165000 -2.68654000 8.53569000
-1.61353000 -2.70007000 8.44066000
-1.06334000 -2.35411000 8.59100000
-1.64321000 -2.36827000 8.48980000
-2.22827000 -2.38975000 8.37151000
-1.67277000 -2.03786000 8.53413000
-2.26464000 -2.05971000 8.41412000
-2.84296000 -2.07835000 8.22332000
-2.29407000 -1.72782000 8.43388000
-2.87770000 -1.74737000 8.24813000
-3.45561000 -1.77622000 8.03725000
-2.90151000 -1.41446000 8.25969000
-3.47991000 -1.44085000 8.05013000
-4.03913000 -1.46739000 7.79956000
-3.49417000 -1.10384000 8.06178000
-4.04881000 -1.12600000 7.80960000
-4.58469000 -1.14363000 7.52163000
-4.04836000 -0.78294800 7.81677000
-4.58178000 -0.79919000 7.53278000
-5.08466000 -0.81024700 7.19210000
-4.56612000 -0.45205700 7.53641000
-5.06702000 -0.46267700 7.19792000
-5.54500000 -0.46461800 6.81970000
-5.04259000 -0.11564100 7.19429000
-5.52052000 -0.11880200 6.81644000
-5.98378000 -0.11259100 6.40594000
-5.50033000 0.22607800 6.81521000
-5.96198000 0.23015400 6.40123000
-6.40533000 0.24107200 5.95850000
-5.93167000 0.57022300 6.38581000
-6.37903000 0.58252000 5.94974000
-6.77857000 0.58460000 5.45735000
-6.34474000 0.92319900 5.93542000
-6.73229000 0.92443300 5.43583000
-7.13649000 0.92794800 4.94187000
-6.69508000 1.26540000 5.42863000
-7.09773000 1.26933000 4.93634000
-7.45337000 1.25619000 4.37676000
-7.04179000 1.60899000 4.92838000
-7.39253000 1.59485000 4.37278000
-7.74466000 1.57293000 3.80519000
-7.32501000 1.93210000 4.37369000
-7.68008000 1.91102000 3.80517000
-7.96290000 1.88283000 3.19929000
-7.60282000 2.24832000 3.81383000
-7.88245000 2.21434000 3.19849000
-8.12677000 2.18982000 2.59632000
-7.78311000 2.54364000 3.20577000
-8.03837000 2.51413000 2.59220000
-8.20369000 2.49291000 2.00164000
-7.92750000 2.83712000 2.60345000
-8.09529000 2.80137000 1.99273000
-8.22425000 2.80210000 1.41366000
-7.96194000 3.09997000 1.99977000
-8.11107000 3.07471000 1.38938000
-8.22585000 3.10248000 0.97341500
-8.30814000 2.81308000 0.93054000
-7.99762000 3.31463000 1.35752000
-8.16367000 3.37612000 1.03521000
-8.22585000 3.10248000 0.97341500
-8.16367000 3.37612000 1.03521000
-7.79186000 3.41251000 2.05342000
-7.57372000 3.73209000 2.15825000
-7.86251000 3.65710000 1.44071000
-7.35117000 3.78878000 2.73786000
-6.76212000 4.30842000 2.76996000
-7.58897000 3.48634000 2.69063000
-7.35117000 3.78878000 2.73786000
-7.29512000 3.50542000 3.26527000
-7.07849000 3.80930000 3.28500000
-7.78212000 3.15742000 2.63362000
-7.48644000 3.18905000 3.24936000
-7.21416000 3.23035000 3.83215000
-7.01753000 3.53337000 3.82428000
-7.64796000 2.86757000 3.22361000
-7.37895000 2.91293000 3.83185000
-7.01861000 2.92078000 4.36265000
-6.86679000 3.23659000 4.34921000
-7.50309000 2.58277000 3.82427000
-7.14754000 2.59845000 4.37338000
-6.81431000 2.62120000 4.91318000
-6.68323000 2.94126000 4.88163000
-7.24603000 2.26743000 4.37620000
-6.90624000 2.28698000 4.92269000
-6.50020000 2.27613000 5.38776000
-6.40465000 2.60533000 5.36520000
-6.98225000 1.94928000 4.92737000
-6.56979000 1.93957000 5.39452000
-6.19138000 1.93715000 5.87991000
-6.11860000 2.27207000 5.85872000
-6.63747000 1.60332000 5.41138000
