-41.41470000 60.74130000 -129.02200000
-41.38170000 65.64930000 -129.13800000
-45.26910000 62.98280000 -127.62700000
-48.57400000 59.83630000 -126.13900000
-41.73640000 -2.42990000 -129.49500000
-39.50430000 -5.56000000 -129.06900000
-44.38970000 -3.44400000 -128.03700000
-33.26330000 -3.19630000 -131.92400000
-39.16550000 -2.55100000 -130.33000000
-42.79820000 158.83100000 -90.94530000
-42.95140000 156.60900000 -93.36430000
-41.58450000 161.34800000 -88.50390000
7.25290000 -89.83010000 73.71530000
5.98350000 -95.35490000 70.40940000
8.94040000 -70.44840000 84.86160000
12.53080000 -66.55250000 86.67980000
12.70000000 -75.36810000 81.71540000
10.53520000 188.17800000 55.11240000
10.31640000 190.18200000 54.18030000
2.86430000 186.27900000 56.85110000
-45.16060000 -1.53360000 -128.38500000
-42.55580000 5.22620000 -131.54600000
-42.96680000 -0.45420000 -129.66300000
-32.03430000 0.87330000 -133.54000000
-34.98930000 0.00320000 -132.50100000
64.08450000 -54.84650000 72.29760000
59.95130000 -64.55010000 69.03570000
-103.65500000 -36.70810000 -51.67830000
-104.60800000 -36.95660000 -49.08580000
136.29800000 73.42300000 -73.12840000
134.56500000 77.94960000 -76.46180000
137.99900000 77.28050000 -69.50490000
136.50200000 81.15830000 -72.38700000
137.42000000 84.56180000 -69.92040000
-46.63560000 10.45440000 -131.86100000
-59.35140000 22.85790000 -130.58300000
23.96680000 -109.24900000 72.60540000
22.53170000 -105.71800000 75.16720000
24.45790000 -105.30800000 74.96860000
29.93830000 -105.18300000 73.38020000
-11.58310000 11.54600000 -126.96100000
-14.72580000 6.92990000 -124.99700000
-0.97500000 17.30670000 -129.67400000
137.57700000 56.53970000 6.20590000
136.69800000 46.28360000 4.49920000
136.88900000 46.37050000 0.72860000
136.29600000 42.50390000 2.09450000
-22.22220000 60.50000000 -134.46200000
-31.22600000 53.65010000 -131.83500000
-31.49240000 48.65020000 -131.23400000
-26.79770000 51.45610000 -132.78800000
97.98990000 164.88100000 -58.87750000
105.56100000 158.30200000 -60.15490000
108.27500000 150.62600000 -69.98140000
18.53820000 -116.90800000 69.33740000
21.74970000 -117.20900000 68.42770000
21.90000000 -115.20900000 69.37850000
-5.72520000 16.01150000 -128.97100000
-5.66080000 21.37830000 -130.48200000
-9.68180000 17.15370000 -128.89000000
-6.99280000 25.71080000 -131.47700000
-54.45570000 57.42830000 116.67600000
-50.57140000 54.51750000 118.34500000
-54.89880000 62.89430000 116.58200000
-52.07160000 66.11400000 117.93300000
-51.70810000 60.83110000 118.10400000
92.68130000 164.00100000 29.27740000
-69.51430000 55.05340000 -132.77200000
-72.73450000 69.23350000 -131.38800000
-69.06790000 65.82150000 -133.34400000
-71.69360000 64.40490000 -131.74800000
107.20300000 -45.62180000 -54.23340000
116.07900000 -24.08330000 -59.13300000
-63.01690000 210.56900000 -20.36680000
-63.87370000 210.65100000 -15.07060000
-64.42700000 210.66200000 -13.43750000
-51.41230000 205.24700000 -30.01580000
-52.35850000 203.07000000 -28.32040000
-53.15360000 205.14200000 -26.44860000
-47.61210000 203.09400000 -36.23310000
-47.38250000 204.93000000 -36.53100000
-40.70460000 182.60500000 -70.16280000
-36.27300000 182.53300000 -73.13040000
-37.79260000 184.63700000 -65.55090000
-43.42330000 184.30300000 -62.35980000
-37.17090000 186.01700000 -61.98900000
134.72700000 -8.71310000 -19.98550000
132.38200000 -12.41270000 -24.00750000
130.48800000 -16.20660000 -23.57700000
101.93400000 159.24600000 59.88880000
98.66560000 160.93600000 61.36600000
98.56920000 159.91600000 63.31880000
86.26860000 163.60300000 72.18880000
87.03770000 161.19600000 75.68070000
90.71350000 160.74800000 72.30830000
-23.71690000 193.27600000 -57.25140000
-10.64810000 191.95000000 -62.09420000
114.80700000 -17.94130000 -67.19620000
116.19700000 -19.14110000 -63.34230000
113.75100000 -21.46780000 -65.87650000
112.95500000 -25.24060000 -64.17880000
111.64100000 -24.10830000 -67.57390000
-16.54150000 192.11700000 -60.54550000
-18.99110000 192.95500000 -59.29460000
-13.68950000 192.69200000 -61.11300000
-18.21330000 194.10400000 -59.16060000
-17.56660000 196.63100000 -58.94350000
-13.89030000 194.02000000 -60.56780000
-145.42300000 56.09960000 19.33070000
-145.57800000 53.80950000 13.69030000
-145.22900000 50.18950000 15.23610000
-145.54000000 52.60090000 8.91090000
-71.92860000 56.36800000 -131.59700000
-74.02630000 59.19380000 -130.29300000
-70.55910000 59.27740000 -132.32800000
-80.81340000 56.17700000 -126.22400000
-78.58690000 53.69800000 -127.50300000
91.98310000 141.12000000 70.75770000
93.32470000 138.25500000 71.84170000
90.54850000 138.68500000 74.60700000
-67.31070000 176.05600000 -6.74520000
-66.82510000 176.02700000 -12.04260000
-64.92780000 176.57400000 -16.61300000
77.10210000 93.36600000 -113.12400000
78.36140000 89.15670000 -113.08200000
81.37430000 91.07890000 -110.64600000
77.44910000 105.05800000 -109.99800000
76.57640000 101.25400000 -111.64000000
80.71910000 100.14000000 -109.06000000
-50.61770000 218.93800000 -42.42310000
-62.64240000 218.84800000 -23.54650000
-60.16530000 218.85000000 -27.07060000
-60.74480000 218.88100000 -29.11670000
-39.04370000 177.14500000 -82.76990000
-40.20270000 175.29000000 -85.81010000
-45.08740000 176.42800000 -80.60660000
-30.18660000 174.57900000 -91.97790000
-28.98490000 176.72700000 -88.48020000
-26.28160000 174.76700000 -93.16110000
27.01530000 71.82690000 -152.09200000
11.69910000 68.17980000 -153.38200000
18.03370000 71.13100000 -153.01400000
-67.88880000 65.73540000 109.19200000
-67.39610000 61.21670000 109.49400000
-63.57370000 71.60830000 111.65300000
-67.53330000 70.74760000 109.25500000
60.56210000 77.67400000 116.82600000
60.86840000 71.68500000 117.06500000
57.50640000 75.04920000 118.40000000
65.10800000 76.30190000 114.70200000
62.82140000 81.76130000 115.32300000
66.88530000 82.45360000 113.17400000
-41.20020000 209.03200000 56.36690000
-46.84290000 209.81100000 52.66260000
-49.91660000 209.65000000 49.19950000
-46.15040000 209.29400000 52.73700000
90.31400000 114.98800000 88.96760000
88.21270000 118.89500000 89.22280000
91.17180000 119.10900000 86.40250000
86.14220000 112.62700000 93.51810000
86.87820000 116.87400000 91.26510000
89.12440000 111.30000000 91.43420000
-74.56750000 -85.67250000 0.74250000
-71.21440000 -91.55030000 -1.63320000
-74.89260000 -85.40420000 -2.80490000
-77.71520000 -80.57170000 -4.12100000
-82.10960000 -72.81390000 -5.03710000
-81.11720000 -74.42730000 -0.54840000
-18.86200000 154.19600000 -120.17700000
-19.90230000 157.72400000 -116.72400000
-13.80900000 155.12000000 -120.26500000
-21.02070000 154.40500000 -119.49400000
67.83430000 67.21140000 -121.51900000
-25.47510000 216.01900000 -70.24290000
-25.65720000 217.62800000 -71.17110000
-21.80870000 217.52000000 -72.64110000
-24.61600000 219.64700000 -70.94380000
-25.48970000 219.36500000 -70.97370000
108.31400000 113.99300000 95.24390000
108.35500000 111.59200000 96.18990000
110.42600000 111.81100000 93.91840000
104.91800000 121.63400000 94.80750000
103.62600000 -41.80720000 24.86750000
111.53900000 -24.55910000 25.59620000
-70.63570000 -38.79180000 -95.27970000
-76.80650000 -36.10980000 -91.37290000
-72.14790000 -34.84640000 -95.97230000
-60.23010000 -35.71140000 -103.99000000
-61.72020000 -36.66410000 -102.45800000
-49.49430000 191.06800000 -20.95630000
-48.06740000 191.06900000 -24.83390000
-48.23060000 193.93600000 -20.70480000
-51.69530000 184.93800000 -26.67300000
-51.18220000 186.76100000 -24.91340000
-52.29300000 187.09400000 -21.50970000
51.89320000 -92.57920000 71.40360000
52.49730000 -96.27460000 68.69790000
53.60390000 -93.40400000 69.78960000
42.73510000 -103.83000000 69.14380000
45.71980000 -100.10700000 70.07660000
45.67660000 -97.46990000 71.80190000
-104.60300000 -36.23010000 38.38260000
-104.26500000 -38.98030000 34.70320000
-102.42700000 -39.86860000 37.44300000
-100.52300000 -39.49730000 43.22830000
-98.86380000 -40.61160000 44.88100000
-100.45100000 -36.97060000 46.94690000
-57.44320000 176.77100000 -36.15930000
-60.39900000 177.06000000 -28.78320000
-60.13570000 177.77800000 -26.03480000
-61.63950000 177.08700000 -25.19730000
-21.49320000 175.90000000 64.71140000
48.85580000 -129.67900000 1.62220000
51.24490000 -129.77500000 -1.44050000
52.50930000 -130.02200000 0.41840000
46.53340000 -128.97800000 -4.83320000
43.97710000 -129.29100000 -1.44070000
45.92090000 -129.08300000 -7.96100000
93.36740000 168.87000000 51.73920000
93.26010000 170.27500000 48.64010000
83.34880000 173.35900000 54.42840000
87.03330000 172.02400000 52.90040000
120.70900000 150.56100000 -43.70580000
118.20000000 153.62100000 -42.91850000
121.51800000 145.30300000 -52.77860000
121.27100000 143.89400000 -55.82370000
118.60800000 147.24300000 -56.03900000
121.90700000 52.12270000 58.87730000
122.18800000 46.78290000 57.14130000
120.16100000 48.74830000 61.33900000
116.62800000 57.62020000 68.55830000
119.32500000 57.12150000 64.16410000
-49.14820000 197.02100000 -15.26360000
-49.57820000 195.13600000 -14.78660000
-48.64280000 195.14600000 -18.33430000
-48.74090000 194.05900000 -19.08440000
-49.86260000 193.88000000 -15.02300000
-16.11680000 180.17300000 59.44530000
24.51270000 14.32320000 120.46700000
30.27310000 24.21900000 122.09800000
-89.15170000 -56.36430000 -59.39330000
-84.70870000 -61.10250000 -62.87270000
-86.51980000 -59.94840000 -60.33780000
-80.91360000 -68.51430000 -61.80090000
136.88900000 67.14490000 15.06250000
137.48900000 68.61550000 10.06260000
137.44000000 64.79900000 10.72160000
-37.52420000 -130.79800000 -15.52700000
-39.70680000 -130.70100000 -17.45370000
-37.72970000 -130.50300000 -19.29840000
-35.62940000 -130.42400000 -29.87720000
-36.46240000 -130.45200000 -25.48530000
-9.47570000 184.74100000 56.52220000
-13.06060000 185.05100000 55.24990000
-8.75920000 186.83500000 55.00100000
-6.26660000 187.28300000 55.23770000
-1.70180000 186.83500000 56.24990000
-27.89880000 173.02100000 68.84120000
-27.79240000 174.68500000 64.78510000
-41.84260000 -130.78100000 -36.60360000
-37.47250000 -130.44700000 -32.44630000
-37.11880000 -130.38900000 -38.44910000
-38.01750000 -130.52800000 -43.60180000
-35.48920000 -130.42200000 -44.77100000
63.16250000 -12.56940000 111.56200000
67.30740000 -13.91480000 108.44100000
79.80020000 -93.86260000 -1.57580000
77.64760000 -97.50070000 -5.29740000
75.27350000 -101.37500000 -3.32120000
88.03980000 -79.69420000 -3.91310000
83.98840000 -86.76830000 -2.28360000
-58.28180000 -107.01700000 16.32390000
-52.10310000 -114.32200000 17.80580000
-52.18820000 -115.05700000 14.94210000
10.16000000 81.95740000 146.59500000
7.90590000 84.58700000 146.55000000
34.29510000 -117.04800000 39.28940000
26.72890000 -117.42200000 43.30950000
46.89010000 -116.35600000 32.05240000
43.59330000 -116.74700000 32.20130000
-2.44220000 186.35700000 -60.72530000
-4.40410000 187.81800000 -59.54300000
-4.62700000 185.27900000 -61.33090000
2.24660000 185.70400000 -61.62820000
50.95780000 198.38100000 36.76300000
50.76890000 202.25000000 37.67970000
50.03690000 200.61600000 38.11800000
56.82550000 196.61600000 27.71750000
58.14610000 198.51700000 25.18960000
56.31550000 200.21000000 28.66720000
95.19120000 6.57450000 79.39390000
91.98980000 -4.15350000 77.31530000
91.99250000 -9.77430000 74.14250000
-140.93900000 102.49300000 4.90500000
-139.79400000 106.22900000 0.88990000
-141.21500000 102.69900000 1.55190000
29.56160000 -131.65000000 42.58490000
30.88990000 -131.29900000 40.64470000
32.57320000 -132.24900000 45.86300000
29.16750000 -132.07900000 49.63430000
31.44470000 -132.24000000 48.52780000
31.18350000 -131.45400000 52.69790000
-91.24390000 28.46200000 -111.71800000
-95.03910000 27.80000000 -108.39100000
-93.78020000 32.85060000 -111.08300000
-93.71210000 22.89200000 -108.00900000
-89.82660000 25.89650000 -112.16800000
-88.95570000 22.02430000 -111.56000000
-88.24000000 17.84490000 -110.46300000
-84.89710000 17.65420000 -113.15500000
-77.34900000 22.45800000 -120.12700000
-75.76780000 19.05770000 -120.05300000
-77.75280000 18.43160000 -118.37000000
-71.44730000 168.19000000 41.39950000
-68.22030000 168.15800000 46.59520000
-70.56910000 166.86200000 46.72340000
-64.96850000 172.38100000 36.85840000
-80.38650000 22.57400000 -118.30300000
-80.01810000 25.00570000 -119.53300000
-78.34760000 29.33600000 -121.36000000
30.62830000 183.92800000 52.55630000
97.57700000 -71.03080000 -44.91690000
96.32540000 -71.01430000 -47.61560000
99.60680000 -67.17220000 -45.19690000
107.13700000 -57.33720000 -39.39880000
103.12800000 -62.38190000 -42.82040000
106.26200000 -56.64310000 -42.56520000
-65.99540000 87.94060000 128.79100000
-62.83010000 91.96880000 129.84200000
-66.44630000 92.09420000 128.06600000
-60.55170000 94.11920000 130.54700000
-27.17620000 193.37400000 51.79980000
-25.97310000 196.00000000 52.18050000
-28.73780000 198.04100000 50.93680000
-28.27250000 196.02800000 50.81580000
-46.79160000 -110.22300000 -42.51730000
-43.55130000 -110.29300000 -46.38460000
-44.90660000 -108.46500000 -46.96790000
-27.00040000 76.94730000 -133.08300000
-29.53630000 71.22460000 -132.76400000
-25.02680000 72.36690000 -133.82300000
-19.95390000 74.14850000 -134.78000000
55.52460000 196.69500000 -34.53390000
59.64510000 195.31100000 -28.55470000
58.18020000 194.85700000 -31.41950000
57.79590000 196.62300000 -31.33230000
53.26210000 199.62900000 33.72650000
52.07910000 198.92300000 35.37740000
54.07990000 196.35700000 32.30160000
50.07120000 193.95600000 38.23010000
43.78530000 167.96100000 94.55010000
38.15280000 166.74900000 98.12040000
42.24630000 165.59800000 98.16890000
29.21280000 165.46200000 102.12800000
-32.20940000 108.50900000 -126.28100000
-28.44470000 106.15200000 -127.95500000
-28.87040000 111.55300000 -126.36900000
-31.67460000 104.00100000 -127.59100000
-35.48490000 103.46600000 -126.54500000
-33.63780000 99.11620000 -128.10900000
62.96330000 145.64700000 -116.08600000
56.51260000 146.19800000 -118.42700000
57.66510000 150.92600000 -113.76800000
61.55550000 140.52900000 -120.65200000
57.81510000 141.48900000 -121.53400000
82.51750000 -111.83000000 -22.58070000
84.62370000 -109.53900000 -19.61410000
82.61130000 -112.83700000 -20.03380000
82.79820000 -114.14100000 -15.22450000
85.28470000 -110.42600000 -14.09350000
83.79660000 -113.63900000 -11.41820000
-47.15830000 -8.28330000 -108.93500000
-46.18150000 -17.09210000 -105.52400000
-43.12500000 -11.68840000 -109.38700000
-40.02290000 -1.16240000 -115.02200000
-39.48120000 -7.00570000 -112.90800000
-44.08680000 162.41700000 96.64150000
-41.86250000 163.29500000 96.84170000
-43.93370000 163.91100000 94.89380000
-32.51410000 161.48500000 102.65400000
-29.74970000 161.54400000 103.56000000
-31.65860000 163.13600000 101.13900000
61.50220000 220.42600000 -0.31880000
59.22370000 217.84100000 -8.89180000
59.30760000 216.92700000 -5.55950000
60.04250000 218.30900000 -4.06460000
-70.10160000 14.45100000 -121.97900000
-72.79770000 13.19590000 -119.98400000
-71.99700000 17.09640000 -121.80700000
-75.78590000 12.93980000 -117.92000000
-74.49440000 7.70830000 -116.56000000
67.43880000 -130.97400000 0.55540000
67.35150000 -131.01900000 2.23970000
68.77570000 -130.90600000 0.58310000
-47.88170000 162.63400000 94.54930000
-51.97670000 166.00400000 87.58380000
-53.43980000 168.29000000 83.50230000
-57.07050000 10.27240000 -127.37400000
-59.68240000 5.05500000 -124.10200000
-61.79440000 10.41580000 -125.20400000
-66.69780000 12.44970000 -123.12900000
-70.45730000 8.96660000 -119.64400000
-30.28490000 5.32510000 129.27500000
-32.87810000 2.85870000 127.75300000
-31.62770000 -11.33260000 121.93700000
-35.93380000 -8.78640000 121.99700000
-36.27360000 -14.10490000 119.38500000
115.01000000 124.41600000 -57.74180000
116.14600000 129.68800000 -49.63480000
-44.29560000 215.39000000 54.94390000
-48.38200000 216.97600000 52.52280000
-47.24610000 215.73300000 52.52080000
-43.91010000 213.76200000 55.00740000
-121.67100000 90.86100000 -41.23410000
-119.60800000 96.33350000 -44.60500000
-44.84500000 217.27900000 55.89980000
-44.43860000 218.67800000 56.23940000
-48.42480000 218.28600000 52.86220000
-44.59340000 218.13900000 56.31430000
85.42250000 -17.66790000 -101.97700000
73.93670000 -17.75750000 -110.45700000
71.55640000 -19.93490000 -110.70300000
10.25090000 -129.99700000 63.29600000
15.43270000 -131.52800000 61.69500000
-63.48050000 -123.82900000 -24.55710000
-62.11160000 -125.78300000 -23.66220000
-63.90290000 -123.72000000 -21.69560000
-62.60780000 -124.06500000 -27.63940000
-60.69200000 -125.68800000 -29.32330000
-61.82130000 -125.64000000 -25.58480000
2.88720000 213.59600000 53.15350000
-0.24060000 212.52400000 52.63390000
-2.69220000 212.88100000 52.51500000
10.84510000 211.58400000 51.61940000
8.86560000 213.27200000 52.61610000
14.54880000 212.64400000 51.50480000
55.58070000 -129.54200000 39.79640000
55.10490000 -129.39600000 42.19400000
51.46060000 -130.39400000 40.05920000
67.47150000 88.43920000 131.43600000
67.02030000 81.86440000 132.55100000
129.19100000 14.85190000 -17.90520000
127.76200000 11.76730000 -21.57330000
129.22500000 19.79860000 -27.11990000
128.60200000 15.90610000 -24.24960000
130.03900000 20.48990000 -23.53310000
-63.31230000 -122.16500000 7.33120000
-63.22710000 -122.51500000 5.13880000
-60.76560000 -126.84300000 2.14680000
50.86310000 -111.96300000 -45.41310000
53.52250000 -111.15800000 -44.50180000
50.26860000 -111.44600000 -47.70410000
58.14150000 -109.50000000 -41.50470000
109.89000000 136.34600000 48.95640000
108.90700000 139.26300000 47.22450000
111.58000000 136.83400000 44.81730000
112.42900000 134.26100000 46.24400000
-59.13370000 -127.84400000 9.40010000
-56.51940000 -131.56800000 12.76960000
-57.33950000 -128.62200000 14.51280000
-54.58130000 -132.00500000 17.99220000
92.75010000 100.18800000 -120.07400000
91.00950000 97.72630000 -121.82600000
98.30460000 97.67790000 -116.10700000
100.34100000 95.69450000 -114.78400000
146.89800000 22.99680000 -17.61250000
147.78000000 25.08930000 -15.39210000
51.67360000 9.62710000 110.94200000
52.31050000 5.74030000 109.28500000
47.77960000 4.68430000 110.75300000
-10.11990000 191.14200000 59.08570000
-5.84780000 191.75800000 59.46020000
-9.46590000 192.48000000 58.57720000
-16.25060000 191.25200000 57.45630000
-13.21590000 190.59300000 58.75680000
139.41700000 29.44570000 51.37110000
140.17400000 33.13170000 49.80350000
139.29300000 31.63130000 51.96850000
140.94600000 41.27140000 50.29470000
141.99900000 39.55790000 46.87300000
142.61700000 44.02930000 46.92040000
-14.53990000 -56.67890000 103.25400000
-2.16160000 -51.53470000 108.85900000
-58.46640000 -124.17000000 20.02570000
-54.60020000 -127.35600000 24.71480000
-56.69770000 -123.62300000 25.37210000
-53.71350000 -131.54500000 21.46050000
-54.97770000 -129.08000000 20.65630000
-55.18030000 -131.18100000 17.48450000
94.01310000 146.48100000 -93.11150000
92.68520000 145.52900000 -95.43170000
101.83200000 145.50600000 -85.48220000
10.00070000 -7.45930000 114.73900000
12.71820000 -12.22650000 112.65400000
14.37110000 -23.14210000 107.90000000
16.72250000 -20.35570000 108.82800000
139.35900000 107.59700000 49.25380000
135.09400000 123.31900000 47.03820000
-110.62900000 12.30350000 -84.25340000
-114.17500000 14.37480000 -80.02730000
-111.39900000 15.79400000 -85.00180000
-101.76800000 14.22450000 -96.35500000
-105.26300000 10.81210000 -90.36740000
-105.20600000 15.81820000 -92.96520000
37.65930000 140.69400000 -112.87700000
38.49920000 148.97600000 -106.21200000
34.10070000 149.08600000 -107.46800000
37.95450000 145.91500000 -108.91000000
-18.51230000 162.33000000 90.06470000
-15.37550000 160.25500000 93.10300000
-19.93800000 158.78800000 93.61580000
-16.03860000 156.55900000 96.69890000
-19.71680000 153.42500000 98.71940000
-21.46770000 155.62000000 96.30310000
63.36940000 -130.93100000 14.23460000
62.16180000 -130.80000000 16.47940000
61.97830000 -131.47900000 15.04400000
64.12340000 -130.64900000 16.54640000
64.96340000 -130.99100000 19.07090000
61.87640000 -130.60600000 18.37290000
40.10220000 151.02300000 -120.34000000
40.95160000 148.43100000 -122.35300000
48.82910000 146.81800000 -120.85200000
45.68040000 147.17000000 -121.87800000
-139.48300000 104.45400000 -21.10520000
-139.88400000 103.49700000 -22.73630000
-140.38000000 101.58900000 -21.33070000
-138.62600000 107.84100000 -18.71330000
-138.95100000 105.62400000 -17.20190000
-138.83200000 107.98400000 -15.67120000
114.81200000 -7.68780000 37.84620000
110.59100000 -19.69740000 35.36420000
111.54500000 -14.65600000 38.69710000
113.33300000 -13.24860000 35.54200000
113.06700000 152.70600000 52.64440000
113.65500000 153.87400000 49.13690000
121.49800000 141.94500000 53.40190000
119.81100000 145.80900000 51.41110000
119.46400000 144.06700000 54.09810000
68.39230000 211.89100000 -37.81270000
69.76350000 211.47400000 -34.25070000
66.40360000 211.35000000 -40.82370000
64.81260000 212.64300000 -44.62100000
64.99790000 214.46800000 -44.05780000
46.50720000 -113.23900000 -42.89890000
52.62040000 -114.30900000 -14.84930000
11.93680000 -107.41600000 62.15990000
14.47070000 -109.00700000 60.67540000
17.69070000 -109.31400000 59.79290000
15.97550000 -111.93300000 58.32290000
39.37670000 26.26080000 136.81700000
53.49140000 26.75720000 132.42600000
65.93290000 145.52400000 89.38930000
70.92400000 137.54600000 92.24390000
66.80480000 137.05900000 95.23350000
-29.05790000 -130.05400000 -8.42210000
-26.37050000 -130.29100000 -5.98100000
-28.45350000 -129.73400000 -4.72880000
-26.44470000 -130.30500000 -7.98550000
-35.66810000 211.18100000 -58.09310000
-29.53950000 210.38600000 -63.45560000
-29.37800000 211.16200000 -62.10010000
-33.75000000 211.35400000 -58.50790000
-45.29950000 211.18500000 -49.49280000
-100.21100000 -11.05970000 -53.93140000
-97.82830000 -19.01470000 -51.41670000
-104.86800000 -2.09160000 -51.98150000
-102.94100000 131.90500000 -55.09040000
-104.15000000 133.97000000 -49.73830000
-98.44790000 134.84200000 -60.42370000
-118.51200000 32.01200000 -45.25710000
-120.00900000 33.56930000 -41.75540000
-118.73300000 28.93960000 -42.28390000
-117.03300000 27.67970000 -46.42250000
-117.13600000 23.87470000 -42.99980000
56.00220000 193.29200000 -17.48720000
57.27470000 190.75500000 -17.88410000
57.21730000 193.25100000 -13.14020000
54.67190000 191.72100000 -23.13050000
53.79440000 194.05200000 -22.63830000
52.06750000 193.52700000 -26.54290000
73.44660000 -130.05400000 6.65080000
73.62080000 -130.37400000 2.95890000
72.97740000 -130.63200000 5.46330000
-72.70250000 129.11700000 109.65400000
-76.98210000 129.34400000 106.74600000
-62.20000000 138.59300000 109.29900000
44.76500000 195.13400000 34.27830000
41.35200000 194.42000000 38.10420000
42.25260000 196.37500000 36.49880000
-114.42700000 62.19520000 57.88570000
-116.27000000 61.50620000 54.17370000
-115.20000000 65.97490000 56.43050000
-115.98300000 49.64690000 52.93640000
-116.46700000 54.84300000 53.00640000
-114.74400000 53.21080000 56.27170000
-4.74660000 192.84100000 59.11630000
6.35610000 191.57500000 59.89280000
6.10580000 190.53800000 60.59200000
10.66370000 190.63000000 60.10220000
-30.46110000 -30.16840000 113.10500000
-29.91650000 -32.53690000 111.78100000
-26.96130000 -32.71100000 112.53900000
-21.27430000 -39.55140000 110.14500000
-25.29750000 -38.62080000 109.57600000
-20.06760000 -42.67470000 108.69000000
23.85650000 101.79500000 141.66100000
27.53600000 100.73700000 141.15600000
26.71610000 103.94500000 140.52300000
34.36490000 105.03100000 138.70000000
37.49070000 104.52900000 138.09300000
34.53400000 107.63000000 138.01500000
19.59160000 118.91800000 120.48100000
19.05370000 115.74600000 121.60200000
14.47970000 118.52400000 121.17900000
29.32150000 116.01000000 119.81300000
25.88780000 113.27300000 121.33200000
24.54450000 118.90600000 119.74700000
-30.21850000 122.52700000 115.32000000
-34.88070000 120.48500000 114.66600000
-33.33640000 124.41700000 113.56300000
-22.59580000 126.50100000 115.59300000
-25.58680000 124.39800000 115.78900000
-26.14000000 127.49700000 114.26600000
-110.71800000 142.21800000 -57.34130000
-108.49400000 146.51900000 -54.73430000
-112.16600000 139.80700000 -58.03350000
-109.69400000 74.17860000 93.25660000
-103.25600000 44.77860000 97.33160000
-103.57900000 48.26250000 97.80400000
123.44100000 155.84900000 -2.60960000
124.26900000 154.81200000 1.75630000
117.11000000 161.85200000 2.63890000
119.57000000 159.75200000 -2.20970000
116.29800000 162.68300000 -3.23620000
70.09930000 179.11600000 7.84850000
71.47760000 178.36800000 4.87590000
72.26990000 177.71200000 7.33130000
65.46660000 183.40200000 5.69000000
104.50900000 92.40860000 -89.16420000
105.63000000 105.20500000 -83.77390000
104.14100000 111.52400000 -82.98210000
57.34190000 171.10700000 82.74050000
57.33530000 173.18000000 78.65190000
68.76590000 167.13500000 81.71570000
-114.35000000 55.32330000 86.35850000
-117.35200000 54.12370000 82.45850000
-105.21600000 53.76300000 98.16560000
-104.94500000 55.41170000 97.57260000
-106.57300000 55.03950000 95.65920000
-48.37620000 -55.59450000 -99.00830000
-45.68830000 -56.27610000 -99.79050000
-49.12920000 -62.72180000 -95.08230000
-66.86710000 -90.62740000 -61.64390000
-64.75270000 -87.22830000 -67.12990000
-69.22420000 -91.53230000 -57.15950000
98.95520000 -85.37250000 -0.49980000
96.02520000 -90.87150000 -4.54600000
97.82160000 -87.65190000 -4.68190000
94.31500000 -92.36040000 -16.71150000
96.95890000 -88.39130000 -14.53940000
95.54900000 -90.98750000 -13.85030000
35.31290000 -24.60210000 118.86000000
35.82170000 -21.63490000 119.27300000
34.29900000 -23.32390000 118.94500000
37.80220000 -31.50580000 113.33100000
36.61620000 -28.76870000 115.39200000
92.82220000 -96.33490000 -14.79700000
94.36430000 -93.24320000 -13.63940000
90.90770000 -97.65200000 -21.75420000
91.68280000 -94.41830000 -24.65440000
93.06630000 -93.19350000 -20.81770000
-13.26070000 194.22100000 -53.51700000
-10.80460000 193.17900000 -54.79170000
-5.94840000 193.73900000 -55.58250000
118.26400000 -23.89620000 48.54070000
116.57600000 -23.57060000 52.00120000
126.80400000 -5.97710000 48.95190000
122.52000000 -13.99530000 49.44540000
80.40290000 66.37900000 106.03600000
83.81370000 58.05520000 103.42900000
-44.76340000 -46.81180000 -91.22390000
-48.01790000 -44.92780000 -90.36210000
-50.72710000 -51.00600000 -85.08700000
-52.98540000 -44.87520000 -87.15580000
72.72140000 -83.63180000 -70.06920000
73.02510000 -86.34020000 -67.79180000
70.59420000 -85.56240000 -70.80490000
70.99350000 -91.95590000 -65.65710000
70.46170000 -88.39710000 -68.81420000
41.61860000 -31.00880000 112.26600000
38.04590000 -24.59550000 116.98400000
37.45500000 -28.48760000 115.09000000
41.90100000 -25.27890000 115.34200000
-87.72470000 -49.19970000 55.86900000
-90.62830000 -45.76970000 54.56510000
-90.43230000 -49.00270000 51.39050000
-84.39660000 -57.71980000 51.66790000
-86.03550000 -57.11090000 49.48360000
-96.30300000 94.92030000 -87.48800000
-99.13890000 90.74130000 -85.12160000
-96.93040000 156.81800000 -2.58690000
-96.64370000 156.93200000 2.69340000
-98.98050000 154.11400000 -12.19160000
-97.04900000 156.54000000 -8.69420000
-99.54270000 153.74600000 -8.61870000
92.62740000 -13.45650000 -78.70960000
92.00680000 -17.92330000 -76.66290000
95.08880000 -9.82450000 -77.97060000
90.17660000 -31.25450000 -69.83750000
91.75610000 -23.64420000 -73.18480000
-110.95000000 131.63200000 -33.24640000
-110.74100000 133.41800000 -30.15700000
-112.96200000 129.80000000 -28.55850000
-108.44800000 135.81100000 -33.94870000
-109.00100000 133.00900000 -37.63790000
87.52830000 -97.15690000 27.12100000
88.78810000 -97.67250000 23.13260000
89.40900000 -95.29810000 23.96860000
89.66540000 -91.31120000 28.74300000
90.48840000 -91.78000000 25.50140000
49.68200000 -122.14200000 51.95030000
55.30990000 -117.24800000 51.51470000
54.91350000 -123.02300000 46.96930000
54.31960000 -121.73400000 48.75230000
49.50390000 -124.01000000 50.43020000
-130.77600000 0.93640000 1.98910000
-132.23800000 3.58210000 0.16460000
-130.10100000 -0.59680000 -0.04600000
-130.14200000 1.69980000 -18.37440000
-130.41400000 1.35000000 -14.23590000
-131.68100000 4.14560000 -15.11720000
144.83200000 121.98900000 -6.22460000
145.47900000 120.02000000 -0.04390000
146.11600000 118.27900000 -4.48580000
147.00300000 114.98700000 0.21720000
148.89800000 108.47000000 -0.59630000
147.58700000 113.33600000 -2.31070000
13.10090000 211.87200000 64.26240000
15.99240000 211.98900000 63.68230000
52.53820000 191.70400000 -41.93810000
49.13200000 193.93500000 -43.20090000
48.68540000 192.83900000 -44.24430000
47.01660000 193.94000000 -44.89100000
-131.77200000 2.85790000 -5.86730000
-131.56500000 2.15480000 -3.46180000
-133.70600000 7.12690000 -6.28360000
-136.52000000 14.73500000 -7.60720000
-134.61800000 9.83980000 -8.10650000
-134.72800000 9.78480000 -3.91510000
21.14240000 211.11300000 59.67790000
25.61120000 210.72300000 57.71850000
9.82310000 210.86700000 61.90890000
12.42170000 210.69500000 61.28110000
-33.26940000 -112.97500000 -51.24870000
-140.58500000 26.01860000 -3.24130000
-140.07700000 23.66630000 0.13090000
-140.93800000 26.72360000 -1.17550000
120.47300000 63.90850000 -70.40510000
119.47500000 66.89570000 -72.17110000
118.32800000 61.97970000 -73.92560000
119.62500000 54.00980000 -70.89920000
121.00600000 49.89770000 -67.68340000
121.42000000 54.95230000 -67.89220000
-70.61870000 38.44820000 122.01900000
-67.08300000 32.54700000 123.29100000
-67.20520000 36.98090000 123.69700000
-61.33670000 34.66660000 126.46500000
-61.09360000 30.52480000 126.03800000
88.23020000 13.44200000 -96.78260000
80.77710000 8.70940000 -101.14500000
84.56140000 11.38000000 -99.13720000
83.38830000 15.00820000 -101.52400000
27.43680000 99.12630000 -131.79800000
29.79910000 95.50370000 -132.09100000
30.95110000 99.98970000 -130.95700000
34.08320000 95.61230000 -131.15200000
36.57050000 90.93660000 -131.38100000
20.38380000 -111.00500000 57.91600000
19.69020000 -113.29600000 56.30570000
25.85340000 -112.64100000 54.85320000
24.47330000 -110.89400000 56.71380000
-88.73550000 14.66530000 -87.17080000
-86.47850000 13.42690000 -89.06130000
-86.73320000 17.55800000 -90.61380000
-89.50220000 5.89630000 -81.96970000
120.35100000 111.46500000 81.89080000
122.51100000 110.56500000 79.33140000
121.81900000 112.88500000 79.23530000
126.96100000 109.14200000 73.04340000
125.18300000 113.00200000 73.73850000
125.87900000 106.98200000 75.94240000
-113.98400000 1.23590000 -27.15870000
-115.54200000 3.61250000 -23.23710000
-113.66600000 -1.37700000 -23.71440000
-108.28800000 -12.65700000 -28.71970000
-108.66800000 -10.00940000 -31.66840000
-111.56200000 -4.75250000 -28.12220000
-19.97580000 -29.42260000 -122.53000000
-22.03240000 -33.46630000 -120.17600000
-25.59420000 -29.33840000 -121.12200000
-8.08190000 -28.41220000 -124.86200000
-13.87730000 -35.52580000 -120.65100000
-16.49720000 -30.46920000 -122.65800000
57.13660000 198.04100000 -2.14770000
58.57010000 193.36400000 0.69610000
-23.23500000 178.25500000 -64.28830000
-25.68420000 178.90900000 -62.06300000
-33.39320000 179.79900000 -56.22190000
85.86870000 -29.17630000 68.77400000
83.39030000 -36.72670000 66.38490000
82.60210000 -32.36050000 70.21050000
76.46940000 -44.01670000 68.63460000
79.44130000 -41.80760000 67.14100000
76.18720000 -49.74880000 64.91980000
-44.02940000 -113.76500000 34.34240000
-44.36850000 -112.36200000 35.77060000
-41.98490000 -113.62900000 37.21260000
88.26330000 31.94460000 -120.86400000
89.09050000 13.94810000 -115.17700000
84.56240000 11.63540000 -117.83700000
17.70900000 144.09000000 -114.66500000
16.31310000 141.63200000 -116.55700000
21.23070000 141.42600000 -116.06800000
16.25260000 134.86600000 -120.76400000
18.41720000 138.20100000 -118.55700000
12.18350000 136.73200000 -120.03800000
-105.05300000 31.45850000 66.62600000
-108.37500000 27.11340000 58.89700000
45.01450000 -103.20800000 51.99280000
41.12420000 -112.63400000 46.88810000
45.74650000 -111.61100000 44.39230000
44.58920000 -113.00400000 43.88260000
-45.73510000 97.37420000 -141.49400000
-48.38270000 97.85620000 -140.33700000
-48.11370000 102.11100000 -139.85200000
-45.58660000 106.91500000 -139.86800000
-45.24290000 105.11000000 -140.45900000
-49.93270000 104.39300000 -138.70700000
-60.41630000 180.21600000 5.49260000
-59.00960000 179.76200000 14.92860000
-87.93550000 122.06300000 101.71900000
-89.83460000 126.42400000 97.32770000
-90.26090000 124.03800000 98.17270000
-87.75910000 134.29900000 93.44460000
-89.20050000 131.96500000 94.04960000
-50.71240000 179.05100000 -40.40270000
-43.71730000 178.36100000 -50.28780000
-112.62400000 116.07100000 -84.03810000
-111.47100000 119.97600000 -82.69370000
-109.93700000 117.29700000 -86.92190000
-109.90200000 124.19400000 -81.23070000
-107.95600000 123.50200000 -84.56160000
-93.93240000 -55.03540000 -52.55120000
-97.12980000 -48.32670000 -53.35230000
-93.70650000 -51.24680000 -56.86820000
-97.92650000 -35.36480000 -66.04650000
-97.07390000 -38.51860000 -64.32460000
-100.35900000 -36.14880000 -60.50920000
-56.89050000 -132.66900000 2.63010000
-55.01360000 -132.69200000 0.76300000
-53.74710000 -132.88700000 4.34690000
-51.89210000 -132.82900000 16.93210000
-36.13200000 179.07000000 -55.46120000
-39.13350000 179.33700000 -52.58490000
-142.39500000 60.85720000 31.96530000
-141.81000000 60.59410000 34.63450000
-141.49700000 64.20790000 34.51070000
-141.13000000 63.55950000 37.65900000
-140.87700000 66.01320000 37.64560000
-141.35600000 64.89640000 35.36840000
131.29700000 93.96020000 30.10970000
131.92800000 88.57760000 30.84670000
136.84100000 104.60500000 -63.59980000
137.10200000 99.19200000 -64.86570000
135.49000000 103.18500000 -67.62590000
134.81200000 106.75300000 -67.76130000
134.61600000 110.26100000 -66.08520000
135.95900000 108.46400000 -63.66200000
51.24160000 -96.54390000 -61.70680000
-17.68110000 -84.67900000 74.05180000
-14.81300000 -90.70040000 71.09030000
-18.05930000 -90.02470000 70.60780000
-11.31380000 -74.22960000 81.73020000
-14.37100000 -77.66220000 79.11330000
-100.82700000 52.86130000 -109.75300000
-106.16900000 53.67700000 -104.08700000
-100.25200000 65.44300000 -110.34500000
-107.50900000 89.15360000 66.22310000
-110.28500000 86.61100000 62.27940000
-109.44800000 92.09190000 62.07840000
-105.96800000 100.35300000 64.89560000
-106.59400000 94.73740000 65.94510000
-108.74100000 95.74390000 62.02330000
-2.86500000 101.15700000 -133.18600000
-0.73010000 96.94390000 -134.15000000
1.89820000 102.29700000 -133.13700000
132.79300000 92.14600000 -33.18070000
133.40400000 93.23480000 -29.46950000
135.13900000 80.62880000 -29.04780000
-8.86190000 220.50000000 -65.67210000
-5.86940000 220.18400000 -67.54060000
-8.85090000 219.71800000 -68.22320000
-55.31090000 211.07900000 -34.99530000
-52.34370000 210.55800000 -35.06840000
-1.92550000 81.25060000 -136.36900000
-5.57040000 83.83430000 -135.86500000
-2.20980000 75.40850000 -136.83700000
90.73840000 179.55500000 -19.71610000
93.49210000 178.00700000 -19.13670000
87.45970000 181.60300000 -15.42680000
90.11400000 180.21400000 -16.05670000
-56.35950000 24.11220000 -132.36800000
-55.97160000 28.75430000 -133.55600000
-54.13660000 16.88020000 -130.97500000
-54.84180000 21.36480000 -132.15500000
-49.99220000 18.36920000 -133.22700000
108.67100000 21.72280000 95.54920000
111.08200000 21.07980000 93.18230000
115.93100000 26.06950000 89.54640000
117.48900000 22.99240000 87.12320000
118.50300000 26.80270000 86.78440000
80.29600000 146.36800000 -83.69990000
84.22660000 143.86700000 -82.46480000
83.69830000 147.38500000 -79.25990000
80.41360000 151.47000000 -77.84450000
107.35900000 -65.86590000 12.47170000
116.54900000 -48.24180000 10.69580000
114.60500000 -53.10510000 6.89730000
117.00300000 -47.97360000 8.89100000
121.22200000 11.24380000 -46.68770000
119.14700000 5.78080000 -47.18750000
120.65900000 6.66340000 -43.88040000
113.48700000 -10.12480000 -45.91290000
112.55100000 -15.26350000 -42.60370000
115.70000000 -8.04900000 -42.16380000
-127.96600000 51.43010000 -72.66840000
-126.74300000 47.81120000 -74.06390000
92.00840000 -98.68160000 5.69680000
92.37830000 -98.22260000 2.68410000
93.32750000 -95.35950000 6.72750000
91.30640000 -98.20050000 12.30390000
90.67690000 -97.66160000 16.57000000
-24.57250000 116.46800000 -125.92500000
-25.00670000 122.80300000 -123.48900000
-22.26280000 120.52900000 -125.00600000
-20.67360000 124.68900000 -123.69900000
-85.33500000 -30.23240000 77.58140000
-83.10430000 -31.83670000 78.73970000
-86.06870000 -25.93360000 80.27200000
-80.09710000 -36.54200000 78.24960000
-80.59810000 -42.23310000 72.36270000
-19.83300000 52.72550000 142.08900000
-11.84170000 51.58260000 143.22700000
-15.15260000 53.41990000 142.81700000
-26.71930000 62.09690000 141.39800000
-29.45600000 59.49340000 140.48000000
-24.23170000 58.03520000 141.59600000
143.61200000 42.30980000 -46.13230000
138.37600000 42.32840000 -59.56340000
139.96400000 42.34640000 -57.08230000
94.19650000 -93.26130000 7.61690000
94.44680000 -93.13400000 4.78630000
95.73780000 -90.24280000 5.99690000
-38.99800000 64.82800000 123.23200000
-38.38500000 70.20460000 123.30600000
-38.55420000 75.79210000 122.90600000
-63.84260000 -65.69430000 56.71100000
-62.96140000 -60.64010000 61.82320000
-59.90710000 -65.63340000 61.11920000
137.01400000 38.20070000 -61.88070000
137.62800000 40.55380000 -61.17370000
138.62800000 44.79570000 -61.10230000
139.69500000 44.48040000 -58.64730000
-87.20230000 144.44300000 60.30250000
-90.34600000 141.91700000 58.68670000
-89.16560000 144.95800000 56.64530000
-34.25100000 105.57200000 119.52700000
-36.89380000 101.95800000 119.53000000
-41.08470000 100.25300000 118.42600000
-41.03940000 96.12700000 119.28600000
68.01070000 168.69400000 79.86430000
66.66480000 170.97000000 77.15190000
63.48330000 170.32900000 80.47730000
72.20140000 168.68700000 76.81450000
15.44550000 44.52390000 142.05100000
12.08430000 42.84710000 142.09100000
-3.05160000 46.22640000 143.08900000
-2.23490000 49.93600000 143.75400000
-6.53810000 50.89630000 143.70400000
51.87510000 -128.04200000 -55.86880000
52.82390000 -127.45800000 -56.02550000
49.26840000 -126.91000000 -59.80600000
20.18840000 122.18500000 -143.61800000
24.55720000 115.95500000 -145.41700000
21.17830000 120.06500000 -144.40800000
-142.48600000 64.22070000 -32.40140000
-142.98200000 68.91970000 -30.94470000
-141.24100000 77.59580000 -37.40510000
-141.36300000 74.08270000 -37.41440000
12.03370000 -39.23630000 -107.98200000
8.82600000 -40.99160000 -107.32800000
3.88770000 -22.88990000 -115.37600000
4.95720000 -28.79220000 -112.88100000
6.59140000 -21.06040000 -116.16100000
28.68160000 18.49930000 -142.87600000
23.56080000 21.14010000 -144.11500000
23.11540000 28.91690000 -145.77600000
29.60080000 15.08650000 -141.83700000
37.54820000 71.99880000 -133.11500000
35.45370000 75.23840000 -133.44500000
32.26040000 67.38720000 -134.46300000
5.38010000 168.96000000 83.66900000
0.22540000 169.73600000 82.19320000
4.69030000 170.93600000 80.03770000
10.80550000 168.52000000 84.16430000
12.03300000 169.55800000 82.23950000
15.67840000 168.50000000 83.67350000
56.48250000 198.85800000 6.71770000
56.15650000 197.75400000 9.93750000
55.77690000 199.32900000 10.36300000
57.59690000 196.08300000 1.40100000
57.04170000 196.78900000 5.99840000
56.73570000 198.93800000 4.61390000
1.50430000 177.71700000 66.20690000
4.21500000 176.53300000 68.28400000
-1.71490000 176.35100000 68.42750000
16.61340000 175.80400000 68.56410000
-56.36670000 209.70700000 -39.78290000
-52.06710000 210.17000000 -44.28170000
-53.39950000 210.91400000 -39.79040000
-59.27230000 209.50000000 -36.64220000
81.11300000 3.80970000 91.30180000
77.66860000 -2.77700000 91.04270000
77.37870000 4.34710000 94.41480000
82.03220000 -0.49750000 88.61060000
85.76330000 3.37030000 87.17390000
83.71940000 -2.57440000 86.16490000
-77.21830000 165.69300000 38.51840000
-78.28930000 163.46500000 42.55590000
-80.15510000 163.55500000 38.67990000
-74.87230000 164.32700000 46.31880000
-72.54380000 163.31100000 52.10240000
-75.00490000 162.53800000 50.06730000
75.78550000 -18.47500000 -92.37630000
75.69510000 -31.60430000 -85.16070000
77.07660000 -34.45300000 -82.19770000
79.17990000 -27.24300000 -84.57630000
-50.40950000 -23.40940000 94.37110000
-53.23110000 -19.42140000 94.72320000
-49.39120000 -17.33800000 97.90100000
-52.55470000 -28.22570000 90.64640000
-51.73620000 -36.32890000 86.76850000
58.99460000 196.24400000 23.45890000
60.91730000 200.79300000 18.53250000
61.18490000 196.70600000 17.94620000
61.83950000 200.10100000 15.73810000
-46.59450000 173.05100000 -62.21840000
-55.26010000 169.18800000 -65.12610000
75.57220000 13.85900000 -124.25300000
69.71320000 25.54280000 -130.63900000
75.87600000 219.47300000 -18.82140000
77.24940000 218.21500000 -10.75690000
-78.12390000 15.93430000 111.34200000
-77.53940000 19.78590000 113.04400000
-81.44760000 17.95450000 109.47500000
-75.25840000 9.18310000 110.32600000
-78.71420000 9.55850000 107.88200000
62.18430000 196.08800000 14.87510000
62.82230000 199.64900000 12.13450000
1.13370000 182.74000000 -64.20820000
1.52140000 184.56800000 -62.50000000
-4.14190000 183.87000000 -62.62490000
-0.08520000 179.71600000 -67.71240000
131.68000000 48.13890000 72.25260000
133.38200000 46.00350000 68.52890000
134.37800000 48.95270000 67.79890000
137.65100000 48.49420000 60.18740000
137.10400000 43.29370000 59.70850000
138.89300000 46.28300000 56.85030000
136.16800000 47.53670000 63.24010000
137.23900000 51.40490000 62.69530000
138.37900000 55.31370000 60.82490000
138.78300000 58.01730000 60.10570000
137.94900000 58.73080000 62.43030000
-84.63750000 -67.03090000 6.31230000
-83.76950000 -69.16670000 3.42200000
-88.28070000 -60.60550000 4.63470000
-88.95330000 -57.73010000 11.11630000
-89.05560000 -56.49970000 14.21540000
58.53170000 201.78900000 24.52410000
57.48090000 203.42400000 27.46960000
57.14930000 201.81800000 27.37880000
61.97830000 201.84500000 15.46210000
61.18290000 202.15100000 18.12820000
-12.16120000 219.40400000 66.99190000
-4.56090000 219.61700000 67.19980000
-11.37000000 219.54700000 65.45140000
3.86870000 219.65800000 68.66590000
98.57380000 170.76700000 -41.70180000
96.85660000 172.39300000 -39.65330000
101.39800000 170.09500000 -37.56410000
92.09790000 172.96100000 -47.95470000
-126.76500000 60.05150000 -28.95260000
-126.23400000 56.85810000 -30.78800000
-125.77200000 59.71210000 -33.63070000
-124.45800000 57.26750000 -38.41300000
-77.85620000 -78.30300000 9.34520000
-81.52130000 -71.91390000 9.29710000
-78.57590000 -76.11020000 12.36300000
-73.36640000 -83.50130000 16.12670000
-67.96030000 -92.07800000 16.61690000
-69.09830000 -91.41090000 13.84560000
104.39100000 -35.50540000 -39.58620000
110.71500000 -16.09990000 -46.49110000
-82.25740000 -48.97850000 64.18500000
-78.33750000 -48.70690000 69.27920000
-75.08210000 -63.31530000 59.00120000
-74.80560000 -59.30680000 63.37850000
-77.88900000 -55.54700000 63.16270000
-8.85860000 77.83790000 145.88700000
-10.68990000 79.54130000 146.02800000
-10.12850000 76.17600000 145.57500000
-14.54590000 79.64530000 145.34200000
47.07890000 177.55800000 51.55140000
-24.37800000 -129.88000000 -67.33620000
-22.55620000 -129.97000000 -64.90850000
-25.64460000 -130.38100000 -63.02340000
-20.64800000 -129.92700000 -61.52160000
-25.06150000 -130.32900000 -60.80870000
-47.68120000 148.16300000 -115.83700000
-46.02580000 152.69300000 -112.64900000
-43.47290000 150.37900000 -115.82300000
-41.67430000 152.75400000 -114.39700000
-40.92340000 155.29600000 -112.42200000
117.63700000 -17.78310000 -15.99840000
120.46200000 -10.31630000 -17.66430000
-3.13310000 -101.38300000 78.96540000
9.31770000 -100.87000000 79.69790000
11.70340000 -99.26870000 80.33740000
7.88780000 -96.54850000 81.96170000
-21.92980000 51.30600000 -148.58700000
-22.99930000 53.71320000 -148.78700000
-22.64600000 56.18930000 -149.31400000
-22.19510000 59.19420000 -149.71700000
-20.23400000 57.32650000 -149.99600000
-26.87050000 215.03800000 -48.74660000
-23.97660000 215.18900000 -50.51500000
-20.80450000 212.56100000 -50.71980000
-23.65050000 212.10200000 -49.02480000
-23.00930000 210.27400000 -48.69020000
106.58100000 -26.15990000 -45.48170000
106.22600000 -29.54620000 -42.32260000
109.39700000 -21.96190000 -43.18450000
102.89200000 -35.06180000 -44.12540000
2.64660000 19.12370000 -144.70900000
1.61820000 23.06440000 -145.65200000
8.62910000 22.14850000 -145.62900000
-6.72340000 23.94540000 -145.39900000
-6.55680000 19.37870000 -144.26100000
43.06160000 131.21100000 -134.38800000
33.43730000 132.73600000 -135.76200000
32.56260000 135.51300000 -134.17900000
35.10030000 135.84400000 -133.49000000
-51.05420000 195.48900000 0.96780000
-50.20480000 199.59200000 3.60990000
-50.89180000 195.30600000 4.37820000
-50.56960000 195.20100000 6.84340000
-49.57820000 199.92500000 7.95020000
-49.66350000 195.52100000 10.96360000
8.25120000 -121.34400000 -78.86790000
-0.38620000 -121.61800000 -79.02210000
0.74250000 -122.65000000 -77.96810000
-98.55350000 110.22600000 -78.80650000
-95.87040000 113.18000000 -80.93680000
-99.15570000 115.15100000 -75.36810000
-101.56000000 116.54200000 -70.89120000
-101.98300000 113.31000000 -72.14550000
45.67720000 219.51400000 -63.98780000
45.44150000 219.07200000 -64.75400000
41.44380000 219.23500000 -66.98750000
43.59310000 216.62500000 -66.10950000
46.34840000 217.20800000 -64.49660000
-80.68180000 -55.34440000 -75.44560000
-81.51500000 -58.85850000 -70.99570000
-82.37660000 -54.80550000 -73.89770000
-79.63710000 -59.32990000 -73.43720000
-106.37700000 102.07000000 -70.72930000
-104.47000000 104.92300000 -72.55240000
-100.94300000 110.72900000 -75.10920000
-69.34560000 -49.25850000 -89.92590000
-68.09950000 -51.31960000 -89.84400000
-69.52310000 -52.78440000 -87.71050000
-67.19180000 -54.01010000 -88.87400000
-64.69140000 -56.45600000 -89.19440000
-68.48790000 -55.86110000 -86.59060000
114.83900000 -24.40100000 -15.97640000
112.69000000 -29.87230000 -13.60200000
116.46400000 -21.21230000 -13.39520000
93.74420000 -95.41360000 -4.61280000
92.53740000 -98.39340000 -3.88960000
92.88400000 -97.61920000 -6.27820000
94.27500000 -94.10080000 -8.91130000
92.92350000 -97.31550000 -8.55070000
91.94190000 -98.59230000 -13.11380000
50.27090000 -25.89990000 -118.96600000
50.33630000 -20.22830000 -121.91600000
53.73150000 -27.28060000 -116.62400000
56.09440000 -30.27210000 -114.23800000
94.38180000 -93.99110000 -1.68640000
92.48010000 -98.62070000 -2.05360000
-21.90510000 11.75660000 -139.50600000
-5.82540000 12.90160000 -142.30400000
-12.65710000 12.56430000 -141.40400000
-13.87900000 16.56900000 -142.57500000
95.82970000 -91.31070000 -2.15020000
96.02250000 -90.39890000 3.13290000
97.81080000 -87.63440000 1.30300000
97.12390000 -87.88580000 6.52580000
-80.33850000 14.24320000 89.67590000
-77.98190000 15.41720000 92.26210000
-76.83770000 10.00850000 91.07480000
-83.52800000 23.64890000 90.23160000
-80.82170000 20.63100000 91.68070000
-56.99030000 -98.54690000 32.94170000
-60.75250000 -91.18390000 35.48060000
-57.16900000 -95.76540000 36.07110000
-51.23680000 -107.53200000 31.43310000
-49.10810000 -111.30500000 29.96880000
-61.76510000 154.48900000 95.33650000
-52.10430000 162.28400000 92.37460000
-52.14330000 161.20400000 93.25690000
-49.29390000 162.77200000 93.50570000
-64.57250000 155.95400000 91.95170000
-62.18980000 156.42900000 93.00260000
-55.79520000 160.80500000 92.14380000
-54.25470000 160.09800000 93.50930000
-17.85380000 188.92100000 50.55840000
29.20190000 221.82600000 52.72790000
33.71340000 221.92900000 51.09480000
33.07820000 221.82200000 50.69350000
40.02270000 221.86100000 46.18680000
54.51670000 210.97300000 -56.04150000
51.49680000 211.48100000 -59.25720000
56.18100000 211.46800000 -54.89930000
63.33130000 211.53400000 -46.22770000
60.68460000 211.03700000 -49.05630000
59.52550000 211.44100000 -51.08350000
-10.72530000 76.57820000 -152.13600000
-13.23440000 70.67760000 -152.22900000
-16.56840000 70.48010000 -151.54800000
-68.24910000 143.00600000 101.70500000
-65.92390000 139.50500000 106.15000000
-64.65750000 142.96300000 104.15000000
-64.06150000 147.61200000 100.46400000
-58.08330000 150.45500000 101.75900000
-61.76490000 150.26200000 99.41760000
