3.46375000 -7.05384000 2.75160000
-0.09344090 9.60999000 -5.17715000
-0.39973100 9.48917000 -5.02529000
-0.12458600 9.70757000 -5.30916000
-5.39545000 -6.09222000 2.56208000
-5.57356000 -6.04783000 2.23987000
-5.33317000 -6.39109000 2.08971000
-4.89755000 -6.32038000 3.06881000
-5.29536000 -6.01037000 2.89530000
-5.14838000 -6.35118000 2.57682000
3.71266000 -4.71762000 4.85169000
3.92476000 -4.94093000 4.55381000
3.61795000 -5.07278000 4.71426000
3.22270000 -4.56558000 5.25463000
3.02646000 -4.36274000 5.45615000
-3.69200000 7.60132000 3.41017000
-3.85848000 7.28464000 3.21767000
-3.54631000 7.43298000 3.55674000
-4.40566000 8.11552000 2.48820000
5.90549000 5.69803000 1.01207000
-2.77376000 5.94388000 -3.92449000
-3.02506000 5.43005000 -3.86657000
-2.72991000 5.41266000 -4.08703000
-3.34459000 5.95026000 -3.44266000
-3.61163000 5.95714000 -3.15726000
-3.48872000 5.38394000 -3.45927000
-1.85049000 -8.03143000 -4.05898000
-1.62448000 -8.11152000 -4.17460000
-1.71642000 -8.72506000 -4.24318000
-1.43760000 -7.38325000 -4.56910000
-2.05477000 9.82767000 5.52408000
-2.48062000 9.73988000 5.31211000
-5.02603000 6.23116000 -0.77642300
-5.03500000 5.91787000 -0.96792300
-5.01393000 6.10504000 -0.93602300
5.36231000 5.64864000 -0.45900200
3.09402000 6.08327000 -3.81082000
3.32934000 6.00570000 -3.63144000
3.09789000 6.73439000 -3.69708000
3.15815000 5.68962000 -3.84580000
3.28174000 5.22214000 -3.87161000
-2.91596000 4.18676000 -5.01812000
-2.62586000 4.45063000 -5.00938000
-2.54775000 4.22743000 -5.20661000
-2.22610000 4.43854000 -5.22419000
5.01871000 3.99794000 -2.15305000
4.97219000 4.76521000 -1.61133000
-4.96585000 9.62578000 -0.56878000
-4.83215000 9.52449000 -0.87910400
-4.97489000 9.66569000 -0.90098800
-4.83215000 9.52449000 -0.87910400
-2.54526000 5.94100000 -4.08113000
-1.80955000 4.96879000 -4.70166000
4.03452000 3.75006000 4.44142000
3.73355000 4.14325000 4.58208000
3.96352000 3.99915000 4.39383000
4.21449000 4.13714000 4.14465000
2.71658000 -6.01170000 4.62020000
2.43770000 -5.82790000 4.91024000
2.87051000 -5.71576000 4.76695000
1.88475000 -6.02061000 4.99052000
1.71323000 -6.23660000 4.86849000
1.49239000 -6.08648000 5.06543000
3.74085000 3.94249000 4.60072000
3.30163000 4.12631000 4.89277000
3.49711000 4.00763000 4.77251000
-6.24221000 -1.43464000 -2.50227000
-5.74961000 -0.36714400 -3.37033000
-5.91957000 -0.69882200 -3.13668000
-5.71733000 -0.72782100 -3.50517000
-2.40140000 3.97886000 -5.35684000
-2.80950000 4.09761000 -5.12306000
-2.42274000 4.11906000 -5.32301000
-2.04684000 3.99337000 -5.51052000
5.06023000 -2.35888000 5.45214000
4.82265000 -1.30587000 5.75834000
5.08200000 -1.73913000 5.51913000
5.07207000 -1.10249000 5.54406000
4.77572000 8.90815000 0.59866200
4.73905000 8.66219000 0.54824900
4.69856000 8.37065000 0.69165500
-2.37730000 -1.81336000 6.22822000
-2.42993000 -2.19533000 6.18862000
-2.68380000 -1.93069000 6.09778000
-1.46210000 -1.91660000 6.50639000
-1.29537000 -2.39619000 6.50989000
-1.63673000 -2.32805000 6.43761000
4.52724000 8.27216000 1.41954000
4.53710000 8.61263000 1.42214000
4.52724000 8.27216000 1.41954000
-4.77695000 9.22220000 2.47323000
-4.95081000 9.23266000 2.12411000
-4.74793000 9.02680000 2.31509000
-4.93105000 9.09631000 1.98541000
-4.90488000 8.80509000 1.71298000
-4.76037000 8.84986000 2.12417000
-6.22265000 -5.47043000 1.52606000
-6.37101000 -5.40924000 0.95646500
-6.07110000 -5.82694000 1.14406000
-5.83900000 -6.05545000 1.43463000
5.67305000 -2.07821000 -4.98352000
5.28034000 -1.56630000 -5.42122000
5.73898000 -1.74086000 -4.94389000
6.05727000 -1.83936000 -4.54439000
-4.09994000 -2.31605000 -6.08094000
-4.01278000 -1.90756000 -6.19667000
-3.75048000 -2.72394000 -6.23942000
-3.50413000 -2.64429000 -6.39880000
-3.42906000 -3.27228000 -6.31950000
-6.04766000 -0.47892500 -2.81853000
-5.91505000 -0.34741500 -3.05332000
-6.03922000 -0.14763700 -2.70281000
-5.84084000 0.33184600 -2.86006000
5.31512000 4.90696000 -2.05755000
5.24790000 5.13871000 -1.87648000
5.44185000 4.90031000 -1.67934000
-6.25683000 3.01212000 -0.85976400
-6.33081000 3.12982000 -1.07327000
-6.40675000 3.00545000 -1.26137000
-6.36467000 3.02136000 -1.06151000
4.89237000 5.23303000 -1.46728000
4.92993000 5.60896000 -0.99766700
4.56067000 -5.51549000 -4.76899000
5.28876000 -5.02751000 -4.37340000
5.55071000 -4.56635000 -4.33692000
0.93483500 7.64047000 4.51065000
0.94829100 7.06308000 4.54356000
3.68374000 -2.04771000 -5.73131000
3.02900000 -2.88234000 -6.00080000
3.41445000 -2.87730000 -5.79122000
3.15475000 -2.42742000 -6.00150000
-6.68773000 4.17470000 -1.25975000
-6.64988000 4.12921000 -1.67898000
-6.66824000 4.03345000 -1.51032000
-6.66423000 3.76458000 -0.99541200
0.20277400 9.81164000 5.32189000
-3.88402000 3.50850000 4.56581000
-4.12866000 3.24212000 4.55905000
-3.83518000 3.23644000 4.76747000
-4.59332000 2.97354000 4.26539000
-4.53186000 3.23917000 4.08835000
-0.26044100 -7.57017000 4.02065000
-0.69552700 -7.56583000 3.96613000
-0.45142200 -7.41367000 4.07999000
-0.26044100 -7.57017000 4.02065000
-0.69552700 -7.56583000 3.96613000
2.10578000 -2.10764000 7.16618000
2.87896000 -1.97117000 6.91641000
2.31501000 -1.79036000 7.12871000
1.88940000 -1.72775000 7.25707000
1.99114000 -1.22074000 7.23208000
-0.61949700 -9.32824000 4.45523000
-1.21928000 -9.29909000 4.35964000
-0.47706300 -9.35172000 4.40473000
-5.36957000 9.30350000 -0.94614400
-5.27310000 9.24503000 -1.24425000
-5.28951000 9.17682000 -0.92974700
-5.36957000 9.30350000 -0.94614400
-5.28951000 9.17682000 -0.92974700
-5.37697000 9.24959000 -0.60461800
4.85009000 4.88724000 -3.02993000
4.73940000 5.14030000 -2.95969000
5.06291000 4.88781000 -2.66187000
5.18091000 4.92558000 -2.37650000
4.97034000 5.15371000 -2.53385000
-4.54529000 -1.86483000 -4.99835000
-4.85463000 -1.72098000 -4.69769000
-4.71908000 -2.34188000 -4.79017000
-5.19249000 -2.23080000 -4.27304000
-4.95191000 -2.00704000 -4.57473000
-5.13858000 -1.80025000 -4.37246000
-3.68944000 -0.24700100 6.35966000
-3.81832000 -0.52802100 6.33556000
-3.42293000 -0.39678100 6.52835000
-2.53215000 -0.61584900 6.96550000
-2.95076000 -0.40343500 6.76500000
-3.23072000 -0.74073900 6.66084000
0.28592800 0.53393600 7.20252000
-0.32889600 0.47880100 7.20150000
0.16784400 0.16852800 7.28748000
0.61270500 -0.27865100 7.36323000
0.68596200 0.08633350 7.28988000
2.74581000 9.70590000 -4.61885000
2.39614000 9.69909000 -4.79347000
2.68769000 9.59506000 -4.49091000
2.72013000 9.79262000 -4.79857000
2.50481000 9.92605000 -5.23225000
7.42103000 -2.92984000 -0.39340400
7.35530000 -3.30300000 0.03867520
7.36656000 -2.81921000 -1.16430000
7.39603000 -2.44548000 -1.33035000
-3.51434000 6.40688000 3.10646000
-3.51801000 7.06414000 2.98743000
-6.23699000 4.81761000 -1.07879000
-6.26318000 4.97090000 -0.96929000
-4.96149000 -5.71979000 -3.85062000
-5.30078000 -5.53839000 -3.56160000
-4.71185000 -6.29859000 -3.46095000
-4.48097000 -6.57926000 -3.33918000
2.80159000 -7.77890000 3.65854000
3.08055000 -7.75281000 3.42574000
2.85174000 -7.62606000 3.64861000
2.57879000 -7.71356000 3.82986000
2.52282000 -7.60127000 3.90406000
2.25517000 -7.67043000 4.02472000
-1.69175000 -3.54490000 7.01598000
-1.84645000 -4.12144000 6.82815000
4.56992000 4.05235000 -2.92881000
4.68937000 3.34265000 -3.25194000
4.88490000 2.59196000 -3.56043000
5.04659000 2.77858000 -3.18446000
2.19307000 -7.81274000 4.04275000
1.83448000 -7.83384000 4.20941000
1.22783000 -7.57040000 4.48080000
0.80268400 -7.62148000 4.53683000
1.24797000 -7.67547000 4.42833000
4.83553000 4.65518000 -3.11003000
5.05133000 4.78801000 -2.74305000
5.11743000 4.65956000 -2.61323000
5.33045000 4.65228000 -2.12891000
5.26311000 4.79896000 -2.29852000
5.40969000 4.80421000 -1.89913000
4.29318000 6.88465000 2.18479000
4.28730000 7.20661000 2.13970000
4.14111000 7.19763000 2.39632000
4.17976000 7.81236000 2.26225000
1.67802000 5.18816000 -4.76552000
2.03046000 5.19770000 -4.62811000
2.01225000 5.61780000 -4.54081000
2.23065000 5.26135000 -4.52200000
2.36685000 5.69208000 -4.35637000
5.90650000 -6.03665000 2.00533000
5.76914000 -6.29353000 1.69971000
5.98566000 -6.03470000 1.75900000
5.76914000 -6.29353000 1.69971000
5.88186000 -6.24808000 1.46739000
5.98566000 -6.03470000 1.75900000
-3.04221000 9.40873000 -3.83203000
-2.96521000 9.23740000 -3.76247000
-2.80242000 9.34306000 -3.96124000
-3.71124000 9.29657000 -3.03771000
-3.43427000 9.30338000 -3.36792000
-3.68657000 9.48092000 -3.26517000
3.65637000 1.79276000 5.09746000
3.26046000 2.70884000 4.94709000
-5.62765000 4.20166000 1.07257000
-5.50305000 4.45689000 0.89331300
-5.67390000 4.20835000 0.70707600
-5.26944000 4.80472000 1.57527000
-5.18490000 5.16044000 1.27373000
-5.37660000 4.79205000 1.16911000
3.55131000 -1.55637000 5.71653000
2.63506000 -2.10782000 6.15033000
2.90413000 -1.90025000 6.04517000
2.84980000 -2.31369000 6.04025000
2.69030000 1.42984000 6.44237000
2.45100000 1.21044000 6.58092000
2.79874000 1.18605000 6.47489000
3.38675000 1.34594000 6.11259000
3.88303000 -9.28404000 2.00228000
4.01590000 -9.31544000 2.03889000
3.71421000 -8.99972000 1.65716000
3.56321000 -9.04411000 2.01569000
3.38645000 -8.68943000 1.76549000
-6.16922000 5.24848000 -1.36702000
-6.17704000 5.43474000 -1.44813000
-6.00319000 5.49691000 -1.70708000
-6.22849000 5.21423000 -0.90458400
5.59925000 5.45739000 0.85896800
5.67662000 5.46871000 0.94477600
5.69997000 5.28275000 0.95389700
5.70154000 5.47114000 1.04297000
-6.22150000 5.57167000 -1.23589000
-6.14270000 5.73990000 -0.95406200
-6.16487000 5.77725000 -1.13991000
-6.20037000 5.31001000 -1.23351000
-6.19490000 5.47330000 -1.08164000
-3.72958000 8.43837000 3.49229000
-3.76247000 8.98058000 3.68477000
-3.51301000 8.76784000 3.81953000
1.99350000 9.91585000 -5.62403000
-4.90242000 8.29517000 1.32174000
-5.00070000 8.77000000 1.37283000
6.66580000 -2.74544000 0.72454800
6.61127000 -3.12584000 0.64315700
6.56723000 -3.15483000 0.94363100
6.69822000 -2.83522000 -0.00970521
0.73544300 -3.45021000 7.21998000
0.18839300 -3.56495000 7.20420000
0.62632900 -4.21255000 7.02677000
5.18238000 -4.01494000 -3.85593000
5.12285000 -4.43541000 -3.68366000
5.35960000 -4.21807000 -3.47893000
5.45762000 -3.90251000 -3.51673000
5.63746000 -3.46705000 -3.44004000
-1.04421000 -2.70902000 6.52108000
-1.42951000 -2.82461000 6.43019000
-0.33480300 -2.62187000 6.60982000
-5.47078000 9.94336000 -0.58228400
-5.25429000 9.83612000 -0.63317200
-5.41142000 9.93503000 -0.97198900
-5.80057000 9.96002000 -0.38970000
-5.64164000 9.97605000 -0.20629300
-5.63054000 9.97555000 -1.00836000
-1.30984000 2.42051000 6.40710000
-1.48174000 2.01249000 6.52859000
-1.99450000 1.77878000 6.48697000
-2.10735000 1.36160000 6.58719000
-0.85684400 -7.37256000 4.73002000
-1.01481000 -7.13566000 4.93428000
-1.50065000 -7.07608000 4.87695000
-0.31272400 -7.40962000 4.77230000
-0.18739900 -7.11817000 5.07532000
-4.61060000 8.50286000 -2.29611000
-4.40923000 8.24076000 -2.56616000
-4.54927000 8.12875000 -2.25604000
-5.04881000 8.73773000 -1.20489000
-0.19217800 -5.94126000 5.36855000
-0.36882000 -6.09718000 5.23945000
-0.61236100 -5.81662000 5.42211000
-0.91464800 -6.24795000 5.04067000
-1.22248000 -6.09923000 5.09770000
-0.99679800 -5.91641000 5.29070000
-7.33916000 -1.84050000 -0.69215600
-7.30085000 -2.29690000 -0.64217000
-7.34149000 -2.15494000 -0.24128000
-7.17886000 -3.22673000 -0.17484500
-3.77830000 9.43870000 4.04778000
-5.33419000 -2.66669000 -4.01768000
-5.45730000 -2.31617000 -3.90869000
-5.69619000 -2.46266000 -3.51490000
-5.77101000 -2.06819000 -3.44687000
1.81257000 -3.01545000 7.09868000
1.33878000 -3.47940000 7.10823000
4.79629000 -9.13135000 0.50266900
4.80673000 -9.16721000 0.06314070
4.72095000 -9.27505000 0.01692190
-5.31704000 -4.55280000 4.34348000
-4.67011000 -4.28711000 5.17598000
-4.41680000 -3.90592000 5.55092000
-4.95497000 -3.86603000 5.06248000
-4.15555000 2.80942000 4.78247000
-4.34973000 2.94441000 4.54037000
-4.36977000 2.56630000 4.70968000
-4.05263000 2.19291000 5.19469000
-3.79450000 2.53640000 5.18927000
-4.24147000 2.47707000 4.87888000
4.70420000 -7.58599000 -0.19055000
4.67331000 -7.67340000 -0.16983200
4.64077000 -7.67125000 -0.56986900
4.58321000 -7.63350000 0.90434700
4.65290000 -7.55410000 0.76248800
4.53562000 -7.52358000 1.33584000
6.32839000 1.23462000 3.10533000
6.13132000 1.35048000 3.39502000
-3.53196000 8.18882000 2.84262000
-3.38174000 8.26050000 3.01033000
-3.42673000 8.58430000 2.96295000
-3.57589000 8.51874000 2.77976000
-3.42279000 8.81009000 2.99704000
4.25887000 8.61637000 3.13459000
4.03133000 8.59079000 3.39916000
4.13219000 8.32953000 3.20683000
4.21796000 9.00603000 3.40257000
4.30218000 -1.76961000 -5.29892000
4.44275000 -1.42082000 -5.19051000
3.71835000 0.29111800 -5.45790000
3.66672000 -0.18701700 -5.64272000
3.91965000 -0.11928000 -5.44969000
-4.40637000 6.10673000 2.55838000
-4.56850000 6.00335000 2.28384000
-4.70725000 5.66288000 2.18014000
-4.51978000 5.53288000 2.62475000
5.31789000 5.26386000 -1.48923000
5.07211000 5.72052000 -1.81705000
5.15579000 5.72508000 -1.54737000
6.37456000 -2.32048000 2.20103000
6.25850000 -2.22946000 2.52766000
6.12159000 -1.65407000 2.92524000
-5.77623000 -5.14202000 -1.12953000
-5.93208000 -4.81949000 -1.15692000
-6.08372000 -4.46247000 -1.18334000
1.36408000 -1.77479000 -7.36639000
1.75652000 -2.16544000 -7.23343000
2.16983000 -2.76871000 -7.06714000
2.23050000 -3.26510000 -6.96042000
2.02684000 -3.20647000 -7.00701000
4.61800000 -7.57147000 -1.00300000
4.53169000 -7.66068000 -1.17856000
4.43639000 -7.66664000 -1.49564000
4.60820000 -7.64790000 -0.84173800
4.67940000 -7.59209000 -0.50735200
0.91812400 9.16894000 5.34744000
1.41307000 9.71328000 5.71826000
0.98735100 9.37027000 5.46963000
-4.10970000 4.41804000 -3.86544000
-4.37685000 4.21128000 -3.75034000
-4.44196000 4.41900000 -3.46362000
-4.05845000 4.22507000 -4.08532000
-3.70138000 4.41558000 -4.26654000
-3.74776000 4.21784000 -4.38678000
-3.28127000 -0.13125100 5.67592000
-2.99249000 -0.55786100 5.90434000
-3.16969000 -0.98916200 5.85081000
-3.38542000 -0.64123400 5.69938000
-2.51809000 5.72186000 4.55972000
-2.84971000 5.55253000 4.40997000
-2.57208000 5.38079000 4.64588000
-2.42589000 6.80222000 4.45588000
-2.55835000 7.25325000 4.35601000
-2.72852000 6.81560000 4.26774000
-4.69539000 4.17018000 -3.36644000
-5.20097000 4.19457000 -2.44796000
-5.39079000 4.18005000 -2.00345000
-5.18811000 4.39777000 -2.15744000
-1.24796000 -1.63231000 -6.68762000
-1.00423000 -2.09530000 -6.71009000
-0.86329000 -1.64881000 -6.74991000
-1.20600000 -0.85650700 -6.67570000
-0.78327200 -0.79481400 -6.73990000
6.47525000 -5.71699000 -0.34584700
6.29401000 -5.92111000 -0.80583600
6.51548000 -5.57829000 -0.85026700
6.44542000 -5.54435000 -1.36793000
6.26690000 -5.66108000 -1.79881000
6.42004000 -5.40863000 -1.77148000
7.16030000 0.08966030 1.84744000
7.09635000 0.37804400 1.80856000
7.16030000 0.08966030 1.84744000
7.09635000 0.37804400 1.80856000
-4.79902000 5.14833000 1.13631000
-4.79743000 5.34790000 0.94285000
-4.63512000 5.82346000 1.20342000
-5.02763000 4.53817000 0.83658000
-5.07343000 4.17887000 1.16180000
-5.15265000 4.10607000 0.89202300
3.34189000 8.61756000 3.31961000
3.48753000 8.02878000 3.17008000
3.33672000 7.72353000 3.33021000
1.86948000 3.30957000 -5.95243000
1.90270000 3.86344000 -5.70997000
2.17863000 3.36444000 -5.81954000
3.13390000 2.72478000 -5.72934000
2.73140000 2.97581000 -5.81928000
3.00440000 2.97142000 -5.64455000
0.84425300 4.45046000 5.61920000
0.71124200 4.24337000 5.76849000
1.09402000 4.24557000 5.71336000
1.10644000 4.15012000 5.76165000
0.61613000 4.12704000 5.83024000
0.85423600 3.99862000 5.81360000
-4.33953000 4.77782000 3.41539000
-4.32584000 4.61699000 3.44689000
-4.66579000 4.46074000 3.06442000
4.07548000 3.97574000 3.54500000
3.78720000 3.97573000 3.84053000
3.74900000 3.34332000 4.20672000
3.34631000 3.60851000 4.38074000
3.35750000 3.98530000 4.19592000
2.99490000 6.04119000 4.29863000
3.14716000 6.45014000 4.12926000
3.19583000 6.07576000 4.14914000
-6.21329000 4.25207000 -1.37057000
-6.48098000 4.34292000 -0.96270500
3.05850000 9.72854000 4.31203000
3.08181000 9.63782000 4.14639000
2.70661000 9.64921000 4.39730000
1.35915000 9.66184000 4.94632000
2.01793000 9.74571000 4.87438000
1.88292000 9.64339000 4.77081000
-4.53557000 3.93652000 -3.67587000
-4.72158000 4.06458000 -3.39137000
-4.46305000 4.11259000 -3.71541000
-5.10412000 4.08962000 -2.74639000
-4.95709000 3.96586000 -3.04911000
-5.13294000 3.94703000 -2.72712000
0.93958900 -8.75543000 -0.27703700
1.97973000 -8.70648000 -0.92189700
-5.71540000 5.48538000 -1.47386000
-5.44281000 5.62772000 -1.56964000
-5.45809000 5.49327000 -1.54543000
1.60598000 2.62298000 -6.35897000
2.32422000 3.23311000 -5.82822000
2.15684000 3.16552000 -5.94837000
1.83858000 3.18428000 -6.02868000
-6.40698000 -2.80373000 -3.42498000
-6.25582000 -2.81105000 -3.68452000
-6.27568000 -3.43127000 -3.42781000
-5.12789000 -6.14360000 -1.00761000
-5.32164000 -5.89158000 -1.04545000
-4.90966000 -6.39401000 -0.96508400
0.23086400 7.55847000 5.08280000
0.19604000 7.09102000 5.09123000
1.01222000 7.44199000 5.00729000
0.74249400 7.32512000 5.04859000
1.05589000 7.02132000 5.00489000
-3.75447000 9.65084000 3.24096000
-4.39230000 9.92613000 3.10877000
-4.28019000 9.99438000 3.56745000
-3.97780000 9.95259000 3.74200000
-4.23534000 3.92905000 -4.02567000
-3.97879000 4.11675000 -4.23492000
-3.68876000 3.96724000 -4.52556000
-4.00608000 3.94873000 -4.24708000
5.70156000 9.91487000 1.79894000
6.27126000 0.35817900 -2.00229000
6.16433000 0.65552200 -2.16944000
-4.59405000 4.79111000 3.05590000
-4.74864000 4.61416000 2.83017000
-4.55231000 4.62233000 3.13872000
-4.83134000 4.77488000 2.65447000
-4.98823000 4.62449000 2.36590000
6.44428000 -3.61306000 1.08125000
6.31044000 -3.53472000 1.74639000
6.27555000 -3.34367000 1.99510000
5.48572000 4.64795000 -1.66053000
5.68952000 4.66829000 -0.48886600
5.66843000 4.77074000 -0.71161300
5.69656000 4.78148000 -0.31718500
4.86623000 4.43616000 3.06009000
4.98650000 4.24248000 3.10831000
5.08619000 4.44136000 2.67707000
4.26523000 4.25220000 4.02031000
0.23002500 5.33969000 -4.97996000
5.16648000 -5.76582000 2.10557000
5.29876000 -5.73955000 1.80272000
4.74925000 -6.11077000 2.41566000
4.54458000 -6.16461000 2.69626000
4.86326000 -5.87687000 2.57349000
5.56168000 4.90733000 -1.13210000
5.36929000 5.12611000 -1.50042000
5.46568000 5.12097000 -1.05789000
5.20961000 5.75454000 -1.31530000
5.40909000 5.28532000 -1.03236000
-4.29290000 -8.95271000 1.57527000
-4.40108000 -8.87872000 1.17487000
-4.53498000 -8.95318000 0.58561900
-6.83201000 1.28474000 0.16098900
-7.24737000 -0.07989980 0.28348200
-5.11550000 9.75167000 0.25154100
-4.98108000 9.62622000 -0.23407200
-5.13535000 9.75203000 -0.39771400
-5.10190000 9.76383000 0.58052000
-4.41598000 -8.19206000 0.24391800
-4.39491000 -7.99594000 -0.27145900
-0.71276000 -4.18532000 -7.01831000
-0.61118900 -4.61315000 -6.90159000
-0.90905300 -4.39919000 -6.91453000
-0.21399100 -4.52105000 -6.94749000
-0.26746000 -4.17395000 -7.05920000
-7.08234000 -3.20625000 -1.14129000
-7.08862000 -3.26944000 -1.01665000
1.56423000 2.83140000 6.16624000
1.80577000 2.66887000 6.23366000
2.19810000 3.20945000 5.81304000
0.67837900 1.81134000 6.75029000
1.37613000 2.23656000 6.49975000
6.28053000 0.25935600 3.79152000
6.62618000 0.16415800 3.21111000
6.54638000 -0.11703600 3.50335000
2.86996000 3.70270000 5.28161000
-2.45320000 7.09671000 -3.97816000
-2.48291000 8.29255000 -3.90452000
-2.40911000 7.55716000 -3.97557000
-2.36536000 9.39830000 4.12945000
-1.37847000 8.77352000 4.33697000
-1.60359000 8.86754000 4.27650000
-1.52331000 9.09475000 4.36980000
3.11663000 -2.69974000 5.86329000
3.44679000 -2.90216000 5.64957000
3.78061000 -3.66223000 5.24801000
3.58513000 -4.04646000 5.25045000
-2.73690000 8.48346000 -4.41022000
-2.80648000 8.77565000 -4.45310000
-2.51228000 8.69221000 -4.59879000
-3.53077000 8.65457000 -3.83395000
-3.27577000 8.67246000 -4.06748000
-3.14198000 8.29464000 -4.07811000
-3.15025000 3.11780000 -4.71814000
-3.43235000 4.10574000 -4.01223000
-3.19482000 4.43092000 -4.07650000
4.69365000 9.64910000 2.35857000
4.52679000 9.72440000 2.85009000
4.75817000 9.73939000 2.51825000
4.13099000 9.71876000 3.36224000
-2.59617000 -7.76788000 -3.59939000
-2.27691000 -7.76361000 -3.81879000
-2.49029000 -7.92427000 -3.67177000
-3.31544000 -7.78355000 -2.91776000
-3.00784000 -7.72942000 -3.25137000
-3.04864000 -7.93756000 -3.19896000
-4.34058000 -1.11691000 -6.00724000
-3.94490000 -1.10366000 -6.28113000
-4.21105000 -0.61805300 -6.06537000
5.07023000 -3.62490000 4.06848000
4.90677000 -4.06144000 4.07305000
5.39283000 -3.78083000 3.57007000
6.30290000 3.50296000 1.80007000
6.35688000 3.42450000 1.58323000
6.36624000 3.49931000 1.64794000
6.49821000 3.28380000 1.46329000
6.56836000 3.49097000 1.49613000
6.38963000 3.33836000 1.50892000
-3.90765000 8.68779000 -3.45329000
-3.87435000 8.33890000 -3.36893000
-4.08655000 8.56987000 -3.18537000
-3.41851000 8.32972000 -3.84517000
-1.76773000 7.65742000 4.18766000
-1.55443000 8.26340000 4.24733000
-1.45206000 7.65017000 4.31135000
-1.66945000 7.09269000 4.27676000
5.25856000 4.21487000 2.66598000
5.53016000 4.43457000 1.61071000
-6.11569000 -0.43678200 -4.06621000
-6.26904000 -0.73574900 -3.88923000
-6.29460000 -0.44743900 -3.78298000
-6.26387000 0.36106600 -3.51391000
-3.66651000 -7.83513000 -2.44655000
-3.84265000 -7.77527000 -2.15399000
-3.60261000 -7.68661000 -2.58254000
-3.35525000 -7.67151000 -2.91739000
4.47566000 -1.96393000 -5.14068000
4.68599000 -1.65335000 -4.96747000
4.32938000 -2.29290000 -5.23669000
4.59440000 -2.52739000 -4.97072000
4.70280000 -2.19521000 -4.91409000
-5.02103000 5.37862000 -1.56854000
-5.00843000 5.15631000 -1.86639000
-4.77439000 5.62085000 -2.07557000
0.00007044 4.44842000 5.66023000
-0.36328900 4.66421000 5.57442000
0.06198290 4.79495000 5.59434000
0.95617800 9.94383000 5.79719000
0.45977900 9.90524000 5.88330000
0.92475400 9.90026000 5.83807000
0.92475400 9.90026000 5.83807000
0.10128000 4.65710000 5.59072000
0.94457500 4.78458000 5.52301000
-3.05807000 4.90960000 -4.60594000
-3.06801000 5.12174000 -4.46227000
-3.11061000 5.30137000 -4.34836000
-5.38358000 9.21113000 0.07081030
-5.24804000 8.95200000 0.28490300
-5.19136000 8.84972000 -0.53891800
-5.26898000 9.05766000 -0.63670300
-5.20072000 8.98677000 -0.91240100
1.31640000 9.89456000 5.77162000
1.24130000 9.80869000 5.80257000
1.03599000 9.70620000 5.78545000
5.00422000 1.80420000 3.78060000
4.74011000 2.71502000 3.62097000
5.52997000 -3.52385000 4.68902000
5.92527000 -2.86224000 4.40434000
6.10767000 -3.52072000 3.91945000
6.24137000 -2.93984000 3.93709000
-2.66729000 1.06276000 -5.85073000
-2.19167000 1.44402000 -5.97049000
-1.90354000 1.60586000 -6.02550000
-4.54785000 8.34244000 -0.38860100
-4.55967000 8.07440000 0.20251400
1.71208000 -4.49219000 -6.04936000
2.01069000 -4.52753000 -5.94279000
1.35145000 -3.97666000 -6.32646000
-5.66792000 1.19032000 3.92874000
-5.54178000 1.62892000 3.90259000
-5.05517000 1.29817000 4.65360000
0.81003800 8.32691000 -4.64374000
0.87928000 8.56039000 -4.64640000
7.29479000 -1.33858000 1.98248000
7.37150000 -1.20552000 1.69328000
7.29020000 -1.02631000 1.96041000
7.29479000 -1.33858000 1.98248000
7.29020000 -1.02631000 1.96041000
7.25472000 -1.22650000 2.11430000
5.08084000 -6.26866000 1.14434000
4.96415000 -6.27763000 1.53393000
5.15728000 -6.32995000 0.31670600
5.23537000 -6.17276000 0.77083900
4.86367000 -0.57940600 5.67676000
4.64937000 -1.07423000 5.89656000
3.97587000 -0.53571800 6.31833000
4.33716000 -0.93943500 6.12316000
4.46238000 -0.53789400 5.98899000
-6.38006000 4.79001000 -1.44201000
-6.26393000 4.86662000 -1.53214000
1.25973000 -8.66864000 -2.51592000
1.63311000 -9.22670000 -3.80996000
1.72370000 -9.02326000 -3.56997000
-6.04061000 0.25840300 3.91904000
-5.89774000 0.89111100 3.73918000
-6.19813000 0.43894700 3.55375000
-6.00236000 0.45105900 3.87143000
6.25356000 4.57192000 1.40311000
6.21608000 4.57192000 1.68365000
6.16985000 4.65379000 1.38597000
6.25356000 4.57192000 1.40311000
6.16985000 4.65379000 1.38597000
6.29322000 4.61111000 1.19881000
-0.08410600 -6.27547000 5.96292000
-0.22363500 5.10667000 5.43412000
0.06445460 4.91715000 5.54511000
0.18445600 5.12755000 5.43431000
-5.20978000 -5.75430000 -1.86962000
-5.57996000 -5.35531000 -1.49035000
-5.49205000 -5.29861000 -1.91070000
-5.73333000 -4.99011000 -1.67228000
-4.85103000 5.55789000 0.04004840
-4.74720000 5.93323000 -0.57841600
-4.85729000 5.35957000 -0.60997700
6.30908000 4.30898000 1.41383000
6.27528000 4.49145000 1.40748000
6.29441000 4.42792000 1.33097000
6.30908000 4.30898000 1.41383000
6.23615000 4.51666000 1.65978000
6.27528000 4.49145000 1.40748000
4.84458000 4.77832000 2.94520000
4.99738000 4.66979000 2.67951000
5.05329000 4.77032000 2.57791000
5.44370000 4.63130000 1.63839000
-0.09947320 -7.76405000 -4.50179000
0.32263700 -7.78158000 -4.50141000
-0.66435500 -7.80732000 -4.43681000
-0.98775400 -7.86684000 -4.37053000
1.70630000 6.70461000 -4.94054000
2.07043000 7.68156000 -4.79221000
2.23581000 8.29950000 -4.78960000
2.31989000 7.60372000 -4.67057000
-3.21869000 -5.95380000 -4.38035000
-3.19559000 -6.21477000 -4.13110000
-2.82194000 -6.22666000 -4.39335000
-4.17507000 -5.85652000 -3.56112000
-3.92610000 -6.04564000 -3.63195000
-4.41668000 9.23795000 1.55262000
-4.36798000 9.07849000 1.50988000
-4.24144000 8.89180000 1.72841000
1.64112000 -2.43714000 6.44889000
1.30366000 -2.68053000 6.49408000
6.33629000 4.42378000 1.85183000
6.65572000 4.25685000 1.89755000
6.27119000 4.30322000 1.83669000
6.28473000 4.15851000 1.67010000
-3.00602000 -4.71764000 5.25328000
-3.01271000 -5.04105000 5.07128000
-3.35244000 -4.84625000 4.96598000
-3.53711000 -5.37699000 4.49438000
-3.75858000 -5.05310000 4.53685000
7.31647000 0.37754200 0.53158300
6.98182000 1.39575000 0.62582500
7.25714000 0.41773400 0.96537300
7.39769000 -0.08636170 0.79815900
7.41713000 -0.01237690 0.16519300
-5.13317000 4.36093000 0.48114700
-5.19367000 3.86369000 1.14427000
1.22910000 -5.21087000 6.58913000
0.88426100 -5.33860000 6.57097000
0.52235800 -5.30332000 6.63225000
0.18562700 -5.43223000 6.57019000
3.88644000 -0.77145900 6.39759000
3.45236000 -1.08753000 6.65611000
3.54107000 -0.53132000 6.56949000
3.14384000 -0.68172500 6.77268000
4.59310000 5.21773000 2.18664000
4.47532000 5.58575000 2.23390000
4.17131000 5.52753000 2.75071000
4.13574000 5.85865000 2.69656000
-3.36119000 -8.06046000 2.92980000
-3.14352000 -7.99709000 3.16852000
-3.35027000 -7.85920000 2.92611000
-2.54913000 -7.72734000 3.68766000
-2.87505000 -7.75949000 3.41905000
-2.83960000 -7.91371000 3.45133000
6.26998000 5.77236000 0.50138800
2.38313000 -6.30766000 4.52660000
2.21837000 -6.07716000 4.81230000
2.78331000 -6.54681000 4.03766000
3.28872000 4.78584000 4.58462000
4.09812000 4.63527000 3.91352000
4.09703000 4.78770000 3.90793000
3.80462000 4.64725000 4.18694000
3.38508000 4.64034000 -4.63577000
3.43356000 4.79013000 -4.59844000
3.68397000 4.65226000 -4.40823000
3.96819000 4.65226000 -4.15938000
3.82657000 4.78501000 -4.28775000
4.28201000 4.76910000 -3.83500000
-5.58921000 3.96750000 -1.46526000
-5.54895000 4.10087000 -1.59774000
-5.47548000 3.97157000 -1.86289000
-5.26447000 4.09905000 -2.39826000
-4.07939000 9.17823000 -2.38500000
-4.26907000 9.20815000 -2.03697000
-3.89238000 9.14448000 -2.66878000
-3.61834000 9.13472000 -3.03327000
-3.68952000 -5.96707000 -4.91441000
-3.94663000 -5.61042000 -5.00810000
-0.59960800 9.90882000 -5.90622000
-0.13541600 9.92658000 -5.92008000
-0.07284500 9.89726000 -5.95051000
-0.07284500 9.89726000 -5.95051000
1.52338000 -7.76111000 -3.52253000
2.11986000 -7.76066000 -3.25946000
2.61541000 -7.77735000 -2.80369000
-1.34959000 -6.35447000 4.84276000
-1.45973000 -6.90419000 4.25321000
-1.06780000 -7.56563000 3.88324000
-1.25214000 -7.36962000 3.93080000
-0.85007900 -7.40924000 4.01807000
5.83472000 -4.69363000 -2.07204000
5.99976000 -4.45278000 -1.89712000
5.98020000 -3.98707000 -2.43781000
-6.05238000 -2.88771000 2.59114000
-6.21586000 -2.55043000 2.29708000
-6.09740000 -2.46804000 2.61302000
-6.06768000 -1.70416000 2.78279000
-6.22413000 -1.71174000 2.42075000
-6.16473000 -1.37579000 2.56270000
-5.77344000 3.68073000 1.13337000
-5.74102000 3.95098000 0.59839300
3.21689000 9.96179000 4.87901000
3.66310000 9.94260000 4.47358000
2.90272000 9.94650000 4.95128000
2.87774000 9.95225000 5.06052000
1.62939000 9.95880000 5.46726000
1.24680000 9.97445000 5.65134000
-2.27486000 -0.61841400 -6.35787000
-2.00256000 -0.47876200 -6.43432000
-2.94895000 -1.01322000 -6.09813000
-2.60526000 -0.67357200 -6.23266000
4.01492000 -8.11302000 -2.38823000
4.17421000 -7.61684000 -2.15566000
4.38206000 -7.59732000 -1.72391000
4.28207000 -7.70501000 -1.85937000
2.15156000 -7.61050000 -4.09516000
2.54616000 -7.73291000 -3.83164000
2.16053000 -7.71004000 -4.05199000
1.72491000 -7.80187000 -4.22807000
1.39207000 -7.72196000 -4.34094000
1.80782000 -7.65213000 -4.22038000
6.02552000 -4.39474000 -3.79418000
5.95667000 -4.14177000 -4.03024000
6.20310000 -2.98512000 -4.10058000
5.97641000 -3.45250000 -4.22369000
-4.81706000 -6.83019000 -2.24593000
-4.42261000 -7.18766000 -2.12573000
-4.56936000 -7.19702000 -1.74262000
-5.00135000 -6.60411000 -2.40454000
-5.38522000 -6.26985000 -2.30135000
-5.10649000 -6.21914000 -2.97816000
3.57136000 -6.02622000 5.06798000
3.86554000 -5.96734000 4.91305000
3.71365000 -5.66509000 5.27491000
3.54264000 -5.50033000 5.50187000
-2.51072000 9.60526000 -4.42952000
-1.35362000 9.63679000 -4.99387000
-1.89652000 9.62346000 -4.78453000
-1.69491000 9.49600000 -4.72057000
-2.19504000 -7.65406000 3.94149000
-1.98926000 -7.73329000 4.03845000
-1.95438000 -7.60809000 4.09880000
-2.47881000 -7.85084000 3.72780000
0.01053270 9.84999000 -5.98846000
0.51689200 9.66631000 -5.90652000
0.99855000 9.65066000 -5.83829000
0.79334200 9.47314000 -5.67277000
6.25138000 -0.36938300 -4.14132000
5.90450000 -0.30625800 -4.61603000
6.07674000 -0.27537500 -4.34722000
6.30016000 -1.62346000 -4.23803000
6.19657000 -0.93171500 -4.36062000
6.35459000 -1.05365000 -4.14502000
-0.89727400 -0.50962800 6.56420000
-0.79167600 -0.94238900 6.61611000
0.20449600 -0.65654300 6.64685000
-0.13149900 -0.92586200 6.66592000
-0.26360300 -0.56579400 6.63139000
3.96301000 9.66855000 4.41546000
3.74050000 9.71237000 4.64364000
3.52511000 9.41036000 4.40841000
4.09047000 9.75874000 4.38448000
3.71865000 9.81407000 4.70832000
-4.92987000 9.70498000 3.08786000
-5.04339000 9.78618000 3.00090000
-5.86187000 1.49492000 1.95906000
-5.95835000 1.39519000 1.70190000
-6.05530000 1.04261000 1.62008000
-5.98895000 0.92497100 1.96019000
0.87643900 4.13046000 -5.87861000
0.77175200 3.95134000 -5.92264000
1.59933000 4.00413000 -5.75897000
1.57274000 4.11933000 -5.75007000
-5.55766000 -6.21341000 -1.97081000
-5.50186000 -6.38622000 -1.60754000
-5.73538000 -6.16440000 -1.45576000
-5.00303000 -6.84571000 -1.70248000
-5.29147000 -6.48240000 -2.00118000
-4.61586000 7.15410000 -2.03239000
-4.50940000 6.80923000 -2.26940000
-4.64261000 6.42189000 -2.08065000
-4.87806000 7.31304000 -1.25287000
-4.79003000 6.60876000 -1.65773000
-4.88396000 7.05741000 -1.21314000
5.52912000 -6.55262000 1.63145000
5.64385000 -6.34179000 1.94608000
5.03902000 -6.57531000 2.75486000
-1.13106000 -7.64953000 4.41699000
-1.44884000 -7.57639000 4.35795000
-1.48442000 -7.65079000 4.29849000
4.77351000 4.64998000 3.05665000
4.35821000 4.76543000 3.61779000
4.27346000 4.64597000 3.72202000
4.47003000 6.07368000 -2.10900000
4.42157000 6.74326000 -1.99522000
4.27675000 6.76178000 -2.28195000
4.42978000 8.34403000 -1.76328000
4.36042000 7.65178000 -1.96532000
4.49102000 7.62133000 -1.65207000
-2.66463000 -7.63966000 -3.60309000
-2.30749000 -7.65126000 -3.84184000
-1.65417000 -7.76124000 -4.15262000
-1.60025000 -7.62214000 -4.23457000
-1.23929000 -7.63076000 -4.34921000
1.63238000 7.03607000 4.85738000
1.91259000 7.05643000 4.75904000
1.91033000 6.42352000 4.80956000
-2.89760000 8.71311000 4.30004000
-3.05037000 8.37613000 4.09687000
-2.26170000 8.47113000 4.62469000
-2.49673000 8.59226000 4.52225000
-2.60697000 8.19528000 4.37194000
4.41507000 1.92322000 -4.47665000
4.87931000 1.62746000 -4.14156000
4.53012000 2.10800000 -4.27717000
5.25917000 1.62245000 -3.64410000
5.05920000 2.08563000 -3.68283000
5.08716000 1.60421000 -3.90089000
-4.01371000 5.32516000 -2.84316000
-3.70011000 5.37678000 -3.23167000
-2.95704000 -7.54081000 2.73767000
-2.69834000 -7.54775000 2.99113000
2.51821000 -7.62577000 -3.88648000
2.80202000 -7.55675000 -3.75540000
2.83692000 -7.65753000 -3.65808000
3.13073000 -7.65368000 -3.42681000
3.11742000 -7.55318000 -3.52089000
-0.00836940 -7.60698000 4.60340000
0.33709900 -7.64106000 4.58010000
0.58163300 -7.74944000 4.53632000
0.99448500 -7.77640000 4.47290000
-5.21016000 -4.49345000 -3.39026000
-5.41513000 -4.22909000 -3.24691000
-5.16828000 -4.08903000 -3.72199000
-4.88444000 -4.18694000 -4.03996000
-3.84589000 -6.93158000 2.25993000
-4.24900000 -6.46634000 2.46131000
-4.28114000 -5.96961000 3.18453000
4.30615000 8.61405000 -2.08367000
4.47382000 8.60715000 -1.70406000
4.35846000 8.79622000 -2.04898000
4.29703000 8.33953000 -2.06818000
0.37227600 -6.26138000 -5.22025000
0.83091500 -6.31941000 -5.11979000
0.67043400 -5.98792000 -5.41432000
-0.06565470 -5.78854000 -5.58893000
-0.00943354 -6.10138000 -5.36202000
0.26554400 -5.91282000 -5.50004000
3.64449000 5.11089000 4.11923000
3.29034000 5.12668000 4.39168000
3.44142000 5.68772000 4.04571000
3.28193000 5.29519000 4.32358000
3.56139000 5.26230000 4.11516000
2.06299000 4.77605000 -5.36053000
2.50235000 4.78766000 -5.15330000
2.23392000 4.61466000 -5.28111000
1.45922000 4.76102000 -5.54234000
2.45846000 6.21677000 4.11238000
2.46101000 4.30697000 4.62436000
2.28919000 5.00513000 4.47715000
-6.25448000 3.13044000 -1.42228000
-6.27961000 3.01664000 -1.45095000
-6.16424000 3.12412000 -1.68440000
-6.21322000 3.28044000 -1.69039000
6.79930000 4.07513000 1.13114000
6.71088000 4.38422000 1.66638000
6.79316000 4.44046000 1.17180000
6.65566000 4.58836000 1.61671000
4.17205000 7.65379000 -3.18593000
3.89032000 7.77464000 -3.53015000
3.95931000 8.18705000 -3.50720000
4.31330000 7.25081000 -2.96415000
-3.88144000 -9.21945000 0.75716300
-4.13310000 -9.36495000 0.68248600
-4.07758000 -9.33521000 0.36803300
-4.13462000 6.34898000 -2.31198000
-3.95888000 6.43505000 -2.58250000
-3.58186000 -7.80187000 2.61513000
-3.79354000 -7.74118000 2.29790000
-3.69647000 -7.91034000 2.44770000
-3.91623000 -7.84609000 2.05553000
-7.15311000 0.29772700 0.40848700
-7.16588000 0.30303300 -0.00673848
-7.28078000 -0.27608000 -0.32531900
5.24124000 6.49389000 -0.47078500
5.18932000 6.97968000 -0.66909900
5.22386000 6.81432000 -0.46604700
5.21030000 7.49983000 -0.40818800
6.85474000 -4.02842000 -2.27265000
6.97307000 -3.79970000 -2.01720000
3.52147000 8.66904000 -4.04520000
3.49837000 8.44799000 -4.00701000
3.25229000 8.73391000 -4.27727000
4.21607000 8.58405000 -3.30310000
4.19823000 8.18833000 -3.22136000
0.71790800 -6.24614000 5.09176000
0.51298600 -6.02250000 5.29411000
0.90231300 -6.01238000 5.25392000
0.08319490 -6.17379000 5.19329000
2.72880000 -1.62146000 6.13292000
2.35781000 -1.80556000 6.27469000
2.29896000 -1.31455000 6.30041000
1.67845000 -2.03314000 6.47107000
1.50121000 -1.66471000 6.52593000
1.96007000 -1.66371000 6.40838000
4.57281000 4.64547000 -3.48610000
4.30683000 4.64420000 -3.81187000
4.81035000 4.77114000 -3.14755000
6.39497000 0.99548300 0.52414900
6.38564000 0.50225800 1.21406000
5.46421000 2.71604000 2.42180000
5.16227000 3.30268000 2.40928000
4.53938000 4.45966000 2.69268000
2.94145000 -7.61151000 2.73725000
2.76095000 -7.68737000 2.87503000
2.74607000 -7.60945000 2.93417000
2.74607000 -7.60945000 2.93417000
-2.49404000 7.37969000 4.38035000
-2.14458000 7.32459000 4.57311000
-2.30713000 7.68393000 4.49690000
-2.04762000 7.97075000 4.65354000
5.60011000 -6.67119000 -0.96790100
5.78870000 -6.52334000 -0.69366500
4.99283000 -7.23640000 -0.87228200
5.33910000 -6.93312000 -0.87253000
4.92076000 9.22151000 -2.67751000
5.12213000 9.31872000 -2.42389000
5.07499000 9.19767000 -2.33305000
5.36485000 9.26818000 -1.69992000
5.49940000 9.30982000 -1.30635000
5.33441000 9.13952000 -1.52738000
-0.55228700 3.60626000 5.41209000
-0.70561400 3.04022000 5.66135000
-0.42388400 3.99894000 5.26299000
-0.47652400 4.50856000 5.09090000
5.51682000 -2.78515000 3.75075000
5.48319000 -3.23450000 3.66007000
5.27668000 -3.13688000 3.97929000
5.26109000 -3.64146000 3.81618000
1.17747000 -3.73261000 -7.07797000
0.18132000 -4.31891000 -7.01959000
-2.22917000 3.75805000 5.46618000
-2.57607000 3.40144000 5.48091000
-2.22801000 3.39802000 5.63472000
-1.88682000 3.98393000 5.51901000
-1.80292000 4.12810000 5.53133000
-2.30088000 4.10797000 5.34212000
2.54878000 4.00129000 5.32351000
2.58600000 4.14493000 5.29813000
2.59123000 3.82637000 5.35926000
2.69023000 3.25607000 5.59569000
4.54730000 0.23881400 -4.80269000
4.55000000 0.57757400 -4.71254000
4.78975000 0.58867000 -4.46894000
4.86285000 1.28620000 -4.25780000
-3.06927000 -8.91290000 -2.04737000
-3.24164000 -9.27940000 -2.38184000
-2.94762000 -9.00196000 -2.35503000
-3.56996000 -9.34925000 -2.14933000
4.55780000 5.10935000 -3.25621000
4.36480000 4.91117000 -3.66142000
4.11206000 4.85889000 -3.97578000
4.01639000 5.14048000 -3.86591000
-2.70541000 4.13000000 5.13143000
-2.32949000 4.00639000 5.33613000
4.13647000 5.67167000 -2.81046000
3.60502000 5.65496000 -3.45093000
3.82415000 5.66222000 -3.21263000
-3.79846000 -7.50340000 1.39101000
-3.65126000 -7.57647000 1.65743000
-3.83234000 -7.56080000 1.20091000
-3.30896000 -7.63501000 1.93028000
-1.31539000 -9.31413000 -4.29162000
-1.53019000 -9.15168000 -4.34925000
4.79114000 9.67820000 -2.39406000
4.62154000 9.59728000 -2.49396000
5.11223000 9.62061000 -1.33243000
4.93948000 9.46289000 -1.35296000
5.06709000 9.50710000 -0.93934900
4.88319000 3.32866000 -2.97598000
-4.84435000 0.39858000 -5.33293000
-4.90200000 1.01248000 -5.01385000
-4.54031000 1.09286000 -5.31894000
-4.24628000 2.32593000 -4.98499000
-3.38599000 2.52246000 5.51852000
-3.18923000 2.33965000 5.72692000
-3.51154000 1.83455000 5.75743000
-3.03741000 1.92041000 5.98646000
3.59485000 -3.09375000 6.37609000
4.03247000 -3.15727000 6.09621000
4.04404000 -2.28955000 6.24406000
3.70314000 -3.38474000 6.25100000
-3.72168000 5.39017000 3.15173000
-3.63866000 5.15840000 3.33039000
-3.84818000 4.73888000 3.26540000
-3.88833000 5.11558000 3.05200000
-3.22936000 -7.51144000 3.26465000
-3.32118000 -6.89814000 4.07793000
-0.72598600 3.79961000 -5.94649000
-0.33328200 3.77716000 -5.99831000
-0.56583000 3.29611000 -6.18322000
0.11297500 3.43392000 -6.15500000
4.95435000 -5.58946000 -4.32465000
5.14302000 -5.25657000 -4.37360000
5.28925000 -5.54153000 -3.96367000
4.70106000 -5.28929000 -4.80626000
1.61512000 5.56682000 -4.69976000
0.71448500 5.58953000 -4.89233000
1.12191000 5.36390000 -4.87264000
1.01805000 5.76699000 -4.81167000
5.54057000 -5.65042000 -1.24811000
5.69044000 -4.99960000 -2.04893000
5.44927000 -5.42634000 -2.04838000
5.67331000 -5.21450000 -1.74476000
2.54240000 -7.60675000 3.11284000
2.35010000 -7.68385000 3.21279000
2.99120000 -7.74693000 2.36959000
2.56219000 -7.71814000 2.93134000
2.39670000 8.55279000 4.65779000
2.74559000 8.45180000 4.44443000
3.35140000 8.31956000 3.99558000
3.45108000 8.64242000 3.99258000
3.08999000 8.30863000 4.19246000
2.07597000 9.24616000 -5.16020000
2.54550000 9.16623000 -4.90038000
1.94748000 9.11452000 -5.12736000
1.79537000 9.24823000 -5.26194000
4.86446000 2.55883000 -4.41346000
4.88527000 3.07670000 -4.07864000
5.12369000 2.95471000 -3.86495000
4.62765000 3.24473000 -4.25747000
4.20125000 3.34299000 -4.61600000
4.31987000 3.86458000 -4.21245000
-5.18526000 -4.24658000 3.47994000
-5.99875000 -0.69629600 2.84442000
-6.03494000 -0.32676000 2.67025000
-5.78710000 -0.79426700 3.26563000
5.73411000 -0.23130300 -3.53280000
5.91035000 -0.20449200 -3.21393000
5.69307000 0.28091800 -3.34665000
5.92353000 -1.32509000 -3.39032000
6.08848000 -0.93781600 -3.06014000
5.93006000 -0.89619700 -3.35195000
4.04113000 -7.87089000 -2.30616000
3.79943000 -8.02132000 -2.69072000
3.91921000 -7.74905000 -2.50997000
3.20241000 -7.79991000 -3.32411000
-0.51145700 9.66413000 -5.20255000
-1.22249000 9.53967000 -4.91028000
4.87163000 9.74828000 -3.60782000
4.78941000 9.83051000 -3.73512000
5.11841000 9.81582000 -3.28093000
4.62295000 9.69064000 -3.86658000
4.35283000 9.37520000 -3.69390000
4.31192000 9.69136000 -4.20967000
5.63758000 4.11184000 1.85613000
5.49160000 3.97880000 2.25265000
5.64148000 3.99317000 1.86198000
5.32003000 3.98742000 2.63542000
-6.74975000 -0.81976500 2.94767000
-6.77640000 -1.41151000 2.96611000
-3.09867000 9.85368000 -5.06745000
-3.50782000 9.88551000 -4.77174000
-3.02087000 9.91821000 -5.08103000
-3.46573000 9.93027000 -4.74366000
0.65102600 -8.03003000 -4.49185000
0.80165200 -8.78477000 -4.61300000
0.50324800 -8.90044000 -4.66489000
0.46103300 -9.12274000 -4.66973000
0.82549700 -9.12390000 -4.63296000
1.00386000 -5.95282000 -6.18606000
1.30676000 -5.54292000 -6.40307000
0.67827600 -6.05591000 -6.14206000
1.20534000 -6.93817000 4.32730000
1.33370000 -7.18351000 4.05662000
-2.09364000 4.80935000 -4.62440000
-2.16567000 5.42250000 -4.41696000
0.25005000 2.77547000 -6.46309000
0.23212300 3.01390000 -6.32510000
0.34257600 2.63584000 -6.52531000
4.07176000 2.70219000 -5.11383000
3.61615000 2.67274000 -5.43073000
4.55592000 3.06223000 -4.45041000
4.35028000 3.07969000 -4.69006000
-1.65303000 -6.31857000 -5.66760000
-1.31438000 -6.54827000 -5.53932000
-1.92356000 -6.44639000 -5.45431000
0.10718200 7.38022000 -4.71530000
-0.28554800 7.62702000 -4.68542000
0.02474930 7.64376000 -4.70307000
-2.01924000 -2.29839000 -7.10291000
-1.65878000 -2.66124000 -7.15919000
-2.30784000 -2.56766000 -6.98277000
-2.19867000 -2.99797000 -6.94310000
-2.46915000 -3.73029000 -6.68075000
-2.79977000 -3.30688000 -6.62475000
4.80366000 2.43255000 4.50623000
4.52881000 2.58704000 4.70395000
4.83306000 1.64464000 4.91215000
4.38424000 2.16139000 5.05791000
4.42809000 -0.39481300 5.01524000
4.66063000 -0.72843600 4.86416000
4.64258000 -0.38371600 4.82101000
4.91982000 -0.39830900 4.55462000
-2.49625000 9.90036000 5.32686000
-3.44889000 9.97514000 4.61038000
-3.08646000 9.94389000 4.95990000
-2.84207000 9.97117000 5.01033000
2.69632000 4.66241000 -5.05541000
2.98505000 4.79196000 -4.89942000
3.49548000 -7.73083000 3.01650000
3.49982000 -7.60270000 3.06331000
3.18487000 -7.62786000 3.36480000
3.77981000 -7.61138000 2.70788000
-2.04861000 -3.71731000 -6.84760000
-1.85008000 -3.52561000 -6.93266000
0.09845490 2.19177000 -6.70120000
0.02526580 1.08660000 -7.08616000
1.34894000 -2.07587000 -6.66809000
0.76332500 -1.37535000 -6.77553000
-3.08438000 -1.14033000 -6.75240000
-2.44713000 -1.25574000 -7.01474000
-1.98859000 -0.83807400 -7.16683000
2.11352000 4.88072000 -5.30819000
1.52856000 4.86324000 -5.50428000
6.60150000 0.54573200 -3.09654000
6.41410000 1.32394000 -2.91764000
-5.71216000 -5.15115000 1.30787000
-5.89979000 -4.89729000 1.02912000
-5.38938000 -5.38343000 1.93962000
-5.49482000 -5.39586000 1.59968000
6.30441000 0.44859500 -3.70671000
6.10111000 0.91647400 -3.78102000
5.79311000 1.21544000 -4.08192000
5.33363000 1.77440000 -4.41546000
1.29006000 -7.71120000 -3.73622000
0.98357400 -7.76749000 -3.60216000
3.33420000 -6.05760000 -4.26655000
3.26113000 -6.55302000 -3.76650000
2.84156000 -7.17674000 -3.28111000
3.46201000 -6.64440000 -3.45562000
-5.48864000 4.87308000 -1.54101000
-5.43181000 5.12105000 -1.48704000
-5.36230000 5.31653000 -1.50063000
-6.53618000 1.86945000 -1.07218000
-6.57222000 1.88505000 -0.82832400
0.38344100 -3.69055000 -6.53281000
0.14503500 -3.95148000 -6.46739000
-0.22634800 -4.08718000 -6.42093000
-6.03735000 -3.76845000 2.13494000
-6.05575000 -3.98856000 1.87874000
-6.19549000 -3.64477000 1.75670000
-6.41189000 -3.67457000 0.61532100
-6.43560000 -3.39002000 0.94371700
-6.32331000 -3.68289000 1.19479000
-1.14658000 5.94483000 -4.69735000
-1.01731000 5.35489000 -4.84490000
-0.82392300 5.89677000 -4.78289000
-1.16368000 7.20885000 -4.54631000
-1.24266000 6.64448000 -4.57678000
-0.98122800 6.63206000 -4.64840000
-6.44097000 0.06927660 -3.31695000
-6.63560000 -0.20076400 -3.02896000
-6.87067000 0.22606000 -2.15225000
-6.80805000 -0.04901120 -2.51863000
-5.43219000 4.19490000 1.85711000
-5.43992000 4.41690000 1.36096000
-2.84311000 4.63584000 4.77102000
-6.04397000 -5.90042000 -0.91530900
-6.20233000 -5.66232000 -0.94695000
-6.20233000 -5.66232000 -0.94695000
-6.15472000 -5.66598000 -1.22615000
-6.04397000 -5.90042000 -0.91530900
2.64849000 4.89669000 -5.04394000
3.55601000 4.91261000 -4.45346000
3.04539000 4.90018000 -4.81995000
3.19236000 5.08406000 -4.60836000
3.51608000 -6.22900000 -3.93575000
3.74054000 -5.97202000 -4.00566000
4.08738000 -5.69447000 -3.92685000
4.37482000 -5.49968000 -3.78845000
7.03957000 -4.28552000 0.94940400
6.83617000 -4.20952000 1.96523000
-7.10775000 -3.01364000 1.31013000
-7.05277000 -2.98487000 1.61766000
-7.17800000 -1.46809000 1.70835000
-7.16322000 -1.90920000 1.70469000
3.58796000 9.59023000 3.68163000
3.15496000 9.53504000 3.95887000
3.34715000 9.67988000 4.01861000
3.78472000 9.61945000 3.53634000
3.71932000 9.72216000 3.79081000
-5.01446000 7.23474000 0.22738100
-4.99085000 7.12958000 0.55315100
-4.99620000 7.70257000 0.59814700
-5.01581000 6.34391000 0.65940300
-5.03177000 6.53274000 0.21587600
-5.07032000 6.14914000 0.24681000
-3.96546000 7.61593000 3.09035000
-4.18156000 7.64934000 2.79359000
-4.08847000 7.22863000 2.91985000
-3.98807000 7.97931000 3.09894000
-5.99522000 2.67509000 2.11458000
-5.89967000 2.59188000 2.47005000
-5.56948000 2.97915000 2.77875000
-5.36423000 2.76045000 3.35499000
-5.39307000 2.98727000 3.11045000
-5.59898000 2.69581000 3.00311000
-0.48118400 9.18460000 -5.45835000
-0.38452800 9.03391000 -5.38838000
-1.37097000 9.46000000 -5.50324000
-1.28760000 9.63792000 -5.72743000
-5.41521000 9.70982000 -2.25120000
-5.21486000 9.59884000 -2.45521000
-5.09348000 9.35538000 -2.13027000
-5.43915000 9.80841000 -2.28759000
-4.32913000 9.87652000 3.96268000
-4.64760000 9.91532000 3.57070000
-4.71923000 9.86507000 3.49153000
-4.32913000 9.87652000 3.96268000
0.45939400 -7.69411000 3.72033000
-1.02488000 -7.65935000 3.71836000
0.09788200 -7.67078000 3.88736000
0.65203400 -7.67700000 3.86359000
4.26046000 -1.92379000 -6.21544000
5.12634000 -2.09639000 -5.50940000
4.96112000 -1.95508000 -5.68231000
5.04860000 -1.79833000 -5.58180000
4.63247000 -7.96171000 0.59401800
4.75701000 -8.64462000 0.46226200
4.67109000 -8.01254000 0.23650300
4.67364000 -7.67410000 0.12496000
4.71390000 -7.57041000 0.17996100
4.63307000 -7.64751000 0.59430800
-5.97094000 3.34550000 -0.76924500
-5.97232000 3.34292000 -0.81067700
-5.97029000 3.36814000 -0.93942400
-4.57966000 6.33570000 -1.17563000
-4.50002000 6.99092000 -1.20870000
-4.57149000 7.00080000 -0.85464400
-4.25773000 6.39303000 -2.06691000
-4.26358000 7.05282000 -1.89562000
-4.34763000 6.39290000 -1.86515000
-3.32297000 2.18399000 5.06362000
-3.27163000 1.87774000 5.21552000
-3.84646000 2.23579000 4.64033000
-2.82819000 2.29375000 5.32282000
6.03990000 -2.98870000 -2.88930000
-2.22334000 1.94887000 -6.37049000
-2.54175000 2.22282000 -6.13166000
-2.10337000 2.35053000 -6.25590000
-1.45076000 1.47987000 -6.78476000
-1.65010000 1.61425000 -6.70839000
-1.40262000 1.85587000 -6.64483000
-7.17640000 -3.23002000 0.39318500
-7.32442000 -2.35111000 0.08906630
-7.25384000 -2.78838000 -0.30302800
-7.21936000 -3.02783000 0.12633900
-5.55162000 6.06959000 -1.96300000
-5.64129000 6.09452000 -1.85773000
5.19413000 9.60442000 -0.82730800
-1.82529000 -8.68220000 1.47673000
-2.17753000 -8.64542000 2.01186000
-0.86900900 -8.77997000 -0.15485600
0.03554800 -8.79421000 0.03911890
-4.91640000 9.96799000 -2.79229000
-5.31769000 9.96420000 -1.76271000
-5.23532000 9.98027000 -2.28221000
-5.51963000 9.98472000 -1.43130000
5.28808000 -2.01155000 5.29890000
5.37203000 -1.67308000 5.24861000
5.55726000 -1.36387000 5.07594000
5.92844000 -1.33710000 4.63895000
-0.00189216 9.96735000 5.75098000
0.65291200 9.95915000 5.64941000
5.73557000 1.72519000 -2.72700000
6.16728000 1.51053000 -1.71143000
