37.37810000 -196.09600000 32.12480000
39.66500000 -197.11300000 28.49390000
77.87400000 134.42200000 -29.00560000
78.26830000 137.12600000 -28.80460000
-46.76710000 -79.78570000 37.31280000
-24.37000000 -111.89500000 -49.94820000
-23.48070000 -122.85800000 -47.49160000
-79.70760000 114.69900000 -1.66020000
-79.56240000 111.84600000 -4.39920000
-79.32380000 111.52500000 -8.91510000
-79.36690000 108.51700000 -5.96230000
-79.16180000 135.72800000 21.08550000
-79.28310000 136.94500000 20.96830000
46.52800000 -199.04900000 8.07310000
-46.19400000 -114.35800000 37.53700000
-41.52130000 -129.89500000 38.00420000
-75.77930000 66.38020000 0.22290000
-77.22280000 71.86440000 1.17500000
-74.79380000 62.09570000 1.44130000
-4.64220000 73.84490000 79.36460000
-1.42970000 74.09440000 79.33320000
-6.34230000 75.92480000 79.65370000
58.71010000 11.89830000 -39.80810000
-48.44490000 -30.34030000 -52.31700000
-48.97180000 -37.65320000 -50.39050000
-83.07540000 90.00060000 1.03110000
-82.97220000 91.16590000 0.66160000
-79.63100000 134.71300000 20.83900000
-72.75740000 101.79900000 32.72090000
21.42920000 -107.97600000 51.61980000
-50.81100000 -193.20900000 12.47710000
37.12770000 -182.56000000 -12.52060000
37.56630000 -184.18100000 -12.22910000
-16.52010000 -179.80200000 41.34550000
-29.42470000 192.96800000 -70.68250000
-21.43480000 192.14600000 -73.97870000
-25.17370000 191.31600000 -73.10700000
44.82130000 -139.20200000 -7.07460000
42.96150000 -145.39800000 -8.19200000
-47.45080000 47.13530000 64.57960000
-45.30620000 45.72390000 66.16070000
-47.66130000 -195.77400000 2.92550000
-47.07540000 -196.33300000 -1.72940000
-47.19020000 -197.32400000 -2.56420000
-46.97550000 -195.54000000 -2.91200000
72.65400000 199.74400000 -12.30310000
73.47330000 199.96800000 -2.17150000
-71.01620000 16.93660000 -1.64620000
25.64290000 129.04500000 77.60770000
9.12220000 -186.88500000 44.00210000
-78.43710000 88.49100000 -11.13950000
-78.97510000 89.48590000 -5.47900000
50.32200000 63.17120000 -55.18150000
51.52990000 59.81010000 -53.69970000
49.42550000 59.30140000 -55.49240000
-14.78560000 -114.88600000 52.09110000
-49.92650000 200.48200000 54.82290000
-48.84120000 200.53900000 57.68790000
-52.60350000 200.42500000 53.88480000
-51.77300000 200.42600000 55.25580000
-2.11030000 -93.86490000 64.85240000
72.46760000 89.61320000 38.37180000
30.06670000 29.14350000 -65.14640000
74.26630000 54.51030000 35.11460000
72.86400000 47.49870000 36.90440000
-17.81760000 197.28500000 -72.56320000
-8.61130000 198.46700000 -75.89820000
-10.06050000 198.14100000 -74.57850000
-7.63920000 197.91700000 -74.46880000
47.36940000 -87.86780000 -40.65600000
0.48590000 -194.61000000 -46.46370000
1.33300000 -194.08900000 -46.24250000
73.31020000 199.95700000 5.08630000
-79.50550000 75.45390000 13.59490000
-79.73970000 62.07930000 9.70090000
68.63150000 37.77910000 -41.78710000
69.83700000 44.53860000 -40.57420000
69.91950000 35.38680000 -39.17750000
-54.21590000 -50.76360000 -41.20900000
-51.78710000 -53.16720000 -43.60770000
63.25880000 44.75430000 51.35240000
-8.99040000 -183.08800000 -36.54370000
-8.97710000 -184.42300000 -36.98830000
-52.28900000 -45.68240000 -44.94300000
-42.43210000 29.26020000 59.85330000
-41.92130000 39.40800000 61.02550000
-41.23140000 126.08200000 -69.74020000
-38.62730000 128.87300000 -71.48820000
-17.44640000 -155.88000000 -40.79120000
12.98570000 -198.88900000 50.29040000
13.00920000 -198.17100000 50.11580000
23.79040000 140.47500000 -79.72380000
8.17960000 -194.71600000 51.22360000
13.29690000 -196.38400000 50.25700000
16.10320000 -196.10000000 49.24940000
-41.54400000 61.75620000 -60.79840000
6.20390000 98.76190000 -80.68980000
77.38150000 153.86600000 -27.10020000
78.72820000 152.81500000 -22.64300000
62.78710000 68.87340000 45.65880000
-20.14490000 -158.67700000 45.70780000
-93.02430000 118.99800000 3.19520000
72.68830000 23.76910000 7.46280000
60.86670000 63.94290000 55.29120000
-22.82540000 126.72200000 -78.18920000
-21.66800000 125.41800000 -78.64640000
-16.44810000 125.30600000 -79.92890000
-81.90790000 145.63700000 -7.07050000
-10.72930000 130.64800000 -81.07020000
-59.13090000 -28.86330000 -28.61360000
45.12860000 -196.92700000 14.54760000
44.50990000 -197.15100000 16.87550000
43.84950000 -195.45300000 15.73880000
-36.43540000 118.18500000 -74.49350000
76.16350000 181.62200000 18.88950000
76.15800000 184.97500000 16.76200000
73.78960000 186.45900000 21.91030000
-74.20750000 199.80700000 18.34270000
-73.84900000 199.78700000 21.35820000
66.08610000 194.76600000 34.55120000
63.99940000 193.39300000 38.34010000
63.74430000 195.14200000 38.01230000
65.03610000 193.76700000 36.83480000
16.95290000 -169.64500000 -36.69800000
20.38840000 -169.13500000 -35.31530000
-42.24510000 -149.84700000 12.38890000
-44.26180000 -143.18700000 10.51440000
9.77700000 145.63400000 79.15490000
8.20930000 147.19300000 79.20110000
40.04010000 -198.09000000 27.27390000
40.07130000 -197.13500000 27.65950000
54.59970000 194.04900000 -53.31740000
55.86060000 190.59000000 -53.30060000
49.09080000 194.24800000 -58.77310000
50.82660000 193.87300000 -57.14660000
-15.65130000 -172.36200000 -29.51640000
-19.72050000 -173.03700000 -26.26920000
-10.09660000 -193.39100000 54.84160000
-13.22620000 -193.15900000 54.34720000
-87.86230000 90.08690000 2.40590000
66.02240000 29.78770000 33.32460000
64.91740000 20.03420000 33.76890000
27.34810000 -26.69370000 69.79320000
58.88470000 188.78000000 -49.88040000
59.38190000 187.34100000 -50.09540000
57.88350000 188.80800000 -51.34090000
81.80340000 123.07900000 -16.84200000
81.72160000 121.19500000 -17.06860000
8.29280000 121.91600000 81.73550000
9.97140000 99.80900000 82.09850000
7.91810000 -143.08600000 -41.15930000
-36.98900000 -17.42190000 58.55400000
-2.65280000 7.06510000 -69.30170000
-1.31890000 -2.65570000 -68.32440000
-19.85580000 -178.32000000 18.49760000
-16.38280000 -178.37600000 16.52630000
-13.57630000 -178.31400000 16.58970000
-55.52870000 -99.53390000 -19.95240000
-52.13750000 -114.45200000 -19.75150000
-53.33380000 -114.21800000 -16.91570000
-53.99650000 -100.37700000 -22.88870000
80.12820000 76.15200000 -3.28600000
-46.10810000 185.67800000 -66.14510000
54.84000000 -47.83930000 46.13660000
53.01210000 -50.90850000 47.58230000
6.38450000 -137.35300000 -49.20900000
2.79540000 -139.18900000 -49.02330000
4.03980000 -129.26200000 -51.55680000
-67.26860000 155.32000000 -42.63820000
-64.72960000 155.30200000 -46.26590000
-61.44750000 156.17100000 -50.52210000
-82.47000000 133.33900000 -9.47610000
80.26550000 138.14400000 -23.34030000
80.48540000 136.90800000 -22.52720000
-36.50920000 -183.28700000 24.00030000
-43.36620000 -187.50400000 -4.91390000
27.40880000 -168.11300000 -23.68870000
27.70320000 -161.73300000 -25.86880000
26.89690000 148.41900000 74.72520000
59.51390000 172.47300000 50.33650000
61.26550000 174.51600000 48.11570000
63.20500000 174.18000000 45.88030000
-77.71560000 146.03300000 23.07570000
-77.84530000 144.50100000 23.74140000
3.77180000 -39.79200000 67.04040000
4.40530000 -16.42030000 69.86710000
27.37810000 -180.20800000 -26.09410000
28.07410000 -178.89900000 -25.79030000
26.01140000 -178.92000000 -27.61530000
35.36380000 -161.80500000 -25.99830000
82.92650000 133.56000000 9.02520000
-1.62800000 -21.18910000 69.37270000
9.35000000 189.68100000 73.86940000
20.97480000 176.35900000 -77.43560000
15.89070000 180.90900000 -78.18770000
-64.80150000 -35.22670000 11.61020000
-63.26820000 -43.82870000 13.59090000
-65.57570000 -32.99190000 7.73010000
-46.20940000 -199.99600000 -9.74450000
76.12570000 189.34600000 12.86330000
76.63350000 187.16600000 12.34350000
46.79270000 109.65600000 66.23580000
48.01600000 107.13600000 65.51690000
49.91600000 103.93900000 64.27200000
88.73330000 118.40900000 -16.21980000
-63.33060000 -82.74830000 7.00440000
-64.99980000 -75.12870000 5.45120000
-44.09870000 111.82900000 67.00360000
-66.36400000 -67.87680000 -2.86220000
-69.94210000 -6.82710000 -26.12710000
-45.52170000 -126.49500000 -14.73740000
-45.35100000 -121.15500000 -18.32580000
-10.20720000 -178.59200000 40.31420000
-40.89870000 148.44000000 -70.08310000
-42.73680000 155.63700000 -68.70400000
-38.51180000 145.06200000 -71.52370000
-10.96800000 56.96730000 75.03320000
-53.86090000 145.70100000 57.70100000
5.75960000 -178.61900000 42.04210000
-88.52760000 96.82110000 16.89360000
-88.41670000 99.24740000 17.58790000
40.99970000 -83.39870000 43.85620000
-73.05490000 27.88820000 -26.30140000
-7.55910000 -178.33700000 -1.26390000
-12.65030000 -178.38300000 -2.27050000
-9.37230000 -178.47600000 -6.84260000
85.01190000 120.86000000 -13.46740000
71.44170000 55.86130000 -23.01500000
69.60880000 -8.64360000 0.03220000
67.96660000 -21.68240000 -0.13620000
30.60370000 -79.39000000 -55.72350000
31.19990000 -89.42840000 -53.00110000
-51.05860000 25.18680000 -58.63510000
-72.29940000 122.74800000 33.58650000
22.88540000 79.11320000 75.16600000
27.51160000 -106.27100000 -50.72670000
80.34750000 161.94400000 12.19870000
79.45960000 180.85600000 8.03470000
-33.00010000 -200.27300000 -33.29980000
7.84910000 187.75600000 74.54380000
-57.18480000 132.84400000 55.87220000
-82.66780000 142.32000000 7.64200000
-82.26930000 141.46900000 8.23720000
-41.52480000 16.29590000 66.53370000
-39.19380000 13.68680000 67.78700000
-40.15730000 26.34960000 68.34910000
-41.28120000 29.32710000 67.85030000
-43.26500000 33.27880000 66.76700000
-25.37940000 102.22900000 -79.14220000
-6.69160000 -35.14630000 74.00450000
-4.15500000 -24.44320000 75.69470000
7.77310000 -171.56100000 -33.00910000
46.94280000 195.41100000 -60.28370000
45.73530000 193.87400000 -62.00440000
-85.99840000 121.20800000 9.80670000
35.95630000 -173.71200000 5.49760000
34.70390000 -173.33300000 15.61980000
-43.52550000 -105.69500000 -28.39490000
-45.56810000 -104.34100000 -25.87770000
34.21040000 -174.13500000 14.44380000
87.24190000 112.74400000 -19.98340000
87.20030000 110.67300000 -21.22410000
87.13570000 107.54200000 -22.20880000
71.75080000 132.51800000 -39.13530000
-69.67220000 -37.57500000 -13.37060000
38.90130000 -184.96000000 20.18470000
27.22720000 -163.51900000 -32.91340000
89.32610000 113.97300000 -4.57120000
-13.46830000 81.44780000 80.79990000
-78.00370000 180.10600000 -6.42320000
37.45380000 -171.09600000 -0.52790000
36.94370000 -172.48700000 0.89180000
40.83780000 -74.34310000 -41.47040000
40.15600000 -83.93620000 -39.55190000
-23.16450000 70.87690000 -71.45500000
-13.13240000 119.23500000 -82.45070000
-51.35870000 -104.63100000 -12.92350000
69.34040000 128.67900000 43.86090000
70.27300000 136.78300000 41.72450000
-53.97650000 -116.50700000 21.31370000
-73.95220000 198.29200000 22.51680000
-72.76060000 199.70300000 24.90130000
10.60130000 -5.91860000 -74.50820000
-81.16910000 147.55500000 12.72500000
-80.98640000 148.40200000 11.52390000
-80.25530000 149.33700000 12.12750000
62.19160000 116.62100000 -55.92290000
26.45460000 81.14380000 74.21150000
-24.55710000 40.71360000 70.29960000
-75.83020000 21.01780000 18.85330000
-88.36880000 89.74650000 15.21640000
82.21350000 111.39400000 -14.87010000
37.59200000 -171.31900000 2.40020000
38.14880000 -169.80800000 5.07230000
-78.72900000 95.79870000 19.90540000
-79.47400000 98.81100000 14.75430000
-77.10280000 136.38300000 -23.33180000
82.91400000 111.95100000 -14.49850000
82.25400000 112.45900000 -14.83410000
-67.22880000 139.43200000 -42.64050000
-65.48520000 130.72100000 -45.22990000
-67.24910000 131.19300000 -42.73080000
10.99780000 -167.85300000 40.99120000
31.99790000 200.82700000 67.64350000
31.39870000 201.16300000 67.15440000
-59.74280000 197.67100000 -51.97680000
-61.70460000 186.13600000 -47.25620000
-88.06810000 107.89000000 -4.82990000
-87.65210000 103.08100000 -5.63210000
25.97650000 7.29760000 67.63810000
24.73730000 15.37140000 68.83810000
-87.40560000 120.30500000 -1.63810000
-86.14070000 120.01300000 -1.98710000
-68.16760000 -11.05030000 -5.06600000
-82.61950000 136.81200000 11.48350000
-82.47690000 135.40000000 12.36530000
54.29110000 -102.33900000 1.50950000
76.38660000 189.73500000 -7.08580000
75.48970000 192.11700000 -9.86890000
55.56870000 -94.36140000 8.71310000
46.91400000 12.41860000 -52.79910000
-10.82420000 182.63100000 -78.82200000
-9.79110000 179.70600000 -79.43170000
24.29240000 -197.57900000 44.42980000
13.21060000 5.91350000 78.03790000
75.90130000 62.34670000 10.69100000
75.46790000 59.44510000 10.13120000
27.42090000 18.58560000 68.10200000
28.56160000 29.20740000 68.50640000
-71.25450000 80.00410000 -38.68900000
77.79510000 184.99200000 3.29040000
77.34950000 187.10000000 4.85460000
78.32490000 181.46100000 0.40810000
73.90700000 37.62240000 6.19900000
74.73900000 51.58390000 8.56090000
75.31050000 56.25350000 7.26480000
71.01850000 63.84080000 -28.35500000
68.70200000 60.36620000 -31.58940000
51.89530000 -99.02610000 35.73980000
69.78000000 195.91000000 -27.54000000
70.95510000 195.82700000 -24.62700000
-9.14360000 -179.19700000 -36.32800000
-11.63560000 -178.04000000 -35.86590000
-30.03110000 -174.23000000 12.01450000
-27.61240000 -174.34200000 12.08170000
-29.13860000 -174.32900000 0.38540000
77.08410000 187.84800000 -2.08050000
5.85530000 27.10410000 80.94130000
8.11820000 30.20280000 80.99420000
8.90130000 22.06310000 80.21860000
11.34480000 29.03730000 80.48980000
69.68750000 194.35100000 -29.54230000
-49.76580000 99.92040000 62.85680000
-47.04570000 101.05600000 65.01460000
48.79290000 -194.01700000 16.13000000
49.35620000 -193.78700000 12.11370000
48.54500000 -193.46900000 16.17150000
47.12990000 -193.38000000 21.32710000
-45.75240000 91.13090000 -64.99150000
-42.21130000 99.09350000 -67.53980000
-43.97790000 104.64400000 -66.89260000
-43.56180000 103.32100000 -67.04270000
17.57120000 192.45900000 74.12950000
-37.28750000 106.72300000 69.93870000
-32.71350000 108.70500000 72.47250000
-35.80890000 126.58200000 -72.71220000
-35.29900000 127.73600000 -73.20940000
-57.63950000 86.72180000 56.16530000
-54.64750000 82.99550000 59.11660000
-70.04580000 82.39630000 35.50640000
-67.48880000 79.42140000 39.23980000
80.53260000 171.35700000 -3.81360000
-30.89020000 101.46300000 73.32170000
-24.82740000 97.64660000 75.55640000
-42.82410000 101.76400000 -67.35880000
-40.21560000 102.20700000 -69.33030000
-62.98200000 192.54200000 45.16110000
-62.15420000 199.44300000 44.96900000
-14.00740000 -154.31900000 -42.55200000
-11.61280000 -154.77300000 -43.13080000
49.61480000 145.13300000 63.69310000
92.21350000 125.63000000 -12.32230000
-7.21550000 -63.82060000 63.09040000
-43.90440000 101.23700000 -66.70110000
-43.85920000 99.16360000 -66.42630000
-42.47660000 100.61400000 -66.63490000
83.46380000 134.99400000 -3.24610000
74.21320000 200.18500000 -12.87060000
-75.53030000 90.96000000 -30.98600000
-76.20360000 106.00800000 -30.58270000
-52.73720000 152.21000000 55.76420000
46.55950000 -47.22780000 -51.86420000
45.12850000 -56.31510000 -51.03820000
45.01480000 -62.32630000 -49.62850000
42.91710000 -61.79000000 -51.55870000
44.75200000 58.79330000 61.48420000
-28.27900000 -179.70100000 33.50030000
79.95790000 29.11980000 1.31390000
33.32770000 195.62300000 -69.03030000
35.01430000 196.24700000 -67.76090000
34.75000000 197.45400000 -66.84130000
31.84900000 194.41400000 -70.03200000
-46.21520000 125.92200000 -65.98130000
-44.72780000 132.50800000 -67.52590000
-46.94020000 132.64100000 -65.76250000
-21.94990000 -191.97900000 -33.92630000
-30.99660000 151.49900000 72.09370000
-14.89000000 114.82400000 78.70890000
-18.37760000 116.63600000 77.70950000
-15.58260000 111.85500000 78.62270000
-44.80250000 117.78200000 -66.97950000
-45.87010000 119.61800000 -65.88510000
-43.13700000 116.44200000 -67.93060000
78.01730000 74.03380000 -15.22530000
-12.05500000 -190.89800000 -36.68900000
-14.74060000 -191.62200000 -36.65770000
63.62720000 52.19980000 -38.46170000
-69.34470000 196.41100000 -26.39350000
88.85920000 96.53350000 4.21060000
-10.48460000 138.55800000 -82.70400000
-8.89870000 92.28550000 79.83860000
-7.46910000 97.03220000 79.98610000
-8.07090000 100.59900000 80.06980000
19.34480000 -194.45800000 -42.24790000
12.85770000 -193.97300000 -44.17450000
17.12240000 -193.96500000 -42.77810000
-33.37810000 -1.91100000 62.64130000
-45.03180000 -188.56400000 8.27640000
-24.06500000 -77.57540000 -58.87570000
-40.45240000 -135.86700000 37.08690000
13.85350000 97.74510000 80.41750000
11.46270000 110.08700000 80.72210000
69.99250000 66.67480000 32.81140000
92.08630000 113.35100000 -8.02690000
41.57060000 -53.81730000 49.93320000
42.68460000 -43.08220000 51.01130000
-48.68050000 154.25200000 62.67280000
-48.34300000 163.54900000 62.52090000
-50.37070000 162.46300000 60.95320000
-78.82210000 142.94300000 -23.15690000
-54.36990000 125.62200000 -58.47240000
-57.72080000 130.96500000 -54.96510000
8.59340000 114.36200000 -81.41620000
5.82970000 115.25100000 -81.17670000
63.82020000 133.94800000 50.84180000
-37.76050000 -187.40600000 -19.50660000
-36.09910000 -187.26400000 -21.72760000
-31.71370000 0.78910000 63.82520000
40.85080000 -201.31100000 -21.49440000
41.46820000 -201.29700000 -18.53920000
41.39190000 -200.99500000 -22.39620000
69.87400000 199.96200000 -30.78520000
12.46710000 -146.29800000 52.27690000
14.64640000 -147.49300000 51.37740000
45.43290000 144.17400000 65.32450000
46.63880000 141.83500000 64.68090000
75.28020000 194.93100000 7.49450000
74.97940000 195.47100000 9.14650000
75.10860000 195.64600000 5.73480000
74.50900000 196.87100000 3.83440000
83.40960000 149.80000000 3.26050000
31.09040000 58.48020000 69.40010000
35.58740000 53.94470000 67.00830000
83.41840000 137.50100000 -13.22180000
82.94600000 138.16200000 -14.05710000
45.25990000 51.83410000 68.25370000
62.52000000 -44.29530000 -15.05920000
62.72610000 -48.79250000 -11.15500000
37.01050000 43.17690000 65.46460000
-52.00710000 -66.30230000 -29.63210000
-50.41100000 -75.59190000 -29.04290000
-51.16630000 168.45800000 58.63960000
-45.70650000 -13.10750000 52.40870000
-23.77470000 38.92710000 -67.85240000
25.48240000 -196.64600000 -39.21730000
-9.70520000 66.84650000 -73.70480000
46.09800000 192.23800000 -62.32300000
-11.13860000 -197.68600000 54.21420000
-11.69820000 -198.90400000 53.09880000
-11.45310000 -198.30600000 53.86340000
80.61130000 94.56140000 16.07710000
80.71870000 91.23530000 14.86150000
24.20590000 57.25850000 72.04720000
27.92950000 56.92700000 70.65010000
73.53720000 108.47900000 -36.27570000
72.13660000 102.09300000 -38.73600000
-11.35920000 -148.15800000 51.84340000
7.13880000 200.90500000 74.81380000
-44.78740000 -192.80900000 -20.52700000
79.99150000 86.87030000 18.01440000
79.52380000 89.70070000 20.07540000
-77.25140000 12.25660000 -1.94000000
86.78190000 126.43800000 -15.57550000
84.86420000 126.83700000 -15.31620000
83.37180000 126.98900000 -15.23280000
-79.04630000 91.04420000 -19.79780000
-72.16310000 -31.26760000 1.55520000
-72.79200000 -25.73020000 0.32610000
-0.44190000 -94.58930000 -53.40900000
0.47210000 -103.90800000 -51.36360000
1.34620000 -111.81000000 -49.54780000
-84.74100000 91.48000000 7.32990000
34.88130000 -177.57400000 26.89760000
35.84310000 -173.04200000 27.95670000
-38.94220000 -155.87800000 -22.90830000
-39.87070000 -160.46100000 -18.77280000
-39.61390000 -157.96000000 -20.69320000
30.65860000 63.98210000 -67.80470000
28.00990000 65.86210000 -69.16250000
24.43110000 65.13910000 -70.33400000
27.32880000 61.52240000 -68.84620000
87.48690000 94.33990000 -17.57400000
-73.98760000 -16.63590000 -1.10120000
-73.01660000 -24.27070000 1.75660000
-77.90360000 66.66930000 -20.77940000
-77.44650000 59.95280000 -21.30420000
17.75540000 -180.05500000 -32.76840000
-63.95650000 -20.17720000 23.06450000
-77.26180000 90.52300000 -25.81080000
-77.24340000 93.44090000 -26.69940000
-78.24710000 92.56900000 -23.31580000
-11.69480000 63.26420000 -80.86090000
61.70190000 116.99600000 54.49580000
61.98420000 105.96900000 54.72800000
-77.93740000 85.95480000 -23.58540000
-77.17580000 86.55960000 -26.14860000
-76.87880000 88.77980000 -26.90360000
0.16490000 -170.06900000 -34.38980000
74.27370000 63.09420000 19.72650000
73.90930000 60.27000000 19.24360000
7.47610000 -191.25100000 -37.47280000
-59.11920000 -74.46010000 -4.12850000
-57.69350000 -81.12440000 -5.81770000
-35.04900000 -173.52400000 4.28890000
-9.93870000 -57.36010000 -59.78560000
82.81070000 107.10900000 -20.26690000
-78.19890000 88.70930000 -22.45440000
-82.59720000 142.52600000 1.53790000
0.95390000 22.50470000 -78.29290000
-2.57010000 35.02330000 -79.42680000
43.38270000 -200.52500000 24.16100000
42.25440000 -173.60000000 10.86670000
41.53520000 -173.40600000 14.49090000
41.49180000 -177.26900000 7.51590000
42.31480000 -174.04700000 9.45990000
10.15580000 89.92010000 -82.76100000
-64.74040000 83.97070000 44.68540000
-65.75490000 81.12550000 42.53000000
-43.80780000 -87.13730000 -34.40230000
-47.60800000 -73.56370000 -33.81650000
64.68500000 84.79040000 49.19360000
15.65950000 198.49000000 -73.86110000
12.10160000 197.63700000 -73.65340000
12.43410000 196.84900000 -73.62030000
-72.99890000 197.03900000 8.14550000
21.08250000 -174.31500000 -24.67820000
12.89030000 -174.35700000 -28.99490000
24.60870000 -174.40400000 -21.29630000
-78.83610000 105.51300000 6.41100000
-78.76720000 102.15500000 5.35910000
-79.20540000 105.90500000 3.10680000
-78.39130000 103.01600000 8.48220000
-3.07100000 -186.20100000 -35.13330000
-3.14880000 -184.97500000 -34.74350000
88.68670000 105.01600000 3.43310000
90.14480000 106.43900000 2.33590000
90.11850000 105.18400000 2.30840000
24.72030000 197.14400000 -70.81140000
-39.82510000 -186.91300000 -14.71830000
-38.97820000 -187.46900000 -17.50140000
-40.44400000 -186.42000000 -12.09000000
-14.99250000 -183.03100000 40.53560000
-55.90440000 8.11680000 44.34180000
-39.75780000 107.04500000 68.62630000
38.99520000 -192.84600000 -22.25790000
-67.03430000 183.75300000 36.92930000
-32.47170000 -194.73700000 40.53800000
52.10960000 125.23100000 -62.84430000
48.90140000 125.47400000 -65.37840000
45.74790000 116.81300000 -67.97630000
-0.52680000 -177.28200000 45.88820000
-50.91980000 -198.72700000 4.82790000
66.53370000 101.86300000 -50.32080000
68.13400000 104.51500000 -48.16530000
69.75790000 106.95100000 -45.76270000
47.34350000 196.54300000 -58.84330000
-80.17750000 131.51400000 15.60670000
-31.27330000 193.16800000 66.11670000
-35.13960000 189.92800000 65.16450000
-34.41280000 188.70600000 65.99960000
-77.64830000 134.97500000 24.20870000
50.08420000 -108.02400000 -15.03690000
39.08270000 104.09300000 71.03210000
41.56390000 102.43700000 69.63510000
-44.10800000 -122.78200000 -19.99710000
-87.43780000 101.48400000 22.32730000
37.70290000 106.81700000 71.63300000
35.17120000 107.26500000 72.92960000
36.36530000 111.76100000 72.31020000
31.87700000 107.37200000 74.52220000
-27.17020000 88.78610000 74.68400000
59.50690000 -73.54040000 8.74240000
79.80260000 76.27110000 -7.37380000
-40.39850000 -183.57200000 -6.02820000
16.09240000 -130.91200000 -42.21370000
17.39150000 -183.88400000 42.84480000
19.94530000 -183.79200000 41.50840000
22.90150000 -182.60700000 39.16250000
25.31390000 -182.81100000 37.40710000
-35.01240000 -172.57200000 -6.53190000
-32.33070000 109.19300000 74.19420000
-30.13440000 117.81800000 75.09930000
-33.11870000 116.24300000 73.69660000
-34.48050000 99.02200000 73.16500000
-58.55870000 158.06400000 51.60710000
-59.31960000 155.03600000 50.83580000
-78.38950000 156.90300000 13.33740000
60.28840000 -101.62800000 14.58950000
59.22200000 -101.51800000 18.95700000
-58.88390000 -100.67400000 14.79950000
-5.64600000 -19.56310000 76.16690000
-67.27250000 129.84200000 41.82270000
-66.72770000 126.55400000 42.71290000
-31.54880000 -143.29500000 -36.11740000
-34.86740000 -126.55900000 -38.73000000
-30.56030000 -173.69800000 20.49200000
-63.68930000 141.08800000 46.79370000
-65.96630000 138.81700000 43.75550000
71.76730000 -36.68040000 -10.09030000
71.45980000 -34.73320000 -13.43850000
-41.59240000 -189.35900000 8.85060000
42.32960000 -41.04840000 -47.83910000
-81.74810000 143.03500000 10.74870000
-82.19710000 139.22200000 7.93890000
-82.58190000 140.33300000 8.93730000
-37.28750000 197.62900000 -69.88500000
20.02010000 -199.29100000 49.81490000
20.06010000 -197.83000000 50.73640000
19.05150000 -198.21600000 50.74860000
17.48200000 -197.41500000 51.96440000
91.60490000 119.02800000 -0.58820000
18.83130000 -198.83100000 50.75140000
-3.43670000 -193.64500000 -40.70150000
-55.14250000 197.70600000 -50.28460000
-42.56620000 -199.72400000 -18.23060000
-40.48670000 -199.92100000 -21.96520000
-22.67200000 -71.31100000 -53.57500000
4.56080000 -186.16400000 -34.96810000
-79.05800000 142.33800000 13.32690000
-77.16220000 140.96900000 20.28790000
-49.42880000 -141.43000000 15.79370000
-47.15470000 -148.60800000 17.30460000
73.25800000 150.74100000 -34.66870000
71.97680000 162.35400000 -35.76760000
36.11440000 -184.56100000 20.15260000
34.69970000 -184.91300000 23.09590000
74.15670000 70.03990000 -35.69660000
-76.73130000 95.06840000 20.80070000
-76.02000000 93.65830000 24.17690000
-58.49640000 155.22700000 53.80040000
-58.50540000 152.82700000 53.38250000
-56.97490000 152.22900000 55.16040000
62.81960000 17.46050000 -34.39100000
26.62730000 -192.95300000 47.92070000
62.52920000 197.08600000 -40.92820000
22.58500000 -190.85100000 -35.72060000
-30.62690000 -126.62500000 48.62730000
40.68770000 -104.66000000 47.02100000
32.40440000 -193.88800000 43.74650000
35.38230000 -192.79500000 40.41110000
32.65460000 -191.24500000 40.19320000
18.58270000 -34.14810000 -69.15810000
82.10280000 97.75470000 5.27650000
81.89130000 95.92750000 3.34590000
81.97510000 95.71370000 5.23090000
86.47830000 95.28600000 -6.80970000
12.44790000 200.67800000 69.15320000
-17.62650000 -172.75400000 -28.12200000
71.00750000 199.72200000 -20.61140000
-77.84270000 76.27120000 -7.14340000
10.16250000 151.54200000 -82.05220000
11.34350000 142.17200000 -82.29490000
12.85540000 146.74700000 -81.85720000
-40.42600000 -167.23900000 -12.73540000
38.69390000 -95.70050000 -37.59420000
11.56030000 200.25400000 69.22290000
36.07230000 -173.76100000 1.49770000
36.39830000 -173.01700000 -0.76480000
38.75260000 95.32850000 71.23940000
35.53060000 98.42340000 73.02840000
-75.90750000 199.18500000 -8.22900000
-74.00030000 198.59700000 -8.43410000
-48.61440000 -134.85100000 -16.08480000
-29.97290000 -174.29100000 -5.81340000
-54.53130000 104.30100000 56.97820000
-55.84100000 111.31500000 56.09290000
-55.05660000 114.91900000 56.95210000
-54.52890000 110.38000000 57.20130000
-68.90830000 131.42100000 41.11010000
-67.27260000 128.76400000 43.40440000
5.39520000 -178.45900000 31.39200000
-44.74720000 -80.98090000 39.53870000
41.78980000 -187.63900000 -4.30130000
40.69310000 -186.84200000 -6.75250000
21.70110000 -191.31700000 -31.96940000
-68.97850000 -12.83620000 30.23850000
32.49920000 -143.09400000 -28.02030000
-11.36980000 -178.39300000 32.67440000
-19.13250000 -178.30300000 21.00840000
-22.90590000 -178.35900000 20.28320000
62.01760000 58.76640000 -41.98090000
62.84070000 55.92770000 -40.24760000
42.92790000 -188.33900000 -0.74420000
43.17820000 -188.24700000 2.27330000
-59.01030000 -40.22080000 -25.26590000
2.44590000 -178.37700000 17.41320000
-2.03440000 -178.34000000 22.57460000
-11.92740000 -186.61500000 -37.29600000
-9.00100000 -185.81500000 -37.60190000
7.28490000 -89.00470000 -60.74730000
82.45480000 115.13100000 1.88220000
9.81710000 -146.55300000 52.80050000
7.47020000 -149.36600000 52.51800000
-5.39580000 -183.69700000 45.41260000
-6.48390000 -184.72700000 45.78740000
-6.76630000 -182.17000000 44.68200000
62.60100000 -96.24010000 5.25660000
62.49930000 -96.92830000 2.98760000
-71.59410000 160.14500000 -38.05240000
-76.52900000 117.02900000 -26.37140000
-77.18840000 116.81000000 -23.75550000
-75.49860000 118.80200000 -28.75830000
-74.96360000 120.50600000 -29.88060000
-76.67290000 120.96800000 -25.74060000
-91.68210000 117.43400000 9.17270000
-91.24570000 117.49200000 9.58170000
20.47440000 62.26160000 -79.53060000
-68.77930000 85.16230000 -39.34490000
-65.74890000 82.35190000 -44.16940000
-76.65180000 112.98500000 -25.52160000
-77.34770000 115.33800000 -23.58100000
40.43360000 191.25000000 -66.74260000
24.19960000 100.70600000 -80.32490000
-37.44560000 -184.67600000 15.86670000
-15.25390000 197.68200000 -73.21370000
-21.03470000 197.69700000 -71.80770000
25.97220000 100.92000000 78.71220000
32.63430000 -58.07340000 -51.40160000
28.89300000 -49.71200000 -55.09490000
-28.65590000 197.30700000 -68.93850000
81.47680000 84.24060000 7.81810000
16.95170000 -29.36950000 -70.30940000
17.78520000 -1.08100000 -73.78900000
-4.22560000 69.37440000 -81.94010000
-10.42720000 68.03750000 -81.28510000
79.03230000 77.47850000 16.66650000
79.67330000 79.75120000 16.27870000
-67.20430000 200.08300000 35.29110000
-65.63170000 199.99000000 35.08590000
-68.37750000 199.96400000 34.52640000
-64.13880000 199.64900000 41.70500000
-63.79360000 200.09700000 41.09320000
60.58990000 -53.02000000 -16.72750000
49.73250000 11.64190000 53.07230000
43.68650000 97.81760000 -68.54060000
47.44350000 132.84800000 66.38860000
47.42930000 123.75900000 67.00360000
19.72900000 -157.96800000 -39.39520000
18.05470000 -159.44400000 -39.58840000
-18.16290000 -65.85790000 60.27410000
27.06000000 164.17900000 73.33910000
49.30460000 184.05800000 -61.41640000
-23.91870000 -115.22000000 -42.75970000
-23.40560000 -123.84700000 -40.68720000
-77.25160000 108.25600000 -28.06420000
56.78450000 28.43610000 -55.64420000
-78.54220000 119.46100000 12.60790000
-79.45610000 116.86800000 5.89760000
-79.10830000 117.99400000 9.17230000
59.43930000 168.11800000 -53.57650000
62.67980000 166.54200000 -49.64800000
56.38320000 45.20260000 -47.31180000
31.10850000 148.44900000 -75.51170000
77.63910000 153.82000000 24.87110000
-72.16070000 103.80600000 33.26730000
-72.66480000 105.40400000 32.54760000
-51.63630000 -80.06250000 -25.20660000
-77.69110000 119.91800000 17.77650000
-77.17300000 123.77300000 21.06630000
-77.03160000 120.38500000 20.97600000
40.35790000 -115.85200000 -38.65980000
40.24820000 -126.96000000 -34.74110000
43.15750000 -114.04400000 -36.52530000
-42.75180000 83.82990000 -69.80070000
-42.14680000 69.70120000 -69.21810000
69.54030000 -5.53160000 -6.36040000
-30.98660000 57.42410000 69.09870000
-30.47070000 60.72140000 69.95690000
-34.07200000 -173.23000000 -7.19680000
-48.93570000 179.37400000 58.99150000
-50.08490000 175.27300000 58.64430000
26.92590000 -169.69100000 31.08670000
24.68430000 -169.28700000 33.25910000
44.18610000 -137.09000000 17.97510000
41.86320000 -145.13100000 18.92940000
31.31180000 -167.32000000 27.17100000
29.81460000 -168.95100000 28.32660000
85.52380000 119.42300000 -19.66710000
-28.88870000 65.51320000 76.02700000
-63.85160000 83.04980000 -47.08920000
-63.36560000 78.50800000 -47.24540000
-61.62900000 80.77970000 -49.81040000
-35.00020000 54.43020000 66.60590000
-37.99400000 54.46100000 64.86780000
-48.20040000 -127.85300000 -2.54320000
-47.50610000 -131.82600000 0.34280000
-82.35520000 147.35000000 -10.23190000
-37.55750000 -53.46120000 -48.71750000
-42.27880000 -110.83800000 43.31490000
-41.64640000 -105.14400000 45.54130000
69.87210000 155.45100000 38.79420000
68.79790000 151.14400000 40.97790000
-63.67210000 24.20760000 45.43770000
-56.31720000 172.62800000 -56.04080000
-54.78920000 183.35700000 -56.19360000
-75.75710000 103.16000000 30.53190000
84.12130000 135.96500000 -4.26380000
83.76960000 135.99400000 -2.88710000
84.06490000 136.84800000 -5.11990000
83.77780000 138.17500000 -5.73010000
64.54400000 131.04500000 48.62520000
63.63250000 151.38600000 47.81610000
-70.66730000 104.89300000 39.77260000
83.42050000 134.97500000 -4.81320000
83.35280000 134.38300000 -5.76910000
-87.11290000 93.38460000 -1.20990000
-8.87850000 118.62500000 -81.22380000
-10.24880000 117.93600000 -80.85580000
-10.79380000 121.53200000 -80.79710000
-8.42440000 121.98800000 -81.30530000
66.60030000 109.16100000 -50.40360000
-12.07720000 117.16700000 -80.70500000
-11.22420000 115.28300000 -80.66740000
-16.69340000 118.27100000 -79.82240000
67.72570000 149.12800000 42.75420000
80.85210000 73.24100000 -16.07610000
-87.38440000 108.51800000 5.18140000
-87.01070000 108.56100000 6.58080000
-14.86520000 112.78300000 -79.83250000
-13.13190000 115.89200000 -80.16550000
53.63120000 88.53300000 -63.53550000
-73.33660000 199.56500000 9.57840000
-74.29140000 199.54500000 8.31860000
58.35430000 196.95100000 44.07420000
58.28080000 194.88800000 45.30090000
62.87770000 143.59900000 -51.83580000
61.13120000 -46.26950000 -35.28750000
4.65590000 -194.03000000 51.52110000
-15.02620000 115.36800000 -80.02350000
-12.70900000 113.25500000 -80.25700000
-20.42800000 116.19800000 -78.79170000
-16.79750000 114.51000000 -79.57840000
-16.54100000 116.76800000 -79.66110000
33.49300000 -190.36300000 30.45100000
35.49900000 -191.12900000 27.86360000
-80.17520000 88.84930000 -12.78820000
84.18730000 139.42100000 -0.37970000
-19.34630000 103.91900000 77.58460000
-20.91690000 103.58500000 76.98770000
2.97780000 201.34400000 72.15000000
30.73250000 -189.81600000 33.37500000
10.12730000 -104.51300000 55.76130000
7.83300000 -105.21700000 55.97520000
-23.36050000 -197.91900000 47.39270000
-41.24690000 134.65000000 67.17290000
-2.10210000 -151.76600000 -45.52930000
-17.67210000 121.64500000 77.72550000
-21.65610000 129.38500000 76.35660000
-10.99180000 -189.60300000 45.92400000
-11.82780000 -192.20700000 48.52640000
-84.54450000 98.63060000 17.91120000
-84.58240000 101.11800000 19.05970000
-49.84010000 117.27900000 -62.68170000
-47.94200000 115.66400000 -64.22160000
-48.88200000 111.89800000 -63.23480000
-47.36980000 113.14500000 -64.62290000
86.06110000 116.04300000 -5.35050000
87.49080000 116.07500000 -5.31800000
85.31190000 116.46600000 -6.90680000
-79.42620000 122.49500000 -11.99310000
-79.67630000 122.80000000 -9.12210000
-79.35890000 117.73900000 -11.79940000
-8.10420000 -90.37280000 -60.18850000
-7.78160000 -78.48610000 -62.88970000
41.51580000 -185.00800000 6.21570000
-80.32880000 148.81000000 -19.65580000
-37.32060000 -194.13400000 35.26500000
-36.06540000 -196.90800000 37.79930000
92.74050000 110.04400000 2.10550000
93.18680000 107.49500000 3.25740000
3.24700000 -178.75500000 -17.90390000
-4.90140000 -178.61200000 -16.59790000
63.80750000 -15.86210000 27.15310000
-40.95010000 -186.89300000 19.16090000
-40.78420000 -187.57400000 21.19210000
60.62680000 -45.81860000 23.95910000
-37.50830000 -158.82200000 -13.03180000
-85.20240000 99.72170000 -9.39910000
13.12300000 181.11400000 -78.64900000
31.85540000 -179.85000000 -15.46060000
4.10790000 -188.96700000 49.81470000
-0.51850000 -188.70900000 49.56040000
62.92470000 125.27500000 -52.21890000
48.40910000 155.70100000 -67.12660000
-68.07690000 75.55520000 -38.00340000
-30.99010000 -77.88110000 -47.91710000
43.89090000 -190.65300000 20.42110000
44.66960000 -191.13600000 21.36130000
-26.24780000 -105.05100000 -44.14190000
-27.68220000 -94.80500000 -45.90050000
70.54490000 89.39350000 -40.64300000
72.19580000 87.70650000 -37.38950000
71.81750000 90.99520000 -38.32710000
-2.74190000 92.33570000 -79.95490000
-85.13290000 111.93100000 -6.35790000
-56.65140000 29.00490000 -53.73360000
-58.13240000 36.79800000 -52.96030000
-82.06490000 117.46200000 7.21910000
-82.22930000 118.29100000 9.29030000
36.84970000 -199.70500000 37.52850000
58.23100000 197.61300000 49.95200000
61.22290000 199.84900000 45.99490000
58.29640000 199.83100000 49.39830000
60.01920000 197.17500000 48.02970000
41.67880000 -196.82900000 -16.62860000
56.61260000 200.45600000 50.36180000
58.51570000 200.57100000 48.18860000
80.86430000 141.26000000 -21.16450000
89.21770000 118.42500000 -13.79670000
-19.39720000 196.52000000 -72.19980000
-21.03140000 196.23400000 -71.92060000
40.82320000 -190.69300000 -2.09560000
40.00690000 -189.36200000 -2.18450000
-78.67560000 150.73000000 13.27370000
15.29850000 184.39700000 74.05320000
-48.07210000 167.08300000 -64.26720000
-6.86970000 -200.55100000 -42.75510000
-7.78700000 -201.15700000 -42.93100000
-78.72360000 80.28940000 -2.07640000
-9.04910000 -194.22500000 51.34610000
14.81460000 58.06920000 74.64540000
37.65290000 -3.59840000 -65.84520000
-52.71890000 192.53200000 51.91570000
-50.48910000 192.96800000 53.69980000
-54.35470000 191.57100000 50.73560000
-45.72220000 110.25300000 -65.84600000
-44.42200000 111.12300000 -66.64720000
79.40790000 74.66890000 -22.26200000
-15.45920000 76.79470000 80.39840000
-66.45530000 -27.59310000 5.19030000
-27.40670000 103.17100000 -75.80580000
61.27190000 -96.68170000 -10.22660000
43.79060000 -198.69900000 -19.79540000
43.27080000 -199.99500000 -20.44510000
-67.70610000 -18.03280000 1.17540000
78.86940000 160.07000000 -16.18130000
79.13080000 162.57500000 -14.00470000
45.41420000 -195.09500000 3.10590000
45.79620000 -196.07000000 1.52790000
45.74170000 -196.30500000 0.60130000
-4.14440000 -194.63000000 -46.50420000
44.56930000 30.58670000 59.45550000
-80.33700000 109.76100000 10.74650000
-80.54730000 107.32500000 9.04980000
-80.66670000 106.09400000 7.09960000
53.27400000 64.06510000 54.98460000
-63.24610000 -14.90390000 -23.66260000
-25.86540000 103.14200000 -76.33690000
15.13280000 -61.07590000 62.37720000
46.15090000 -196.14700000 3.85890000
46.51430000 -196.93100000 5.29110000
-78.08430000 106.78500000 -18.55170000
-35.50030000 -178.68300000 15.68200000
-35.14860000 -178.35700000 13.94560000
-78.40710000 116.63000000 -18.89720000
-77.95320000 118.39600000 -21.39260000
46.83300000 -199.00600000 -1.28440000
46.92230000 -199.79800000 0.21360000
-19.63290000 -55.45070000 61.47120000
42.41770000 -153.05100000 -0.11750000
77.07230000 184.29900000 19.66190000
-70.55590000 189.56200000 26.95580000
-73.34830000 183.32300000 23.38740000
-0.04540000 116.26200000 -81.59830000
2.06720000 114.70400000 -81.47330000
0.48380000 114.16500000 -81.35610000
-20.12750000 165.75100000 -79.88210000
-21.75470000 173.22000000 -79.05680000
-20.80340000 183.29700000 -78.56260000
14.57320000 -197.75600000 -40.73880000
14.00830000 -195.92200000 -40.40650000
-73.29030000 41.88550000 -30.71320000
-72.36050000 41.02170000 -32.74740000
-42.83590000 50.67060000 61.18120000
43.32090000 -150.57700000 27.32830000
-4.31770000 122.61400000 -81.42640000
-32.80820000 -92.13230000 55.39730000
-35.83200000 -82.40650000 55.44580000
-47.74080000 109.43500000 -67.01020000
-51.57600000 111.65400000 -63.78370000
-49.46710000 111.05400000 -65.59400000
14.52350000 -200.47400000 -40.60010000
14.76600000 -200.91900000 -40.57430000
-3.38020000 134.88200000 -81.75440000
-0.60830000 131.66300000 -81.77950000
-3.77700000 131.63100000 -81.74640000
-2.02080000 128.78300000 -81.66890000
-62.59290000 1.49960000 44.62360000
85.96930000 129.56000000 -10.72510000
-16.56460000 -30.75740000 -70.26940000
77.08370000 143.11500000 -30.99910000
77.05430000 145.24100000 -30.68240000
-3.34760000 125.94400000 -81.59630000
-2.01000000 124.89600000 -81.74620000
-48.66470000 139.67200000 -66.23220000
-46.22970000 140.02000000 -68.16240000
-74.53400000 185.90800000 24.22760000
11.33270000 -186.06300000 -33.54540000
12.08100000 -187.89500000 -34.01050000
-32.47300000 152.27100000 72.60880000
41.10940000 -190.80800000 5.91340000
-47.66590000 -199.62600000 19.74730000
12.28710000 116.64700000 -81.06490000
-79.27360000 146.51900000 -12.30770000
-79.78410000 140.59500000 -9.69030000
-79.97300000 145.59600000 -6.48090000
-43.40040000 112.64500000 -67.64620000
50.04600000 -194.54300000 3.06770000
49.91680000 -194.20300000 6.98740000
50.07440000 -195.07400000 5.17880000
-74.52780000 77.97240000 -25.34730000
-27.13870000 -189.35700000 41.71670000
-25.28620000 -189.87400000 43.91350000
-86.50130000 117.80500000 0.04690000
45.67470000 200.42100000 54.25670000
-34.69530000 187.03400000 66.34760000
-42.05230000 -199.56000000 32.93410000
-37.48850000 -199.01700000 39.82350000
-38.13470000 -199.45600000 38.29300000
-84.78460000 115.21600000 14.51940000
-84.94300000 117.56300000 10.23630000
-79.56960000 148.96500000 -9.61920000
-46.68560000 192.61700000 56.95800000
-48.41990000 193.88400000 54.96440000
-69.98880000 -24.05500000 23.27220000
28.95600000 -182.57200000 30.66220000
-31.87900000 28.43360000 -63.55640000
15.18310000 -174.34700000 32.25630000
-25.89040000 -193.51800000 49.65260000
-21.05600000 -193.16700000 51.87810000
-32.54430000 -193.47100000 45.20790000
-29.26520000 -193.63900000 47.69720000
-78.02570000 127.36100000 23.67200000
90.68650000 121.04200000 -4.05580000
-33.98080000 -179.31100000 -11.60390000
2.90120000 128.58800000 81.71640000
16.64120000 -174.01200000 34.02060000
63.25380000 92.63770000 -54.15750000
-53.59520000 198.07500000 48.11440000
68.10630000 158.18300000 -43.35540000
54.11440000 -16.86320000 43.85340000
34.16830000 -42.42580000 57.35290000
36.09670000 -47.21820000 55.31710000
71.57440000 183.11500000 -31.70510000
-25.57790000 -198.08200000 49.83570000
36.28670000 -37.34600000 56.82500000
32.72910000 -186.25900000 -21.88450000
33.69380000 -187.73100000 -21.91030000
72.62320000 182.94100000 -29.23580000
45.37800000 -200.00000000 16.89240000
43.90150000 -199.77100000 18.00760000
43.88730000 -198.67800000 18.06260000
44.80540000 -200.34000000 17.74780000
83.75280000 148.11100000 -4.31520000
-46.47150000 -190.18900000 -5.93950000
-7.51530000 115.39700000 -81.31250000
-82.94560000 128.99500000 -3.86950000
-82.79530000 127.57800000 -5.08590000
-2.68810000 82.80060000 82.31020000
92.19920000 126.16000000 -8.26800000
46.48390000 -200.63500000 13.89360000
46.70540000 -199.74000000 10.60720000
46.95360000 -200.42200000 10.76290000
46.66850000 -200.70600000 15.63300000
-83.06690000 124.87900000 -2.44570000
-19.18940000 -17.36190000 66.86940000
63.48270000 -41.97440000 -12.68040000
64.78650000 -33.21140000 -12.81450000
44.63190000 -200.36800000 18.34440000
-71.11840000 149.86400000 -36.91230000
-71.03200000 144.99900000 -36.92000000
-33.11050000 -186.65000000 -18.43550000
-38.54300000 5.79050000 67.37250000
-37.09030000 12.95460000 68.98130000
-75.19480000 199.73200000 14.84190000
-75.01480000 199.72100000 12.54900000
-57.98810000 190.99400000 47.12470000
-61.74060000 192.05100000 41.89920000
36.30760000 -168.77000000 -9.01870000
18.45560000 -54.69370000 -65.67240000
16.76480000 -62.89690000 -64.51560000
-30.41230000 -199.51000000 44.37190000
-36.82890000 -149.69300000 35.93760000
-25.16730000 -151.00600000 45.25910000
-1.89430000 195.48300000 72.56180000
-2.16410000 196.76100000 72.03610000
16.80110000 75.83290000 81.38260000
-2.98470000 -189.24200000 46.90840000
-2.04490000 -192.55800000 50.22430000
-77.31580000 174.91300000 -16.41240000
12.69260000 91.14860000 -82.49960000
-37.65990000 -65.31260000 57.87400000
40.68240000 198.46500000 -63.42510000
68.85050000 -60.91620000 -2.10110000
70.54950000 -51.32250000 1.54590000
27.43760000 -184.69600000 -23.36360000
69.88310000 -54.98500000 5.72500000
39.39970000 -179.05800000 15.97430000
-46.25480000 -62.26640000 51.60770000
-59.10720000 117.99400000 53.13140000
-62.75920000 -55.84550000 30.22410000
-62.81620000 -52.09420000 31.64870000
-33.31820000 -109.23400000 43.40570000
-56.79000000 126.72200000 55.90740000
-57.68500000 126.27800000 54.93260000
-58.13140000 120.87500000 54.36070000
-18.95610000 134.69700000 -81.15970000
-38.86100000 195.30600000 -64.22820000
-39.86160000 190.94900000 -66.08810000
-74.57120000 183.42700000 19.59400000
-74.56960000 180.86600000 20.97890000
19.02130000 -189.25300000 -31.83840000
-21.08340000 198.26400000 -74.28470000
-56.03660000 62.77870000 50.70370000
28.69020000 -33.35590000 -65.70120000
28.43680000 -25.41440000 -67.06900000
-16.03750000 184.61300000 73.51480000
-88.64370000 104.14200000 21.92040000
77.44900000 108.44800000 26.97970000
-38.30940000 -139.61800000 -21.84890000
40.38590000 164.88900000 66.81730000
35.67590000 172.04400000 68.63360000
40.58240000 168.87500000 66.23740000
46.24210000 160.87500000 63.54210000
43.33660000 164.73200000 65.07130000
-42.67740000 -191.11200000 -1.72150000
-43.87730000 -191.66500000 1.23910000
-60.55190000 -89.20000000 -11.59010000
-21.53950000 -48.99750000 -58.18830000
76.33070000 200.10400000 6.00080000
77.65130000 199.48400000 5.47360000
77.59270000 199.87000000 3.04520000
-10.97040000 180.41700000 75.34080000
-58.45990000 -104.65100000 -4.84580000
46.39530000 -124.87000000 20.10650000
-58.09510000 153.04900000 51.20340000
-56.02220000 155.03000000 52.81590000
-65.92860000 -9.96170000 20.52830000
70.13780000 -36.51110000 -18.06820000
71.90570000 -25.93370000 -16.88710000
-59.02350000 10.66430000 40.28900000
-53.47830000 119.93300000 -59.11080000
-55.07230000 122.54800000 -57.87260000
71.10990000 199.94100000 16.39330000
88.26800000 104.37100000 4.25400000
88.41420000 103.62400000 3.55530000
-73.61040000 98.61430000 -31.64700000
-74.00290000 101.40500000 -31.29060000
-72.10830000 100.97100000 -34.74510000
-73.09090000 102.11700000 -33.20430000
-69.22440000 73.10130000 -41.72640000
-67.75720000 81.02240000 -44.35640000
-66.85060000 74.67840000 -45.43400000
-31.85400000 109.66100000 -74.29660000
-33.36250000 111.54700000 -73.65690000
-36.96450000 112.80800000 -71.92090000
-34.84800000 112.11300000 -72.83390000
-56.47470000 189.55100000 -56.72090000
-57.08510000 183.65400000 -56.61300000
-57.48420000 171.78900000 -56.99050000
-34.62810000 108.07000000 73.05700000
75.57210000 153.32400000 -31.96750000
75.24890000 148.87500000 -33.24170000
-7.33410000 -126.37800000 -45.47110000
25.05640000 126.39000000 -78.23210000
28.91440000 126.63700000 -76.86820000
30.13650000 122.05500000 -76.37400000
43.40520000 140.10400000 -69.28460000
-17.66530000 88.13160000 77.87070000
-14.98090000 89.40440000 78.65990000
-15.38200000 85.62680000 78.51080000
-6.51800000 87.17860000 80.36480000
-11.36110000 85.10100000 79.45010000
-7.70720000 85.14630000 80.08980000
-9.61690000 89.29570000 79.80340000
-12.80870000 91.98960000 79.17690000
-11.77490000 87.76130000 79.40310000
-58.44910000 98.38630000 -54.00320000
-60.81500000 101.97200000 -51.59100000
-39.60020000 -182.74900000 -7.93480000
-39.70430000 -181.90800000 -6.35890000
79.69300000 74.60840000 6.76500000
80.68520000 78.19600000 7.63830000
66.20280000 66.75060000 39.89690000
41.73830000 150.02800000 -70.14800000
42.45380000 144.10000000 -69.79560000
-56.53910000 147.91900000 53.85690000
-34.37610000 -193.90900000 43.86230000
-32.08600000 -194.23200000 45.83400000
-30.14610000 -178.38100000 -12.12970000
-24.30860000 -178.53400000 -20.09920000
-25.61610000 -178.35100000 -12.27920000
-27.51470000 -178.49900000 -15.67290000
17.18970000 -195.18400000 52.46470000
18.18460000 -196.71800000 51.94790000
20.12690000 -196.13100000 51.14640000
41.70660000 -82.20100000 -47.46800000
41.12790000 -89.02200000 -46.20560000
18.88890000 171.53500000 75.05150000
18.18640000 163.92400000 76.13030000
-59.73310000 82.83560000 -52.11650000
-59.90810000 -22.86040000 31.98190000
25.84280000 -194.74500000 -38.97110000
42.23650000 198.49100000 -67.63440000
40.19950000 198.55200000 -68.86470000
83.14450000 149.00800000 -4.97240000
-66.58670000 17.39530000 -39.25700000
34.94410000 -170.08800000 19.36450000
-28.72040000 88.54700000 -73.95840000
65.37390000 107.05900000 48.81380000
63.44120000 98.58170000 51.33050000
30.19730000 178.36500000 -74.24240000
28.59590000 181.99700000 -74.55140000
26.14980000 178.26300000 -75.73020000
-69.00800000 197.29400000 -26.54610000
-52.23430000 6.67590000 48.59920000
-37.54130000 120.74900000 -71.73720000
-37.19120000 122.93100000 -72.17260000
-38.61210000 121.18100000 -70.91480000
0.87270000 134.54800000 80.29340000
5.16610000 134.47300000 80.25500000
-61.38820000 64.97040000 52.09200000
-62.12490000 75.49280000 51.41070000
28.47570000 -154.51200000 -35.36200000
-44.91940000 -189.95600000 17.05760000
-46.47660000 -190.74500000 15.50080000
3.99230000 -127.16000000 58.12090000
-20.98110000 200.88300000 71.76880000
-20.77820000 200.52500000 72.27340000
-76.41310000 186.48000000 7.26090000
8.21770000 -174.21400000 -30.62220000
-86.01350000 118.89600000 6.40760000
5.54200000 113.08300000 -81.57500000
8.40440000 117.47400000 -81.43320000
-31.91700000 -172.20400000 21.82670000
-20.79520000 -107.19300000 58.14750000
-21.71440000 -93.96140000 60.67110000
