0.64580400 -7.93832000 4.59451000
0.76171700 -7.97388000 4.55892000
0.62040500 -8.01512000 4.52937000
-4.87937000 2.94716000 -8.07626000
-5.05922000 2.95562000 -7.97531000
-0.97602400 -4.35237000 7.36107000
-1.22080000 -4.17296000 7.51465000
-1.00073000 -3.90565000 7.71491000
3.50821000 8.76137000 3.38455000
3.39637000 8.82492000 3.45479000
3.13215000 8.78636000 3.75747000
2.84760000 8.78088000 3.99137000
7.06245000 3.77773000 -3.61091000
3.26076000 -8.34816000 -1.57441000
3.20742000 -8.33994000 -1.59350000
3.31535000 -8.28734000 -1.71739000
-8.31982000 3.98077000 -1.62727000
-8.25416000 4.17168000 -1.50116000
-8.12594000 4.26010000 -1.81103000
2.41490000 -8.43380000 -2.03153000
2.48820000 -8.50290000 -2.09033000
2.69155000 -8.51057000 -1.86424000
2.60774000 -8.45465000 -1.93601000
2.61992000 -8.50562000 -1.88387000
3.93845000 -5.50202000 5.31344000
4.09591000 -5.56930000 5.13249000
3.85664000 -5.64533000 5.25743000
-2.06865000 -5.54271000 6.51938000
-2.14243000 -5.64432000 6.38813000
-2.21920000 -5.59275000 6.42571000
-2.36632000 -5.46323000 6.50469000
-2.49932000 -5.36588000 6.52927000
-2.25726000 -5.38007000 6.54960000
-8.06267000 4.43074000 -1.80688000
2.49334000 -8.50306000 -2.00965000
2.55965000 -8.50448000 -2.01891000
2.69889000 -8.45346000 -2.02946000
-3.11223000 -8.67581000 -1.09395000
-3.02998000 -8.68202000 -0.85679500
-2.80998000 -8.68654000 -1.07115000
-2.40606000 -8.68806000 -0.57865100
8.42611000 3.18241000 0.67502400
4.45153000 7.68439000 2.38065000
6.54008000 -1.52905000 -5.21979000
6.55066000 -1.59415000 -5.19362000
-4.77177000 7.56538000 0.78445700
-1.58836000 7.22853000 5.20661000
-1.96184000 7.28471000 5.10298000
-0.71031000 7.20889000 5.26376000
-4.97879000 -6.74191000 4.27711000
2.57467000 7.74618000 4.46436000
-1.91324000 -5.36205000 6.67499000
-2.12213000 -5.34602000 6.61644000
-2.05430000 -5.14030000 6.78508000
-1.82718000 -5.07550000 6.87251000
-2.15202000 -4.90271000 6.92627000
7.94634000 -2.84475000 0.69792800
7.85998000 -2.94920000 0.70762900
7.85550000 -3.00274000 0.77118600
6.23511000 2.98416000 -6.59093000
5.98130000 2.75020000 -6.92189000
6.47898000 -1.83696000 -5.20504000
6.45544000 -1.96459000 -5.08579000
-1.09776000 -7.00023000 6.39166000
-1.39321000 -7.01779000 6.31684000
-0.38600900 6.11359000 -6.52544000
-0.57452400 6.16002000 -6.47367000
-3.04898000 5.42287000 7.78695000
-2.42960000 -3.16160000 -7.44961000
-3.00246000 -2.76827000 -7.49191000
-3.34748000 -2.85402000 -7.30978000
-4.83326000 -7.18229000 4.05422000
-5.06180000 -7.10807000 3.80875000
-2.68872000 -5.07145000 7.23042000
-3.09267000 -3.89707000 -6.78526000
-2.87253000 -3.95497000 -6.83738000
-3.07489000 -3.76955000 -6.87914000
-2.68454000 -3.44365000 -7.21427000
-2.44820000 -3.74899000 -7.11198000
-1.78934000 -5.52742000 6.58198000
-2.01034000 -5.41404000 6.62131000
-2.01758000 -5.61278000 6.49542000
-6.11589000 -4.23290000 4.75178000
-6.14301000 -4.24857000 4.67596000
-6.00824000 -4.31384000 4.84636000
-6.08097000 -4.39897000 4.62725000
6.79738000 -4.24228000 2.49668000
6.72183000 -4.17731000 2.82860000
7.12534000 -3.87701000 2.29776000
6.91893000 -4.25566000 2.07879000
6.63897000 -4.56997000 2.30541000
1.24781000 5.68246000 7.80704000
7.55952000 -0.03101610 -5.32212000
-2.64869000 -3.92266000 -6.93427000
-2.19242000 -3.93003000 -7.06476000
-2.22108000 -4.08041000 -6.95832000
-2.14414000 -3.79982000 -7.15775000
-5.16827000 7.13841000 1.89081000
1.57934000 -8.10845000 4.19766000
1.57735000 -8.06032000 4.29938000
1.48928000 -8.10395000 4.29707000
7.06693000 -4.05866000 2.08078000
7.18952000 -3.93957000 1.82327000
6.83990000 -4.24720000 2.35068000
-1.42963000 -5.54032000 6.65969000
-1.27833000 -5.77397000 6.53286000
-1.60296000 -5.46847000 6.69202000
-1.06265000 -5.70229000 6.60533000
-1.22517000 -5.56710000 6.67310000
-7.83890000 4.63040000 -2.11689000
3.17548000 -0.16179400 8.59760000
2.96806000 0.24454100 8.75251000
3.31122000 0.16157000 8.59135000
2.31720000 0.11259300 8.96451000
-8.45513000 -0.35296400 4.00982000
0.82700900 -8.53565000 2.03576000
0.68267000 -8.53734000 2.17370000
0.63091300 -8.56483000 1.84339000
5.86673000 -2.96646000 5.51983000
-1.61371000 -5.14516000 6.84213000
-1.71007000 -5.32093000 6.76712000
-1.71211000 -5.11883000 6.86250000
-1.85419000 -5.19578000 6.81042000
-1.64730000 0.43162300 9.29850000
-1.51439000 0.52824600 9.32428000
-0.72729900 0.74051500 9.43010000
-0.66780600 0.62718800 9.41086000
-0.83996200 0.52866900 9.41861000
-5.32399000 -2.41670000 6.86498000
-6.10528000 -3.90630000 5.03904000
-6.08119000 -3.84423000 5.16787000
-1.38397000 0.57940700 -8.75173000
-1.08251000 0.76088000 -8.80759000
4.19353000 2.54276000 -7.30356000
4.03230000 2.81489000 -7.27933000
2.01757000 -6.41294000 -5.08157000
1.98610000 -6.53171000 -4.99875000
2.21036000 -6.35176000 -5.07183000
1.40452000 -6.87143000 -4.89545000
-1.60483000 -5.30616000 6.78160000
-1.59329000 -5.08329000 6.89718000
-5.29151000 -8.12790000 1.57656000
-5.12514000 -8.55269000 1.41987000
-5.29007000 -8.20981000 1.43308000
-0.40547700 2.26844000 -8.76901000
-0.48035300 2.43280000 -8.72026000
-0.28696000 2.73050000 -8.64353000
-0.12634800 2.73936000 -8.65595000
1.55315000 -6.16212000 -5.47044000
1.65580000 -6.29516000 -5.33137000
1.79784000 -6.08811000 -5.45797000
1.73348000 -6.26088000 -5.24404000
1.67056000 -6.35842000 -5.26984000
1.76443000 -6.37780000 -5.20309000
4.43766000 -3.10562000 -6.79925000
-1.43224000 -5.33719000 6.67932000
-1.49497000 -5.38137000 6.73906000
-1.48094000 -5.29283000 6.76828000
-0.92041600 -5.65783000 6.63381000
-0.65009100 0.06760600 9.37143000
-0.64004500 0.14022900 9.36326000
-0.82817900 -0.58072800 9.24554000
-0.93493600 -0.79863500 9.19001000
-1.06630000 -0.67221800 9.20613000
-5.48495000 -7.14634000 -0.29671700
-5.51618000 -7.02439000 -0.72798600
-5.16791000 -7.44067000 -0.66836200
-5.24995000 -7.38395000 -0.42147700
-4.96733000 -7.62495000 -0.72505000
4.42396000 -3.37651000 -6.16867000
4.39799000 -3.57921000 -6.06289000
4.56829000 -3.58470000 -5.94197000
3.94310000 -3.64340000 -6.32298000
4.06070000 -3.70919000 -6.20556000
4.07449000 -3.62019000 -6.25208000
3.52528000 6.30107000 6.18111000
1.79238000 -6.20812000 -5.25221000
1.79035000 -6.20465000 -5.34582000
1.83070000 -6.26361000 -5.22050000
1.86771000 -6.35173000 -5.20285000
1.93139000 -6.29906000 -5.21206000
-8.09971000 -1.25341000 -3.66346000
-7.75069000 -1.89745000 -3.91781000
3.11239000 6.65487000 5.90969000
2.67127000 7.07978000 5.48420000
2.76257000 6.79711000 5.87781000
3.36501000 -8.45939000 0.36125800
3.26156000 -8.46370000 0.46128700
3.06818000 -8.35821000 0.55129200
3.23648000 -8.35374000 0.48680800
3.17067000 -8.44794000 0.53389300
-2.46842000 8.81985000 -4.01534000
-2.46009000 8.78443000 -4.08357000
-2.88590000 8.77492000 -3.79421000
-1.34400000 -5.39976000 6.67278000
-1.13866000 -5.43875000 6.74146000
-1.37118000 -5.45512000 6.69907000
-1.47248000 -5.18376000 6.81016000
-1.33022000 -5.22417000 6.83944000
-7.50245000 -4.76279000 -0.19767600
-7.77894000 -4.37463000 -0.24237000
-6.91409000 -5.65031000 -0.00608321
7.33862000 1.95748000 5.22393000
7.21242000 2.12373000 5.38184000
1.92831000 -6.21344000 -5.27373000
1.93395000 -6.17080000 -5.33830000
2.01468000 -6.26666000 -5.21386000
-7.72643000 -4.26514000 -1.15618000
-7.48001000 -4.62981000 -1.07786000
2.35740000 -8.88203000 4.86388000
2.70447000 -8.87595000 4.67546000
2.55875000 -9.16537000 2.78148000
2.73281000 -9.17570000 2.67909000
3.11056000 -9.15722000 2.76552000
2.89972000 -9.16733000 2.63295000
-8.12719000 -2.63248000 3.90737000
-7.98518000 -2.78563000 4.00406000
-2.74614000 8.80315000 -3.82587000
-3.42121000 8.76625000 -3.38554000
8.52117000 2.82095000 3.74099000
6.91859000 4.99820000 -0.40784700
6.58385000 5.36041000 -0.40406000
6.91859000 4.99820000 -0.40784700
7.08371000 4.81783000 -0.00955871
-7.89038000 3.35737000 4.62064000
-7.73329000 3.33512000 4.86737000
-7.81182000 3.36337000 4.76199000
-7.61023000 3.69051000 4.86498000
-0.79234500 -5.39177000 6.82280000
-0.60135200 -5.44628000 6.80960000
-0.82590800 -5.52026000 6.73292000
-1.05500000 -5.38957000 6.77735000
-1.16229000 -5.32009000 6.82067000
5.33940000 1.00740000 -6.96620000
5.20830000 0.62202000 -7.06554000
5.38858000 0.69326100 -6.92511000
3.30144000 -8.37330000 1.94551000
3.36906000 -8.26713000 1.91211000
-7.81094000 -3.32875000 -3.02064000
6.75166000 3.98777000 4.87632000
6.98573000 3.72241000 4.84746000
3.47314000 5.07604000 -5.88720000
-2.08778000 -7.19942000 -5.21757000
5.06674000 -3.88359000 5.59567000
4.96122000 -3.99255000 5.60450000
4.92999000 -3.82348000 5.79143000
5.51378000 5.81264000 -4.70556000
5.52762000 5.98650000 -4.39548000
-4.54119000 -1.93381000 -7.17836000
-4.34601000 -1.54384000 -7.43269000
-4.26450000 -1.18585000 -7.59746000
-1.30176000 -7.63612000 -5.16555000
-1.07195000 -7.60111000 -5.23480000
-0.26597300 7.26275000 -4.67425000
3.93644000 -8.26490000 -0.27295000
3.90944000 -8.26323000 -0.18268200
3.63929000 -8.38544000 -0.96115500
3.60234000 -8.38487000 -0.89575500
3.71737000 -8.32465000 -0.80085000
-4.14347000 -1.06182000 -7.69831000
-4.63627000 -0.73058000 -7.54811000
-4.41113000 -0.41513900 -7.73706000
-9.53230000 0.98519000 -2.52979000
5.43662000 -6.21889000 -3.01416000
5.62113000 -5.83230000 -3.19478000
4.16668000 0.56214200 8.23873000
4.59029000 0.12207400 7.91271000
4.58602000 0.45269600 7.95951000
-4.98204000 7.18980000 -2.05946000
4.85519000 7.15706000 1.61046000
4.99074000 7.10921000 1.34991000
5.00645000 7.05271000 1.64635000
2.20247000 -8.20992000 3.72393000
0.27861000 7.24154000 -4.60960000
3.91833000 -8.27984000 -0.49191500
3.96983000 -8.27240000 -0.35977700
3.98099000 -8.20460000 -0.51803500
4.03054000 -8.16666000 -0.44704400
3.25649000 -8.40215000 -0.47023700
3.18920000 -8.51236000 -0.41198300
2.99526000 -8.52947000 -0.51044500
3.01234000 -8.53175000 -0.38740800
-4.98351000 8.65540000 1.21279000
-5.01409000 8.56057000 1.07694000
-6.91537000 4.88810000 -5.23979000
1.60162000 -8.32364000 3.81112000
1.60406000 -8.28840000 3.95993000
1.43023000 -8.29370000 3.97732000
1.54542000 -8.23483000 4.03670000
4.20984000 -3.04124000 6.89298000
5.03978000 -2.80595000 6.38752000
4.91251000 -2.85959000 6.45818000
5.02537000 -2.76111000 6.44476000
-5.48323000 -1.12751000 8.03692000
-5.61709000 -1.43492000 7.82038000
-5.34133000 -2.00284000 7.75431000
-5.29827000 -1.43906000 8.05219000
3.27294000 -3.88281000 7.66796000
3.35267000 -4.10015000 7.48112000
3.61283000 -3.83215000 7.52504000
7.27898000 -1.72911000 -4.04901000
7.51305000 -1.39908000 -3.88864000
-5.54845000 7.66731000 0.21261000
3.40661000 -8.38505000 -0.55462900
3.33699000 -8.41423000 -0.60835100
3.29637000 -8.48674000 -0.54263600
2.86426000 -7.29561000 4.50310000
2.71229000 -7.24971000 4.66952000
2.70768000 -7.60851000 4.30591000
2.40860000 -7.60008000 4.49643000
4.86564000 -3.02748000 6.42372000
4.86036000 -2.91657000 6.43674000
4.75519000 -2.91193000 6.45002000
4.69160000 -2.98093000 6.50534000
4.69846000 -2.85805000 6.59149000
4.76485000 -3.05945000 6.48895000
4.76623000 -3.00201000 6.40172000
4.70906000 -3.27548000 6.38996000
4.52634000 -3.24809000 6.54810000
4.59162000 -3.16403000 6.51700000
-3.26686000 -8.43642000 4.65167000
5.34500000 -2.19580000 -6.67297000
-3.73905000 -8.59192000 0.25646600
-3.76990000 -8.59182000 0.08178870
-3.91003000 -8.57960000 0.18342000
-4.10419000 -8.49776000 0.18432700
-3.99601000 -8.54660000 0.07389220
-4.94810000 -8.80214000 1.71983000
-5.09622000 -8.45864000 1.72911000
-5.45321000 -6.12069000 -2.84547000
-5.80043000 -5.66189000 -2.94407000
-5.18799000 -6.26359000 -3.05201000
-5.05460000 -6.12033000 -3.40454000
-5.43817000 -5.80942000 -3.28059000
-7.42950000 3.31619000 5.26105000
4.81313000 -2.87699000 6.49716000
1.85341000 -5.57967000 6.38522000
2.20300000 -5.11306000 6.56368000
2.30417000 -5.29874000 6.42454000
2.16824000 -5.28658000 6.48344000
5.89122000 4.00253000 6.07777000
5.70765000 4.08633000 6.20986000
5.52368000 3.75913000 6.62041000
6.97411000 4.16219000 3.92361000
6.76660000 4.42951000 3.85511000
6.50810000 4.78141000 3.81799000
8.41233000 2.77270000 2.32407000
8.33978000 2.89034000 2.43515000
8.41727000 2.46003000 2.62570000
8.72684000 -0.03922780 1.45083000
8.71253000 -0.20806800 1.36787000
8.66426000 -0.21838200 1.67757000
8.75310000 -0.15607400 1.07160000
8.69988000 -0.38755900 1.25533000
8.78317000 0.01416970 1.01160000
-4.31093000 3.94750000 7.76580000
-4.50433000 3.96820000 7.63777000
-4.36405000 4.04067000 7.65586000
-4.10081000 4.20182000 7.70727000
-4.18729000 4.29445000 7.56816000
-4.05935000 4.32008000 7.66205000
-9.00418000 -2.38617000 0.44655200
8.77089000 1.62500000 -0.91319800
8.81384000 1.48918000 -0.70460300
8.79029000 1.70752000 -0.70191300
8.71076000 2.04337000 -0.89051400
8.60843000 2.47732000 -0.91375000
2.90565000 6.21933000 -6.20393000
1.94513000 -5.84930000 6.21329000
2.29328000 -5.53546000 6.28565000
2.06968000 -5.50142000 6.33144000
2.13112000 -5.37513000 6.43425000
0.51022500 8.13542000 5.13085000
0.22772900 8.35619000 5.13426000
-3.00237000 6.27253000 6.86791000
2.63425000 -5.47738000 6.16168000
2.47380000 -5.45876000 6.25111000
2.09077000 -5.63616000 6.28463000
-3.65072000 -3.93140000 7.64323000
-4.27592000 4.39407000 7.48801000
-4.07763000 4.37139000 7.59620000
-4.17711000 4.11867000 7.71225000
-4.28262000 4.20388000 7.58057000
-8.28069000 -2.92182000 -1.14623000
-8.23100000 -2.92091000 -1.29791000
-8.28079000 -2.85251000 -1.38529000
-8.12601000 -3.18739000 -1.23198000
-8.07844000 -3.28131000 -1.36986000
-8.09109000 -3.18608000 -1.40142000
2.58872000 -4.90042000 6.52679000
2.48648000 -5.14359000 6.44142000
2.32878000 -5.03453000 6.55595000
2.59610000 -4.67207000 6.68281000
-2.15928000 -9.08852000 4.92685000
-2.49600000 -9.12982000 4.69319000
3.22874000 -8.26421000 -1.80142000
3.14714000 -8.40064000 -1.73554000
3.16917000 -8.30450000 -1.78218000
4.51423000 -1.11582000 7.64671000
4.49908000 -1.29566000 7.57020000
4.42429000 -1.28664000 7.60983000
5.11504000 -1.15378000 7.21244000
4.81910000 -1.25759000 7.38057000
-8.14141000 -3.21263000 -1.18232000
-8.21247000 -3.06132000 -1.22537000
-8.22208000 -3.08383000 -1.10691000
-8.30295000 -3.06909000 -0.28671800
-8.07564000 -3.43172000 -0.83976700
-8.22690000 -3.13431000 -0.80686400
5.43801000 -5.08175000 -4.37285000
5.62385000 -5.13651000 -4.06813000
6.28832000 -4.64005000 -3.63423000
3.36384000 5.43785000 -6.88208000
-7.34138000 -0.70156300 6.51282000
-7.14704000 -1.04632000 6.62020000
-7.55146000 -0.80722300 6.23929000
-8.93087000 -2.45139000 -0.70010000
4.62038000 -4.59261000 -5.07458000
4.79943000 -4.59335000 -4.89788000
4.93789000 -4.55127000 -4.80956000
3.60140000 -8.35427000 0.70058800
3.55362000 -8.36260000 0.74612700
3.60210000 -8.34908000 0.74315700
3.49935000 -8.31306000 0.75277600
-2.27885000 1.09017000 9.23103000
-2.41009000 1.18786000 9.19655000
-2.50228000 0.98713300 9.17899000
-7.61399000 -0.82272200 -4.74005000
-1.97712000 -4.74215000 7.70022000
-1.76939000 -4.61967000 7.83880000
-1.55642000 -4.43020000 8.01945000
-1.84383000 -4.26506000 8.07380000
4.99511000 -2.11032000 6.84672000
5.07066000 -1.78907000 6.95476000
7.90359000 4.33541000 -2.98653000
7.98889000 4.43078000 -2.57203000
0.02526110 7.67098000 -4.38772000
0.09515960 8.17023000 -4.33052000
0.49755800 7.65960000 -4.33596000
1.86601000 0.56558300 -9.17634000
7.14019000 1.58701000 -5.03633000
7.30934000 1.64829000 -4.76321000
7.14688000 1.79064000 -4.94842000
6.80595000 1.74341000 -5.40396000
1.43559000 -8.51079000 1.94643000
1.42034000 -8.54812000 1.86597000
1.22640000 -8.53437000 1.81112000
1.35088000 -8.49403000 1.88516000
5.55195000 -2.24715000 6.27600000
5.52618000 -2.47295000 6.18855000
5.40869000 -2.35893000 6.34663000
0.82950000 4.96016000 -8.10248000
1.10109000 4.64338000 -8.29673000
0.71041400 4.74231000 -8.28522000
2.81956000 7.39143000 -3.26362000
3.04209000 7.36350000 -3.09314000
3.10234000 7.44024000 -2.99899000
3.34904000 7.32641000 -2.80860000
3.14484000 7.29970000 -3.03662000
-2.61034000 -7.94290000 -3.50441000
-0.65519900 -8.76564000 -0.61525000
-0.79643800 -8.76887000 -0.83397800
-0.91178100 -8.75210000 -0.54157800
-0.32198200 -8.75820000 -0.61917900
-1.32729000 -8.63587000 1.54273000
-1.21189000 -8.60459000 1.77174000
-0.97886500 -8.58387000 2.02898000
-0.92760000 -8.58515000 1.80202000
-0.99728300 -8.60130000 1.85298000
-5.85794000 2.95984000 -6.39855000
-6.18271000 3.03068000 -6.06965000
-5.59980000 2.86344000 -6.65810000
2.31896000 7.69737000 4.15051000
2.16569000 7.82441000 4.14458000
2.35692000 7.81945000 4.01849000
4.92021000 -6.27388000 -2.75470000
-0.82237200 -5.18328000 -6.43054000
-0.66838000 -5.15620000 -6.45541000
-0.34604300 -5.34829000 -6.33209000
-0.45776400 -5.07862000 -6.52737000
-2.40606000 -1.32979000 8.75156000
-2.54766000 -1.43352000 8.66289000
-2.82175000 -1.30628000 8.63023000
-2.40039000 -0.84201700 8.90415000
-9.41687000 -1.23611000 1.66367000
5.39582000 1.84588000 -7.60023000
5.68804000 1.81517000 -7.38461000
5.64745000 1.57781000 -7.43489000
5.53984000 2.02714000 -7.46592000
-5.67559000 3.11328000 -6.48439000
-5.40783000 3.19677000 -6.64370000
4.37996000 0.50080000 -7.57910000
4.42055000 0.23244800 -7.53702000
4.60916000 0.43187700 -7.44422000
4.67402000 0.97811800 -7.41708000
-3.31752000 -7.76764000 -4.13234000
-3.41364000 -1.26729000 8.44745000
-3.53293000 -1.49066000 8.32802000
-3.66842000 -1.34805000 8.32394000
-3.76298000 -1.33189000 8.29708000
-3.75085000 -1.48787000 8.22885000
-3.89994000 -1.41635000 8.20368000
-0.44350400 -5.88961000 -5.93105000
-0.22848500 -5.68647000 -6.09137000
-0.25806800 -5.78637000 -6.00937000
-0.29939000 -5.88207000 -5.91625000
-0.12635300 -5.89050000 -5.90963000
-4.36742000 4.17852000 7.58246000
-4.37581000 4.27923000 7.51183000
-4.41255000 4.31167000 7.44381000
5.49917000 -6.16720000 -1.84727000
5.37657000 -6.35677000 -1.85465000
5.60105000 -6.10435000 -1.75116000
5.63027000 -5.92053000 -1.97024000
5.77780000 -5.83753000 -1.83083000
5.74464000 -5.76371000 -1.98040000
2.02711000 -8.42766000 1.79807000
2.20051000 -8.52428000 1.15205000
-5.95210000 -4.32546000 -4.37365000
-5.71050000 -4.32826000 -4.64300000
-5.78107000 -4.12922000 -4.76753000
-5.54699000 -4.24421000 -4.88719000
-6.60458000 5.11051000 5.69301000
1.96067000 -8.43169000 1.83613000
1.97237000 -8.43084000 1.94357000
2.00523000 -8.45445000 1.63039000
2.00371000 -8.48509000 1.55749000
7.90042000 -2.70980000 0.25709200
7.88244000 -2.91051000 0.23232300
7.79622000 -2.80277000 0.24459300
7.81587000 -2.75848000 0.20500300
9.41890000 0.16392700 -0.33404500
9.45316000 0.52070300 -0.32557900
9.33212000 -0.50296800 0.07685820
3.40398000 -4.37170000 -6.57274000
3.78040000 -3.98246000 -6.62948000
4.13352000 -4.04128000 -6.36414000
3.86263000 -4.34596000 -6.33934000
0.51459000 -2.76476000 8.32877000
0.41010000 -2.85055000 8.33684000
0.36155100 -2.64014000 8.44907000
0.37416200 -2.91750000 8.26176000
0.25429400 -2.96085000 8.29861000
0.26874000 -2.85213000 8.32630000
3.24222000 -9.19968000 -3.30364000
3.43476000 -9.23284000 -3.06227000
3.08107000 -9.25801000 -3.26991000
3.32103000 -9.24588000 -3.01143000
0.28842300 -2.58252000 8.45990000
0.15932000 -2.55268000 8.48885000
0.25560700 -2.48479000 8.53361000
0.21474700 -2.68588000 8.42759000
1.84995000 -8.48278000 1.74924000
1.91232000 -8.49917000 1.78963000
1.91835000 -8.43921000 1.72457000
3.79959000 -9.25929000 -2.34945000
0.22712500 -2.39773000 8.55312000
0.04054030 -2.49456000 8.53796000
0.07613290 -2.75421000 8.38051000
2.51226000 -5.86121000 6.62336000
-4.36513000 -8.07862000 -1.17725000
-4.49928000 -7.87280000 -1.38518000
1.38634000 3.54748000 8.83529000
1.86346000 3.06562000 8.91266000
2.03993000 3.19794000 8.81519000
2.53047000 1.05094000 9.60859000
2.33500000 1.47758000 9.63405000
1.44640000 -9.16487000 4.31519000
1.97285000 -9.17050000 4.09540000
2.03472000 -9.16501000 4.38164000
1.65666000 -9.14939000 3.97073000
1.47288000 -9.14985000 4.04283000
1.60191000 -9.13020000 3.87616000
-7.39285000 -3.47712000 3.62319000
-6.97785000 -3.96499000 3.81230000
-7.04191000 -3.98391000 3.66655000
-5.64270000 7.45526000 -1.52366000
-4.87688000 5.78703000 5.49540000
-4.76976000 5.64211000 5.83289000
-4.56199000 5.81984000 5.71803000
-0.54700500 8.74090000 5.07593000
-0.98664100 8.72827000 5.02408000
-4.14861000 -8.31967000 -1.05629000
-4.21336000 -8.18355000 -1.25517000
-3.91146000 8.21551000 3.47027000
-4.08909000 8.21017000 3.25761000
1.94384000 3.30767000 8.78322000
1.93520000 3.37100000 8.79321000
2.03066000 3.30919000 8.71004000
2.23653000 3.18216000 8.77670000
2.21991000 3.05719000 8.81548000
2.10006000 3.22885000 8.78072000
-3.76544000 -9.02742000 3.88375000
-3.57484000 -9.09190000 3.99408000
-3.63610000 -9.02754000 4.00025000
3.63717000 6.55109000 4.75791000
3.28611000 3.20894000 -8.42758000
1.98662000 -3.35084000 -7.32489000
2.23362000 -3.41036000 -7.21918000
2.28651000 -3.19816000 -7.31104000
2.13032000 -3.63243000 -7.13357000
2.80171000 3.03601000 -7.82576000
2.89568000 3.24433000 -7.67134000
2.53583000 3.12804000 -7.91167000
0.64587800 8.61030000 -4.20244000
1.01478000 8.59635000 -4.11069000
1.02089000 8.64119000 -4.12034000
1.27259000 8.55328000 -4.03028000
1.50090000 8.61979000 -3.95306000
7.94850000 -2.80669000 0.74802300
8.00878000 -2.70492000 0.61185200
7.94928000 -2.72999000 0.59185400
7.88442000 -2.76346000 0.36049400
7.92628000 -2.76239000 0.43771000
7.96030000 -2.78547000 0.40646900
3.63267000 -8.36351000 -0.32100200
3.88812000 -8.28106000 -0.32630800
-6.97093000 -1.22680000 5.96100000
-6.81057000 -1.04449000 6.22836000
5.38576000 -5.89688000 -2.54772000
5.56220000 -5.77335000 -2.36695000
5.41984000 -5.69708000 -2.72777000
-2.56358000 -6.62556000 6.19948000
-2.30357000 -7.62787000 5.67823000
-2.21337000 -7.45725000 5.80506000
-4.46540000 8.88015000 2.14355000
-4.27231000 8.85319000 2.33848000
-4.38938000 8.83921000 1.99472000
-4.45921000 -8.06703000 -0.92308400
-4.52418000 -7.92581000 -1.17804000
-4.62232000 -7.93992000 -0.83730600
-4.92317000 -7.62640000 -0.87902100
4.72934000 -5.83767000 4.26983000
4.92279000 -6.03631000 3.83888000
5.08925000 -5.97006000 3.69244000
-4.08335000 8.83803000 2.61110000
-4.15665000 8.78997000 2.34858000
-4.15665000 8.78997000 2.34858000
-5.72375000 6.38044000 -2.95446000
-5.82177000 6.45229000 -2.68022000
5.36051000 -5.84913000 -2.70996000
3.46187000 -8.36796000 -0.32218100
3.61272000 -8.32068000 -0.36314400
3.45895000 -8.42992000 -0.34417000
3.41444000 -8.37973000 -0.30707900
3.45895000 -8.42992000 -0.34417000
1.35405000 -9.15924000 4.20767000
-1.89763000 0.61012500 9.26498000
-1.58722000 0.57398900 9.32716000
-1.80796000 0.48845700 9.28400000
8.61701000 -1.09746000 3.43087000
4.41571000 -9.13770000 2.67812000
4.55856000 -9.13696000 2.36933000
1.63354000 -9.14915000 3.69100000
1.77050000 -9.16129000 3.94710000
1.71445000 -9.13725000 3.86137000
1.83111000 -9.14803000 3.72984000
8.26426000 -1.90558000 1.15685000
8.38371000 -1.65136000 1.18415000
8.37192000 -1.67731000 1.12535000
3.62432000 -8.01937000 2.74392000
3.58543000 -7.98547000 2.72347000
-1.80590000 7.67674000 5.08706000
-2.09510000 7.73853000 4.88996000
-0.76910500 -8.70013000 -3.07956000
-0.87190200 -8.66776000 -3.20544000
4.17058000 7.31582000 2.11859000
6.62200000 6.17140000 -1.81643000
6.71289000 6.12950000 -1.65974000
6.71289000 6.12950000 -1.65974000
6.81606000 6.09413000 -1.42232000
0.50893800 0.64490200 -8.81433000
0.82238500 0.44344400 -8.78202000
0.37432700 0.20288300 -8.80654000
-1.30235000 4.02464000 -8.11588000
-1.18165000 4.19768000 -8.02057000
-1.44799000 4.23561000 -7.97563000
0.07239400 -8.72049000 -1.49316000
0.58192000 -8.69848000 -2.08720000
0.28515900 -8.69616000 -1.90547000
0.56986100 -8.69730000 -1.75771000
-2.85183000 -8.45466000 2.87860000
-2.98041000 -8.44656000 2.80973000
-2.91304000 -8.40567000 2.91484000
-2.81934000 -8.47641000 2.81635000
-2.89166000 -8.48445000 2.75526000
6.59538000 -3.22095000 -4.63385000
6.48331000 -3.47199000 -4.56115000
6.22465000 -3.69372000 -4.70501000
2.16935000 3.83141000 8.49952000
2.23195000 3.69492000 8.54433000
2.03989000 3.85322000 8.51309000
2.15050000 3.26648000 8.77374000
2.09957000 3.37676000 8.70554000
-1.22698000 3.47079000 -8.37094000
-1.53215000 3.83831000 -8.13605000
-1.31609000 3.81568000 -8.21363000
-1.46796000 4.03675000 -8.10062000
1.95307000 -4.36687000 7.11533000
1.43201000 -4.76036000 7.02725000
1.74735000 -4.27142000 7.24030000
1.31437000 -4.65718000 7.10705000
1.19019000 -4.66323000 7.12714000
0.35746300 -9.22853000 -0.65503000
0.42835900 -9.26105000 -0.65151600
0.29595700 -9.26138000 -0.14374300
-1.82275000 3.65374000 -8.21733000
-1.56836000 3.74127000 -8.16797000
-1.75850000 3.86803000 -8.12991000
-1.63971000 3.58556000 -8.26157000
-1.41433000 3.65028000 -8.28189000
7.44837000 5.67683000 0.45399500
-5.32616000 -3.97106000 5.92140000
-5.22247000 -4.26561000 5.75357000
-9.41006000 -0.00652790 -2.68956000
0.24234000 -9.23467000 -0.31850700
-5.26421000 -3.55211000 -5.70718000
-5.13239000 -3.64909000 -5.70611000
-2.05172000 3.64099000 -8.19586000
-1.70236000 3.45604000 -8.33012000
0.89465000 -5.22775000 6.81079000
0.89433500 -5.36258000 6.74717000
0.82650900 -5.36412000 6.78736000
7.41922000 2.16467000 -4.38903000
7.55546000 2.32138000 -4.06536000
-2.13183000 -8.29937000 3.86478000
-2.06931000 -8.26729000 4.00221000
-1.99076000 -8.11385000 4.30779000
1.48113000 3.84400000 -7.99028000
1.44862000 4.12582000 -7.84819000
-0.40431100 1.03316000 -8.86508000
0.70311700 -5.09010000 6.96368000
0.61670500 -4.91054000 7.05375000
0.70276800 -4.85011000 7.08838000
0.57701500 -4.19399000 7.51225000
0.65158500 -4.37337000 7.40065000
0.51611000 -4.39596000 7.37590000
3.90233000 -8.28732000 0.84218100
3.93658000 -8.17874000 1.07162000
3.86388000 -8.14675000 1.34808000
3.85269000 -8.21316000 1.42170000
-9.42784000 0.32248800 -2.77739000
-9.31783000 0.00508589 -3.00195000
-9.24870000 -0.72070200 -2.67504000
-2.15645000 1.45602000 -8.64512000
1.10137000 -4.86295000 6.97838000
1.05973000 -4.72754000 7.11070000
1.18416000 -4.76788000 7.04936000
0.84275500 -5.05615000 6.95321000
8.26757000 -1.96089000 -0.89322500
8.51453000 -1.35265000 -0.82183300
-3.85209000 -0.34891000 8.54788000
-3.07276000 0.17144400 8.93421000
-3.26457000 0.10218000 8.86333000
-3.23842000 0.31204400 8.90441000
-0.08494040 -7.67225000 4.77840000
-0.21581800 -7.65291000 4.83287000
-0.16797200 -7.58912000 4.90649000
-0.06459250 -7.79870000 4.77833000
-0.18470200 -7.78043000 4.82928000
8.45763000 -1.60873000 -0.45994000
8.36787000 -1.59796000 -0.99443400
8.36252000 -1.73523000 -0.93617900
8.41787000 -1.64528000 -0.83484100
4.17567000 -7.93630000 1.69796000
4.23507000 -7.92001000 1.56674000
4.05741000 -8.09216000 1.26245000
-3.44193000 -8.19879000 -3.74196000
-3.45376000 -8.52595000 -3.48311000
0.29140700 -4.77954000 7.16205000
0.37364400 -4.81130000 7.11598000
5.31590000 0.29262400 7.42941000
5.60602000 0.87368000 7.23444000
5.71234000 0.90468400 7.13680000
6.55131000 -5.73478000 -0.89322500
6.47022000 -5.95046000 -0.53266700
6.62666000 -5.74761000 -0.26801500
2.13878000 -8.60932000 -2.14488000
2.14419000 -8.60591000 -2.01259000
1.78423000 -8.65318000 -1.99596000
0.49873600 -4.78555000 7.13966000
0.46300600 -4.58044000 7.27941000
0.50696100 -4.61067000 7.22867000
0.31419000 -4.66575000 7.23773000
-1.82917000 -8.36906000 3.70031000
-1.74164000 -8.40639000 3.57983000
-1.78202000 -8.43245000 3.50435000
-1.68339000 -8.47031000 3.28464000
-1.63930000 -8.49055000 3.07694000
-1.75482000 -8.46955000 3.22031000
-8.89869000 -0.33229700 2.85393000
-8.81171000 -0.51005700 2.69647000
3.92693000 -8.10405000 1.71491000
3.84119000 -8.13503000 1.67798000
-4.98559000 -6.31732000 3.99784000
-5.12315000 -6.23246000 3.99863000
-4.67355000 -6.31452000 4.43636000
-4.79334000 -6.21444000 4.39881000
-8.80240000 -1.99056000 0.52598800
-1.72255000 -8.31251000 3.36425000
-1.70931000 -8.38254000 3.30325000
-1.74663000 -8.44097000 3.33137000
-2.03342000 -8.47766000 3.13295000
0.58454500 -2.27909000 8.57586000
0.66080700 -2.28068000 8.57431000
0.60841100 -2.47007000 8.49319000
1.06223000 -1.93961000 8.66140000
-0.22821300 -7.69139000 4.87544000
-8.85962000 -0.55770300 2.55403000
-8.86852000 -0.43998500 2.56798000
5.26037000 2.77195000 8.01712000
0.70434800 -4.53225000 7.28521000
0.66467100 -4.70584000 7.18028000
0.96809300 -1.78835000 8.73945000
0.72862000 -1.68423000 8.81611000
0.91879300 -1.56914000 8.83399000
0.91889600 -2.05493000 8.58637000
0.94785300 -2.11494000 8.59122000
8.42333000 -1.58441000 -0.80170900
8.43058000 -1.50253000 -0.89702500
0.82391400 -4.32272000 7.40634000
0.74648100 -4.46152000 7.30902000
0.77419900 -4.30512000 7.38999000
0.56393300 -3.71110000 7.81945000
0.59063600 -3.92940000 7.69228000
-1.88890000 -7.67519000 -4.98049000
-1.46618000 -7.82052000 -5.02114000
-1.19884000 -7.85289000 -5.06786000
-1.66746000 -8.45054000 3.34437000
-1.73005000 -8.37863000 3.53614000
-4.79174000 3.51650000 7.73395000
-4.87602000 3.60489000 7.63749000
-4.84423000 3.70295000 7.55962000
-5.02128000 3.96329000 7.27598000
-5.07651000 3.80322000 7.35649000
-5.13597000 3.86591000 7.27100000
8.41693000 -1.52105000 -1.07614000
1.62661000 -8.40862000 -4.57650000
1.98193000 -8.35332000 -4.47178000
-8.16090000 1.62829000 5.78616000
-8.01095000 1.85755000 5.95963000
-8.45037000 1.51562000 5.37990000
-8.32749000 1.15245000 5.57001000
1.86479000 -7.99238000 -4.73295000
1.60076000 -8.21441000 -4.68632000
0.70771100 -2.08211000 8.64265000
0.79532000 -2.10471000 8.58545000
0.86430300 -2.19069000 8.57814000
0.81840100 -1.87502000 8.72652000
0.70709400 -1.87465000 8.64645000
0.68792900 -1.89211000 8.72647000
0.62543900 -4.20643000 7.44599000
0.80759800 -4.02879000 7.59726000
0.79513400 -4.07541000 7.53794000
-4.47933000 3.99460000 7.62191000
-4.77934000 3.70553000 7.63840000
-0.03596820 -1.77563000 8.84999000
0.24775400 -1.62940000 8.88055000
0.74407700 -1.92042000 8.63385000
0.69846800 -2.00840000 8.70115000
4.17422000 -8.02530000 1.37502000
4.06037000 -8.10307000 1.38888000
4.34225000 -7.92195000 1.29591000
-1.68405000 -8.41458000 3.55558000
-1.63812000 -8.43391000 3.49356000
-1.68751000 -8.32221000 3.52295000
8.17889000 -1.46421000 2.45325000
8.20534000 -1.15274000 2.68468000
8.26958000 -1.35892000 2.26234000
-9.39771000 0.80960200 0.43998100
-9.37308000 0.43841400 0.45058000
4.77916000 -2.82266000 6.62508000
4.80184000 -2.64485000 6.69507000
4.63565000 -2.84370000 6.70575000
4.67014000 -2.77262000 6.73541000
2.20775000 -8.63082000 -1.93528000
2.25021000 -8.57643000 -1.95003000
2.22526000 -8.57820000 -2.04398000
1.93669000 -8.62871000 -1.90229000
0.88887300 7.20780000 5.11011000
0.04955070 7.14121000 5.36970000
-0.43223100 7.11739000 5.40615000
-0.11489400 7.21000000 5.27312000
8.11475000 -0.99657900 3.11116000
8.04185000 -0.96237700 3.34600000
8.04315000 -0.85163100 3.47158000
8.11487000 -1.44392000 2.63984000
-3.93082000 6.69917000 5.78867000
-4.35107000 -7.68749000 -3.18807000
2.56479000 1.73559000 8.96011000
0.53486900 -4.06795000 7.56319000
0.49692300 -3.91666000 7.70056000
0.43832300 -4.30844000 7.45550000
0.35258000 -4.43222000 7.35767000
0.28296600 -4.29895000 7.48241000
-2.34799000 -3.41329000 7.80425000
-2.29945000 -4.01591000 7.43975000
-2.52328000 -3.58606000 7.64558000
-1.76576000 -3.80317000 7.68661000
-2.17156000 -3.48949000 7.80153000
-1.01449000 2.64344000 9.74219000
-8.42824000 4.15436000 0.34093600
-1.58396000 4.60436000 8.30563000
-1.70142000 4.74593000 8.17485000
-1.64437000 4.84296000 8.08380000
-1.76093000 4.93432000 7.98981000
7.48778000 -4.42547000 1.39522000
7.72334000 -3.95381000 1.59575000
7.50880000 -4.27814000 1.76817000
7.77959000 -3.71238000 1.98996000
8.01315000 -3.23679000 2.06028000
-2.27619000 -0.50573900 -8.48342000
-2.37072000 -9.18952000 3.53431000
-2.90159000 -9.21392000 3.41520000
1.18814000 -3.79269000 -7.27511000
0.75616100 -4.06023000 -7.15955000
0.62533100 -4.09369000 -7.16415000
-7.27462000 6.50754000 -0.78732800
-6.66029000 6.92759000 -0.85680800
0.53413900 -3.77691000 -7.35624000
0.32779400 -3.85468000 -7.33563000
0.57603500 -3.97024000 -7.22611000
-0.06125950 -3.03145000 -7.81445000
-0.15654900 -3.12586000 -7.76940000
7.85731000 1.50644000 -5.07363000
0.51428800 -9.28156000 -2.17622000
0.69366700 -9.28575000 -2.44489000
0.71353500 -9.28138000 -2.18142000
1.33454000 8.79728000 4.82972000
1.98309000 8.55567000 4.61506000
1.76066000 8.66783000 4.67712000
0.63100000 -8.63212000 0.86817600
0.76853900 -8.62726000 0.89874700
0.73304100 -8.63779000 0.72675100
0.71242600 -8.64661000 0.44087900
0.83007000 -8.63462000 0.39236900
0.69249200 -8.65889000 0.28150300
-7.97601000 -0.46936100 -5.41368000
-8.23741000 -0.17861100 -5.15563000
-7.09676000 4.30258000 5.90014000
0.19089400 6.79054000 5.74959000
-0.11586200 6.84216000 5.72195000
-0.46996100 6.92541000 5.64326000
-4.66422000 5.79909000 -4.94265000
-1.95934000 3.84862000 -8.75207000
-1.32120000 3.86442000 -8.84330000
2.53867000 -9.04989000 4.62671000
2.59016000 -9.08110000 4.51820000
2.59389000 -9.15114000 4.09827000
-4.10779000 -9.28750000 -1.49892000
-4.13044000 -9.28424000 -1.98290000
-4.12953000 -9.26896000 -0.72821500
-4.07380000 -9.29326000 -1.32586000
-2.64737000 5.99959000 7.30943000
0.41064400 -6.34933000 6.21286000
0.80129900 -6.36606000 6.16321000
0.70919200 -6.61691000 5.97834000
7.91331000 5.10866000 -0.54264400
8.10356000 4.88431000 -0.33179600
-6.34070000 -4.33831000 4.41287000
-6.22097000 -4.46228000 4.45858000
-6.29573000 -4.49730000 4.31879000
-6.42984000 -4.25555000 4.38720000
0.54028700 6.50139000 6.06518000
0.31221200 6.46951000 6.14130000
0.22645200 6.64787000 5.91937000
0.86064600 -4.50498000 -7.28410000
-3.03930000 -4.12534000 -6.62136000
-2.92052000 -4.15312000 -6.62579000
-2.96027000 -4.07844000 -6.63492000
-2.72267000 -4.13901000 -6.66847000
-2.71330000 -4.16702000 -6.73648000
-2.71844000 -4.08724000 -6.73297000
-4.92189000 8.63325000 -0.93715500
-3.52134000 0.32738400 -8.21709000
-3.72340000 0.45102500 -8.14492000
-2.42671000 -8.69726000 5.00776000
-2.17003000 -8.74084000 5.11036000
-3.03242000 -8.67416000 4.65469000
-4.81362000 8.68500000 -1.26163000
-4.88707000 8.77205000 -1.00091000
7.79620000 3.50587000 -2.75637000
7.64486000 3.34322000 -3.26761000
7.55099000 3.06880000 -3.69804000
-3.49077000 0.12921100 -8.22888000
-3.31366000 0.11965700 -8.27409000
-3.45618000 0.23256900 -8.24276000
-3.67230000 -0.49230800 -8.06834000
-3.61655000 -0.16827000 -8.14010000
-2.06759000 -8.09852000 5.48397000
-9.02771000 1.72373000 -2.12825000
-8.96088000 1.90632000 -2.24823000
-9.09400000 1.63593000 -1.88794000
-8.98749000 1.91681000 -2.18100000
7.88723000 0.29464500 5.52179000
1.57374000 -9.17880000 0.97904600
1.71470000 -9.21487000 0.85024100
-4.66389000 8.67951000 -1.64118000
-4.79071000 8.53557000 -1.41239000
-4.51510000 8.78303000 -1.93164000
-4.37111000 8.76993000 -2.19595000
0.31184500 -4.02409000 -7.21781000
-0.11131100 -4.10111000 -7.19626000
0.13130100 -3.91069000 -7.32500000
-0.29063800 -4.01880000 -7.25373000
1.52674000 -9.17053000 1.13423000
1.44570000 -9.20395000 1.26727000
1.46292000 -9.19054000 1.05006000
1.74601000 -9.19848000 1.32894000
1.56167000 -9.18159000 1.30630000
1.68047000 -9.16059000 1.19228000
-3.19880000 -0.47949000 -8.24686000
-2.90610000 -0.42580300 -8.34925000
-3.12563000 -0.02836960 -8.34474000
-3.14214000 0.31686600 -8.36182000
6.41423000 5.58654000 -3.83257000
-8.27899000 -0.92743600 -3.49095000
-8.42560000 -0.94602300 -3.14748000
1.47582000 -8.60741000 -2.88363000
1.55938000 -8.61374000 -2.77839000
1.53065000 -8.58157000 -2.84161000
1.57356000 -8.48848000 -3.12074000
1.71859000 -8.47523000 -3.01525000
-9.79760000 2.23685000 1.08317000
-9.82314000 2.18276000 0.81600400
-9.86120000 1.83285000 0.96203600
-9.70297000 2.84367000 0.72838300
0.78614100 -3.95837000 -7.23667000
1.74062000 4.00468000 8.98804000
-4.63749000 -2.28599000 -6.96717000
-4.42381000 -2.40669000 -7.02861000
-4.51445000 -1.72517000 -7.26438000
2.87605000 -2.85054000 -7.28193000
2.76485000 -3.32191000 -7.08256000
2.80353000 -3.21146000 -7.01075000
3.02786000 2.64294000 -8.71527000
2.64383000 -3.24523000 -7.16445000
2.68217000 -3.17489000 -7.04263000
2.69922000 -3.15710000 -7.17317000
2.81775000 -3.16458000 -7.01735000
2.86601000 -3.22253000 -7.08235000
2.86962000 -3.17923000 -7.10578000
-1.11437000 8.05535000 5.08611000
-1.35896000 8.35949000 4.99250000
2.99800000 -2.74082000 -7.28857000
3.13010000 -2.66371000 -7.25822000
2.92373000 -2.62157000 -7.39465000
2.79590000 -3.15746000 -7.10925000
2.77531000 -3.12123000 -7.15520000
-7.60630000 -3.99077000 3.06673000
-7.58216000 -3.97766000 3.17841000
-7.60630000 -3.99077000 3.06673000
-5.43431000 -3.03627000 -6.44800000
-5.19116000 -3.22868000 -6.51021000
4.98888000 -9.14439000 0.35370700
4.94972000 -9.15993000 0.82817100
5.07689000 -8.95591000 0.71826700
5.04499000 -9.07846000 0.65231500
9.16549000 -1.15958000 0.21973400
9.14960000 -1.13728000 -0.24028900
5.41556000 6.66516000 -0.33310400
-1.48866000 -9.29205000 -2.14918000
-1.52271000 -9.29665000 -2.41599000
-1.01049000 -9.30254000 -2.26061000
-1.14603000 -9.30730000 -2.63390000
-1.05342000 -9.29214000 -2.87383000
-0.82274800 -9.29137000 -2.60403000
3.35834000 -8.34146000 2.09967000
3.41640000 -8.25579000 2.09717000
3.36135000 -8.34258000 2.02391000
3.32901000 -8.35010000 2.11623000
-6.49078000 -2.60271000 -5.26851000
-6.23876000 -2.08647000 -5.84097000
-6.07296000 -2.20698000 -5.93696000
5.42593000 -4.38239000 -4.45987000
5.18523000 -4.59182000 -4.49632000
5.25797000 -4.58985000 -4.41345000
5.24736000 -4.51508000 -4.48381000
9.36910000 0.80121700 -1.24597000
-0.27734500 7.36544000 -4.49988000
0.16981600 7.38613000 -4.44943000
0.26041200 7.53227000 -4.38357000
5.49489000 -4.47244000 -4.22078000
5.59878000 -4.45140000 -4.16510000
5.48998000 -4.39637000 -4.27077000
5.38715000 -4.71060000 -4.14017000
4.10296000 -8.02719000 0.09703770
4.01376000 -8.09671000 0.32257000
-0.99680400 -9.30114000 -1.84884000
-0.87870600 -9.30617000 -1.53704000
-6.42326000 -4.75105000 3.77534000
-6.35067000 -4.75533000 3.90977000
-5.90419000 -5.52760000 3.69624000
-8.11306000 -0.73199200 -5.12096000
4.04866000 -8.08994000 0.36893400
3.92582000 -8.16182000 0.44153100
4.05981000 -8.14569000 0.41792400
-5.74204000 -7.42078000 1.29515000
4.25134000 -8.07572000 0.66891100
4.16312000 -8.14429000 0.73566600
4.37213000 -7.95972000 0.71952800
4.07919000 -8.14476000 0.60099800
4.09063000 -8.18019000 0.64371400
-2.77323000 -4.18960000 -6.60439000
-2.86601000 -4.21291000 -6.58087000
-2.71074000 -4.25233000 -6.65666000
-2.80681000 -4.33834000 -6.56618000
2.47544000 -8.54158000 0.86618500
2.56109000 -8.51057000 0.81608600
2.68162000 -8.43920000 0.54810200
4.11616000 -8.08759000 0.65778900
3.97864000 -8.17828000 0.46142100
-2.61815000 -4.24665000 -6.67669000
-5.52483000 -0.46807900 7.56092000
-5.23854000 -0.47994700 7.74559000
-5.63253000 -0.68452700 7.43136000
-5.09675000 -0.29007700 7.87542000
-5.15432000 -0.46182300 7.79629000
-5.28580000 -0.31289400 7.75001000
4.09847000 -8.07224000 0.44473900
4.18673000 -8.11256000 0.46601100
4.19927000 -8.06136000 0.58844800
7.25145000 -3.63008000 -2.10207000
7.34029000 -3.60007000 -1.85960000
7.34434000 -3.46429000 -2.07975000
-8.07513000 -3.27768000 1.87622000
-8.02114000 -3.14964000 2.36817000
-7.86832000 -3.36321000 2.54309000
-6.44147000 -5.99999000 0.04614860
-6.53792000 -5.86425000 -0.02268360
-6.49541000 -5.93856000 0.36434900
-6.45935000 -5.91652000 -0.37783700
-6.50146000 -5.87185000 -0.48717900
-6.58031000 -5.77670000 -0.33885500
-3.18284000 -5.71104000 6.55284000
-3.14506000 -5.88580000 6.47259000
0.32313500 -5.48421000 -6.14312000
0.40450100 -5.42008000 -6.20763000
0.24569800 -5.45141000 -6.22034000
0.33100600 -5.65113000 -6.08348000
0.42362300 -5.53399000 -6.13021000
-8.06271000 -3.02727000 2.24527000
-8.07578000 -3.15043000 2.15360000
-8.12696000 -3.06823000 2.11586000
-8.12438000 -2.74192000 2.69198000
-8.10870000 -2.92204000 2.45418000
-3.28518000 -3.69662000 7.25131000
-3.31218000 -3.83958000 7.14593000
-3.40582000 -3.77053000 7.23019000
-3.42442000 -3.92626000 7.12532000
-3.64921000 -3.80735000 7.10825000
-3.52572000 -3.80473000 7.17552000
0.80420500 0.30078400 9.91745000
0.79526400 -0.10608700 9.86888000
-8.09110000 -2.87590000 2.58810000
-8.00900000 -2.97493000 2.48032000
-8.04055000 -3.06827000 2.30009000
-6.24248000 -4.88929000 3.94112000
-6.15358000 -4.85740000 4.09822000
3.01441000 -8.51403000 0.01064670
-8.00753000 -3.03041000 2.59443000
-8.04809000 -2.92651000 2.64494000
-7.97092000 -2.88425000 2.94429000
-7.90538000 -2.98860000 2.92442000
-7.97884000 -3.00964000 2.75384000
-5.98488000 5.16315000 -4.40512000
-6.07293000 4.95328000 -4.58251000
-1.07842000 -8.75706000 -0.11522700
-0.98786700 -8.76124000 -0.26877900
-1.06599000 -8.75217000 -0.20120800
-1.29303000 -8.74906000 -0.00600549
-1.54668000 -8.72571000 -0.11567200
-4.35904000 -5.89674000 5.69040000
-4.87127000 -5.85507000 5.26174000
-4.55990000 -6.12736000 5.30159000
-4.22788000 -6.93487000 4.93498000
-2.62498000 7.84463000 4.55862000
-2.54695000 7.91490000 4.58054000
-3.58911000 0.11018800 9.30130000
0.09682620 -5.10080000 -6.50137000
0.18663700 -5.18862000 -6.43307000
0.18084700 -5.01286000 -6.50847000
-3.39781000 -3.56961000 7.23669000
-3.50991000 -3.61576000 7.23026000
1.99431000 -5.67231000 6.27846000
1.92907000 -5.79211000 6.25913000
1.93739000 -5.57761000 6.33637000
1.95836000 -5.44561000 6.35732000
1.86979000 -5.44132000 6.47835000
2.60387000 4.76852000 -7.80849000
2.96628000 4.61660000 -7.78548000
5.40335000 -2.92980000 -5.62062000
5.45851000 -2.90502000 -5.54153000
5.46072000 -2.83835000 -5.61870000
5.54776000 -2.75437000 -5.59111000
1.20437000 4.92781000 7.97301000
1.48984000 5.00460000 7.82549000
-3.75335000 -9.21502000 -2.69892000
-3.75335000 -9.21502000 -2.69892000
-4.02128000 -9.23771000 -2.36153000
-2.12201000 -8.69189000 -0.59684500
-1.92383000 -8.68610000 -0.76358300
-2.05708000 -8.69654000 -0.97884800
-1.90314000 -8.69556000 -0.64439200
-1.62069000 -8.70584000 -0.99919600
7.80648000 2.10232000 -5.02465000
7.53681000 2.22231000 -5.37263000
0.23263800 -4.81472000 -6.68864000
0.32095500 -4.78623000 -6.64051000
-0.02433280 8.80957000 4.91093000
-0.28794000 8.73138000 4.79037000
-3.24277000 -8.32034000 -2.50569000
-4.78250000 5.20182000 7.15969000
-5.10755000 4.89056000 7.22497000
4.18720000 4.68643000 6.83697000
4.21102000 4.48487000 7.04448000
-7.13111000 4.88549000 3.93207000
-7.23143000 4.86686000 3.67265000
-7.06374000 5.08460000 3.42892000
9.08900000 -0.03708210 -2.17421000
9.02828000 -0.33011600 -2.15796000
9.12626000 0.20222200 -2.17981000
4.92403000 5.64472000 -5.54503000
-4.38829000 -6.22172000 5.37665000
6.74738000 2.95420000 -6.09137000
-5.18408000 -6.88950000 2.84824000
3.41708000 -8.48107000 -0.13670200
3.07184000 -8.52466000 0.10345800
3.17793000 -8.47425000 0.09914890
3.16963000 -8.48011000 0.02409100
2.84716000 -4.58794000 -6.18599000
3.16949000 -4.58128000 -6.05083000
3.05231000 -4.53621000 -6.17494000
2.57679000 -4.35053000 -6.50021000
2.79684000 -4.39049000 -6.39730000
6.84552000 3.58499000 -5.60474000
5.27804000 -5.47366000 -3.29637000
5.21028000 -5.78229000 -2.93160000
5.20381000 -5.71088000 -3.10211000
-2.94702000 -8.37794000 2.55066000
-2.95677000 -8.42463000 2.42678000
-3.03136000 -8.44518000 2.50102000
-2.95577000 -8.41050000 2.59271000
-3.03136000 -8.44518000 2.50102000
-2.67260000 -6.06732000 5.99090000
-2.77410000 -6.02551000 5.94583000
-2.52776000 -6.00414000 6.03522000
-2.88281000 -6.16948000 5.83545000
-4.23801000 7.47577000 2.56873000
-4.45228000 7.39060000 2.38993000
-4.39670000 7.44164000 2.32020000
-4.30131000 7.41799000 2.63649000
-4.81061000 4.79924000 -5.92345000
-4.81841000 4.96370000 -5.77092000
-2.48247000 3.08042000 -8.29765000
-2.60569000 3.21802000 -8.19147000
-2.78019000 3.29822000 -8.09147000
-7.23334000 -0.43706300 -6.29797000
-0.30176800 2.40091000 -9.35651000
-0.31225500 2.14305000 -9.39297000
-1.07327000 2.69505000 -9.26456000
-0.64721200 2.61249000 -9.30464000
-7.58061000 2.03271000 5.67452000
-7.74502000 1.85564000 5.47066000
-7.28449000 2.16024000 6.02956000
2.96208000 -6.08090000 5.54663000
3.07413000 -6.15725000 5.43510000
0.13332500 -0.92375300 9.13972000
-0.03010520 -0.83505700 9.17852000
-0.49113800 -0.89085100 9.16789000
-0.41862300 -0.83088600 9.19408000
-6.55117000 0.66299600 -6.28198000
-6.45197000 0.82360300 -6.36618000
1.99497000 8.17316000 -3.76235000
-6.81039000 4.95677000 -3.57500000
-6.59394000 5.12224000 -3.66754000
-6.71284000 4.65650000 -4.21405000
-4.06126000 -0.90900500 -7.76851000
-4.00026000 -1.43240000 -7.64363000
1.61262000 -8.46566000 2.53833000
4.45402000 -8.27896000 -2.49147000
8.18839000 -2.12901000 -0.91292100
5.91664000 -6.18943000 0.47104000
5.91508000 -6.18007000 0.57271100
5.92887000 -6.12862000 0.46466400
5.69147000 -6.49530000 -0.01142810
5.79186000 -6.37741000 0.19963600
5.84370000 -6.28453000 0.05979590
6.81203000 -2.38980000 -4.24732000
6.85332000 -2.24531000 -4.32375000
6.60036000 -2.39163000 -4.59462000
6.92815000 -2.42765000 -4.01992000
7.09051000 -2.40052000 -3.74500000
7.12584000 -2.18846000 -3.85322000
8.42213000 -1.67126000 -0.61466300
8.36747000 -1.72315000 -0.61841900
8.38684000 -1.77695000 -0.53910800
8.18638000 -2.04397000 -0.81284400
8.22528000 -1.97885000 -0.59477700
8.22117000 -1.93063000 -0.69412400
5.81939000 -6.32103000 0.52237900
5.87206000 -6.22215000 0.49446700
5.89944000 -6.19521000 0.67782600
7.68428000 -3.79819000 -1.45242000
7.44866000 -4.34285000 -1.07791000
8.20276000 -3.02173000 -0.93510400
6.93233000 -2.33907000 -4.08171000
7.00480000 -2.26562000 -4.01446000
6.95528000 -2.22907000 -4.02936000
6.99260000 -1.98669000 -4.33320000
7.00623000 -2.06488000 -4.21491000
7.10130000 -2.07478000 -4.04039000
1.35198000 -7.25538000 -4.56212000
1.50705000 -7.24593000 -4.52840000
2.94447000 -8.32146000 1.92949000
6.99608000 -2.07261000 -4.15436000
6.92922000 -2.22112000 -4.20325000
6.96719000 -2.19815000 -4.06671000
3.09993000 -5.17027000 6.11363000
3.19373000 -4.86257000 6.24661000
3.30806000 -4.93935000 6.12883000
3.26362000 -5.42547000 5.82890000
3.13591000 -5.54843000 5.81522000
3.15312000 -5.43712000 5.90933000
8.32287000 -1.85826000 -0.64012700
8.26710000 -1.87804000 -0.62896600
8.30174000 -1.96026000 -0.53501600
6.85499000 -2.13621000 -4.42693000
6.79793000 -2.14512000 -4.33279000
6.91003000 -2.05205000 -4.38150000
6.92316000 -2.08846000 -4.25967000
6.92552000 -2.11795000 -4.15504000
4.81789000 -3.51027000 -5.79604000
4.92484000 -3.42396000 -5.75981000
4.89690000 -3.30308000 -5.83618000
4.93883000 -3.71136000 -5.54908000
5.17849000 -3.66796000 -5.35849000
1.58768000 -8.58915000 0.93459400
1.72151000 -8.54712000 1.12377000
1.77840000 -8.57315000 1.01159000
1.20142000 -8.57878000 1.16233000
1.17861000 -8.58075000 1.24042000
-3.36225000 -1.61140000 -7.86806000
-3.24312000 -1.79206000 -7.86735000
-3.29423000 -1.43496000 -7.96481000
-3.50118000 -1.22741000 -7.94743000
4.82514000 -3.36892000 -5.88264000
4.53658000 -3.84199000 -5.78449000
4.64962000 -3.90368000 -5.64781000
-5.62825000 -7.06673000 2.73607000
1.34975000 -8.58824000 1.19579000
1.53337000 -8.56714000 1.18097000
1.48991000 -8.58963000 1.10832000
1.86630000 -8.53517000 1.15011000
-0.12664200 -9.14598000 5.28751000
-0.24088900 -9.13264000 5.33688000
-0.47443800 -9.11128000 5.31399000
8.34120000 -1.85713000 -0.70527200
8.31643000 -1.87095000 -0.79481500
8.36542000 -1.74167000 -0.77587400
1.33024000 -8.52372000 1.67211000
1.47689000 -8.54633000 1.61188000
1.37302000 -8.55955000 1.54914000
1.56757000 -8.57484000 1.36655000
-2.24739000 -2.06764000 9.13170000
-2.07014000 -2.71854000 8.88159000
-6.17432000 5.70144000 -5.06963000
2.88489000 -8.51744000 -0.33657100
2.88060000 -8.51541000 -0.15412200
2.37640000 -4.57754000 -6.42444000
2.47054000 -4.66827000 -6.32522000
2.54118000 -4.56323000 -6.35390000
4.03479000 7.07383000 -2.70720000
3.87779000 7.12918000 -2.56295000
4.50690000 -5.77857000 -3.95389000
4.41561000 -5.58774000 -4.27790000
4.21888000 -5.84593000 -4.17773000
4.52435000 -5.75044000 -3.99270000
2.47942000 -4.49830000 -6.44828000
2.32842000 -4.52570000 -6.44764000
6.52371000 -0.45524300 6.11951000
6.30253000 -0.56359700 6.30297000
6.29077000 -0.40041700 6.37151000
6.38097000 -0.10038800 6.36560000
6.26130000 0.21240300 6.55524000
6.39367000 2.46647000 6.36044000
6.31407000 2.92851000 6.28551000
