4.57613000 3.11083000 0.53220100
-1.91368000 5.78006000 0.32261400
-1.87019000 5.74761000 0.55575900
-1.87989000 6.02111000 0.58610800
5.98664000 0.32630900 -0.19401900
5.91328000 0.47227000 -0.42620800
5.96708000 0.30420400 -0.46786900
5.88289000 0.46350600 -0.67902600
-2.13778000 5.93131000 -0.99566600
-2.16255000 5.61453000 -0.85491100
-2.20163000 5.93117000 -0.83793100
-1.99767000 5.54773000 -1.18689000
-1.53193000 3.11548000 -5.68683000
-1.52346000 3.15588000 -5.64949000
-1.47703000 3.19886000 -5.75964000
-1.77537000 2.87640000 -5.38721000
2.28811000 1.38839000 -4.69487000
-5.51380000 3.66975000 -1.29530000
-5.60340000 -5.36741000 0.98659600
-5.36634000 -5.74636000 1.03971000
-5.41484000 -5.61445000 1.18130000
-5.52616000 -5.51958000 0.86492400
-5.34758000 -5.86967000 0.64369000
1.45154000 3.26555000 6.18305000
1.45846000 3.04318000 6.20177000
1.48937000 3.03486000 6.16313000
1.32829000 3.14945000 6.20861000
1.37383000 3.01504000 6.19281000
-2.01266000 4.66548000 -0.96757400
-2.00340000 4.75654000 -0.98823700
-1.91311000 4.76442000 -1.15206000
-2.12805000 4.68419000 -0.68157500
-1.60536000 5.07916000 1.15780000
-1.54638000 4.82582000 1.25992000
0.54283300 7.12059000 2.43994000
0.38463100 7.37430000 2.47014000
0.23502100 7.37875000 2.48459000
-3.62588000 2.16450000 3.53888000
-3.54714000 2.04881000 3.79865000
-5.19565000 -6.11888000 0.68267700
-4.98885000 -6.37628000 0.93983000
-4.96813000 -6.44666000 0.86019300
-4.91729000 -6.39073000 0.90766000
-1.46408000 3.45641000 -5.48344000
-1.41087000 3.47660000 -5.53374000
-1.36672000 3.46061000 -5.56318000
1.49546000 2.85556000 6.12157000
1.45137000 2.90624000 6.15676000
-4.11476000 2.77471000 -0.29384600
-0.22846600 9.56103000 3.73026000
-0.37176500 9.42156000 3.71205000
-0.29345600 9.24751000 3.68387000
-0.30023100 3.26733000 -5.03806000
0.84884300 3.19668000 3.69125000
0.62860100 3.09427000 3.89457000
5.77127000 2.28023000 0.09210000
5.69175000 2.26827000 0.06274000
-6.76809000 -0.53740500 -1.86499000
-6.73182000 -0.36867100 -1.92783000
-6.61095000 -0.03754460 -2.10805000
-6.66513000 -0.53416800 -2.18184000
0.15041500 2.18757000 -4.48357000
0.34047500 2.04598000 -4.61555000
-0.15397100 2.18618000 -4.48882000
-0.45458300 2.16294000 -4.49706000
-0.62787700 2.66978000 -5.93595000
-0.73776700 2.78463000 -5.78979000
-0.53977100 2.67691000 -5.95076000
-3.52198000 3.68645000 3.28726000
-3.62065000 3.70780000 3.27358000
-3.57702000 3.75330000 3.35699000
-3.66059000 3.78965000 3.47456000
-4.23150000 -1.87527000 4.96784000
6.55669000 -2.00939000 2.31018000
6.36422000 -2.13891000 2.75496000
6.34664000 -1.95827000 2.87995000
-2.31078000 9.55979000 1.68320000
-2.12186000 9.55237000 1.89371000
-2.52962000 9.57029000 1.39287000
-5.71641000 0.36351400 4.05301000
-5.73927000 0.08269510 4.14375000
-5.62517000 0.04925730 4.30604000
-6.05712000 2.15797000 -1.94504000
-6.04174000 2.06459000 -1.93804000
5.93741000 3.41677000 1.91937000
5.96159000 3.37216000 1.92542000
5.93648000 3.44863000 1.91418000
-1.91524000 0.39694200 -5.51025000
-5.17453000 1.84078000 4.58865000
-5.16083000 1.73765000 4.61628000
-5.12426000 1.81168000 4.65225000
-5.13643000 1.64181000 4.63552000
-4.82982000 -6.53091000 0.85865400
-4.84879000 -6.42605000 0.90739100
-4.96719000 -6.39560000 0.98971800
-4.92206000 -6.39381000 0.94296000
-4.89276000 -6.51602000 0.99195200
5.36531000 -3.94676000 -2.98558000
5.50053000 -4.04591000 -2.62260000
5.41025000 -4.10127000 -2.73599000
-1.95532000 2.50495000 -5.29254000
-2.02863000 2.40525000 -5.33111000
-1.94140000 2.55317000 -5.32068000
-2.03864000 2.49442000 -5.37627000
-2.90805000 1.99275000 4.40620000
-6.15737000 1.82280000 -1.56807000
-6.23465000 1.86287000 -1.59963000
-6.15596000 1.85983000 -1.53734000
2.06428000 4.04541000 0.46671600
-4.85359000 -6.54587000 0.92097100
-4.81995000 -6.46488000 0.92827500
-4.71291000 -6.72079000 1.23696000
-4.73968000 -6.76567000 1.00309000
0.84597100 3.11577000 6.29860000
0.79295600 3.12396000 6.27411000
0.82479100 2.97845000 6.25921000
0.82798100 3.23288000 6.23745000
0.80662800 3.31375000 6.19113000
0.87890300 3.19398000 6.08688000
0.17396000 -1.98168000 -6.67320000
0.09909900 -2.11434000 -6.67244000
-0.01551260 -2.30347000 -6.61796000
6.04626000 1.90988000 -1.12104000
6.02381000 1.96880000 -1.18065000
6.05236000 1.80636000 -1.22133000
-4.11116000 3.23872000 -1.93757000
-4.24535000 3.20784000 -2.01951000
-4.23200000 3.19914000 -2.07084000
-4.39406000 3.22530000 -2.08308000
-3.52598000 2.17467000 -4.90121000
-3.55002000 2.19389000 -4.78584000
6.57700000 -0.00756295 -1.36396000
6.06009000 1.96197000 -0.97790400
6.10799000 1.69757000 -1.24464000
6.06724000 1.72181000 -1.25665000
-2.12417000 3.88351000 1.26525000
-1.98514000 4.03519000 0.98709600
-2.11295000 3.95725000 0.97536300
-2.00920000 4.06329000 0.82742400
3.29546000 1.17773000 5.73541000
3.32524000 1.06160000 5.80456000
3.35402000 1.30074000 5.74530000
3.27906000 1.21802000 5.73955000
3.38959000 1.19778000 5.66669000
0.82116800 3.33484000 6.22523000
0.95603800 3.16047000 6.26963000
0.89496700 3.05664000 6.26693000
-6.80483000 -1.62670000 2.21166000
-6.83661000 -1.49752000 2.11597000
-6.89147000 -1.64713000 1.89069000
-6.90304000 -1.34220000 1.88361000
3.07680000 2.21467000 -4.85505000
2.96684000 2.31466000 -4.82860000
3.13584000 2.14877000 -4.81246000
3.49157000 1.32727000 5.70617000
3.52243000 1.41374000 5.68960000
4.66642000 -5.98872000 -1.83772000
4.26349000 -6.49953000 -1.94453000
4.39113000 -6.20695000 -2.11810000
6.53829000 1.26201000 0.52547300
6.55037000 1.35860000 0.34605400
6.53822000 1.35917000 0.53495200
6.52415000 1.34990000 0.44497000
6.79086000 -0.14832200 -0.14214300
6.68067000 -0.03576350 -0.86744200
2.37175000 8.19391000 -0.02559330
2.43940000 8.41250000 -0.18002000
-2.23486000 1.22946000 -4.90385000
-1.99288000 1.29345000 -4.94800000
1.60163000 3.91173000 -2.18266000
1.22766000 4.03858000 -2.16205000
4.12229000 -7.50392000 -0.21332400
4.05334000 -7.55570000 -0.48013000
4.00965000 -7.54615000 -0.71295000
3.94858000 -7.56195000 -0.91278800
-5.82790000 2.87804000 -2.03791000
-2.94676000 9.53055000 -0.64122200
-4.68064000 3.70842000 3.57804000
-4.67886000 3.72057000 3.43908000
-4.67016000 3.75122000 3.50314000
-2.87135000 1.77664000 6.07043000
-2.98606000 1.85785000 5.96840000
-2.72221000 1.76368000 6.13263000
0.34913400 8.94067000 -3.23747000
0.09769830 8.90787000 -3.20116000
0.11869200 9.01009000 -3.38895000
0.37858400 8.99671000 -3.36268000
1.14844000 3.92300000 -2.44299000
0.83828100 3.92461000 -2.57699000
1.05183000 3.96967000 -2.34379000
1.40349000 3.92816000 -2.28119000
1.63996000 3.95400000 -2.01335000
4.67641000 0.13322000 5.20424000
4.42776000 0.10737100 5.43158000
4.55556000 -0.04246260 5.35677000
4.14017000 0.05543310 5.67412000
3.30546000 3.12087000 -3.30754000
3.26413000 3.13340000 -3.21194000
3.43155000 3.22819000 -3.36064000
-1.15599000 6.48960000 -1.66804000
-1.26172000 6.50885000 -1.59297000
-1.36285000 6.50117000 -1.47699000
3.91774000 9.28862000 -1.04047000
3.99339000 9.29013000 -0.67059600
3.81232000 9.30119000 -1.35305000
3.83674000 9.25191000 -1.32302000
-4.89822000 -3.34720000 -4.27271000
-4.57350000 -3.39185000 -4.55916000
-4.71924000 -3.62546000 -4.29917000
-3.82227000 2.94717000 -3.51344000
-3.95672000 2.87975000 -3.50370000
-3.92645000 2.86683000 -3.45347000
-2.15992000 9.45024000 -2.12304000
-1.98720000 9.46309000 -2.37126000
-2.37595000 9.48630000 -1.94016000
0.72773500 9.02809000 2.85336000
1.00310000 9.03599000 2.80597000
1.02037000 9.08392000 2.86240000
1.19693000 9.07726000 2.81178000
0.37200500 3.73277000 4.81553000
0.44022300 3.79242000 4.94887000
0.44139500 3.77903000 4.84738000
-1.76770000 1.50630000 6.53328000
0.89437800 8.85174000 2.67558000
0.92098400 8.94890000 2.74267000
0.67392400 8.94652000 2.78857000
0.68692300 8.77012000 2.67602000
2.66846000 -8.43407000 -2.25142000
2.71191000 -8.51657000 -2.18023000
2.39419000 -8.57311000 -2.42393000
2.68315000 -8.55367000 -2.14669000
-1.83402000 4.34563000 1.80009000
-1.71896000 4.28949000 1.97538000
-1.56420000 4.30387000 2.09217000
-3.50656000 2.29576000 -4.76041000
-3.56292000 2.09772000 -4.87774000
4.29389000 1.21974000 3.86558000
3.91270000 1.15390000 4.34124000
4.15186000 1.12657000 4.11808000
-5.71172000 2.79443000 -1.94032000
-5.78900000 2.83723000 -1.94132000
5.17898000 2.01350000 -3.31524000
5.17207000 1.92852000 -3.40932000
5.17743000 1.96867000 -3.48369000
5.20300000 1.84097000 -3.31648000
5.19130000 1.91246000 -3.29146000
5.72583000 -3.14619000 1.54751000
5.80353000 -2.85479000 1.63880000
-0.21102700 -2.01875000 6.49212000
-0.37736000 -2.20984000 6.45747000
-0.48804600 -2.01324000 6.48228000
-0.38083600 -1.81009000 6.51140000
-0.27910300 -1.53200000 6.53684000
1.24537000 3.90375000 5.71436000
1.28288000 3.82750000 5.69571000
1.32494000 3.92402000 5.68557000
1.35668000 3.87125000 5.58685000
1.40948000 3.97558000 5.55319000
1.43239000 -0.97233800 -5.88991000
1.66935000 -1.01768000 -5.82870000
5.81669000 0.88610800 3.26029000
6.01018000 0.58000500 3.13944000
5.82245000 0.74353300 3.38508000
5.92349000 0.46015800 3.39067000
-1.08264000 3.66260000 -5.42225000
-1.02074000 3.69046000 -5.47379000
2.50556000 -3.93890000 -4.78073000
2.39441000 -3.72363000 -4.95773000
2.63575000 -4.32606000 -4.46558000
2.61427000 -4.09415000 -4.62663000
-1.77632000 -7.71679000 -3.59290000
-1.75462000 -7.93947000 -3.46010000
-2.00995000 -7.68935000 -3.50404000
-1.22335000 -7.93740000 -3.67019000
1.68097000 7.69158000 -2.07257000
1.65705000 7.48712000 -2.07194000
-1.52816000 2.54035000 -5.85356000
-1.49655000 2.54544000 -5.91967000
6.76348000 -1.36644000 1.74433000
1.41264000 3.81309000 5.52217000
1.33649000 3.79671000 5.63515000
1.32028000 3.82475000 5.64995000
1.68840000 1.29428000 -6.19889000
1.75229000 1.24962000 -6.13430000
1.72400000 1.21492000 -6.20922000
1.63229000 1.20683000 -6.27613000
-3.25751000 2.26437000 5.08491000
-3.21808000 2.37425000 5.08889000
-3.20314000 2.32712000 5.02937000
-3.24160000 2.19927000 5.06463000
6.01623000 -4.34959000 -0.30795000
6.08266000 -4.27859000 -0.07222310
6.07311000 -4.32756000 0.18915600
-3.70323000 0.39506900 5.10415000
-3.68083000 0.67198800 4.98997000
-3.59305000 0.25560600 5.23760000
1.86792000 -4.29330000 6.15856000
1.87331000 -4.67309000 5.95951000
1.52701000 -3.95830000 6.38704000
-0.83575500 7.85918000 2.38007000
5.87304000 2.94796000 2.27673000
5.85305000 3.03973000 2.23020000
5.89726000 2.80872000 2.21882000
-2.37496000 2.50142000 -4.70417000
-2.40121000 2.52991000 -4.68362000
-2.45834000 2.57821000 -4.72572000
5.17570000 1.87557000 -3.33998000
5.18311000 1.71090000 -3.35806000
5.17061000 1.84256000 -3.44904000
5.12959000 1.88575000 -3.63362000
5.06435000 1.80200000 -3.60652000
-6.05723000 -3.28113000 0.61805100
-6.03320000 -3.27268000 0.91420100
-5.92440000 -3.49098000 1.09066000
-5.93513000 -3.37065000 1.31042000
5.12614000 1.65519000 -3.41441000
5.13875000 1.60086000 -3.43470000
5.16553000 1.72691000 -3.41085000
5.12214000 1.79207000 -3.54756000
-6.36559000 -3.16335000 2.48206000
-6.33887000 -3.04608000 2.64003000
-6.49639000 -2.98776000 2.25080000
-1.48568000 3.46134000 3.02051000
-1.28583000 3.57485000 2.89380000
-1.45139000 3.26498000 3.39695000
-1.66254000 3.21338000 3.38269000
-1.61993000 3.35658000 3.14991000
0.75986600 -8.28157000 -3.51267000
0.43078500 -8.38852000 -3.50995000
0.64624100 -8.16248000 -3.60794000
0.68558400 -8.09039000 -3.64936000
0.95113300 -7.85985000 -3.71809000
0.78746700 3.62778000 5.95530000
0.86561800 3.64633000 6.01526000
0.99331600 3.80164000 6.14867000
3.24494000 3.54286000 -1.54015000
2.58417000 2.19157000 -3.69205000
2.32482000 2.40545000 -3.58697000
2.40015000 2.16811000 -3.83527000
2.41195000 2.56720000 -3.31339000
-0.93714600 3.43685000 -5.91497000
4.91097000 -2.87210000 3.64479000
-0.25687200 -1.10985000 -6.08016000
-0.51719700 -1.01458000 -6.06424000
-0.45520700 -1.29924000 -6.07419000
-0.72341400 -1.43167000 -6.04998000
-0.54428400 -1.55855000 -6.06070000
1.03154000 3.78319000 5.97905000
0.96633500 3.78670000 6.04647000
0.90011000 3.68410000 6.00710000
0.88946200 3.64955000 6.04940000
0.93411800 3.76462000 6.10107000
3.51312000 3.17536000 0.55367500
3.44124000 3.18738000 0.94743500
3.32123000 3.28985000 0.72956200
-1.04931000 -2.57436000 -6.48503000
-0.83199500 -2.67351000 -6.47921000
-1.04100000 -2.80862000 -6.40823000
-0.83199500 -2.67351000 -6.47921000
-0.85332400 -3.08510000 -6.33946000
-1.00019000 3.55163000 -6.06822000
4.13356000 3.33754000 2.04893000
4.22506000 3.44574000 2.06906000
4.22607000 3.50076000 1.87614000
4.13631000 3.40783000 1.96133000
-2.47833000 9.09413000 -0.55434700
-2.69702000 9.33760000 -0.45566300
-2.79009000 9.43076000 -0.55821000
-6.54456000 1.82491000 -1.23732000
4.90854000 -5.96115000 -1.22692000
4.87827000 -6.10172000 -1.02055000
4.68796000 -6.29665000 -1.21539000
0.93296900 3.71093000 5.95048000
-0.99848600 -2.43310000 -6.53032000
-1.52413000 -2.49119000 -6.42153000
-1.75717000 -2.49395000 -6.36915000
-4.40037000 3.00311000 -2.41157000
-4.32345000 2.99815000 -2.41323000
-4.32345000 2.99815000 -2.41323000
-4.42983000 2.89673000 -2.52136000
-4.38590000 1.41354000 -4.50725000
-4.29612000 1.41132000 -4.50815000
1.64590000 3.38297000 4.29238000
1.85464000 3.29185000 4.25051000
-5.58834000 0.98197800 -1.46597000
-5.55924000 0.80738400 -1.84281000
-5.22015000 2.52488000 3.13477000
-5.12250000 2.51753000 3.16955000
-5.58137000 -3.18022000 4.00957000
6.18656000 -0.61000000 -0.02720530
-2.24821000 4.04641000 -1.58923000
-2.11658000 4.05299000 -1.69375000
-2.20384000 4.02501000 -1.72804000
-2.00899000 4.02745000 -1.90645000
0.00681573 4.10789000 -1.99024000
0.02241800 4.19399000 -1.94623000
-0.24510000 4.19856000 -1.93470000
-0.14741600 -7.29355000 4.04474000
-0.01346910 -7.19697000 4.12905000
-0.44037600 -4.91531000 -5.50052000
-0.28242000 -5.14547000 -5.38377000
-0.44376500 -4.16560000 -5.91074000
-4.29983000 1.95470000 -4.40685000
-4.23940000 2.07112000 -4.39659000
-4.28989000 2.16034000 -4.36008000
-4.20475000 2.18492000 -4.35032000
-2.97938000 1.97589000 5.89124000
-2.86257000 1.82338000 6.04684000
-2.93364000 1.96538000 5.91098000
-3.00060000 2.08774000 5.79168000
-6.15035000 1.73313000 2.41010000
-6.12879000 1.84984000 2.42106000
-6.20274000 1.63852000 2.41440000
-6.18992000 1.66164000 2.38789000
-6.30210000 1.54513000 2.27672000
-5.05339000 1.95766000 -0.23727800
-4.90064000 2.07411000 -0.48221000
-1.47762000 2.21379000 6.07071000
-1.53104000 2.16898000 6.12524000
-1.57304000 2.02094000 6.27063000
-6.75144000 -3.16860000 -0.27881500
-6.71625000 -3.28321000 -0.23913800
-6.78387000 -3.18740000 0.17795100
-6.69046000 -3.47974000 0.24171300
-6.78140000 -3.24893000 0.38938100
-4.98846000 -3.18884000 3.70208000
-4.62153000 -3.52927000 3.96393000
-4.73875000 -3.52870000 3.81796000
-4.81428000 -3.30234000 3.86701000
-0.13951600 -4.93663000 -5.50339000
-0.15087800 -4.63046000 -5.67930000
0.31035000 -4.68469000 -5.64751000
0.13283000 -4.92320000 -5.51251000
0.04303570 -4.67198000 -5.65826000
0.46887800 4.49678000 1.90440000
0.45392300 4.33040000 1.92182000
0.60362500 4.37306000 1.86085000
-0.34304500 -1.46300000 7.20669000
-0.02656540 -1.52071000 7.20595000
-0.05974890 -1.73910000 7.19673000
-4.39088000 2.39854000 -4.04230000
-4.33627000 2.34149000 -4.09719000
-0.51727100 3.99008000 -2.03224000
-0.38086800 3.93641000 -2.11315000
-0.35297500 4.04691000 -2.01061000
-0.51727100 3.99008000 -2.03224000
-2.17453000 2.38573000 -5.04001000
-2.39072000 7.29193000 0.67734100
-2.32360000 7.07797000 0.79556000
-2.19975000 7.21549000 1.11659000
3.48355000 1.54902000 -4.84014000
3.49478000 1.51855000 -4.83793000
1.20544000 3.25737000 -2.94964000
-1.47041000 -8.44341000 -1.40119000
-1.53389000 -8.43668000 -1.19124000
-1.90369000 -8.44488000 -1.16413000
-2.33286000 -8.50535000 -1.79568000
-2.23937000 -8.49329000 -1.69879000
-2.53163000 -8.49478000 -1.57823000
-4.02238000 2.03903000 -4.62178000
-3.89796000 2.05784000 -4.62527000
1.79923000 2.04318000 -5.76143000
1.86299000 2.04053000 -5.70533000
1.91813000 1.97601000 -5.76555000
1.75334000 2.05652000 -5.71636000
-2.27081000 2.07279000 -5.24113000
-2.23528000 2.08969000 -5.26237000
-2.24999000 1.92821000 -5.36245000
-2.19687000 1.80368000 -5.47707000
-2.24999000 1.92821000 -5.36245000
-2.43693000 7.45584000 0.54471600
-2.36579000 7.50007000 0.78542600
-2.22273000 7.52328000 1.10911000
-2.31307000 7.51195000 0.92399100
-3.13226000 3.16760000 -3.18311000
-3.10911000 2.94824000 4.23495000
0.79473500 6.86745000 -2.41339000
1.17378000 6.91767000 -2.26623000
0.95870400 6.93232000 -2.36731000
1.51163000 4.20119000 -1.21417000
1.51340000 4.13392000 -1.26568000
1.51163000 4.20119000 -1.21417000
5.64797000 -1.78473000 -3.71498000
5.78663000 -1.58056000 -3.53118000
5.95907000 -1.68393000 -3.23566000
0.66221300 3.78228000 5.06483000
0.69889700 3.87906000 5.15815000
0.64152400 3.79325000 5.10347000
1.87609000 2.12426000 -5.67642000
1.78638000 2.07043000 -5.68965000
-6.86572000 0.49085500 0.40168100
-4.18650000 -6.73291000 0.74918600
-4.62861000 -5.98112000 0.78685300
-2.46245000 7.24717000 0.37791800
-2.43058000 7.14515000 0.44648000
3.45207000 -3.67080000 5.71251000
3.75274000 -3.51910000 5.56383000
3.52127000 -3.45165000 5.74675000
3.02219000 -3.67873000 5.95910000
3.25563000 -3.69755000 5.82779000
3.24887000 -3.50121000 5.89839000
1.32542000 -8.51864000 -1.83271000
1.58908000 -8.49563000 -1.52718000
1.39500000 -8.48810000 -1.52121000
1.74785000 -8.55534000 -2.14823000
1.41407000 -8.55308000 -2.21699000
-3.40300000 3.02388000 -3.46766000
-3.19907000 2.95580000 -3.62273000
-3.26607000 2.95207000 -3.49317000
-3.42077000 -2.03152000 5.54373000
-3.78431000 -1.96824000 5.30915000
-3.90178000 -5.24761000 -3.98179000
-3.47301000 -5.42885000 -4.17121000
-3.24684000 -5.74859000 -4.09429000
-3.45494000 -5.60489000 -4.05779000
3.07898000 -3.27500000 6.05823000
3.16825000 -3.30981000 6.00784000
0.44179000 2.01350000 -5.60020000
0.28000900 1.78276000 -5.79905000
0.48662400 -8.58191000 -2.75934000
0.20473600 -8.57148000 -2.71154000
1.11402000 -8.58123000 -2.75223000
1.60555000 -8.57296000 -2.57357000
1.17939000 -8.56897000 -2.55895000
-5.62952000 3.67234000 -1.25612000
-5.71762000 3.62005000 -1.35615000
-5.54675000 2.45881000 2.00251000
-5.48871000 2.57648000 2.05581000
-5.41464000 2.60622000 2.11562000
-3.35905000 3.04141000 -3.47431000
-3.44720000 2.96195000 -3.43158000
-3.33256000 2.97353000 -3.44186000
-3.47181000 2.91972000 -3.36549000
-2.57077000 -6.56142000 -3.91862000
-2.93728000 -6.55713000 -3.69458000
2.28817000 5.30020000 -0.16978900
2.11405000 9.09632000 -2.00941000
2.26880000 9.10998000 -1.86375000
2.05217000 8.79491000 -1.71111000
2.13085000 9.01704000 -1.88787000
-6.07864000 -4.27832000 1.85459000
-6.11142000 -4.13035000 2.01753000
0.88267500 2.46269000 -5.47168000
0.82952400 2.38643000 -5.53037000
-2.53464000 2.87516000 3.38860000
-2.28064000 2.96698000 3.42404000
-3.20257000 2.36058000 3.65827000
-3.00295000 2.53345000 3.56389000
0.27463200 2.40510000 -5.34445000
0.94502100 3.28235000 6.25255000
0.90330700 3.22535000 6.28641000
0.95286000 3.36927000 6.25025000
1.00227000 3.29965000 6.26758000
1.03038000 3.37376000 6.27877000
-6.25907000 1.63965000 2.27292000
-6.20715000 1.67918000 2.35216000
-6.25843000 1.73946000 2.28811000
-6.06247000 0.08640330 -1.18131000
-5.99800000 0.26815900 -1.21245000
-5.89176000 0.35857500 -1.48139000
1.93665000 4.23127000 -0.22855600
1.90181000 4.22621000 -0.40772600
1.93665000 4.23127000 -0.22855600
2.05478000 2.59761000 -4.97706000
5.26416000 -4.13485000 1.54808000
5.24769000 -4.04318000 1.79233000
5.13417000 -4.53023000 1.11274000
4.97916000 -4.71778000 1.35413000
5.15135000 -4.41331000 1.36531000
2.68518000 1.61799000 -4.27044000
2.51456000 1.51951000 -4.46247000
2.90777000 1.41816000 -4.32577000
2.90369000 1.62382000 -4.12559000
-2.60892000 -1.83676000 -6.24703000
-3.22076000 -1.82668000 -5.98416000
-2.93260000 -1.97529000 -6.08999000
-0.50042800 4.59124000 2.36185000
-0.49841400 4.62352000 2.31483000
4.91020000 2.18627000 -3.98280000
4.90931000 2.13186000 -3.97689000
4.68157000 2.11702000 -4.08515000
-3.74311000 -4.85450000 -3.43743000
-3.97129000 -4.56777000 -3.44807000
-3.34434000 -5.50684000 -3.26239000
-3.56490000 -5.37815000 -3.16558000
-4.65856000 -6.55276000 -1.41597000
-4.64320000 -6.66278000 -1.28571000
-0.62033500 3.43075000 -5.54250000
-0.71274000 3.40908000 -5.59518000
-0.64889600 3.47352000 -5.47669000
-0.46896300 3.32761000 -5.67140000
-2.25674000 5.75205000 0.62377500
-2.25323000 6.02226000 0.73234300
-2.20290000 6.53088000 1.01983000
-2.26951000 6.54591000 0.86288300
-2.21318000 6.19764000 0.89144600
-6.80298000 -0.44847700 2.12717000
-1.72199000 3.02485000 5.27547000
-1.84054000 3.01763000 5.24934000
5.57849000 2.05647000 -1.86559000
5.54357000 2.10160000 -1.78477000
5.60056000 2.10407000 -1.75046000
5.26827000 -5.25507000 -1.43839000
5.32612000 -5.24651000 -1.24947000
4.81503000 -5.78146000 -1.81203000
5.02682000 -5.47236000 -1.75269000
0.92619900 -8.58471000 -2.92098000
1.35698000 -8.58077000 -2.76719000
-0.67377900 3.24704000 -5.72195000
-0.60720600 3.27301000 -5.69716000
-0.55236400 3.20577000 -5.69682000
0.88154400 -7.69082000 -1.79856000
-0.47445300 -7.67997000 -1.49213000
-4.80569000 3.29548000 -0.70252200
-4.70169000 3.35500000 -0.70736700
6.51530000 1.48258000 -0.11172500
6.59834000 1.27264000 -0.15195200
6.53919000 1.35241000 -0.18102700
-0.28790300 2.49577000 4.73942000
4.99645000 1.95432000 3.74074000
4.89884000 2.13239000 3.69523000
-6.17430000 -0.73632800 -1.37565000
0.90128700 2.48832000 6.32702000
0.99023700 2.53936000 6.30150000
0.98332200 2.66414000 6.35583000
6.45629000 1.54580000 -0.16882100
6.43623000 1.57052000 -0.19989000
6.46830000 1.54580000 -0.24631500
6.39708000 1.63716000 -0.30180700
5.00513000 2.09497000 3.65478000
5.06030000 2.04009000 3.53867000
-4.64734000 3.29471000 -0.63106500
-0.70324900 4.71712000 1.87632000
-0.73073800 4.55756000 1.83256000
-0.84773500 4.39171000 1.78267000
-0.81132200 -2.76647000 -5.84662000
-1.40224000 -2.78940000 -5.74308000
0.10455900 2.35805000 6.22908000
0.12157300 2.26203000 6.28595000
0.14142700 2.35838000 6.29864000
-0.22061600 0.48902400 6.27279000
-0.42447400 0.77337000 6.15260000
-0.28672800 0.98628800 6.05693000
-0.14006500 0.78600600 6.15711000
-4.81398000 -5.69344000 0.04530510
-4.72496000 -5.85744000 0.25508700
-4.19550000 -6.72974000 0.07064800
3.88839000 9.37080000 0.97263300
4.01555000 9.32467000 0.36246900
3.97066000 9.34689000 0.64822700
5.49619000 1.75489000 -2.17563000
5.52356000 1.56409000 -2.27367000
3.87768000 2.50006000 2.36936000
-0.45408900 6.51532000 -1.99799000
-0.50189800 6.27935000 -1.95395000
-0.44934800 6.08500000 -1.95005000
-0.45408900 6.51532000 -1.99799000
-0.67152200 3.38986000 -5.62159000
-0.62084600 3.42761000 -5.65917000
-0.44592700 3.31685000 -5.60177000
-0.47253900 3.39884000 -5.60646000
-4.96018000 1.73739000 -1.52417000
-4.95313000 1.82577000 -1.29854000
-4.79272000 1.92370000 -1.46837000
-4.62488000 2.05805000 -1.52884000
4.57821000 -0.35110400 -4.89132000
4.01606000 2.48543000 4.40910000
3.96393000 2.57254000 4.40518000
3.73581000 2.51458000 4.65851000
-1.21435000 8.97042000 2.04191000
-1.07282000 9.14206000 2.24317000
-0.67806800 3.34214000 -5.66957000
-0.60963800 3.36018000 -5.72431000
-0.24997300 -6.65110000 -3.73198000
-0.10798400 -6.37690000 -3.91605000
-0.38923400 -7.35305000 -3.24855000
-6.20371000 1.40034000 2.54597000
-6.23498000 1.42918000 2.46958000
-6.12746000 1.32384000 2.61241000
-4.32574000 1.91724000 3.03865000
-4.12975000 2.12218000 2.95654000
-4.04483000 1.94119000 3.39549000
-3.98080000 2.10437000 3.20577000
6.67021000 0.93965000 0.01084970
6.67838000 0.88484200 0.13111700
6.70664000 0.87416600 0.02256220
6.70300000 0.88453000 0.25988500
6.66467000 0.82165500 0.39059400
3.85701000 0.47236000 5.74928000
4.05131000 0.24864400 5.68775000
4.32689000 0.24159300 5.47687000
4.86538000 1.12550000 4.43877000
4.97549000 1.34495000 4.40821000
4.89282000 1.27394000 4.41101000
1.65646000 1.82568000 -6.02021000
1.69291000 1.72801000 -6.04203000
1.77732000 1.67215000 -5.98983000
1.69303000 1.66791000 -6.07588000
3.79350000 2.52782000 4.60720000
3.71452000 2.36944000 4.75995000
1.00101000 9.65489000 3.54895000
1.29774000 9.62677000 3.50674000
1.30042000 9.59522000 3.54948000
6.51409000 1.42517000 -0.19299700
6.57443000 1.27001000 -0.37017800
6.66469000 0.66970800 0.12701700
6.70827000 0.80544100 0.10315400
6.67107000 0.79961500 0.16979900
-1.04046000 0.93405700 -6.42892000
-1.11510000 0.92809700 -6.41924000
-1.11994000 0.97209600 -6.44344000
3.54109000 1.94674000 5.35923000
3.48243000 2.11677000 5.27383000
3.50273000 2.20648000 5.15817000
1.60968000 1.71142000 -6.09658000
1.47774000 1.75751000 -6.10811000
-1.36979000 3.50303000 -4.59564000
-1.34879000 3.51486000 -4.68542000
-6.10888000 2.36805000 1.27770000
-6.14893000 2.34002000 1.25538000
-6.19345000 2.24573000 1.26978000
-1.52748000 2.37337000 4.64690000
-1.91608000 2.20252000 4.70480000
-1.79941000 2.42127000 4.48609000
-3.11701000 0.06605900 -5.10601000
-2.89164000 0.18528300 -5.18838000
-3.15254000 0.23589900 -5.02433000
-2.63504000 0.31649200 -5.26266000
-2.44919000 0.49983500 -5.26625000
0.22845800 3.39389000 -3.83989000
0.18452200 3.32257000 -3.89495000
-0.25764600 3.39979000 -3.82563000
6.68529000 0.96404500 0.24045700
1.26224000 4.61340000 -1.43619000
1.39895000 4.36466000 -1.28889000
1.50266000 4.35508000 -1.16707000
1.46491000 4.50427000 -1.20878000
-0.65893800 1.81208000 -6.08398000
-0.69390500 1.78253000 -6.08104000
0.60490000 1.64281000 -6.12214000
-1.50988000 3.37345000 -5.39867000
-2.11571000 -7.61295000 -3.48374000
-2.20663000 -7.44613000 -3.53663000
-1.91264000 -7.38586000 -3.72189000
-2.28408000 -7.61110000 -3.39315000
4.70976000 -5.52963000 3.00120000
4.46998000 -5.67824000 3.21230000
4.58724000 -5.75267000 2.93205000
4.72560000 -5.61608000 2.85564000
1.00570000 1.02945000 5.93536000
1.06140000 1.21424000 5.81639000
1.30638000 1.03260000 5.86878000
1.42842000 0.83100700 5.94046000
-4.67616000 0.10233300 -3.83159000
-4.86614000 0.02710680 -3.64235000
6.79918000 -2.21745000 0.09085580
6.80170000 -2.21620000 0.42721100
6.83123000 -2.01099000 -0.22993100
-5.06529000 2.05378000 -3.38838000
-5.09233000 2.11799000 -3.33745000
-5.08411000 2.04033000 -3.54572000
-5.05361000 2.14077000 -3.45228000
1.99839000 9.04816000 2.39869000
2.12511000 9.09992000 2.43970000
1.87234000 9.09871000 2.57286000
2.17099000 9.12468000 2.49841000
5.94276000 1.73812000 0.58413000
1.02112000 -7.66582000 -2.69098000
3.29639000 9.41253000 -2.18931000
-4.58013000 -3.59417000 4.89997000
-3.12659000 -6.44896000 4.08524000
-3.07433000 -6.62042000 3.98257000
-2.80791000 -6.73801000 4.10992000
-2.57481000 -6.76844000 4.25156000
-2.96253000 -6.45133000 4.21615000
-0.33326000 4.60228000 -2.21739000
-0.15771700 5.01029000 -2.29350000
-0.69875400 0.04465910 -5.88275000
-0.94412800 0.12036200 -5.83058000
-0.42366800 0.29020500 -5.82683000
-0.39629600 0.11328700 -5.88666000
-0.17423000 0.26371800 -5.84484000
-2.45124000 -8.41661000 -2.70627000
-2.42901000 -8.35192000 -2.77109000
-2.30960000 -8.13707000 -3.00785000
-2.45246000 -8.24114000 -2.82759000
-3.89428000 -8.15385000 -0.93941900
-4.02545000 -8.10297000 -0.53255900
4.27440000 2.20905000 4.58045000
4.36368000 2.17344000 4.48419000
4.37422000 2.23069000 4.46443000
4.34030000 2.25417000 4.45230000
4.37224000 2.23808000 4.36469000
4.23970000 2.25299000 4.47236000
-5.98585000 2.27249000 2.06723000
-6.03909000 2.18798000 2.03472000
-4.89305000 -4.55214000 3.89362000
-4.63691000 -4.88843000 3.89065000
-4.59549000 -4.72650000 4.08880000
-4.12793000 -5.05949000 4.30803000
-4.39495000 -4.96008000 4.10953000
-4.23698000 -5.17432000 4.10465000
-1.85864000 -4.97380000 5.75751000
-1.94105000 -5.17346000 5.62193000
-0.06873010 4.68507000 -2.24352000
-0.26355900 4.68164000 -2.23338000
-0.02902570 4.92014000 -2.27921000
0.16786700 4.92310000 -2.26717000
0.11731700 4.79429000 -2.25498000
-1.16656000 2.39959000 -6.13926000
-1.15103000 2.28922000 -6.15992000
-1.21882000 2.21077000 -6.11376000
-1.22011000 2.11458000 -6.11761000
4.21247000 2.24388000 4.55227000
4.28781000 2.24774000 4.53287000
4.23060000 2.20571000 4.62098000
-4.49533000 -1.84038000 -5.18399000
-4.31223000 -1.98532000 -5.27502000
-4.57692000 -1.85715000 -5.11367000
-4.71430000 -1.86869000 -4.98130000
-0.12138200 4.59576000 -2.23346000
0.41252000 4.54415000 -2.17633000
0.15175900 4.51161000 -2.22496000
0.17861100 4.58093000 -2.21669000
0.86910700 1.75254000 -6.22655000
0.90203500 1.63537000 -6.25388000
1.88168000 0.87692600 -6.04327000
1.73993000 0.98789800 -6.02702000
1.82172000 0.96956300 -6.01949000
1.75924000 1.02623000 -6.09036000
1.85691000 0.98531800 -6.07850000
0.63538700 -8.27241000 2.25550000
0.44231000 -8.27407000 2.11542000
1.13905000 -8.29388000 2.23591000
3.59414000 2.01258000 5.31836000
3.50988000 2.08448000 5.28002000
3.58124000 1.91878000 5.35232000
3.79464000 1.76485000 5.26668000
3.70663000 1.76161000 5.33692000
-6.02629000 3.16835000 -2.02477000
-6.02629000 3.16835000 -2.02477000
-2.36671000 8.90124000 1.40345000
-2.26583000 8.54470000 1.35826000
4.18153000 2.26529000 4.56650000
4.40131000 3.52817000 2.15088000
4.46874000 3.59855000 2.08298000
4.35598000 3.55284000 2.08900000
4.44225000 3.57717000 2.03223000
0.73676200 6.75314000 -1.97759000
0.94743300 6.94574000 -1.91023000
4.71969000 1.61809000 4.56224000
4.62203000 1.56344000 4.63164000
-6.11114000 0.99540100 -2.54733000
-6.00940000 0.96782900 -2.77327000
-6.28044000 0.87282200 -2.24051000
-6.20322000 0.76135100 -2.54513000
3.61340000 1.85407000 5.36039000
3.60194000 1.80570000 5.43745000
2.68496000 2.60064000 4.87430000
2.61733000 2.53629000 4.91811000
2.59902000 2.58695000 4.98177000
2.69923000 2.55022000 4.80842000
-2.59850000 -6.57520000 4.38984000
-2.43684000 -6.62668000 4.45127000
-2.31842000 -6.55827000 4.56899000
-2.49187000 -6.50128000 4.51986000
-4.63111000 3.57635000 -1.71886000
-6.77929000 -1.52112000 -1.90218000
-6.82684000 -1.26885000 -1.74727000
-6.78371000 -1.74676000 -1.82305000
-6.70171000 -1.66306000 -2.11178000
-6.64729000 -1.78813000 -2.22047000
4.09277000 2.06455000 4.84741000
3.93706000 2.10896000 4.90897000
3.94227000 2.17061000 4.89127000
4.69358000 3.23530000 0.82688300
4.71724000 3.16409000 0.72862100
4.61354000 3.17198000 0.68444600
4.57047000 3.18424000 0.71619600
-6.22672000 -0.53733600 1.53024000
-6.27975000 -0.51996800 1.23391000
2.29608000 3.88799000 0.44203300
2.18877000 3.95000000 0.50521000
2.16386000 3.98455000 0.30697000
2.47692000 3.79117000 0.35688100
2.80426000 3.60926000 0.53452600
2.41445000 3.81337000 0.56956900
-1.41036000 -6.92247000 4.71471000
1.08871000 1.98039000 5.17811000
1.43115000 1.55112000 5.48340000
1.12811000 1.66498000 5.46639000
-6.85266000 -1.09729000 -1.66040000
-6.75946000 -0.69405600 -1.93655000
5.62507000 -0.35810800 -2.29054000
5.57441000 -0.48452700 -2.44753000
5.61673000 -0.73547800 -2.42006000
-6.95965000 -0.10812300 -0.73772900
-6.96502000 -0.70465200 -1.11641000
-6.92863000 -0.47260500 -1.21396000
-6.90218000 -0.66128700 -1.40781000
-5.16997000 2.52565000 2.83152000
-5.09131000 2.57179000 2.55324000
-5.17514000 2.44451000 2.68493000
-2.41829000 1.35032000 6.42611000
-2.37204000 1.23378000 6.42406000
-1.19724000 1.91923000 -6.08709000
-1.20757000 2.10907000 -6.12299000
-1.13602000 2.10602000 -6.13720000
1.72402000 1.02094000 -6.04504000
1.73875000 1.03086000 -6.11632000
1.65896000 1.00879000 -6.07325000
2.98734000 -7.58805000 -2.61641000
3.06103000 -6.91041000 -3.14392000
3.33281000 -6.85384000 -2.92552000
-1.84838000 9.00676000 -3.22478000
-6.17193000 2.03528000 2.08132000
-6.26648000 1.95134000 2.02574000
-6.14061000 0.56620300 -2.81575000
5.73340000 -4.60738000 1.80994000
5.61538000 -4.92648000 1.54973000
4.24869000 3.29026000 -2.42277000
4.31680000 3.28441000 -2.44654000
4.26086000 3.30335000 -2.48471000
-3.80056000 2.04399000 -4.70468000
-3.81152000 1.94692000 -4.74394000
-2.90018000 9.06174000 0.46881800
-2.94131000 9.05612000 0.20518400
1.79096000 -2.37169000 -5.67936000
1.41695000 -2.69492000 -5.71089000
1.46861000 -2.47026000 -5.75256000
1.16541000 -2.57746000 -5.80039000
-0.20347900 -7.52949000 4.59252000
-0.42777600 -7.57580000 4.55818000
-0.27525900 -7.74592000 4.46458000
-0.54258600 -7.64621000 4.50188000
-0.34916900 -7.80027000 4.43332000
2.44201000 1.27427000 -5.86880000
2.44729000 1.19115000 -5.89098000
-2.16802000 2.96808000 5.12662000
-2.04551000 3.00119000 5.18121000
4.23062000 2.62003000 0.70429400
4.33300000 2.50310000 0.99150600
4.07723000 2.72918000 0.87199300
2.88588000 9.49823000 2.59150000
2.68142000 9.48705000 2.80612000
2.89911000 9.45535000 2.61933000
3.26238000 9.42401000 2.20886000
-1.20355000 3.49057000 -5.50959000
-1.16271000 3.49910000 -5.56980000
-1.21887000 3.54413000 -5.46382000
-1.17752000 3.60096000 -5.58026000
-0.26357500 -7.65242000 -3.96887000
-0.49286300 -7.78236000 -3.90085000
-0.60152300 -7.66928000 -3.93682000
-0.97886600 -8.02053000 4.19268000
-0.62194800 -8.00917000 4.27783000
-0.66949000 -7.77352000 4.39534000
3.60629000 -5.69823000 -3.66583000
3.78179000 -5.89011000 -3.32984000
3.90358000 -5.68344000 -3.36899000
3.88717000 -5.83636000 -3.25256000
4.72611000 2.34990000 3.38407000
4.78577000 2.38123000 3.49569000
4.80057000 2.35202000 3.61718000
-4.22226000 3.26611000 -1.96875000
-4.15344000 3.28247000 -1.87497000
4.77119000 1.15643000 -2.69431000
4.92429000 1.14717000 -2.44454000
5.12503000 0.97587600 -2.28669000
6.12699000 -0.88953100 1.26423000
6.13690000 -1.31432000 1.22933000
-5.20219000 2.90021000 1.16126000
-5.21814000 2.89255000 1.02668000
-1.49243000 4.76975000 -1.16074000
-1.36521000 4.68470000 -1.30766000
-4.89797000 3.51037000 3.30723000
-4.87491000 3.67035000 3.44696000
-3.64160000 2.71167000 4.44952000
-3.66166000 2.87038000 4.35463000
-3.80452000 2.88407000 4.34660000
5.72039000 1.90373000 -1.87438000
5.75250000 1.84091000 -1.90781000
5.73933000 1.88516000 -1.95139000
1.38133000 -3.47637000 -5.45047000
1.16801000 -3.43334000 -5.52116000
1.70789000 -3.23898000 -5.45122000
-7.05508000 -1.15965000 -0.48820200
-7.06109000 -1.34589000 -0.32358600
-2.30251000 2.99133000 5.05281000
1.78930000 8.99477000 -3.11184000
2.19199000 8.96142000 -2.95719000
2.24995000 8.89598000 -3.08453000
0.65551500 4.20380000 1.93155000
0.79922400 4.03574000 2.09713000
0.71017700 4.12450000 1.99877000
-1.61417000 3.18504000 -4.65631000
-1.60020000 3.13773000 -4.53608000
-1.54297000 3.27777000 -4.74972000
-2.24113000 6.30124000 -0.86626700
-2.15986000 6.30473000 -1.05823000
1.16156000 -3.64579000 -5.42778000
0.93640000 -7.43352000 3.55649000
0.99868900 -7.45438000 3.38198000
1.16073000 -7.44538000 3.41123000
-1.79213000 2.52834000 5.79101000
-2.02345000 2.48332000 5.73606000
-1.92603000 2.49815000 5.69872000
-2.06923000 2.50130000 5.66428000
4.53713000 -2.10990000 4.40888000
4.37144000 -2.08919000 4.59002000
5.45946000 -2.46019000 4.20510000
5.59627000 -2.50690000 3.99424000
5.29706000 -2.20466000 4.52217000
5.33287000 -1.98576000 4.54301000
5.12213000 -2.10205000 4.76811000
3.86410000 2.80572000 3.72183000
-4.66836000 3.48557000 2.84039000
-4.66422000 3.36815000 2.76499000
-4.61750000 3.32921000 2.70104000
-4.58639000 3.22403000 2.58838000
-0.26191200 9.66018000 3.68540000
-0.18409700 9.60735000 3.72201000
-1.87189000 2.47026000 5.73586000
-1.88874000 2.41920000 5.84968000
-1.82404000 2.42587000 5.87391000
-1.90284000 2.36333000 5.88728000
-1.97597000 2.28932000 5.92569000
-1.95220000 4.16444000 0.67371800
-5.17172000 2.83525000 1.16047000
-5.15692000 2.78507000 1.24041000
2.62673000 9.13351000 -1.39057000
2.62765000 9.09254000 -1.28875000
2.71625000 9.15957000 -1.30982000
2.49145000 8.87886000 -1.12450000
2.62859000 8.98995000 -1.02387000
2.55084000 9.04314000 -1.32645000
4.20006000 -7.33722000 0.96064400
4.13453000 -7.49727000 0.77004900
-1.96108000 2.33168000 5.85659000
-2.14338000 2.24787000 5.89914000
-2.12181000 2.20448000 5.91926000
0.42624600 -3.00504000 -5.79362000
0.83029500 -2.79540000 -5.80472000
3.30338000 2.48343000 4.95421000
0.92028700 4.01926000 5.58378000
0.99465000 3.96339000 5.60732000
2.76108000 9.06763000 -0.83650400
2.92880000 9.17613000 -0.65819800
2.70906000 9.10774000 -1.13486000
2.04245000 3.05009000 4.73228000
2.13876000 2.99367000 4.62003000
2.04740000 3.09916000 4.49847000
2.05400000 3.05721000 4.60798000
1.69299000 6.31789000 1.79194000
1.54925000 6.27845000 1.90765000
1.61755000 6.01506000 1.80600000
1.70781000 5.98115000 1.71221000
1.62039000 5.77018000 1.75518000
5.54066000 1.74902000 3.05072000
5.64910000 1.64260000 3.01877000
-5.12833000 3.82227000 -1.72301000
-4.95157000 3.72680000 -1.74967000
-5.07765000 3.80190000 -1.77243000
4.91761000 -3.96688000 -3.64161000
0.82601200 9.42424000 2.76953000
0.84288600 9.51251000 2.90359000
2.81188000 2.38493000 -4.77925000
2.87390000 2.43203000 -4.74167000
2.81734000 2.49426000 -4.70185000
-0.68010100 6.38745000 2.34208000
-0.70352100 7.02428000 2.36907000
-0.60965100 6.60667000 2.37803000
2.85145000 8.42161000 0.03074340
2.95378000 8.62750000 0.02598000
2.89370000 8.50846000 0.01001520
-1.69037000 4.69375000 -1.46753000
-1.56240000 4.64443000 -1.60834000
-1.67482000 4.60566000 -1.49619000
-1.93531000 4.65743000 -1.11279000
-1.78271000 4.67196000 -1.35505000
-1.83144000 4.61505000 -1.28971000
-1.00059000 6.50325000 2.23061000
-1.14145000 6.19063000 2.12288000
-1.14555000 6.51759000 2.15802000
-1.31455000 6.43588000 2.04861000
0.57620200 3.80041000 5.50291000
0.76279200 3.83847000 5.56929000
0.88395500 3.79241000 5.65859000
-5.71441000 -0.69788200 -3.96389000
-5.64778000 -1.05848000 -4.06905000
1.21401000 9.47900000 -3.66818000
1.79743000 9.42118000 -3.54118000
5.72461000 2.59786000 2.46326000
5.77003000 2.67787000 2.39174000
5.78444000 2.56860000 2.42832000
5.86753000 2.71741000 2.30204000
0.05490530 3.53427000 3.24421000
-0.01927500 3.52367000 3.26814000
0.05358020 3.65070000 3.02573000
0.05358020 3.65070000 3.02573000
5.86666000 1.81962000 0.53049400
5.85522000 1.89156000 0.63664900
-5.18240000 -3.69298000 -3.76076000
-5.34636000 -3.38814000 -3.74259000
-5.29921000 -3.11462000 -3.93017000
3.25550000 8.84483000 -2.00762000
3.45325000 8.84350000 -1.63762000
3.64974000 8.83457000 -1.29809000
3.92772000 3.46094000 0.05682330
2.58571000 8.86707000 1.54925000
2.48403000 8.75147000 1.53649000
6.46881000 0.73526500 -1.63679000
2.74178000 2.13273000 -5.23636000
-5.72824000 -1.42139000 -2.62477000
-5.75900000 -1.21756000 -2.56477000
-5.86375000 -1.33640000 -2.34454000
4.99192000 2.02336000 3.83549000
4.92432000 1.99974000 3.92457000
4.95029000 1.91490000 4.00000000
0.37271400 -4.95282000 -5.48851000
0.54409700 -4.73674000 -5.60168000
0.93863300 -4.65082000 -5.60662000
0.62647700 -4.97916000 -5.45281000
6.17164000 1.65699000 -1.60264000
6.20765000 1.59074000 -1.65037000
-0.45425100 -4.45004000 -5.76556000
-0.20677000 -4.23319000 -5.88623000
-0.10913300 -3.99231000 -6.00836000
0.13434700 -4.08969000 -5.95441000
-2.41517000 9.11941000 -0.91902300
-2.43304000 9.20816000 -1.10821000
-2.53294000 9.20655000 -0.77742500
-2.45345000 9.10314000 -0.74288000
-2.61786000 9.26874000 -0.61654400
-1.80797000 -0.20514700 6.21365000
-1.76081000 -0.00044550 6.18245000
-1.64821000 1.87117000 6.42761000
-1.77428000 1.84662000 6.42237000
-1.74325000 3.06205000 -4.31028000
-2.09683000 4.80168000 -0.77140000
-2.06954000 5.10582000 -0.94040300
-2.08809000 4.67515000 -0.79272400
-2.21061000 1.99698000 6.05192000
-2.22693000 1.91230000 6.10876000
-2.14251000 1.75274000 6.26415000
-2.15976000 1.85479000 6.20006000
-2.21458000 1.79591000 6.20759000
-1.38402000 4.02076000 -2.34060000
-0.73526900 3.97122000 -2.65773000
-1.10817000 4.00982000 -2.50083000
-3.20504000 3.24344000 3.87873000
-3.10005000 3.21356000 3.89008000
-3.00408000 3.30355000 3.74443000
-2.99489000 3.21939000 3.88312000
-2.92861000 3.22028000 3.88183000
3.65034000 -6.97956000 -2.38391000
3.73729000 -7.09692000 -2.10722000
3.52981000 -7.03343000 -2.48511000
3.63808000 -6.89800000 -2.48689000
-1.60579000 3.12921000 -4.24765000
-1.57801000 3.11365000 -4.36679000
-1.65673000 3.11531000 -4.43201000
-1.57040000 3.18167000 -4.53958000
-1.53929000 3.18003000 -4.34928000
-1.53473000 3.27270000 -4.43488000
-5.66556000 1.18068000 1.17398000
6.14970000 1.81604000 -0.82030300
6.11849000 1.84164000 -0.99321900
6.17030000 1.78857000 -0.83419600
6.23484000 1.76926000 -0.93311100
6.14126000 1.81345000 -0.96224400
2.38821000 4.31372000 0.50708400
-1.96787000 1.73130000 6.40549000
-1.77074000 1.68122000 6.53721000
-1.89934000 1.71673000 6.47002000
-6.47457000 1.00017000 1.76853000
-6.41180000 1.10690000 1.80691000
-6.39035000 1.18670000 1.73950000
-6.47071000 1.07106000 1.62033000
-4.52877000 -5.89992000 -0.91735500
-4.94550000 -5.08636000 -1.21887000
-4.52078000 -5.35842000 3.58249000
-4.37933000 -5.55439000 3.58273000
-4.48537000 -6.06950000 2.85951000
-4.33886000 -6.11927000 3.02946000
-4.39528000 -5.97139000 3.12379000
6.30237000 1.62694000 -1.03463000
6.24056000 1.71187000 -1.11825000
-2.10629000 2.24694000 -5.74949000
-2.02949000 2.33502000 -5.82134000
-2.09044000 2.15537000 -5.85881000
-2.76348000 -4.33034000 5.02202000
-2.55594000 -4.42846000 5.07512000
-2.91548000 -3.99940000 5.12219000
-2.83365000 1.35959000 6.26533000
-2.72119000 1.29202000 6.32054000
-2.73706000 1.42097000 6.28898000
-2.97756000 1.55965000 6.11519000
-2.88234000 1.42540000 6.19388000
-2.86643000 1.49549000 6.14469000
2.88224000 2.66743000 4.67068000
2.89392000 2.71707000 4.63142000
2.70945000 2.72575000 4.57772000
2.72346000 2.65300000 4.64160000
0.95206000 7.61922000 1.90435000
0.88657000 7.33207000 1.89960000
5.79206000 -0.64927100 4.02972000
5.75311000 -0.89038100 4.09099000
1.31292000 3.56661000 3.94851000
3.34171000 0.94007900 5.87851000
1.36203000 8.07458000 -1.90886000
1.54338000 8.12066000 -1.78855000
1.42796000 8.37517000 -1.97717000
1.15379000 8.19228000 -2.06965000
-1.06331000 3.59723000 -5.76354000
2.72439000 2.32326000 5.42599000
2.78604000 2.27944000 5.41783000
2.64223000 2.40834000 5.32481000
-3.65749000 0.30324600 6.04941000
-3.83266000 0.20753100 5.96547000
0.90735600 -3.05705000 6.15992000
1.14965000 -2.99645000 6.13349000
1.48985000 -3.10337000 6.01270000
-1.18546000 2.90859000 5.29588000
-1.30869000 2.99882000 5.29925000
-1.38979000 3.01461000 5.29299000
-0.28268400 7.77626000 -2.62625000
-0.02964470 7.60097000 -2.62435000
-0.47013700 7.74489000 -2.58663000
-1.08883000 3.60861000 -6.01366000
-1.13559000 3.61381000 -6.00647000
4.39112000 3.56805000 -3.58840000
4.36219000 3.52162000 -3.51333000
4.45776000 3.52816000 -3.54616000
4.20032000 3.46977000 -3.52216000
-7.05628000 -0.94482600 0.93309100
-7.08577000 -1.02166000 0.61691500
-7.08006000 -0.91982000 0.53906100
-7.06746000 -0.74121200 0.64012200
-1.19929000 2.81890000 5.38722000
-6.34870000 1.20478000 2.08552000
0.04611820 -7.43445000 4.64250000
0.37188800 -7.38713000 4.64582000
2.69200000 -4.62435000 5.63988000
2.78665000 -4.43881000 5.70013000
-2.37880000 1.85482000 6.13286000
-2.47664000 1.76270000 6.16787000
-1.18858000 3.52089000 -6.06624000
-2.97747000 3.50797000 -2.52982000
-3.33353000 3.53608000 -2.06331000
-3.21563000 3.47066000 -2.28509000
-3.41728000 3.48696000 -1.98425000
-5.25266000 3.58719000 -2.11487000
-5.31670000 3.62458000 -2.00890000
1.99643000 1.68224000 -5.85902000
1.88251000 1.48277000 -6.02248000
-0.26689300 0.14163700 -6.61163000
-0.74516300 0.10569000 -6.59503000
-0.39238800 0.07235210 -6.62395000
4.02222000 2.37359000 -1.81005000
4.12646000 2.37303000 -1.59677000
4.24094000 -0.52735800 5.69363000
4.46106000 -0.54265900 5.52127000
4.53498000 -0.77506100 5.47054000
4.56342000 -1.06795000 5.44753000
-2.27320000 1.95988000 6.07632000
-2.30034000 1.87453000 6.15664000
-2.27773000 1.76038000 6.19892000
-2.34302000 1.77549000 6.21313000
-4.54510000 3.52517000 -1.34793000
-4.57657000 3.51453000 -1.19167000
-4.56630000 3.53266000 -1.47880000
3.07738000 2.64835000 -3.91930000
3.30558000 2.71036000 -3.88687000
3.21139000 2.64906000 -3.92200000
3.20197000 2.72506000 -3.84112000
-5.12747000 1.90544000 -3.25335000
3.69343000 3.03076000 -0.23581800
3.28504000 3.31207000 -0.23030000
2.04648000 2.55555000 -4.99695000
-7.01672000 -1.00657000 1.31185000
4.59368000 0.37278300 -3.61391000
4.72914000 0.25108500 -3.51094000
-1.73434000 9.26192000 2.78208000
-1.55429000 9.21134000 3.06533000
-1.44571000 9.25313000 2.97863000
-1.46471000 9.19269000 3.18970000
5.86384000 2.11678000 2.27285000
5.82027000 1.95888000 2.35262000
5.77179000 1.99892000 2.45769000
5.76281000 2.09494000 2.51598000
-3.31586000 2.36600000 -4.81245000
-2.15532000 3.97151000 -0.51188300
-5.47961000 3.54742000 -2.12024000
-5.38362000 3.48376000 -2.23398000
-5.31690000 3.43098000 -2.23354000
5.84006000 2.76301000 2.30861000
5.80963000 2.72512000 2.35163000
-3.92839000 -4.24368000 -4.62488000
-4.19689000 -4.26195000 -4.41098000
-2.81511000 9.21720000 2.30459000
-2.46107000 9.19310000 2.62200000
-2.71934000 9.19644000 2.38559000
-4.22025000 -5.43133000 2.88530000
-4.26760000 -5.15394000 3.08875000
-3.98325000 -5.61855000 3.05179000
6.21655000 1.22558000 -2.02615000
6.16394000 1.20258000 -2.08490000
6.32018000 1.03869000 -1.88075000
-3.41647000 2.32205000 -4.83331000
-3.38055000 2.22552000 -4.88839000
-4.98276000 0.75249500 3.55438000
-5.13424000 0.74383200 3.32382000
-2.00202000 -1.24756000 -5.78881000
-2.10677000 -0.96146700 -5.74571000
-1.86064000 2.00465000 -4.33309000
-1.61704000 2.12180000 -4.29563000
1.43853000 4.74058000 1.32741000
1.46943000 4.51087000 1.25190000
-3.96180000 -2.10214000 5.91302000
6.58537000 -0.17235000 2.09923000
6.34511000 0.12020700 2.65999000
6.47269000 -0.16124800 2.47501000
6.49462000 -0.05052670 2.33312000
-2.52767000 1.69683000 6.21491000
-2.39480000 1.78437000 6.19661000
-2.68930000 1.66915000 6.17863000
-4.64190000 4.00405000 3.71650000
-5.63546000 2.75860000 -2.27975000
-5.67575000 2.67410000 -2.30139000
2.28153000 -7.35693000 3.02899000
-4.88701000 0.91229900 3.55555000
-4.60248000 0.67353300 4.11533000
-4.72887000 0.74439000 3.91064000
-4.66693000 -7.04358000 0.04460850
-5.15377000 -6.22799000 0.31691100
-5.20747000 -6.13017000 0.15298100
-5.04811000 -6.39051000 0.03956990
-3.63172000 3.71396000 1.19381000
-3.56365000 3.74895000 1.21447000
-3.63477000 3.73152000 1.01524000
-3.70502000 3.70810000 1.09820000
-3.72366000 3.71416000 1.19916000
-0.26160500 -7.69153000 -2.84783000
5.93009000 1.96120000 2.18266000
5.86116000 1.91011000 2.33838000
1.00183000 -6.55997000 -4.47391000
0.63891800 -6.77875000 -4.40156000
0.76824800 -6.66365000 -4.46136000
0.86735000 -6.80289000 -4.34856000
-6.00701000 -3.06915000 3.35378000
-5.96095000 -3.27084000 3.30810000
-5.88494000 -3.16170000 3.52801000
-6.20101000 -3.23463000 2.82317000
-3.66228000 3.45832000 -1.60292000
-3.75714000 3.47757000 -1.35873000
-3.45126000 3.44957000 -2.00978000
-6.41097000 -1.43750000 0.35699200
-6.40460000 -1.38640000 0.57097000
-6.14974000 2.43359000 -1.47317000
-6.05619000 2.70654000 -1.37853000
-6.12134000 2.61489000 -1.40658000
-5.03271000 -6.38141000 -0.25656800
-5.08960000 -6.30994000 -0.13276100
-5.15294000 -6.17378000 -0.29446400
-5.09544000 -6.23445000 -0.49253200
-5.06922000 -6.30109000 -0.42625500
3.80602000 8.89889000 0.37193400
3.73329000 8.92790000 0.38557600
3.70511000 8.93250000 0.64283600
3.62097000 8.97719000 0.61327900
-5.42641000 3.25551000 -0.79319300
-5.38207000 3.32010000 -0.87283300
-5.48912000 3.42359000 -0.96130800
-5.48881000 3.34141000 -0.95470800
2.63353000 8.73702000 -1.64895000
2.59396000 8.66470000 -1.58720000
2.48874000 8.65092000 -1.73053000
2.72175000 8.68725000 -1.38847000
2.76060000 8.59035000 -1.11641000
-2.65162000 1.83564000 6.08567000
-2.68930000 1.84134000 6.02448000
-2.76880000 1.84479000 6.05271000
-2.34997000 2.01459000 6.01687000
-2.44355000 1.92189000 6.01876000
-2.43457000 1.91183000 6.08827000
-6.61420000 0.17910100 -1.95456000
-6.31600000 0.47299200 -2.49714000
-5.67237000 2.53128000 -2.14837000
-5.65773000 2.57195000 -1.97899000
-3.42195000 9.16700000 -0.36187100
-3.54303000 9.11266000 -0.55561100
-3.74841000 -2.06245000 6.05624000
-4.17759000 -1.73364000 5.84298000
-3.91821000 -1.97742000 5.96630000
-0.32894000 8.04138000 2.52008000
-0.52034800 8.03733000 2.48535000
-0.01502830 8.01113000 2.54763000
