-6.52857000 -0.90175200 1.17657000
-6.54510000 -1.07378000 0.89970200
2.49316000 5.34130000 1.50995000
2.37252000 5.20276000 1.60620000
2.38863000 5.20588000 1.51527000
-2.97025000 3.98714000 2.23566000
-2.58479000 4.24456000 2.16283000
-4.41594000 0.40477600 5.12793000
-4.54381000 0.33194000 5.02455000
-4.48238000 0.46593100 5.07509000
-4.44552000 0.48246900 5.10707000
3.86115000 3.58734000 -1.81508000
0.93532900 8.02291000 1.57276000
1.08478000 8.28770000 1.54372000
1.13119000 8.03094000 1.34509000
1.17564000 4.55425000 -3.85159000
1.22707000 4.53805000 -3.89337000
-0.54425800 -9.60706000 -1.22441000
-0.69845000 -9.61607000 -1.50600000
-0.59697900 -9.60288000 -1.60423000
1.35773000 4.70245000 -3.57726000
1.84166000 6.93268000 0.03522040
-3.58836000 -0.02749490 5.85690000
-3.62020000 0.01982400 5.84941000
-5.90755000 -1.54821000 -3.36497000
-5.93963000 -1.49215000 -3.22500000
2.40180000 9.17682000 1.61686000
2.27369000 9.16695000 1.92763000
-3.79125000 9.81396000 0.34599400
-0.29707400 1.29149000 -6.47698000
-3.81956000 0.53912900 5.69357000
-3.73515000 0.56894100 5.67048000
-3.75615000 0.68619300 5.61679000
-2.36585000 -0.37225000 -6.20960000
-2.19679000 -0.39128100 -6.25810000
-2.29352000 -0.49464600 -6.21361000
-2.30179000 6.10996000 0.01356220
2.37780000 0.41813800 -6.19079000
2.43654000 0.26244000 -6.17584000
-3.25915000 4.84640000 -1.87865000
-3.15568000 4.85353000 -1.81999000
-3.24070000 4.80805000 -2.07291000
-1.91697000 4.80398000 -1.54034000
-5.60212000 -1.33862000 -4.23392000
-5.61079000 -1.38620000 -4.21169000
-5.66635000 -1.43780000 -4.14246000
-0.79715700 -1.44162000 -6.63927000
-0.87773100 -1.36370000 -6.65281000
-3.23720000 9.24511000 2.52774000
-3.24216000 9.26161000 2.53076000
-3.23720000 9.24511000 2.52774000
1.02142000 7.68337000 1.37623000
1.13116000 7.62752000 1.21625000
1.02517000 7.63877000 1.37573000
1.73119000 7.84747000 1.10102000
2.10829000 4.66204000 3.06682000
2.26042000 4.55217000 3.15640000
2.32576000 4.62677000 2.96608000
1.95770000 4.67037000 3.14340000
2.07726000 4.59972000 3.20372000
-4.18273000 3.23451000 1.70574000
-4.20009000 3.15722000 1.83304000
-0.73637900 4.35294000 -3.14193000
-0.90489500 4.41054000 -2.99852000
-1.11023000 4.36562000 -3.00623000
0.15092400 8.70571000 2.83309000
5.43728000 1.78752000 -3.79699000
-1.77988000 9.55797000 -2.69897000
-1.83233000 9.53469000 -2.66535000
-2.04971000 9.54754000 -2.55327000
-2.29354000 9.53116000 -2.39226000
-4.07697000 4.41076000 -2.13449000
-4.01699000 4.42558000 -2.22965000
-4.91784000 3.73532000 -1.41711000
-4.93580000 3.71263000 -1.31636000
-2.10434000 9.72963000 -2.48606000
-2.09948000 9.69875000 -2.49098000
-1.49073000 6.66857000 1.91286000
-2.42164000 -8.01414000 -3.03653000
-2.53407000 -7.99962000 -2.94447000
-2.42164000 -8.01414000 -3.03653000
3.40705000 4.23730000 2.84530000
3.48408000 4.20051000 2.81490000
3.40917000 4.27685000 2.75451000
-1.70862000 2.72253000 -4.62725000
-1.52233000 2.82978000 -4.62205000
-2.73453000 -5.23756000 4.20092000
-1.66150000 3.33277000 -5.26527000
-1.58555000 3.41379000 -5.16100000
-1.56663000 3.39919000 -5.22972000
-1.45565000 3.34286000 -5.42750000
-1.53426000 3.32098000 -5.37622000
-1.43774000 3.37852000 -5.34494000
0.66838300 1.01789000 6.61317000
0.62438600 1.08009000 6.59923000
0.51350500 1.15526000 6.57933000
0.59109400 1.20240000 6.56070000
0.51170100 1.21618000 6.58126000
3.93965000 -0.90837200 -5.45239000
-3.47088000 -6.83557000 0.36597600
-3.86302000 -6.06557000 0.31677100
-1.16532000 -6.86678000 -4.38433000
-1.21277000 -6.64877000 -4.48611000
2.65684000 5.20874000 -0.24564400
-5.66705000 2.10919000 -2.42867000
-5.51576000 2.23533000 -2.65392000
-0.67853800 4.13289000 -4.62930000
-0.62265200 4.09538000 -4.64596000
-0.70015000 4.04312000 -4.69992000
-3.05792000 -7.67958000 -1.06302000
-1.35667000 1.31528000 6.47499000
-1.38318000 1.33810000 6.35268000
-1.38137000 1.32843000 6.37913000
-1.41718000 1.30439000 6.35269000
-1.50487000 1.31646000 6.30063000
0.47577300 6.07497000 2.31711000
1.83217000 4.42436000 -2.51172000
1.66790000 4.54768000 -2.36179000
2.72570000 5.29454000 0.76715600
2.29022000 4.91508000 0.30035700
2.10201000 5.05395000 0.19436800
2.24702000 4.95049000 0.14070500
2.71993000 4.64578000 0.22276500
4.77403000 3.92634000 1.26235000
-0.64511200 4.32570000 -4.49607000
-0.67291000 4.36353000 -4.45898000
-0.61003100 4.38203000 -4.45266000
6.42163000 0.38265000 -1.95836000
6.46649000 0.34291400 -1.98429000
-4.79377000 -0.76651600 -4.75194000
1.45838000 1.66481000 6.23814000
1.48046000 1.51786000 6.26620000
0.14817300 9.42341000 -2.24079000
5.92206000 -3.39022000 1.20164000
0.39572700 1.02801000 -6.52431000
-1.50487000 1.31646000 6.30063000
5.96911000 -3.47251000 1.18096000
5.94057000 -3.42241000 1.18713000
5.95223000 -3.45848000 1.22079000
0.18421000 -0.39683200 -5.88910000
0.18525200 -0.60700700 -5.88136000
0.39709300 -0.49835400 -5.87501000
1.39553000 -7.79942000 -3.31654000
-1.24033000 -5.66194000 4.49895000
-0.92854800 -5.59630000 4.59975000
-1.07286000 -5.49090000 4.62376000
5.88221000 -3.47551000 1.26979000
5.94902000 -3.50647000 1.24433000
5.99953000 -1.17245000 2.66260000
5.98430000 -1.24587000 2.62564000
-0.66992500 4.25895000 -4.57614000
-0.68352100 4.29995000 -4.55504000
-0.80134100 5.00324000 2.60905000
-0.65458100 5.00858000 2.67836000
-0.66262200 4.98326000 2.72370000
-0.52136400 4.96810000 2.83299000
2.11488000 5.76885000 1.20348000
5.48782000 -2.09546000 -0.97900100
4.45845000 1.93684000 -4.36307000
1.31519000 1.23269000 6.46479000
1.40823000 1.25492000 6.43098000
-4.77079000 3.83853000 -1.49205000
-4.73501000 3.87526000 -1.48521000
-4.70547000 3.98841000 -1.61738000
-4.73817000 3.84929000 -1.54072000
1.90513000 9.92813000 -2.46542000
2.48153000 -1.00572000 -6.05806000
-2.64352000 -8.10222000 -2.77132000
-2.64994000 -7.97967000 -2.84149000
-6.14368000 1.49065000 2.20134000
4.76409000 -1.76793000 4.47395000
4.77485000 -1.64440000 4.52919000
6.58136000 1.23046000 -1.05693000
6.59418000 1.23673000 -0.98777700
6.51166000 1.29523000 -1.05320000
6.56019000 1.24193000 -1.10829000
2.37331000 -0.79435400 -6.10638000
2.43086000 -0.80426000 -6.11276000
-0.90231100 5.00948000 2.60631000
-2.60918000 -9.67677000 0.12266700
-2.68514000 -9.69382000 0.22733800
-2.66031000 -9.69951000 0.28769400
-1.09410000 7.51783000 2.18997000
-1.18752000 7.33539000 2.14760000
-3.92313000 1.75911000 -5.51914000
-3.31306000 -6.25644000 -2.22347000
-6.06123000 1.74122000 1.89559000
1.31321000 -8.67999000 -1.48024000
6.53142000 1.34449000 -0.76663100
6.44078000 1.50099000 -0.64015600
6.47653000 1.39314000 -0.68701000
4.55055000 -0.26639700 4.93400000
4.53045000 -0.29970400 4.97841000
4.51482000 -0.19959700 4.95296000
4.53419000 -0.23340900 4.92263000
2.53334000 -0.68348700 -6.13708000
2.56662000 -0.75317500 -6.14073000
2.41802000 -0.75270700 -6.12434000
2.46183000 -0.69656400 -6.14448000
-5.59701000 -1.54463000 -4.03611000
2.33744000 1.22235000 5.97042000
2.41737000 1.11943000 5.97436000
2.28517000 0.86723000 6.10017000
-6.29081000 1.09557000 2.15385000
-6.26016000 1.14061000 2.19995000
-6.31716000 1.14462000 2.05127000
-6.27848000 1.15323000 2.10596000
1.57883000 -7.46263000 -3.38217000
1.71953000 9.41108000 2.13591000
1.22075000 5.13884000 -2.62041000
0.91471600 5.17735000 -2.58899000
-6.07000000 0.12559100 2.71187000
-6.10033000 -0.07398160 2.68392000
-6.00906000 -0.02327980 2.87555000
-2.21522000 -9.67669000 0.90385000
-2.28510000 -4.32648000 4.01591000
-2.47448000 -4.32246000 3.90741000
-0.81658600 -1.73392000 -6.57514000
-6.01925000 -1.48711000 -2.76525000
-2.80108000 4.63967000 -2.70593000
-2.65259000 4.68464000 -2.64959000
-2.64037000 4.61941000 -2.80459000
-2.43611000 4.61016000 -3.00767000
4.72176000 1.54383000 4.21966000
4.81907000 1.56978000 4.08542000
5.03764000 1.45844000 3.87312000
-6.12395000 -0.45648300 2.60928000
-6.03078000 -0.52901600 2.82043000
-6.65071000 -0.15818500 -0.77571400
-6.62559000 0.00250229 -0.90495300
-6.59776000 -0.03677220 -1.09449000
-6.66725000 -0.24251900 -0.62390900
-4.71202000 1.16957000 4.43283000
-4.76858000 1.12313000 4.40067000
-2.19327000 3.52459000 4.68743000
-3.83926000 2.27420000 4.59714000
-3.59848000 2.22614000 4.81803000
-1.38090000 8.11155000 2.09253000
-1.35092000 8.24619000 2.17538000
-1.23341000 8.16350000 2.20687000
0.09081750 4.79633000 3.32698000
-4.77578000 3.74043000 -1.74855000
-4.70697000 3.81159000 -1.82989000
-4.70869000 3.81660000 -1.71283000
1.25543000 4.50223000 3.86473000
1.34446000 4.51419000 3.82975000
1.36110000 4.53805000 3.76592000
-1.23130000 -0.90720000 5.67773000
-3.66523000 4.02802000 0.20036300
2.49610000 -7.36060000 -2.77170000
2.61500000 -6.82458000 -2.94975000
-2.95583000 -9.55196000 0.25700400
-1.62808000 -5.80189000 4.31357000
-1.55272000 -6.00809000 4.20800000
-4.74454000 3.79185000 -1.59103000
-1.71054000 3.02863000 -5.53772000
-1.65146000 3.11297000 -5.51892000
-1.63153000 3.06218000 -5.56891000
2.59460000 4.43936000 -4.15411000
6.48950000 -1.78456000 0.26630000
6.53683000 -1.85672000 0.22748700
6.47742000 -1.52390000 0.25829200
-6.53633000 -1.02455000 1.53779000
-6.52831000 -1.07478000 1.52826000
-3.31855000 -0.37950700 -5.76867000
-3.66523000 -0.43111400 -5.56717000
-2.04498000 5.14646000 -0.07979700
-2.04839000 5.15992000 0.14975800
-1.98107000 5.22451000 0.13440100
-1.98850000 5.21799000 0.25747200
-1.99925000 8.76140000 -0.70638800
-2.22890000 4.55189000 2.92510000
-2.04304000 4.55213000 3.05955000
-1.99358000 4.65559000 2.83565000
-2.34102000 4.58887000 2.73695000
-2.57460000 4.57671000 2.54918000
2.00183000 2.72575000 -4.54045000
-6.53146000 -1.22862000 1.35488000
-4.11024000 4.63612000 1.16448000
-4.17718000 4.63663000 1.14956000
-2.32808000 3.54909000 4.63487000
-2.36077000 3.63953000 4.54724000
-2.43401000 3.67342000 4.53415000
-2.39076000 3.59831000 4.59047000
-2.83087000 4.57095000 2.26001000
-2.65440000 4.59842000 2.38988000
5.83861000 -2.95988000 1.60460000
5.98223000 -2.75269000 1.33324000
5.86208000 -3.07068000 1.42782000
-1.20328000 -8.71275000 0.83005100
6.34023000 -0.26137400 -1.88875000
6.30193000 -0.18389100 -2.02299000
6.34352000 -0.11621700 -1.85893000
5.14660000 3.39318000 1.70326000
5.14562000 3.40665000 1.63355000
5.12695000 3.49150000 1.67056000
5.21355000 3.25565000 1.83519000
5.14669000 3.33961000 1.82549000
3.17247000 4.98280000 -0.58856100
3.08521000 4.99443000 -0.68219400
3.08177000 4.98202000 -0.80425400
-0.30742400 4.94600000 -2.15908000
-0.49230200 4.91617000 -2.17985000
-0.49230200 4.91617000 -2.17985000
1.64769000 -0.23287400 5.59953000
-4.96020000 0.21480900 -4.59852000
-4.91956000 0.17117600 -4.62838000
-5.49396000 0.79887500 1.56095000
-5.49323000 0.66166200 1.68325000
-5.49396000 0.79887500 1.56095000
-4.92439000 -0.42198900 4.45884000
-4.87553000 -0.60222100 4.47530000
-4.79248000 -0.63181700 4.59794000
4.67858000 -2.04821000 4.41683000
5.50839000 1.11537000 -3.80522000
5.53163000 1.33138000 -3.83985000
5.54979000 1.23483000 -3.82260000
3.67707000 3.04874000 -3.02166000
3.53828000 3.16312000 -3.04779000
3.40524000 3.18520000 -3.16999000
4.74914000 -2.02130000 4.29869000
-5.01301000 -0.47738500 4.36555000
-5.08488000 -0.40478800 4.29966000
-4.97743000 -0.41990200 4.41309000
-5.00757000 -0.57414300 4.34946000
-3.76232000 -0.46143900 5.94453000
-3.67349000 -0.57009800 5.79304000
-3.78553000 -0.39848700 5.98112000
-3.82451000 -0.34492800 5.98999000
-2.02781000 4.81891000 2.36397000
-3.21009000 1.55390000 -4.47934000
-3.32325000 1.72145000 -4.30722000
-3.11814000 1.75435000 -4.44351000
-3.22748000 1.97565000 -4.23640000
-3.93533000 1.90835000 -4.92354000
-4.18618000 1.79444000 -4.70175000
-4.08159000 1.79564000 -4.79472000
-1.11911000 5.73541000 1.50119000
-1.15272000 5.60516000 1.52729000
-3.56205000 -8.07934000 0.42198000
-3.67418000 -7.77828000 0.62031100
-3.80454000 -7.53070000 0.60778100
4.46499000 4.21245000 -0.37373500
4.45178000 4.25375000 -0.41355000
2.92447000 1.31988000 -5.74199000
3.01065000 1.26782000 -5.74982000
-5.70799000 -1.76997000 0.19423400
5.37172000 -1.43684000 4.20451000
1.84873000 6.17139000 0.98978200
1.72674000 6.25922000 1.18062000
1.75581000 6.31831000 1.09470000
-5.76198000 0.70336000 -3.48739000
-5.77897000 0.68732600 -3.41885000
-5.68726000 0.67558000 -3.56768000
-5.70230000 0.72233700 -3.53735000
3.86003000 4.72846000 -0.57507200
1.25952000 4.50614000 4.21981000
1.30407000 4.44814000 4.19808000
2.84186000 1.11434000 -5.94583000
2.88546000 1.15553000 -5.88814000
2.89231000 1.04699000 -5.90111000
2.81405000 1.19895000 -5.89212000
-2.53498000 9.92625000 -2.21769000
-2.60920000 9.88047000 -2.17441000
3.91267000 -2.47052000 4.86531000
4.06572000 -2.38049000 4.78506000
4.23603000 -2.18258000 4.72550000
4.18067000 -2.35033000 4.70658000
4.39408000 -2.31436000 4.53268000
3.75785000 -5.51555000 -3.37582000
3.55795000 -5.63264000 -3.52531000
3.38347000 -5.84538000 -3.55568000
-0.85516500 -7.32546000 3.68699000
-4.94850000 -1.64041000 -4.34975000
-4.84177000 -1.58609000 -4.48213000
3.41843000 -6.34967000 -3.13508000
1.22196000 5.09931000 2.64497000
1.23662000 5.06916000 2.60729000
0.97788400 5.09395000 2.67633000
3.50402000 3.20708000 -4.41468000
3.54260000 0.92169100 5.47660000
3.61276000 0.71962500 5.46815000
3.61533000 0.77849000 5.48560000
3.55116000 0.82510100 5.48023000
0.98966300 5.07697000 2.66527000
1.15625000 5.07263000 2.65414000
1.11139000 5.09661000 2.65514000
1.15625000 5.07263000 2.65414000
-3.10958000 4.78093000 0.79835300
-3.05903000 4.78167000 0.88420200
4.99737000 1.83161000 -4.02832000
-1.71691000 3.72771000 4.77772000
-1.74212000 3.60019000 4.87408000
-4.38210000 4.08449000 0.77335700
-3.84310000 1.90283000 -5.08696000
4.52096000 0.88246800 3.49704000
-3.09921000 -8.82892000 -1.64060000
2.99296000 -7.75880000 -1.76431000
1.29792000 1.39727000 -6.63550000
1.21934000 1.34032000 -6.54160000
1.30820000 1.45925000 -6.63678000
3.53542000 3.39525000 -4.18969000
3.59401000 3.38368000 -4.15826000
3.60314000 3.29216000 -4.26176000
3.54927000 3.30001000 -4.25526000
1.65833000 8.13444000 -0.32853800
1.58917000 8.12783000 -0.44973600
1.23345000 5.75697000 1.19261000
1.14725000 5.87689000 1.24684000
1.33769000 5.55019000 1.20764000
5.92206000 -2.77493000 -1.48376000
5.88185000 -2.85643000 -1.48120000
5.90991000 -2.68371000 -1.58982000
5.78557000 -3.00590000 -1.59425000
-1.74095000 -7.60354000 2.29297000
1.03626000 2.41736000 -5.91827000
1.37142000 2.46794000 -5.83564000
-6.16411000 -0.21762400 -2.87977000
-6.13995000 -0.15402500 -2.99083000
-6.19244000 -0.26184800 -2.89857000
-6.14511000 -0.18841900 -3.01745000
4.06237000 3.73834000 0.34292700
4.13369000 3.65792000 0.54967200
-0.15652700 2.90753000 -4.82452000
-1.74531000 3.71907000 4.72863000
6.11366000 -2.79984000 -0.31489400
6.06257000 -2.91513000 -0.54168000
6.03075000 -2.95907000 -0.58284900
5.65002000 -1.12239000 3.74659000
5.69061000 -1.04658000 3.75384000
-0.42273300 0.16244900 6.62442000
-0.18461100 0.10494800 6.63838000
-0.42551100 -0.11889800 6.63822000
-1.44991000 -6.77519000 2.98515000
6.59965000 0.41086800 -1.14431000
6.61241000 0.41792200 -1.04450000
6.63682000 0.34381900 -1.07630000
6.59946000 0.40124500 -1.10014000
1.67666000 9.57625000 3.82586000
1.16330000 9.55272000 4.06053000
1.46402000 9.56782000 3.93501000
4.97197000 1.80875000 -4.06252000
4.91566000 1.83437000 -4.00963000
-0.46273300 4.75669000 -4.03136000
5.87084000 -3.37822000 0.73242200
5.89060000 -3.32361000 0.72955500
5.93423000 -3.31591000 0.76299300
5.94862000 -3.28523000 0.85840500
0.52790800 -9.59657000 -1.64816000
-0.69865900 4.85127000 -3.78343000
2.92312000 1.23614000 -5.86093000
-6.21745000 -0.74411000 -2.53039000
-6.20589000 -0.78166000 -2.48198000
-6.21496000 -0.70551900 -2.44717000
-6.22333000 -0.87628600 -2.33466000
-6.26056000 -0.76419600 -2.26385000
-6.21714000 -0.71143200 -2.37315000
-0.49395100 3.23268000 -5.70304000
-0.52551200 3.28485000 -5.62135000
-0.60518500 3.25199000 -5.70862000
3.08738000 0.28808300 5.82548000
-4.57611000 -0.58546700 4.91623000
6.60979000 0.32170000 -1.11337000
6.59627000 0.32669200 -1.17390000
6.59567000 0.21430700 -1.17027000
6.59408000 0.25891500 -1.20901000
-5.62859000 -1.07726000 -1.59813000
2.13587000 9.40059000 -1.25359000
1.98631000 9.38719000 -1.24271000
1.57832000 9.40516000 -1.60836000
2.20031000 9.37219000 -0.97609800
2.41412000 9.39156000 -0.93404500
1.23369000 4.56423000 3.75884000
1.19099000 4.53910000 3.85256000
-2.11523000 5.00625000 -0.56079000
-2.45321000 9.58892000 1.77678000
-2.34031000 9.55529000 1.88095000
-2.46622000 9.57419000 1.64068000
-2.67690000 9.62714000 1.05407000
-2.63612000 9.62040000 1.28330000
-2.57216000 9.58352000 1.28405000
-1.05779000 1.16217000 6.36517000
1.01719000 8.90012000 2.77799000
-5.33788000 0.40834500 -4.07923000
-5.44573000 2.17641000 2.75819000
-5.52915000 2.11889000 2.75964000
-5.61665000 1.99007000 2.78415000
-5.65318000 2.01600000 2.70599000
-2.14128000 -0.81440500 5.41658000
-1.88916000 -0.94639500 5.49311000
3.72101000 0.08403640 -4.53256000
1.03230000 -1.27688000 6.44326000
-5.28157000 -1.12606000 2.44381000
1.76377000 1.35768000 -6.22598000
1.74565000 1.54589000 -6.20651000
0.51103300 -1.41138000 6.46705000
-6.44433000 -1.65850000 -1.47296000
-6.43348000 -1.52538000 -1.62825000
-6.45317000 -1.79336000 -1.29352000
-0.85352200 -0.30830700 5.77688000
-1.11360000 -0.33562000 5.73381000
0.15591400 -3.90896000 4.81801000
0.11280100 -4.18057000 4.68537000
-5.54860000 2.20850000 2.71155000
-5.63192000 2.08097000 2.72873000
-5.59495000 2.02183000 2.78006000
-1.60608000 3.10285000 -5.60315000
-1.56530000 3.10368000 -5.63731000
2.65369000 1.00071000 -6.02217000
2.63472000 1.07400000 -5.96604000
-2.22129000 9.54934000 2.07482000
1.23134000 8.90128000 2.65270000
6.62915000 0.50918300 -0.97561500
6.63008000 0.44431200 -0.94509600
6.65358000 0.45811700 -0.97563300
6.64902000 0.46401400 -1.03371000
-2.40492000 -7.87586000 1.43545000
0.59128500 4.07466000 -4.65525000
3.75469000 -3.62770000 -3.50207000
3.89187000 -3.24549000 -3.55117000
3.33606000 -5.08595000 -3.14470000
-1.61556000 3.15116000 -5.56472000
-1.60838000 3.15947000 -5.50933000
-1.57516000 3.21668000 -5.50257000
-5.47170000 0.07878880 3.83606000
-5.50400000 0.23366400 3.74791000
-3.59056000 4.83932000 -2.12621000
-5.50577000 -0.08580070 -4.11043000
3.29344000 3.09494000 -4.73537000
3.31452000 3.04119000 -4.75429000
4.25829000 -0.68839200 -5.42864000
2.69262000 0.85139000 -6.01848000
2.60316000 0.87801700 -6.03568000
-0.97862400 4.58668000 -4.30470000
1.23127000 1.83829000 6.19635000
1.34175000 1.87130000 6.18253000
2.50394000 0.90989600 -6.03694000
2.39543000 0.85461200 -6.07795000
2.53188000 1.05412000 -5.99762000
2.55713000 0.95225600 -6.02432000
2.58986000 1.02843000 -5.99945000
0.75903000 -7.18976000 -4.28663000
-6.09888000 -1.88783000 2.55568000
-6.13596000 -1.92790000 2.49843000
0.34450900 4.70215000 2.69829000
-0.64070600 4.89614000 -3.47446000
-0.67206300 4.92720000 -3.44035000
-0.72705600 7.94182000 -1.31988000
-0.78739000 8.01560000 -1.32128000
5.75009000 -0.71446900 4.06175000
5.77295000 -0.77093700 4.03944000
5.74786000 -0.76364600 3.92934000
-0.51897400 4.98011000 -3.44395000
-0.49841500 5.00457000 -3.38163000
6.61557000 0.38193400 -0.99143400
6.65787000 0.43962000 -1.00157000
-5.12310000 -1.40214000 4.11776000
-5.29163000 -1.42571000 3.91197000
-5.22596000 -1.20962000 4.02361000
-5.14196000 -1.15226000 4.12510000
-5.18519000 -0.98168900 4.09486000
4.90548000 3.84196000 -1.14353000
4.87278000 3.75926000 -1.20711000
4.42467000 -3.54615000 -2.62333000
3.88709000 -5.16848000 -2.30235000
4.32756000 -3.96578000 -2.47562000
-5.51633000 -1.15549000 -4.25778000
-5.61280000 -1.19950000 -4.24124000
5.47730000 -1.31144000 -3.49636000
5.39768000 -1.46286000 -3.57623000
5.32561000 -1.27556000 -3.73975000
5.53843000 -0.89875800 -3.50510000
5.41277000 -0.83372800 -3.71689000
4.46783000 3.13682000 -1.44268000
4.36688000 3.07874000 -1.84447000
3.10179000 9.74676000 0.16616300
3.04236000 9.76904000 -0.17888400
-5.16150000 -0.31268000 -2.85158000
-2.74164000 -9.54641000 -1.62487000
-2.76715000 -9.34591000 -1.82238000
-4.72219000 1.95728000 2.40828000
-3.09766000 -7.42935000 -2.75025000
-3.29585000 -7.17391000 -2.72088000
2.58265000 -0.47302500 -6.13234000
2.55924000 -0.49855200 -6.14397000
4.82921000 3.74804000 -1.32257000
4.92078000 3.70294000 -1.17954000
-0.91672900 -8.50650000 -2.91287000
-1.78483000 2.88661000 5.34975000
-1.71429000 2.97408000 5.34150000
-3.68561000 3.54448000 3.51619000
-3.60042000 3.63940000 3.48886000
-0.49695100 5.40091000 -2.42562000
4.42602000 4.27121000 1.96169000
4.37068000 4.27747000 1.90087000
4.50508000 4.14848000 1.85904000
2.91292000 -7.61178000 -2.79005000
-3.98167000 4.63335000 -1.54300000
-3.79261000 4.76812000 -1.64652000
-5.68841000 1.41844000 3.04235000
-5.67502000 1.48955000 3.06440000
-5.61291000 1.41250000 3.10072000
-0.95912200 4.94081000 -3.90802000
-0.99498100 4.93211000 -3.96444000
-5.79456000 -1.36956000 -0.24410100
5.15195000 0.95806000 -3.96257000
5.15429000 1.02210000 -3.97462000
-3.40066000 -1.45652000 5.74828000
-3.27364000 -1.48893000 5.75727000
-3.34092000 -1.53598000 5.71450000
3.12282000 -8.60191000 1.52784000
-6.25739000 -0.61716200 -2.54319000
-6.20072000 -0.63614700 -2.64792000
-6.22121000 -0.59244800 -2.57838000
-3.00655000 0.49729400 6.04952000
-2.95726000 0.45336500 6.07582000
6.73880000 1.59962000 0.84757600
6.82186000 1.45729000 0.83153900
-0.43856300 9.57034000 -3.04809000
-0.43834200 9.61766000 -3.05227000
-4.01156000 -7.04069000 0.72917600
-3.91567000 -7.28286000 0.62141000
-5.82230000 2.12645000 2.33619000
-5.82847000 2.16461000 2.26762000
-2.88489000 0.52091400 6.06565000
-2.80310000 0.50154600 6.08519000
-2.81206000 0.65067200 6.06413000
-3.37519000 -1.49297000 5.75499000
-3.36828000 -1.40864000 5.77276000
5.34836000 1.03161000 -3.72807000
-0.86806500 0.09696390 -6.67276000
-1.06649000 0.10588300 -6.64599000
-1.19327000 0.10692100 -6.62510000
-3.17578000 -1.41621000 5.81066000
-3.34296000 -1.44883000 5.77653000
-3.28629000 -1.41829000 5.77996000
-1.04545000 8.61533000 -0.85332500
-1.01242000 8.90197000 -1.01994000
-3.03604000 4.68680000 -2.46445000
0.90157000 -8.72324000 1.28623000
0.97504100 -8.71402000 1.49747000
6.23889000 1.88796000 -0.53240500
6.24051000 1.82897000 -0.45345600
-6.19935000 -0.28485100 -2.52708000
-6.21787000 -0.35027300 -2.57764000
3.50060000 4.09388000 -3.17448000
-3.05667000 -2.71569000 -5.44645000
-2.73637000 -2.78138000 -5.59242000
-2.35966000 -2.77731000 -5.76306000
0.88245600 -9.67824000 -2.77231000
-2.76929000 0.42933500 6.10367000
-2.83599000 0.45396900 6.12096000
-2.84087000 0.34291400 6.11333000
4.90201000 3.61125000 2.47590000
4.87097000 3.67244000 2.54659000
4.92581000 3.59126000 2.42374000
-3.76461000 -3.74784000 -4.54921000
-4.21084000 4.51539000 1.47920000
-1.38224000 0.70204800 6.73152000
0.16470500 1.67716000 6.36118000
0.22221800 1.65655000 6.36370000
-1.73080000 3.43627000 -5.03781000
-1.62708000 3.62960000 -4.90064000
-1.37509000 3.61598000 -4.98929000
-2.59858000 -3.45410000 -5.42251000
0.63036800 5.10177000 2.99879000
-3.65491000 9.28643000 1.09353000
-3.57218000 9.28971000 1.15859000
1.40602000 7.30158000 -0.61036800
1.40290000 7.66384000 -0.61474400
1.44328000 7.46726000 -0.55042600
1.34414000 4.56386000 3.72629000
0.57243000 5.04684000 2.86989000
0.67140100 5.02211000 2.84509000
0.68569200 5.02276000 2.86829000
0.68569200 5.02276000 2.86829000
-6.57045000 -1.77518000 0.54194400
-6.54799000 -1.71025000 0.45697800
3.54126000 -6.68939000 2.38726000
-3.19997000 4.20235000 1.23834000
2.36052000 -2.69913000 -5.81405000
2.34826000 -2.77380000 -5.81403000
0.09456790 1.80015000 6.33843000
0.06856710 1.72959000 6.33509000
0.13868900 1.74956000 6.33363000
0.12811500 1.80848000 6.34559000
-6.22009000 -0.35947100 -2.61782000
-6.23667000 -0.30094900 -2.64634000
-3.55181000 3.20282000 -2.87368000
-3.56368000 3.29755000 -2.72573000
0.09171030 1.71194000 6.38723000
0.13412200 1.72417000 6.34874000
0.03431540 1.64613000 6.36163000
0.03372930 1.70693000 6.32577000
-3.89396000 -1.39040000 5.47463000
0.33276300 6.65122000 2.26342000
0.44636200 6.60425000 2.25967000
0.49123000 6.48904000 2.25445000
-2.84387000 5.05523000 0.80008700
2.87541000 4.33084000 -1.53409000
2.93922000 4.34850000 -1.33743000
2.96775000 4.23223000 -1.69459000
-3.09395000 3.27743000 4.52457000
-3.26349000 3.19611000 4.47920000
-2.75306000 5.13596000 0.74717500
-2.75203000 5.10107000 0.72174200
-2.79017000 5.07919000 0.77140800
-2.48683000 3.31467000 4.96646000
-2.58781000 3.29111000 4.93476000
-2.57015000 3.38868000 4.88398000
-2.52541000 3.34973000 4.93700000
-2.74893000 5.12987000 0.67621100
-2.77030000 5.19109000 0.72501500
-2.76523000 5.12979000 0.57066600
0.43556600 6.70239000 2.27383000
-2.12249000 4.74401000 1.58084000
-2.30878000 4.58290000 1.71431000
1.22125000 6.25437000 -0.33006300
-4.44404000 -0.50950800 -4.97181000
-4.56005000 -0.64931200 -4.86316000
-2.77038000 0.70342100 6.03722000
1.18157000 6.00233000 1.15135000
2.83495000 -8.00589000 -1.82936000
2.76677000 -8.20833000 -1.73208000
5.95258000 -1.38450000 2.85578000
5.92731000 -1.45695000 2.87273000
5.94442000 -1.33991000 2.96784000
5.96126000 -1.38564000 2.91919000
6.30207000 0.22275300 -2.23326000
6.48605000 0.33354300 -1.83192000
6.56263000 0.26570800 -1.66411000
2.93828000 -8.44758000 1.89935000
5.86889000 0.01038880 3.31241000
5.85712000 -0.05799610 3.31027000
-4.28357000 -0.56481400 -5.10602000
-4.08302000 -0.66804600 -5.26063000
2.10710000 9.66374000 -0.56498400
2.04091000 9.55353000 -0.38101400
0.78844400 -8.41120000 2.26646000
-2.55177000 -8.52282000 -0.56403900
3.44938000 -2.06409000 5.34671000
3.54600000 -2.09215000 5.26786000
3.62444000 -2.20439000 5.18496000
3.59153000 -1.99691000 5.26803000
4.19665000 0.25793700 5.09772000
4.20856000 0.35564100 5.07901000
4.29961000 0.48545700 4.98174000
-0.09075370 0.91877300 5.67802000
2.30569000 9.63177000 -0.04695750
2.25990000 9.64537000 -0.21241600
2.23739000 -1.84855000 -5.99995000
2.40654000 -1.83032000 -5.93856000
3.24018000 2.32571000 4.05163000
3.14300000 2.46799000 4.03432000
-2.24971000 1.24180000 -6.06936000
-1.75596000 2.20246000 -6.16522000
-1.79184000 2.22175000 -6.11538000
3.35609000 4.15909000 3.19293000
3.40327000 4.15043000 3.15112000
-6.06694000 1.58890000 2.24908000
-6.12787000 1.53028000 2.19547000
0.63170200 6.58792000 2.32655000
0.66663000 6.57752000 2.32205000
0.60225400 6.57754000 2.31967000
-2.99929000 3.68573000 -2.80403000
3.76897000 4.29424000 2.51693000
3.74234000 4.35730000 2.41329000
3.70677000 4.25366000 2.62816000
3.82376000 4.31548000 2.48192000
4.01072000 0.88301200 5.54741000
3.94982000 0.88102000 5.59945000
4.00327000 0.92998800 5.60444000
0.52731000 9.52919000 -1.58789000
-4.52491000 3.90631000 -2.59800000
3.79513000 4.37017000 2.39032000
3.81497000 4.39729000 2.32931000
3.75699000 4.39470000 2.32429000
2.08363000 9.56988000 -2.33575000
2.03335000 4.85239000 -2.89552000
1.94917000 4.85323000 -2.97664000
1.50124000 4.81654000 -3.29996000
0.24737500 8.30772000 2.55619000
0.36078900 8.12421000 2.46397000
0.34180600 7.99534000 2.42353000
-4.90702000 -3.80030000 -3.28116000
-5.07152000 -3.87769000 -2.94661000
-5.83460000 -1.26850000 -3.78495000
5.23836000 -1.22841000 4.21997000
5.26453000 -1.18601000 4.18610000
5.30464000 -1.25510000 4.10621000
3.71483000 4.33210000 2.49205000
-1.28363000 -4.15013000 -5.58891000
-0.96294300 -4.07436000 -5.67936000
3.67061000 4.58934000 1.31161000
-4.19745000 2.25350000 4.29279000
-3.97292000 1.96460000 4.67623000
-2.51185000 4.14360000 4.09368000
-2.48474000 4.12814000 4.19803000
1.26898000 6.82322000 -0.98132100
1.22935000 6.87227000 -1.02347000
5.79101000 2.46010000 -1.59149000
-6.11347000 1.74704000 -1.46549000
-6.14082000 1.67302000 -1.46795000
-6.10911000 1.90619000 -1.18072000
0.38487000 -9.66736000 2.56701000
0.47239000 -9.67173000 2.61502000
-3.94643000 -6.61001000 -2.21727000
-3.74477000 3.82645000 -1.19255000
3.18870000 0.49274200 -6.14919000
3.35262000 0.46985700 -6.08829000
3.36546000 0.38153900 -6.02116000
-2.29091000 4.42746000 3.45090000
-2.30201000 4.44675000 3.37120000
1.33916000 7.26616000 1.61866000
3.61925000 4.70221000 -1.15446000
-1.14645000 9.50854000 -2.44967000
-0.01485280 -6.61092000 4.09021000
0.12499000 -6.47865000 4.15738000
0.37048200 -6.47508000 4.15352000
0.91300300 -2.78729000 5.22994000
0.99990900 -2.66361000 5.26194000
0.91300300 -2.78729000 5.22994000
-3.84515000 -6.55988000 -2.47195000
3.40250000 4.96179000 -0.87620700
2.99227000 9.49345000 -1.35025000
2.81581000 9.51340000 -1.60228000
-1.30255000 7.52891000 -1.10385000
-1.37505000 7.48763000 -1.00909000
-4.88064000 0.06803870 3.19860000
-3.89234000 -7.32679000 -1.23444000
-3.83978000 -7.36219000 -1.37139000
-0.94335600 9.25505000 2.62344000
-2.66236000 -2.60080000 4.69951000
0.41061600 6.06587000 -1.05928000
0.41713600 5.94869000 -1.09552000
3.88458000 1.28671000 5.28926000
1.89953000 1.61900000 6.01256000
1.85254000 1.66837000 6.05023000
1.84733000 1.74260000 5.96295000
-0.98608300 5.34577000 1.81400000
3.06833000 5.02638000 0.21488700
5.41645000 0.07540590 -2.21918000
3.06379000 4.26486000 1.34292000
3.07561000 4.17695000 1.61977000
-1.45410000 7.20409000 -1.02182000
-1.48256000 7.06846000 -1.03303000
-1.50698000 7.11717000 -0.98387200
3.79259000 4.68428000 -1.10106000
1.11449000 6.94806000 1.22522000
1.72155000 6.90318000 -0.23300800
1.70061000 7.05578000 -0.15863400
-3.55218000 0.93385600 5.64839000
-3.64540000 0.95287900 5.59224000
-3.43696000 4.82733000 -2.17066000
-3.32695000 4.78640000 -2.19916000
-3.23368000 4.77299000 -2.20482000
0.82319700 2.05351000 6.09980000
0.91935300 2.02380000 6.11598000
0.82480300 1.96484000 6.13165000
-1.92652000 5.18078000 -1.68045000
-0.56036500 -2.71995000 5.31182000
-0.51769800 -2.50167000 5.39635000
1.95190000 3.50382000 -4.93644000
1.83911000 3.54805000 -4.93310000
3.85438000 -0.42710300 -5.48912000
3.89372000 -0.37168200 -5.45155000
-4.17834000 4.41839000 0.93422400
-4.18609000 4.39012000 1.00722000
-4.16076000 4.43666000 0.97563900
1.51845000 5.15689000 2.63236000
1.28999000 5.12691000 2.74350000
1.63166000 5.16910000 2.55257000
-5.85808000 1.16291000 2.98522000
-5.89063000 1.09092000 2.94561000
-5.81145000 1.11376000 3.00433000
-3.13350000 9.51325000 2.74685000
-2.37237000 -1.76534000 -5.21945000
1.27831000 5.14690000 2.78361000
-4.12335000 -0.17130700 5.48644000
-3.46270000 1.11886000 5.54862000
-3.41616000 1.05694000 5.66028000
-3.36207000 1.12992000 5.62347000
-3.43133000 0.98373200 5.67231000
-3.44883000 1.05387000 5.61967000
-0.99039500 9.09509000 2.36592000
-0.91106900 8.87415000 2.15886000
-1.05413000 8.84928000 2.08113000
4.41137000 -3.28870000 3.93709000
4.44918000 -3.49060000 3.78087000
1.05911000 7.24511000 1.28797000
-3.95303000 0.11555200 5.62096000
-3.89113000 0.16950900 5.62134000
-4.01631000 0.06209880 5.57345000
-4.09400000 -4.31132000 2.24696000
-5.90194000 1.12754000 2.92834000
-5.96147000 1.16615000 2.81759000
-2.23055000 -9.21843000 -2.70607000
-2.09008000 -9.19996000 -2.86237000
-2.80844000 -9.61926000 -1.12315000
-4.77309000 1.67203000 4.06310000
-3.42515000 -6.52083000 1.07653000
-3.39555000 -6.70274000 0.89231400
-0.17279500 6.78575000 1.83938000
-0.03955690 6.72207000 1.84449000
-4.11899000 -0.08113320 5.48976000
0.66889600 9.52735000 -1.54000000
0.78838600 9.52591000 -1.48879000
-2.57278000 3.23603000 -4.88130000
-2.67568000 3.08904000 -4.95303000
-2.85734000 3.10139000 -4.84885000
3.08402000 9.63137000 -1.12058000
3.29279000 -3.01175000 -4.22645000
2.71093000 -8.43666000 -2.66614000
-6.35641000 1.37353000 0.71737500
-6.40102000 1.39351000 0.81619400
-6.38137000 1.42480000 0.88889100
-6.43875000 1.37465000 0.86084100
-3.65499000 9.28459000 1.59657000
5.55625000 0.86564500 -1.45929000
-1.33788000 -9.58192000 2.27096000
-4.99990000 -5.37798000 -0.11584000
3.93677000 -0.13114300 -5.79769000
3.86511000 -0.10093300 -5.91469000
-2.47235000 -9.69253000 1.00848000
-2.36858000 -9.68824000 1.09084000
-2.49900000 -9.67159000 1.07293000
6.10437000 -0.93259600 2.84780000
6.08376000 -0.83949200 2.74588000
5.40250000 1.05490000 1.76694000
-4.97230000 -3.22844000 -1.66781000
6.12890000 -0.86693500 2.84461000
6.07157000 -0.84928900 2.90226000
-1.98671000 2.80586000 -5.64871000
-2.03129000 2.76517000 -5.65661000
-3.35842000 -1.00968000 4.74285000
-3.47479000 -1.20902000 4.62617000
-4.23576000 3.53168000 -0.27732300
-4.13922000 3.63354000 -0.01094750
2.01748000 6.03984000 0.21408300
2.01308000 6.12307000 0.25755100
-1.31837000 -8.36181000 1.99948000
5.21034000 0.66106700 2.47572000
5.37532000 0.67195100 2.09635000
6.17784000 0.00578200 2.39670000
4.15723000 -0.25236700 -5.32316000
-2.08304000 3.76218000 3.40159000
-2.13511000 3.84129000 3.25933000
4.70739000 -1.89358000 -3.12251000
4.82991000 -1.85577000 -2.94240000
1.84420000 4.22471000 2.85278000
-2.43991000 -9.66825000 0.66616000
-2.42847000 -9.66459000 0.83397700
-2.23277000 -9.66826000 0.80125300
0.32955900 -4.82183000 4.34683000
-1.96652000 -2.64608000 5.90167000
-2.15949000 -9.68174000 0.52554800
-2.25434000 -9.68077000 0.49863100
-2.29488000 5.80555000 0.70577400
-1.79221000 7.63202000 1.42267000
-1.74198000 7.38761000 1.41077000
-1.87430000 7.67313000 1.28385000
-1.88879000 7.51134000 1.15560000
5.83443000 -1.47944000 3.65329000
-4.02394000 0.96923500 5.30047000
-4.04625000 1.03949000 5.23893000
-4.11997000 0.98969700 5.21899000
0.95948100 -2.05018000 6.43912000
1.00187000 -2.09494000 6.40661000
-2.01712000 1.47705000 -5.17219000
-1.79875000 1.65843000 -5.17603000
-5.35267000 1.26329000 4.28758000
-5.31990000 1.40742000 4.25011000
-5.37806000 1.24734000 4.26234000
-3.45458000 4.73879000 -2.44180000
-3.57861000 0.85724500 5.70122000
-3.78841000 0.88926200 5.54570000
0.04865200 3.72102000 4.04304000
-6.73648000 1.28918000 -1.13295000
-6.76538000 1.03995000 -1.17701000
4.46687000 3.96533000 2.55281000
4.42840000 3.97724000 2.58911000
-1.75755000 -8.56459000 1.39311000
3.87489000 -4.84488000 -3.71884000
-1.94213000 7.68950000 1.12987000
-1.93771000 7.51419000 1.01845000
-2.34148000 -7.18742000 3.04122000
-2.18890000 -7.23303000 3.10880000
-1.95958000 -7.24274000 3.23784000
1.15771000 4.16952000 4.45294000
1.08379000 4.18539000 4.53826000
-3.93485000 -7.05942000 -1.55798000
-3.26312000 -7.07042000 -1.43452000
-3.29196000 -6.92712000 -1.55695000
-3.49107000 -6.59871000 -1.42800000
-3.25890000 -6.85847000 -1.72983000
-1.39545000 8.38733000 -1.10506000
-1.54708000 8.21554000 -0.93898600
-1.49176000 8.10955000 -0.95429700
3.44164000 -4.83238000 -4.12424000
3.32633000 -4.66066000 -4.31457000
-3.63896000 -7.56411000 -1.69655000
-3.67593000 -7.49680000 -1.67150000
-2.74293000 4.05406000 3.71842000
-2.46850000 4.81438000 0.47431800
-2.66396000 4.64797000 0.73590800
-5.79348000 2.49227000 1.54745000
-5.82134000 2.50035000 1.60405000
-5.74343000 2.53752000 1.53912000
1.18076000 4.27338000 4.33715000
1.19791000 4.21412000 4.37648000
-0.35309100 5.62560000 1.90162000
6.55229000 -1.04129000 0.17832500
-1.14518000 9.54025000 -2.91453000
-4.43852000 4.17154000 1.03123000
-4.46905000 4.11518000 1.08123000
-1.26022000 -3.30394000 4.94654000
-4.66089000 -1.28046000 -4.74766000
-4.56670000 -1.23653000 -4.81298000
-4.63829000 -1.34175000 -4.73958000
6.50098000 -1.16868000 0.68507900
3.96645000 0.41511600 -5.45589000
3.95836000 0.45137200 -5.50149000
4.04322000 0.45021800 -5.40038000
0.84173000 4.55808000 4.00796000
-2.95074000 -8.65899000 -2.05020000
-3.05762000 -8.76547000 -1.80509000
-2.98935000 -8.40682000 -2.12762000
-3.68588000 3.96856000 -3.20011000
-3.73135000 3.95030000 -3.14783000
-3.70254000 4.03512000 -3.09559000
-1.97704000 7.57817000 0.92829900
-2.00896000 7.50100000 0.73781200
1.38050000 9.97982000 -2.63304000
3.30479000 -7.01574000 -2.72339000
3.30317000 -7.15030000 -2.61392000
-4.19273000 4.43003000 0.87953500
-4.26174000 4.40493000 0.76621200
-1.33933000 5.88474000 1.21389000
-1.35132000 6.01166000 1.18213000
6.53550000 -0.78702000 0.87198900
1.65400000 9.95653000 -2.59977000
1.42644000 9.97373000 -2.69697000
1.61794000 -1.33390000 -5.56439000
1.54258000 -1.58567000 -5.54024000
-5.95889000 1.12891000 2.87956000
-5.94517000 1.14987000 2.85783000
-5.97158000 1.06644000 2.84171000
-5.95355000 1.07962000 2.90736000
-5.93400000 1.01689000 2.88803000
-5.86893000 1.04137000 2.94649000
-3.03252000 -9.69000000 -0.38444200
-2.99677000 -9.69834000 -0.28173000
1.79194000 4.24819000 3.86084000
-6.20771000 -2.40586000 1.87467000
5.69263000 -3.80855000 1.29172000
5.66272000 -3.82486000 1.21938000
5.60220000 -3.83643000 1.26693000
-0.01212580 -7.31370000 -4.33536000
-0.91274200 1.86942000 -5.31447000
-1.90841000 8.74449000 0.62604100
-2.00555000 8.96084000 0.82956500
-1.96590000 8.87207000 0.66183800
-0.38631900 2.73402000 -5.97615000
-0.48543000 2.73447000 -5.98383000
-0.41402000 2.77781000 -5.94854000
-0.14042600 2.05057000 -5.31229000
-3.79030000 3.94643000 -3.09304000
2.78819000 -8.51694000 -0.35446000
-1.62928000 0.47812900 6.47060000
-1.63686000 0.48730000 6.52255000
5.14118000 0.52655400 4.22145000
5.14887000 0.64267600 4.14770000
5.08099000 0.68073900 4.16613000
5.12073000 0.60372700 4.20115000
-2.33957000 -0.08414870 6.22483000
-2.32820000 -0.20043600 6.23130000
-4.09526000 3.05117000 3.65509000
-4.12326000 3.15689000 3.49551000
-2.74286000 3.83206000 2.78351000
-6.63187000 1.02477000 -0.78122300
-6.65611000 0.88716000 -0.81732100
5.48920000 -4.15440000 0.87120500
5.56432000 -3.95658000 0.95071400
5.49862000 -4.01094000 1.16799000
5.42718000 -4.31223000 0.76864400
5.43191000 -4.36982000 0.48820500
-2.33226000 -9.61269000 -2.28705000
-2.29852000 -9.67730000 -2.18101000
-2.40817000 -9.64379000 -2.08327000
-2.30336000 -9.65084000 -2.28138000
-4.14224000 1.77718000 -5.23155000
-0.58761400 4.50693000 3.79728000
-0.67474800 4.54846000 3.70871000
-0.63356600 4.45736000 3.86167000
-6.71798000 1.04626000 -0.82229800
6.32307000 1.87569000 -0.87648600
6.35311000 1.84705000 -0.84903400
3.88944000 4.51109000 1.65184000
3.80944000 4.54015000 1.72476000
-6.80004000 1.04236000 -0.89863600
0.47722700 6.86247000 2.38917000
0.38734500 6.85600000 2.32650000
-3.44378000 -1.73599000 5.55864000
-3.51087000 -1.74488000 5.52451000
-6.72808000 1.51977000 -1.21567000
-6.67842000 1.54407000 -1.14704000
0.59959100 0.72454800 6.74198000
0.57291900 0.76773900 6.72569000
0.51395700 0.79123800 6.70291000
-6.52553000 0.90330400 -0.65152300
-6.56631000 0.68866200 -0.67468400
-3.92163000 -7.13643000 -1.47328000
-3.99035000 -7.06712000 -1.32092000
2.92306000 -2.08267000 4.71075000
-1.51670000 4.68195000 -3.90942000
-1.55612000 4.63270000 -3.91593000
-1.54448000 4.66465000 -3.85754000
-1.59273000 4.56896000 -3.86449000
-4.19514000 -6.68101000 0.76885700
-4.08507000 -6.86393000 0.83709000
6.33020000 -2.31797000 0.13634200
-5.26785000 1.37772000 3.71094000
6.62504000 -1.93461000 -0.18126100
6.60589000 -1.96501000 -0.24679200
6.60981000 -1.91474000 -0.36522200
-2.11629000 0.25072100 -5.46954000
-2.32783000 0.36959500 -5.36456000
-2.42860000 0.22285300 -5.34121000
-5.11278000 0.50662600 4.23337000
-5.14569000 0.36833500 4.21785000
-2.12357000 7.54682000 -0.02404510
-2.12791000 7.51353000 0.04150650
-2.09908000 7.66576000 -0.00369270
-2.07055000 7.58807000 -0.05893450
-6.40458000 0.83476400 1.89913000
-3.53284000 2.01471000 3.92460000
-3.44146000 2.20991000 3.88582000
-1.67727000 -8.68462000 -0.54867900
-1.73352000 -8.68460000 -0.17961500
-3.66832000 9.83737000 -0.06937790
-3.54717000 9.85122000 -0.46243500
-3.46671000 9.82925000 -0.39484600
-3.46279000 9.79855000 -0.10425800
-4.67010000 4.04387000 -1.59952000
-4.59570000 4.14664000 -1.72186000
0.68137700 0.70683700 6.74760000
0.71486000 0.56987000 6.78326000
-3.78288000 4.66823000 -0.95675400
-3.74385000 4.72016000 -0.97937500
-0.98039200 3.58205000 5.04205000
-3.08604000 4.74732000 1.07751000
-3.01518000 4.77689000 0.97347100
-3.07751000 4.77342000 0.94367400
0.67036600 0.66681600 6.75801000
-0.70011100 6.91679000 2.24424000
-0.71751400 7.04014000 2.20856000
-0.60808800 6.97880000 2.20885000
6.14680000 1.81061000 -1.94480000
6.12706000 1.86936000 -1.91239000
6.15103000 1.84232000 -1.85769000
-3.20758000 9.41691000 -0.88045500
-0.91991200 0.74538000 -6.52361000
-0.90723300 0.54694500 -6.54480000
-1.07181000 0.61402800 -6.51259000
-1.20780000 0.45068900 -6.50012000
-3.32535000 -2.83814000 -4.28642000
-3.01683000 -2.93188000 -4.47284000
-3.17825000 -2.86703000 -4.38569000
-3.49341000 -6.93433000 -0.41718500
-3.62777000 -6.63147000 -0.62593500
-3.47831000 -6.95723000 -0.52790500
1.89888000 5.16993000 1.97350000
1.90467000 5.15164000 1.93963000
-5.29649000 2.36641000 -2.94067000
-5.36183000 2.24091000 -2.96944000
-5.44701000 2.37647000 -2.62962000
-5.15175000 2.28215000 -3.29354000
-5.26413000 2.22127000 -3.16691000
-0.57273400 9.09230000 2.50129000
-0.35921600 9.17118000 2.64930000
-0.17368200 9.13290000 2.62014000
-6.30096000 0.73886900 2.31827000
4.96851000 -3.67270000 -0.94249600
-2.02438000 6.72075000 -0.31337900
-2.23050000 3.02886000 -4.16083000
3.87778000 -0.14323800 -5.40002000
5.72308000 0.16110900 1.14590000
5.67519000 0.13144300 1.37018000
5.64137000 0.29385900 1.45079000
-5.89427000 -0.76609400 -3.48220000
-5.91244000 -0.71582600 -3.50956000
-5.85018000 -0.81228000 -3.41552000
-2.92128000 3.02273000 3.67760000
-2.66998000 3.29222000 3.58429000
-2.66963000 3.10497000 3.78490000
-3.69133000 -0.75624200 5.73872000
-3.67914000 -0.84001400 5.77071000
-1.33323000 6.97055000 1.20382000
-1.24406000 6.97835000 1.33624000
-5.07570000 -1.79841000 4.08992000
-5.07713000 -1.66429000 4.12827000
-2.11087000 7.32499000 0.38688400
-3.65483000 -0.49662000 5.86306000
2.88874000 -6.90826000 2.94293000
2.97970000 -6.59704000 3.05758000
2.97970000 -6.59704000 3.05758000
4.36668000 0.31072800 -5.06303000
4.38159000 0.24811000 -5.03440000
0.46550300 0.40514700 6.80991000
0.40580300 0.34058200 6.78620000
0.37304500 0.43866700 6.80047000
0.28306300 0.44163700 6.78053000
0.41959600 -2.88808000 6.24802000
0.35582400 -3.00633000 6.19942000
0.30819200 -2.96903000 6.20448000
0.26240700 -3.02431000 6.16591000
1.76796000 -2.83696000 5.86809000
1.75469000 -2.84484000 5.91581000
1.81363000 -2.75807000 5.88827000
-1.42429000 7.49492000 1.10402000
-1.42318000 7.64248000 1.14514000
-1.38424000 7.51107000 1.20236000
-1.52589000 7.77656000 0.93041600
-2.42465000 1.24826000 -6.00901000
-2.51382000 1.10115000 -6.01719000
-4.33120000 4.20849000 -0.49594600
-4.44058000 4.11646000 -0.45177900
-4.19644000 4.28713000 -0.36868700
0.23579600 7.18013000 2.27180000
0.26928500 7.30757000 2.28064000
-3.71070000 -0.15546400 -4.58260000
-3.81169000 0.15115800 -4.46725000
6.79756000 1.47713000 0.97362600
6.83359000 1.20217000 0.94332800
-1.69598000 2.61991000 -5.92417000
-1.73038000 2.55971000 -5.95340000
-5.31841000 -4.30958000 -1.98929000
-4.48379000 4.19515000 -0.66098800
5.37346000 2.65685000 2.19328000
5.35236000 2.55111000 2.38434000
-1.67816000 2.79059000 -5.77912000
0.30131400 7.27729000 2.29800000
0.32330300 7.22998000 2.33392000
0.39136900 7.22298000 2.28942000
5.18959000 1.79660000 -4.00037000
0.35381900 7.27326000 2.30313000
0.35946500 7.20726000 2.33576000
0.27655500 7.13544000 2.29200000
5.30300000 1.81263000 -4.01395000
5.26870000 1.80307000 -3.98776000
5.26870000 1.80307000 -3.98776000
-1.03280000 -2.02974000 -6.35755000
-1.17549000 -2.09995000 -6.31682000
-1.20130000 -2.01551000 -6.35157000
-1.52732000 -1.81298000 -6.34498000
3.67680000 1.48948000 5.33391000
1.78055000 3.45450000 -4.02230000
1.96043000 3.49627000 -3.89370000
-0.76990800 4.97124000 -3.46079000
-0.84807100 4.99167000 -3.46546000
6.02344000 1.64924000 -2.17659000
6.07769000 1.61230000 -2.10190000
6.09167000 1.64041000 -2.09225000
6.14901000 1.59998000 -2.05571000
-0.87988400 -7.02518000 -3.76544000
-4.08461000 -0.14265500 5.85076000
-4.09063000 -0.05721570 5.78819000
0.32851700 7.12588000 2.29584000
-4.59851000 0.06706690 4.93541000
-4.58035000 0.00254784 4.98824000
-4.57084000 0.08121220 4.98915000
-4.49628000 0.23851700 5.06109000
-4.54630000 0.18544900 4.99205000
1.53821000 3.73706000 -3.79524000
1.31350000 3.97944000 -3.55468000
1.49149000 3.87145000 -3.63757000
-1.23724000 -1.97542000 -6.37320000
-1.31602000 -2.01242000 -6.33131000
-2.09894000 -7.62128000 1.99445000
0.48023100 7.23845000 -0.84819900
0.56163400 7.12612000 -0.84627900
-2.89165000 3.16494000 -3.58916000
-3.09027000 3.15105000 -3.43106000
-1.42017000 2.76754000 -5.85563000
-1.33782000 2.77816000 -5.87651000
5.68759000 -0.09114540 3.99131000
5.68512000 0.06948720 4.03985000
5.66194000 0.12893500 4.11906000
-1.39522000 1.19172000 -6.32259000
-1.66731000 1.51067000 -6.17533000
-4.36669000 3.74684000 1.96279000
-4.47607000 3.70929000 1.90794000
-3.32043000 -2.88671000 4.12963000
-2.48526000 -1.68996000 -6.07764000
-2.28140000 -1.73757000 -6.14719000
-6.45866000 0.54870400 1.36367000
-6.52047000 0.21687000 1.25132000
-6.42431000 0.40839600 1.58068000
-6.42542000 0.48309100 1.60283000
6.48579000 0.82579600 -1.63783000
6.46246000 0.94055900 -1.59962000
6.47232000 0.98183100 -1.50852000
-5.35701000 -0.97742800 -4.58803000
-5.41998000 -0.93806900 -4.52728000
-4.75977000 2.02019000 -4.00118000
-4.68502000 1.84816000 -4.19745000
-4.65813000 1.83308000 -4.22730000
-0.05561530 -7.65868000 3.55277000
-3.61022000 -5.34641000 3.39946000
-0.75242200 0.00349835 -6.69108000
-0.60960000 -0.17138900 -6.70244000
1.45546000 -3.03041000 5.92638000
1.47842000 -3.13946000 5.78952000
1.35659000 -3.05513000 5.94784000
1.50134000 -2.96400000 5.95241000
3.20327000 3.40048000 -4.61284000
3.35311000 3.21073000 -4.55694000
3.24150000 3.26293000 -4.60978000
3.31982000 3.30574000 -4.52645000
-5.60937000 1.05924000 -0.69840400
0.02124520 -8.45512000 3.13241000
0.39008100 2.63133000 4.98155000
4.68707000 -4.98270000 2.13768000
-1.50698000 3.15688000 -5.53273000
-1.56536000 3.15449000 -5.58394000
-1.56525000 3.17782000 -5.53678000
0.96533300 8.57851000 -0.67099700
0.82884500 8.48536000 -0.73257700
1.79969000 4.82431000 -3.17077000
1.56644000 4.80323000 -3.32373000
-0.13604700 -5.64941000 -5.01953000
-0.44770700 -6.26196000 -4.76118000
3.85982000 0.91269300 -5.64257000
-3.17210000 -8.79282000 0.79813400
-3.03286000 -9.02065000 0.88200400
-2.92136000 3.80134000 3.95886000
-5.99161000 -1.41064000 2.68919000
-5.99823000 -1.45802000 2.69127000
6.61687000 -1.52693000 -0.70762100
6.61751000 -1.39583000 -0.75475400
6.62926000 -1.41728000 -0.62382100
-5.83853000 -0.80429600 -3.97613000
-5.85771000 -0.71589300 -4.07206000
1.13803000 1.76663000 6.25759000
1.11726000 1.63314000 6.29680000
6.61117000 -1.22401000 -0.95366200
6.62724000 -1.09158000 -0.86671100
6.64867000 -1.20393000 -0.88520800
6.64105000 -1.28787000 -0.73551600
6.62717000 -1.19891000 -0.68476600
4.41737000 3.04577000 1.75676000
4.61981000 2.89759000 1.53009000
-4.44498000 -0.41855400 5.04267000
1.68141000 4.80044000 -3.43323000
-2.31427000 -6.28953000 -3.35954000
-2.86076000 -5.06554000 -3.54495000
4.93306000 -0.03891310 -3.16570000
4.94051000 0.17280700 -3.13560000
-3.74186000 -2.55569000 3.93530000
1.34615000 4.37549000 4.14997000
-1.48879000 4.00792000 -3.42219000
3.07494000 0.02274540 -6.23042000
3.00475000 -0.15880100 -6.27346000
-5.40626000 -2.01948000 -1.67081000
-5.37136000 -2.26126000 -1.53436000
4.78976000 -0.11618700 -3.38392000
4.80483000 -0.31802500 -3.35953000
0.91246600 4.63017000 4.18418000
6.64337000 -1.11740000 -0.80077600
6.64234000 -1.03748000 -0.78382200
6.63503000 -1.14844000 -0.72792800
6.64759000 -1.06832000 -0.68995000
-1.89362000 9.13793000 -1.18119000
-1.99520000 9.04966000 -0.97936600
-2.45094000 4.30899000 3.59919000
-3.67958000 3.49639000 -2.21594000
-3.64482000 3.43251000 -2.39013000
-3.49082000 3.57206000 -2.37312000
-3.49606000 3.44792000 -2.58499000
-0.94636500 8.69634000 2.66452000
2.27889000 4.58628000 -3.92163000
2.46206000 4.63571000 -3.90401000
-5.95836000 1.92152000 2.08924000
-5.94505000 1.90851000 2.16363000
-5.98263000 1.82250000 2.13493000
-1.24738000 -8.08737000 -3.13777000
-4.65935000 4.07285000 -1.07937000
-4.72056000 4.02014000 -1.03890000
-4.65403000 4.04226000 -1.01465000
-1.41520000 9.09485000 2.98356000
-1.35476000 9.11729000 3.08300000
-1.74022000 9.13119000 2.84541000
-1.22784000 9.09096000 3.07525000
-4.14106000 4.45548000 -1.18594000
-4.24314000 4.38840000 -1.31185000
-4.29061000 4.32211000 -1.30020000
