-2.48480000 -4.83376000 -1.64887000
-2.32135000 -4.83529000 -1.92025000
-2.13673000 -4.83815000 -2.16810000
-1.93471000 -4.86385000 -2.04682000
-2.67567000 -4.81185000 -1.71969000
-2.50291000 -4.81377000 -2.00859000
-2.30510000 -4.81594000 -2.27030000
-2.08646000 -4.81340000 -2.50744000
-1.92935000 -4.83574000 -2.39313000
-2.65549000 -4.79256000 -2.08222000
-2.44820000 -4.79387000 -2.35822000
-2.21849000 -4.78914000 -2.60417000
-1.97114000 -4.78446000 -2.82495000
-1.84777000 -4.80882000 -2.71721000
-2.57462000 -4.77537000 -2.43283000
-2.33565000 -4.76997000 -2.69038000
-2.08037000 -4.76461000 -2.92155000
-1.81261000 -4.76243000 -3.12614000
-1.71519000 -4.77971000 -3.02256000
-2.44524000 -4.75672000 -2.77087000
-2.18190000 -4.75271000 -3.01135000
-1.90095000 -4.74900000 -3.22039000
-1.60831000 -4.75558000 -3.39908000
-1.53120000 -4.76398000 -3.30033000
-2.27872000 -4.73872000 -3.09690000
-1.98538000 -4.73834000 -3.30976000
-1.68128000 -4.73773000 -3.49114000
-1.37100000 -4.74324000 -3.64622000
-1.30723000 -4.75650000 -3.55059000
-2.05668000 -4.80327000 -3.38154000
-1.74547000 -4.79100000 -3.56716000
-1.43019000 -4.77811000 -3.73417000
-1.10251000 -4.78995000 -3.85659000
-1.05605000 -4.72512000 -3.77496000
-1.43019000 -4.77811000 -3.73417000
-1.74547000 -4.79100000 -3.56716000
-1.78298000 -4.90057000 -3.59701000
-1.46144000 -4.88667000 -3.76046000
-1.13391000 -4.89749000 -3.89287000
-1.10251000 -4.78995000 -3.85659000
-0.80712100 -4.92010000 -3.99592000
-0.77585100 -4.80780000 -3.94802000
-1.50031000 -5.00275000 -3.80208000
-1.17371000 -5.01177000 -3.94822000
-0.84434400 -5.04767000 -4.05734000
-0.51692200 -5.06706000 -4.13753000
-0.48361400 -4.93345000 -4.07098000
-1.23592000 -5.14644000 -4.03950000
-0.89619500 -5.18293000 -4.15333000
-0.55686800 -5.19674000 -4.23834000
-0.21464400 -5.19856000 -4.28436000
-0.18695100 -5.07503000 -4.17903000
-0.95546700 -5.28873000 -4.27950000
-0.59800600 -5.29388000 -4.36245000
-0.24164300 -5.29320000 -4.40845000
0.11372700 -5.29465000 -4.41773000
0.12788300 -5.19882000 -4.29115000
-0.63768600 -5.34660000 -4.49501000
-0.26738000 -5.34772000 -4.53911000
0.10095200 -5.34268000 -4.55188000
0.46680800 -5.36332000 -4.52242000
0.46552000 -5.30225000 -4.38704000
-0.29244700 -5.34664000 -4.67705000
0.08972240 -5.34457000 -4.68797000
0.47068800 -5.35603000 -4.66743000
0.84920600 -5.36012000 -4.61375000
0.83037700 -5.36718000 -4.46349000
0.08008460 -5.24770000 -4.79343000
0.47203400 -5.25273000 -4.77431000
0.85960700 -5.25529000 -4.72318000
1.23599000 -5.25169000 -4.64579000
1.21277000 -5.34183000 -4.52997000
0.47120800 -5.11694000 -4.86503000
0.86600200 -5.11581000 -4.81152000
1.25027000 -5.11203000 -4.73108000
1.62086000 -5.10838000 -4.62140000
1.59451000 -5.25009000 -4.53581000
0.86257500 -4.93634000 -4.85616000
1.25160000 -4.93171000 -4.77506000
1.62753000 -4.92441000 -4.65776000
1.99016000 -4.92858000 -4.51039000
1.97547000 -5.11770000 -4.47828000
1.24083000 -4.72204000 -4.78479000
1.62311000 -4.71746000 -4.67012000
1.99585000 -4.72171000 -4.52442000
2.35314000 -4.74305000 -4.34530000
2.33851000 -4.95041000 -4.33088000
1.63060000 -4.48572000 -4.70112000
2.01224000 -4.49664000 -4.55803000
2.37758000 -4.51938000 -4.38015000
2.72199000 -4.54921000 -4.17122000
2.69277000 -4.77572000 -4.13884000
2.04990000 -4.27453000 -4.64054000
2.42239000 -4.29530000 -4.45825000
2.77434000 -4.31947000 -4.24284000
3.10790000 -4.33454000 -3.99858000
3.04975000 -4.56967000 -3.93418000
2.51959000 -4.10506000 -4.63964000
2.88703000 -4.12013000 -4.41154000
3.23446000 -4.13093000 -4.15284000
3.56732000 -4.13581000 -3.87024000
3.42379000 -4.33885000 -3.72651000
3.23446000 -4.13093000 -4.15284000
2.88703000 -4.12013000 -4.41154000
3.06464000 -3.90988000 -4.68048000
3.44117000 -3.91721000 -4.40805000
3.79615000 -3.91832000 -4.10230000
3.56732000 -4.13581000 -3.87024000
4.12932000 -3.92142000 -3.76727000
3.88325000 -4.13229000 -3.56180000
3.69229000 -3.67020000 -4.71545000
4.07721000 -3.67211000 -4.38481000
4.43179000 -3.67700000 -4.01661000
4.75684000 -3.68129000 -3.61595000
4.43540000 -3.91931000 -3.40097000
4.37702000 -3.41036000 -4.68309000
4.75913000 -3.41554000 -4.28301000
5.10759000 -3.41750000 -3.84834000
5.41748000 -3.41563000 -3.38381000
5.04508000 -3.67875000 -3.18681000
5.08948000 -3.13301000 -4.54814000
5.46446000 -3.13558000 -4.08225000
5.80055000 -3.13713000 -3.58551000
6.08777000 -3.13536000 -3.05656000
5.68307000 -3.41379000 -2.89096000
5.81580000 -2.83112000 -4.31258000
6.16937000 -2.82525000 -3.78057000
6.47834000 -2.82433000 -3.21801000
6.73181000 -2.81709000 -2.62736000
6.32475000 -3.12963000 -2.50099000
6.52565000 -2.48786000 -3.96844000
6.85041000 -2.48277000 -3.37280000
7.11792000 -2.47269000 -2.74728000
7.32585000 -2.46568000 -2.09885000
6.92937000 -2.81115000 -2.01496000
7.19921000 -2.11105000 -3.51651000
7.47992000 -2.10017000 -2.85716000
7.70036000 -2.09285000 -2.17199000
7.85706000 -2.09378000 -1.46966000
7.47562000 -2.46550000 -1.43196000
7.81333000 -1.69823000 -2.95750000
8.04241000 -1.68959000 -2.23909000
8.20172000 -1.68664000 -1.50089000
8.29162000 -1.69067000 -0.74795000
7.94702000 -2.09875000 -0.75030900
8.32065000 -1.24035000 -2.29368000
8.48834000 -1.23806000 -1.52632000
8.57029000 -1.23589000 -0.74381800
8.58685000 -1.23860000 0.04523890
8.30067000 -1.68848000 0.01531640
8.72495000 -0.76179900 -1.54851000
8.81382000 -0.76091500 -0.74219000
8.82454000 -0.75909200 0.06805660
8.82454000 -0.75909200 0.06805660
8.76076000 -0.75482600 0.87450200
8.52182000 -1.23453000 0.83119800
8.58685000 -1.23860000 0.04523890
9.01246000 -0.26486700 -0.74287100
9.01723000 -0.25810000 0.08488570
9.01723000 -0.25810000 0.08488570
8.94685000 -0.24988600 0.90699700
8.81217000 -0.24455500 1.72024000
8.62989000 -0.75218000 1.67225000
9.14857000 0.26375300 0.09462080
9.07682000 0.27360400 0.92894600
8.94630000 0.27936500 1.75714000
8.73859000 0.28338200 2.57199000
8.61193000 -0.24204500 2.52113000
9.14727000 0.80859300 0.94100000
9.00703000 0.81660700 1.77725000
8.79830000 0.82125000 2.60234000
8.51705000 0.82206600 3.40946000
8.46179000 0.28298900 3.37033000
8.79830000 0.82125000 2.60234000
9.00703000 0.81660700 1.77725000
8.98269000 1.35574000 1.77768000
8.77273000 1.36154000 2.60507000
8.49159000 1.36390000 3.41456000
8.51705000 0.82206600 3.40946000
8.13589000 1.36288000 4.19757000
8.16356000 0.81948000 4.19182000
8.67512000 1.89157000 2.58368000
8.39245000 1.89517000 3.38753000
8.03432000 1.89539000 4.16294000
7.59939000 1.89249000 4.90001000
7.70147000 1.35993000 4.94364000
8.21067000 2.39851000 3.32211000
7.85487000 2.39958000 4.08226000
7.42146000 2.39565000 4.80288000
6.92558000 2.39413000 5.48439000
7.09319000 1.88964000 5.59450000
7.68688000 2.90386000 4.00357000
7.25990000 2.90149000 4.71163000
6.77055000 2.90065000 5.38035000
6.21837000 2.90219000 6.00316000
6.36511000 2.39514000 6.11912000
7.18570000 3.43100000 4.67570000
6.69787000 3.43087000 5.33979000
6.14762000 3.43292000 5.95831000
5.54214000 3.43576000 6.52977000
5.60755000 2.90450000 6.57445000
6.71919000 3.96052000 5.37655000
6.16516000 3.96223000 6.00146000
5.55359000 3.96395000 6.57574000
4.88740000 3.96383000 7.09697000
4.88049000 3.43823000 7.04536000
6.26983000 4.42449000 6.12763000
5.64841000 4.41974000 6.71631000
4.96811000 4.41226000 7.24735000
4.23315000 4.40079000 7.71515000
4.17024000 3.96085000 7.55999000
5.77353000 4.71523000 6.88040000
5.07752000 4.69664000 7.42390000
4.32150000 4.68442000 7.89844000
3.52601000 4.67484000 8.30683000
3.45574000 4.39340000 8.11398000
5.17997000 4.86667000 7.58055000
4.40878000 4.85533000 8.06747000
3.59490000 4.84969000 8.48078000
2.74436000 4.84162000 8.81440000
2.69306000 4.66674000 8.63514000
4.48036000 4.96277000 8.20565000
3.65559000 4.96018000 8.63127000
2.79102000 4.95140000 8.97163000
1.89035000 4.94048000 9.22426000
1.85879000 4.83507000 9.06284000
3.71191000 5.03126000 8.76792000
2.83526000 5.01998000 9.11593000
1.92049000 5.00285000 9.37263000
0.97191900 4.98833000 9.53445000
0.95824400 4.92664000 9.38359000
2.87488000 5.07829000 9.24466000
1.94693000 5.06314000 9.50416000
0.98451500 5.04781000 9.66848000
0.01061940 5.03035000 9.72579000
0.01227860 4.97218000 9.59513000
1.96745000 5.14819000 9.61067000
0.99339300 5.13270000 9.77460000
0.00841672 5.11175000 9.83284000
-0.96798900 5.08717000 9.79243000
-0.95510600 5.00994000 9.68118000
0.99268000 5.26346000 9.80480000
0.00452481 5.23907000 9.87434000
-0.97640300 5.21552000 9.83963000
-1.95428000 5.18565000 9.70972000
-1.94002000 5.05887000 9.64940000
-0.97640300 5.21552000 9.83963000
0.00452481 5.23907000 9.87434000
-0.00067658 5.33199000 9.77610000
-0.97149100 5.31166000 9.74394000
-1.93981000 5.29458000 9.62307000
-1.95428000 5.18565000 9.70972000
-2.89783000 5.27553000 9.40607000
-2.91792000 5.15572000 9.48242000
-0.96319500 5.35488000 9.61884000
-1.91750000 5.34477000 9.49841000
-2.86246000 5.33563000 9.28253000
-3.77077000 5.32938000 8.95753000
-3.81758000 5.26751000 9.07581000
-1.89177000 5.35356000 9.35851000
-2.82020000 5.35008000 9.13882000
-3.71431000 5.34379000 8.81787000
-4.56000000 5.34318000 8.39862000
-4.62922000 5.32909000 8.53191000
-2.77354000 5.32712000 8.98053000
-3.65011000 5.31779000 8.66100000
-4.48205000 5.31069000 8.24903000
-5.27251000 5.30673000 7.74291000
-5.36319000 5.33923000 7.87842000
-3.58257000 5.23701000 8.49676000
-4.39929000 5.22988000 8.09160000
-5.17632000 5.22376000 7.59938000
-5.90350000 5.22104000 7.03043000
-6.01419000 5.30681000 7.16130000
-4.31086000 5.12239000 7.92333000
-5.07325000 5.11422000 7.44575000
-5.78535000 5.11128000 6.88962000
-6.43941000 5.11359000 6.26794000
-6.56979000 5.22063000 6.39601000
-4.95524000 4.96182000 7.26979000
-5.64974000 4.96656000 6.72764000
-6.29084000 4.96921000 6.12140000
-6.87492000 4.98442000 5.45123000
-7.03612000 5.12417000 5.58123000
-5.48496000 4.71587000 6.52930000
-6.11097000 4.72769000 5.94224000
-6.68131000 4.74583000 5.29308000
-7.18634000 4.76745000 4.58634000
-7.39492000 4.99663000 4.72240000
-5.92930000 4.33642000 5.75836000
-6.48429000 4.35837000 5.13010000
-6.96725000 4.39088000 4.44079000
-7.39147000 4.42482000 3.71156000
-7.61881000 4.78995000 3.83065000
-6.35597000 3.86861000 5.01897000
-6.82499000 3.90573000 4.33954000
-7.23081000 3.94722000 3.62052000
-7.55941000 3.99221000 2.86605000
-7.73365000 4.46647000 2.94258000
-6.75867000 3.38554000 4.28115000
-7.15627000 3.42823000 3.56634000
-7.48023000 3.47326000 2.81916000
-7.72652000 3.51878000 2.04566000
-7.81974000 4.03308000 2.08759000
-7.14839000 2.89955000 3.54244000
-7.46759000 2.94532000 2.79405000
-7.70870000 2.99248000 2.02117000
-7.86665000 3.03855000 1.23177000
-7.89285000 3.56433000 1.25475000
-7.56755000 2.42571000 2.81132000
-7.79651000 2.47120000 2.02481000
-7.94720000 2.51693000 1.22646000
-8.01990000 2.56107000 0.42420400
-7.95480000 3.08315000 0.43810700
-8.01952000 1.98934000 2.06502000
-8.15734000 2.03035000 1.24003000
-8.21215000 2.06979000 0.41548600
-8.18660000 2.10957000 -0.40039300
-8.01378000 2.60422000 -0.37373500
-8.21215000 2.06979000 0.41548600
-8.15734000 2.03035000 1.24003000
-8.40112000 1.55579000 1.25515000
-8.45859000 1.59884000 0.40576100
-8.43149000 1.64280000 -0.43397400
-8.18660000 2.10957000 -0.40039300
-8.32279000 1.68541000 -1.25801000
-8.08994000 2.15128000 -1.20284000
-8.62600000 1.09142000 0.38925900
-8.60647000 1.14305000 -0.46723800
-8.50495000 1.19463000 -1.30919000
-8.50495000 1.19463000 -1.30919000
-8.32694000 1.24532000 -2.12888000
-8.14060000 1.72752000 -2.05970000
-8.32279000 1.68541000 -1.25801000
-8.66778000 0.61525400 -0.49790000
-8.57166000 0.67316100 -1.34663000
-8.57166000 0.67316100 -1.34663000
-8.40327000 0.73072200 -2.17442000
-8.15975000 0.78671000 -2.97471000
-8.07734000 1.29461000 -2.91952000
-8.53946000 0.14867200 -1.37844000
-8.38720000 0.20964000 -2.20666000
-8.15192000 0.27062400 -3.00574000
-7.85314000 0.32802100 -3.77507000
-7.85067000 0.83982200 -3.74241000
-8.25127000 -0.29421600 -2.22291000
-8.02920000 -0.23069600 -3.01179000
-7.74425000 -0.17129400 -3.77258000
-7.39078000 -0.11436900 -4.49711000
-7.48329000 0.38243600 -4.50509000
-7.83165000 -0.70615900 -3.00727000
-7.55800000 -0.64436700 -3.75206000
-7.21797000 -0.58496100 -4.46232000
-6.81512000 -0.53033100 -5.13251000
-6.96702000 -0.06169630 -5.17600000
-7.31710000 -1.08775000 -3.71990000
-6.98684000 -1.02311000 -4.40869000
-6.60042000 -0.96675400 -5.06070000
-6.15514000 -0.91938500 -5.66630000
-6.35502000 -0.48725900 -5.76023000
-6.73151000 -1.44218000 -4.35041000
-6.35947000 -1.38281000 -4.97965000
-5.92950000 -1.33030000 -5.56062000
-5.45367000 -1.29154000 -6.09477000
-5.65550000 -0.87928900 -6.22162000
-6.07823000 -1.76161000 -4.87929000
-5.67266000 -1.71002000 -5.43548000
-5.22110000 -1.67283000 -5.94397000
-4.72353000 -1.64231000 -6.39349000
-4.93193000 -1.26213000 -6.57168000
-5.38363000 -2.04880000 -5.29037000
-4.95590000 -2.01003000 -5.76607000
-4.48955000 -1.98502000 -6.18868000
-3.98783000 -1.97140000 -6.55545000
-4.18959000 -1.62290000 -6.78660000
-4.66825000 -2.30286000 -5.57025000
-4.22969000 -2.27789000 -5.95567000
-3.75920000 -2.26594000 -6.28403000
-3.26314000 -2.26104000 -6.55639000
-3.45380000 -1.96380000 -6.86136000
-3.95500000 -2.52092000 -5.70274000
-3.51983000 -2.51317000 -5.98283000
-3.06075000 -2.50822000 -6.21385000
-2.58427000 -2.50844000 -6.41379000
-2.74541000 -2.26133000 -6.78545000
-3.06075000 -2.50822000 -6.21385000
-3.51983000 -2.51317000 -5.98283000
-3.28170000 -2.69969000 -5.64108000
-2.86285000 -2.70419000 -5.83536000
-2.42369000 -2.71283000 -6.01015000
-2.58427000 -2.50844000 -6.41379000
-1.96684000 -2.71778000 -6.15829000
-2.08862000 -2.50769000 -6.57778000
-2.68865000 -2.89150000 -5.43827000
-2.27885000 -2.90555000 -5.59160000
-1.85279000 -2.92211000 -5.72941000
-1.41258000 -2.93499000 -5.84712000
-1.49535000 -2.72284000 -6.27879000
-2.15868000 -3.10046000 -5.16378000
-1.75197000 -3.11971000 -5.29348000
-1.33238000 -3.13787000 -5.40879000
-0.90522400 -3.14915000 -5.50279000
-0.96242000 -2.94730000 -5.94172000
-1.66781000 -3.31110000 -4.85216000
-1.26021000 -3.33262000 -4.96660000
-0.84743000 -3.35210000 -5.06583000
-1.20391000 -3.55966000 -4.54265000
-0.79504500 -3.57928000 -4.64503000
-0.38707800 -3.59158000 -4.72874000
-0.43553600 -3.36810000 -5.14687000
-0.47772100 -3.16232000 -5.57709000
-0.05534960 -3.17380000 -5.62705000
-0.05570380 -2.97278000 -6.04741000
-0.50826400 -2.95924000 -6.00905000
-0.03075520 -3.37716000 -5.20587000
0.35696900 -3.37981000 -5.24542000
0.35488400 -3.19302000 -5.65862000
0.01447910 -3.59346000 -4.79141000
0.40199000 -3.58804000 -4.83571000
0.08031100 -3.80952000 -4.37991000
0.48227500 -3.79577000 -4.42906000
0.88521700 -3.76327000 -4.48203000
0.77080600 -3.57345000 -4.86785000
0.71843800 -3.37821000 -5.26608000
0.74285900 -3.20019000 -5.65767000
1.25581000 -3.01263000 -5.92470000
0.83210300 -3.00807000 -6.02433000
0.39322300 -2.99213000 -6.05680000
0.95136500 -2.78669000 -6.37792000
0.46344000 -2.76727000 -6.44025000
-0.02799060 -2.74969000 -6.45500000
0.55155300 -2.54664000 -6.83095000
0.01721910 -2.53059000 -6.86511000
-0.51867900 -2.51540000 -6.85059000
-0.51981100 -2.73736000 -6.43104000
-1.05130000 -2.50811000 -6.79480000
-1.01061000 -2.72831000 -6.37076000
-1.57627000 -2.50552000 -6.70334000
-1.57627000 -2.50552000 -6.70334000
-1.05130000 -2.50811000 -6.79480000
-1.08405000 -2.27022000 -7.20642000
-1.65168000 -2.26763000 -7.11256000
-2.20720000 -2.26468000 -6.97240000
-2.08862000 -2.50769000 -6.57778000
-1.72217000 -1.97612000 -7.48123000
-2.31828000 -1.96734000 -7.32395000
-2.89681000 -1.96277000 -7.11600000
-2.41794000 -1.62158000 -7.62958000
-3.03298000 -1.61746000 -7.40509000
-3.62452000 -1.61629000 -7.12386000
-3.15057000 -1.23081000 -7.65019000
-3.77167000 -1.23044000 -7.34710000
-4.36341000 -1.23603000 -6.98129000
-3.89693000 -0.81209900 -7.52941000
-4.51578000 -0.82277000 -7.14939000
-5.10727000 -0.84731500 -6.71745000
-4.64906000 -0.38968200 -7.29552000
-5.26248000 -0.41481100 -6.84586000
-5.83621000 -0.44908400 -6.33541000
-5.36547000 0.04876440 -6.91924000
-5.95540000 0.01588170 -6.40002000
-6.48917000 -0.02001150 -5.81406000
-6.00601000 0.50240300 -6.41069000
-6.55436000 0.46870000 -5.82830000
-7.04792000 0.43013800 -5.18983000
-6.53469000 0.96517900 -5.78626000
-7.03193000 0.93128600 -5.15290000
-7.47303000 0.88892100 -4.46968000
-6.93975000 1.41894000 -5.06395000
-7.38430000 1.38423000 -4.39395000
-7.76094000 1.34098000 -3.67571000
-7.20500000 1.84586000 -4.27160000
-7.57686000 1.80910000 -3.57122000
-7.89037000 1.76938000 -2.83250000
-7.38117000 2.27016000 -3.46399000
-7.68045000 2.23114000 -2.74019000
-7.92141000 2.19208000 -1.98529000
-7.92141000 2.19208000 -1.98529000
-7.68045000 2.23114000 -2.74019000
-7.56127000 2.72696000 -2.67875000
-7.78759000 2.68824000 -1.93312000
-7.93538000 2.64694000 -1.16170000
-8.08994000 2.15128000 -1.20284000
-8.08994000 2.15128000 -1.20284000
-7.75937000 3.20423000 -1.90706000
-7.89279000 3.16638000 -1.13695000
-7.93538000 2.64694000 -1.16170000
-7.89279000 3.16638000 -1.13695000
-7.96039000 3.12581000 -0.35337900
-8.08994000 2.15128000 -1.20284000
-7.94204000 3.68754000 -1.12463000
-8.00341000 3.64964000 -0.33644600
-7.98625000 3.60849000 0.45848300
-8.11925000 4.15965000 -0.32120500
-8.09534000 4.12042000 0.48418500
-7.99504000 4.07673000 1.28942000
-8.31125000 4.57013000 0.51378600
-8.20013000 4.53280000 1.33694000
-8.00718000 4.49900000 2.14963000
-8.45413000 4.85630000 1.38695000
-8.25637000 4.83399000 2.22357000
-7.97452000 4.81345000 3.03969000
-8.47877000 5.03033000 2.28799000
-8.19274000 5.01576000 3.12668000
-7.83153000 5.00751000 3.94061000
-8.37690000 5.14805000 3.20012000
-8.00917000 5.14189000 4.03159000
-7.56487000 5.13353000 4.83229000
-8.16788000 5.24539000 4.11275000
-7.71279000 5.23601000 4.92805000
-7.17488000 5.22825000 5.69311000
-7.84884000 5.31207000 5.01505000
-7.30318000 5.30649000 5.79578000
-6.69100000 5.30314000 6.51473000
-7.42397000 5.34120000 5.89192000
-6.80462000 5.34243000 6.62616000
-6.11868000 5.34061000 7.28464000
-6.90764000 5.33300000 6.72717000
-6.21303000 5.33119000 7.39671000
-5.44605000 5.32976000 8.00216000
-6.29454000 5.28055000 7.49471000
-5.51797000 5.27380000 8.10994000
-4.68610000 5.26513000 8.64179000
-5.56442000 5.16147000 8.18088000
-4.72304000 5.15168000 8.71469000
-3.84382000 5.14730000 9.14718000
-3.84382000 5.14730000 9.14718000
-4.72304000 5.15168000 8.71469000
-4.69029000 5.02724000 8.66186000
-3.81233000 5.02583000 9.08274000
-2.89280000 5.03607000 9.40991000
-2.91792000 5.15572000 9.48242000
-3.76048000 4.96226000 8.96856000
-2.85470000 4.97018000 9.29405000
-1.91561000 4.98653000 9.53438000
-2.81384000 4.91847000 9.16588000
-1.88884000 4.93340000 9.40433000
-0.94105500 4.95325000 9.55136000
-1.86017000 4.86952000 9.26641000
-0.92619700 4.88958000 9.41040000
0.01435530 4.90867000 9.44970000
-0.90781700 4.78787000 9.25342000
0.01755150 4.80691000 9.28652000
0.94415800 4.82289000 9.22037000
0.02389430 4.63112000 9.09732000
0.92980400 4.64634000 9.03368000
1.82438000 4.65799000 8.88035000
0.92009600 4.36465000 8.82602000
1.79248000 4.37666000 8.67478000
2.64068000 4.38577000 8.43453000
1.77442000 3.94221000 8.49200000
2.60578000 3.95096000 8.26210000
3.40561000 3.95735000 7.94772000
2.61293000 3.43227000 8.19835000
3.40861000 3.43725000 7.88694000
4.16662000 3.43934000 7.49932000
3.46090000 2.90980000 7.93544000
4.22504000 2.91017000 7.54693000
4.94390000 2.90811000 7.09330000
4.33564000 2.40662000 7.69386000
5.06580000 2.40096000 7.22715000
5.74635000 2.39848000 6.70387000
5.19192000 1.89683000 7.37401000
5.88629000 1.89209000 6.83748000
6.52071000 1.88946000 6.24166000
5.97852000 1.36506000 6.91928000
6.62139000 1.36053000 6.31207000
7.19582000 1.35853000 5.65041000
6.65369000 0.81962100 6.31932000
7.22955000 0.81616100 5.65245000
7.73153000 0.81659000 4.93961000
7.73153000 0.81659000 4.93961000
7.22955000 0.81616100 5.65245000
7.20159000 0.27633600 5.60995000
7.69395000 0.27640300 4.89408000
8.11598000 0.27910000 4.14701000
8.16356000 0.81948000 4.19182000
7.59692000 -0.25098000 4.81467000
8.00540000 -0.24764800 4.07150000
8.34270000 -0.24321900 3.30569000
7.84478000 -0.75668700 3.97555000
8.17019000 -0.75211300 3.22316000
8.43286000 -0.75105900 2.45626000
7.93408000 -1.22887000 3.11674000
8.19343000 -1.22999000 2.37077000
8.39466000 -1.23395000 1.60937000
7.92590000 -1.68781000 2.27403000
8.11654000 -1.68767000 1.53261000
8.23915000 -1.68595000 0.77744500
7.79727000 -2.10651000 1.44444000
7.90818000 -2.09872000 0.71462700
7.96850000 -2.10380000 -0.01795190
8.30067000 -1.68848000 0.01531640
7.54412000 -2.47727000 0.65184300
7.58880000 -2.47220000 -0.04885520
7.96850000 -2.10380000 -0.01795190
7.58880000 -2.47220000 -0.04885520
7.56448000 -2.46829000 -0.74642800
7.18779000 -2.81471000 -0.07508490
7.16234000 -2.81136000 -0.73403700
7.07394000 -2.80999000 -1.38287000
6.73252000 -3.11747000 -0.71887200
6.64811000 -3.11793000 -1.32788000
6.51067000 -3.12139000 -1.92370000
6.20631000 -3.39216000 -1.27729000
6.07672000 -3.39966000 -1.83367000
5.90333000 -3.41045000 -2.37316000
5.66317000 -3.66996000 -1.74719000
5.49735000 -3.67567000 -2.24800000
5.29290000 -3.67843000 -2.73011000
5.15124000 -3.89385000 -2.13793000
4.94919000 -3.90393000 -2.58541000
4.71022000 -3.91314000 -3.00663000
4.67314000 -4.10038000 -2.46460000
4.43870000 -4.11544000 -2.85678000
4.17431000 -4.12380000 -3.22321000
4.17431000 -4.12380000 -3.22321000
4.43870000 -4.11544000 -2.85678000
4.25930000 -4.29757000 -2.75884000
4.00541000 -4.31506000 -3.10924000
3.72484000 -4.33147000 -3.43104000
3.88325000 -4.13229000 -3.56180000
3.92870000 -4.54400000 -3.06188000
3.65586000 -4.56909000 -3.37953000
3.36151000 -4.57751000 -3.66993000
3.61770000 -4.81316000 -3.35587000
3.32562000 -4.81937000 -3.64303000
3.01689000 -4.80456000 -3.90435000
3.30332000 -5.02606000 -3.63010000
2.99738000 -5.00964000 -3.89132000
2.67483000 -4.98142000 -4.12518000
2.95337000 -5.17961000 -3.84411000
2.64285000 -5.16190000 -4.08525000
2.31735000 -5.13984000 -4.30044000
2.57901000 -5.29495000 -3.99978000
2.26145000 -5.27819000 -4.20757000
1.93395000 -5.26091000 -4.38762000
2.19946000 -5.40047000 -4.10583000
1.88294000 -5.37412000 -4.27914000
1.55581000 -5.33336000 -4.41822000
1.82810000 -5.30431000 -4.14222000
1.51139000 -5.29954000 -4.27975000
1.17965000 -5.32135000 -4.38742000
1.46619000 -5.24726000 -4.14060000
1.14740000 -5.27438000 -4.24618000
0.81271300 -5.29911000 -4.32673000
1.11742000 -5.18008000 -4.12171000
0.79885700 -5.19013000 -4.20958000
0.46698200 -5.19603000 -4.26795000
0.78740200 -5.05994000 -4.10427000
0.46810900 -5.07075000 -4.15730000
0.14294200 -5.07416000 -4.18515000
0.47434100 -4.93216000 -4.09064000
0.15947600 -4.94081000 -4.11685000
-0.16105400 -4.93880000 -4.11524000
0.17633800 -4.81991000 -4.06237000
-0.13676600 -4.81684000 -4.06272000
-0.45488900 -4.81439000 -4.02010000
-0.45488900 -4.81439000 -4.02010000
-0.13676600 -4.81684000 -4.06272000
-0.11096600 -4.73926000 -3.96660000
-0.42206800 -4.72406000 -3.93837000
-0.73717600 -4.72762000 -3.86978000
-0.77585100 -4.80780000 -3.94802000
-0.38339500 -4.73672000 -3.81330000
-0.68947600 -4.73814000 -3.75503000
-0.99974600 -4.74456000 -3.66891000
-0.63948800 -4.75550000 -3.63493000
-0.93990300 -4.75873000 -3.55762000
-1.23989000 -4.76491000 -3.44764000
-0.87399500 -4.77214000 -3.43280000
-1.16517000 -4.77515000 -3.33250000
-1.44604000 -4.77701000 -3.19281000
-1.07537000 -4.79729000 -3.18796000
-1.34167000 -4.79886000 -3.06006000
-1.59848000 -4.80224000 -2.90090000
-1.22163000 -4.82445000 -2.90444000
-1.46438000 -4.82601000 -2.76098000
-1.70341000 -4.83233000 -2.59204000
-1.30656000 -4.85343000 -2.58791000
-1.52642000 -4.85603000 -2.43337000
-1.73741000 -4.85608000 -2.25208000
-1.30320000 -4.88698000 -2.22845000
-1.49405000 -4.88603000 -2.06937000
-1.66987000 -4.88603000 -1.88665000
-1.17892000 -4.91021000 -1.82773000
-1.33202000 -4.91065000 -1.67385000
-1.46061000 -4.90822000 -1.49848000
-0.97885500 -4.92728000 -1.42519000
-1.08935000 -4.92800000 -1.27735000
-0.71838000 -4.94256000 -1.19258000
-0.83562000 -4.94042000 -1.06407000
-0.71056100 -4.94651000 -0.87548700
-0.94192200 -4.93601000 -0.77315100
-0.56501100 -4.95037000 -0.99197700
-0.48210500 -4.95517000 -0.81760400
-0.66008100 -4.94873000 -0.70764000
-0.60508800 -4.94322000 -1.31608000
-0.44594300 -4.95193000 -1.10825000
-0.34219500 -4.95866000 -0.92731700
-0.26371100 -4.96651000 -0.76175300
-0.42442200 -4.96004000 -0.65766500
-0.31945700 -4.95237000 -1.21658000
-0.20722500 -4.96045000 -1.03300000
-0.11853600 -4.96955000 -0.86506800
-0.04018120 -4.97927000 -0.70387400
-0.19878800 -4.97392000 -0.60573300
-0.06593510 -4.95969000 -1.13463000
0.02936690 -4.96866000 -0.96484200
0.11683000 -4.97587000 -0.80095100
0.19469900 -4.98553000 -0.64345700
0.02931450 -4.98893000 -0.54969100
0.18997600 -4.96341000 -1.05986000
0.28525600 -4.96876000 -0.89505800
0.36777000 -4.97615000 -0.73577900
0.44085100 -4.98128000 -0.57888400
0.26625700 -4.99653000 -0.48916900
0.46239200 -4.96052000 -0.98885500
0.55048400 -4.96577000 -0.82891800
0.62735000 -4.96632000 -0.67005000
0.69160300 -4.96381000 -0.51065600
0.50832800 -4.97788000 -0.42207900
0.74924800 -4.95073000 -0.92326600
0.82610600 -4.94971000 -0.76307400
0.88901600 -4.94888000 -0.60189200
0.93974400 -4.94408000 -0.43988800
0.74726500 -4.95604000 -0.35073200
1.05005000 -4.93095000 -0.86061400
1.11075000 -4.92712000 -0.69682300
1.15801000 -4.92325000 -0.53235400
1.19225000 -4.91760000 -0.36765300
0.98159600 -4.93568000 -0.27725600
1.37879000 -4.91290000 -0.79573300
1.42467000 -4.91030000 -0.62514100
1.45035000 -4.90675000 -0.45582600
1.47132000 -4.90153000 -0.28418900
1.22275000 -4.91001000 -0.20214300
1.75165000 -4.89477000 -0.71272100
1.77875000 -4.89137000 -0.53257900
1.78724000 -4.88118000 -0.34813000
1.76861000 -4.87647000 -0.17007800
1.46984000 -4.89646000 -0.11635300
2.15901000 -4.87009000 -0.58856300
2.16406000 -4.86501000 -0.38453500
2.14316000 -4.86001000 -0.18568700
2.09876000 -4.85955000 0.00772480
1.73218000 -4.87338000 0.00272861
2.54814000 -4.84424000 -0.39605900
2.54189000 -4.83874000 -0.16628300
2.50908000 -4.83463000 0.05891360
2.45142000 -4.83115000 0.27738400
2.04531000 -4.85640000 0.19388300
2.87597000 -4.80880000 -0.13593000
2.85548000 -4.80358000 0.12326500
2.80441000 -4.80000000 0.37871600
2.72594000 -4.80084000 0.62363500
2.36433000 -4.82901000 0.47936200
3.12080000 -4.77254000 0.18048900
3.07351000 -4.77000000 0.46332100
2.99931000 -4.76842000 0.74171100
2.89457000 -4.76659000 1.00781000
2.62747000 -4.79755000 0.85811700
3.29424000 -4.73950000 0.53782800
3.21103000 -4.73968000 0.83581000
3.09679000 -4.74120000 1.12285000
2.94721000 -4.74396000 1.39066000
2.75827000 -4.76229000 1.25626000
3.38109000 -4.72181000 0.91359500
3.25884000 -4.72498000 1.21708000
3.09847000 -4.72897000 1.49640000
2.91120000 -4.73314000 1.75364000
2.77146000 -4.74775000 1.63673000
3.38935000 -4.72043000 1.29260000
3.22119000 -4.72226000 1.58473000
3.02740000 -4.72668000 1.85501000
2.81361000 -4.72848000 2.11282000
2.70414000 -4.73625000 1.99888000
3.33236000 -4.71757000 1.66571000
3.13272000 -4.72479000 1.94899000
2.91354000 -4.72436000 2.21736000
2.66694000 -4.72625000 2.46822000
2.57423000 -4.72809000 2.35341000
3.22186000 -4.77435000 2.03015000
2.99987000 -4.77093000 2.30933000
2.75124000 -4.75245000 2.57368000
2.47049000 -4.73365000 2.81515000
2.39469000 -4.72322000 2.69695000
3.04356000 -4.88492000 2.36711000
2.79063000 -4.86520000 2.63782000
2.49952000 -4.84904000 2.87701000
2.18783000 -4.83168000 3.09472000
2.15908000 -4.72822000 3.02321000
2.49952000 -4.84904000 2.87701000
2.79063000 -4.86520000 2.63782000
2.80652000 -5.00241000 2.67802000
2.51384000 -4.98240000 2.92020000
2.19795000 -4.96072000 3.13816000
2.18783000 -4.83168000 3.09472000
1.85875000 -4.93355000 3.32631000
1.85525000 -4.80458000 3.28892000
2.54754000 -5.12664000 2.98686000
2.21884000 -5.10728000 3.19782000
1.86855000 -5.08179000 3.37658000
1.50161000 -5.05276000 3.52101000
1.49939000 -4.90848000 3.48140000
2.26610000 -5.23526000 3.29872000
1.90250000 -5.21969000 3.47686000
1.52040000 -5.20315000 3.61306000
1.12758000 -5.17831000 3.71250000
1.12158000 -5.02387000 3.63415000
1.94312000 -5.33675000 3.59094000
1.54871000 -5.33010000 3.73252000
1.14239000 -5.31232000 3.83087000
0.73291400 -5.29266000 3.88610000
0.72980100 -5.15700000 3.76975000
1.58736000 -5.39396000 3.87945000
1.16838000 -5.36900000 3.98780000
0.74321500 -5.34773000 4.04578000
0.32105100 -5.31991000 4.06411000
0.32513600 -5.27462000 3.90248000
1.19689000 -5.38129000 4.15229000
0.75518100 -5.36471000 4.21189000
0.31628800 -5.34677000 4.23102000
-0.11805400 -5.32141000 4.20959000
-0.09764020 -5.32556000 4.03822000
0.76644500 -5.27559000 4.35822000
0.31282400 -5.28188000 4.39307000
-0.13873000 -5.28523000 4.38237000
-0.58851600 -5.29794000 4.32415000
-0.55328500 -5.33248000 4.15016000
0.30807900 -5.12414000 4.50457000
-0.15666900 -5.12850000 4.49441000
-0.61928600 -5.14651000 4.43435000
-1.07804000 -5.17234000 4.32649000
-1.03848000 -5.32882000 4.22342000
-0.17382300 -4.93061000 4.55189000
-0.64511700 -4.95308000 4.49459000
-1.10987000 -4.98187000 4.38910000
-1.56803000 -5.00881000 4.25153000
-1.52749000 -5.19516000 4.17648000
-0.66712400 -4.73026000 4.52120000
-1.13261000 -4.75540000 4.41364000
-1.58970000 -4.77326000 4.26964000
-2.03393000 -4.78833000 4.08159000
-2.00935000 -5.03252000 4.06156000
-1.15563000 -4.49788000 4.46301000
-1.61449000 -4.50393000 4.31149000
-2.06240000 -4.51051000 4.11997000
-2.48833000 -4.51868000 3.88057000
-2.45738000 -4.80404000 3.84616000
-1.66268000 -4.26294000 4.42958000
-2.11556000 -4.26588000 4.22131000
-2.54710000 -4.26998000 3.96892000
-2.95111000 -4.27561000 3.67462000
-2.88744000 -4.52909000 3.59855000
-2.22680000 -4.07530000 4.43713000
-2.67638000 -4.07472000 4.16946000
-3.09771000 -4.07658000 3.85611000
-3.48202000 -4.08391000 3.49983000
-3.32155000 -4.28605000 3.33960000
-3.09771000 -4.07658000 3.85611000
-2.67638000 -4.07472000 4.16946000
-2.85783000 -3.86970000 4.44826000
-3.30447000 -3.86938000 4.11141000
-3.71567000 -3.87492000 3.73295000
-3.48202000 -4.08391000 3.49983000
-4.08077000 -3.88938000 3.31481000
-3.82246000 -4.09885000 3.10282000
-3.55568000 -3.63696000 4.41922000
-3.99620000 -3.64548000 4.01761000
-4.39149000 -3.65327000 3.57336000
-4.73587000 -3.66529000 3.08863000
-4.39991000 -3.91047000 2.85914000
-4.30295000 -3.37171000 4.32839000
-4.72716000 -3.38473000 3.85570000
-5.09720000 -3.39918000 3.34020000
-5.41139000 -3.41742000 2.78764000
-5.02992000 -3.68296000 2.57050000
-5.06259000 -3.08946000 4.14140000
-5.46058000 -3.11447000 3.59495000
-5.79361000 -3.13412000 3.00411000
-6.06931000 -3.16413000 2.38289000
-5.66966000 -3.44338000 2.20566000
-5.81944000 -2.80539000 3.83448000
-6.17266000 -2.83080000 3.20641000
-6.45960000 -2.85690000 2.54601000
-6.68292000 -2.88429000 1.86238000
-6.27713000 -3.18576000 1.73343000
-6.54650000 -2.50382000 3.38972000
-6.84457000 -2.52801000 2.69514000
-7.07524000 -2.55156000 1.97913000
-7.24016000 -2.57261000 1.24858000
-6.83560000 -2.90000000 1.16129000
-7.20886000 -2.16324000 2.82652000
-7.44781000 -2.18494000 2.08044000
-7.61818000 -2.20319000 1.32072000
-7.72032000 -2.21309000 0.55243300
-7.33646000 -2.58192000 0.50871000
-7.77878000 -1.77318000 2.16486000
-7.95311000 -1.78804000 1.37862000
-8.05863000 -1.79782000 0.58384100
-8.08954000 -1.80367000 -0.21772400
-7.74934000 -2.21598000 -0.22071700
-8.26476000 -1.35248000 1.42938000
-8.37341000 -1.36321000 0.60765100
-8.40256000 -1.36915000 -0.22148600
-8.34772000 -1.36769000 -1.04905000
-8.04167000 -1.80377000 -1.01939000
-8.64243000 -0.89870300 0.62308600
-8.66767000 -0.90314200 -0.22868400
-8.61054000 -0.90266500 -1.07827000
-8.61054000 -0.90266500 -1.07827000
-8.47188000 -0.90009200 -1.91690000
-8.21418000 -1.36441000 -1.86676000
-8.34772000 -1.36769000 -1.04905000
-8.85745000 -0.40092100 -0.23616300
-8.80081000 -0.40270900 -1.10049000
-8.80081000 -0.40270900 -1.10049000
-8.66503000 -0.40342300 -1.95521000
-8.44294000 -0.40199200 -2.79074000
-8.25287000 -0.89638800 -2.73639000
-8.93854000 0.11513400 -1.11748000
-8.80058000 0.11310600 -1.98279000
-8.57555000 0.11296000 -2.82906000
-8.26536000 0.11392400 -3.64530000
-8.14507000 -0.40177500 -3.60015000
-8.86880000 0.64360000 -1.99779000
-8.63861000 0.64185300 -2.84793000
-8.32913000 0.64080200 -3.66972000
-7.95625000 0.63940700 -4.46064000
-7.88923000 0.11396700 -4.42843000
-8.32913000 0.64080200 -3.66972000
-8.63861000 0.64185300 -2.84793000
-8.62458000 1.17404000 -2.84428000
-8.31966000 1.17138000 -3.66589000
-7.94307000 1.16936000 -4.45372000
-7.95625000 0.63940700 -4.46064000
-7.48707000 1.16610000 -5.19350000
-7.50250000 0.63805200 -5.20440000
-8.23874000 1.69472000 -3.63434000
-7.85764000 1.68980000 -4.41036000
-7.40871000 1.68569000 -5.14341000
-6.89150000 1.67992000 -5.82413000
-6.97296000 1.16360000 -5.88816000
-7.70090000 2.18719000 -4.33198000
-7.26383000 2.18393000 -5.05449000
-6.77293000 2.18387000 -5.73607000
-6.20430000 2.17491000 -6.34850000
-6.31737000 1.67354000 -6.45112000
-7.11598000 2.67804000 -4.96771000
-6.64186000 2.68123000 -5.64351000
-6.09264000 2.67676000 -6.25372000
-5.50330000 2.67540000 -6.81152000
-5.58862000 2.16759000 -6.90294000
-6.57034000 3.19249000 -5.59776000
-6.02668000 3.19303000 -6.20501000
-5.48113000 3.19907000 -6.79245000
-4.85679000 3.20628000 -7.27290000
-4.87988000 2.68242000 -7.31289000
-6.06332000 3.71036000 -6.23751000
-5.49880000 3.72179000 -6.81104000
-4.87979000 3.72885000 -7.30749000
-4.19483000 3.73088000 -7.70462000
-4.17577000 3.21075000 -7.66550000
-5.58941000 4.19649000 -6.90135000
-4.95353000 4.20066000 -7.41862000
-4.25787000 4.19634000 -7.84164000
-3.52744000 4.18715000 -8.19036000
-3.46580000 3.73344000 -8.02789000
-5.06936000 4.52281000 -7.58626000
-4.35226000 4.51242000 -8.02635000
-3.60961000 4.49602000 -8.38997000
-2.84389000 4.48881000 -8.69117000
-2.77643000 4.18107000 -8.49090000
-4.44663000 4.69677000 -8.19636000
-3.68842000 4.68974000 -8.56681000
-2.90675000 4.68080000 -8.86862000
-2.09866000 4.67567000 -9.10332000
-2.05331000 4.48548000 -8.92453000
-3.75548000 4.81202000 -8.70904000
-2.95930000 4.80227000 -9.01392000
-2.13728000 4.79689000 -9.25183000
-1.29967000 4.79817000 -9.42420000
-1.27511000 4.67691000 -9.27569000
-3.00895000 4.88447000 -9.14928000
-2.17386000 4.87899000 -9.38740000
-1.32219000 4.87669000 -9.55838000
-0.46162100 4.87973000 -9.66089000
-0.45175000 4.80534000 -9.52129000
-2.20874000 4.94066000 -9.51756000
-1.34453000 4.93473000 -9.68928000
-0.47110400 4.93674000 -9.79570000
0.40694500 4.94906000 -9.82239000
0.40355700 4.88901000 -9.68444000
-1.36400000 5.00617000 -9.80300000
-0.47914900 5.00970000 -9.90845000
0.40921100 5.02549000 -9.93210000
1.29702000 5.03732000 -9.86354000
1.28522000 4.95940000 -9.75401000
-0.48530700 5.11607000 -9.98398000
0.40972500 5.13263000 -9.99734000
1.30227000 5.14687000 -9.92322000
2.18840000 5.14664000 -9.76809000
2.17717000 5.03938000 -9.70461000
1.30227000 5.14687000 -9.92322000
0.40972500 5.13263000 -9.99734000
0.40710200 5.25306000 -9.97076000
1.29636000 5.26561000 -9.89530000
2.18020000 5.26828000 -9.74341000
2.18840000 5.14664000 -9.76809000
3.04751000 5.26824000 -9.51354000
3.05663000 5.14369000 -9.53403000
1.28223000 5.33451000 -9.79815000
2.15657000 5.33999000 -9.64646000
3.01606000 5.34700000 -9.42200000
3.84351000 5.34630000 -9.11274000
3.88380000 5.27075000 -9.20224000
2.12823000 5.35937000 -9.52620000
2.97669000 5.36503000 -9.30478000
3.79432000 5.36666000 -9.00208000
4.57488000 5.36364000 -8.61790000
4.63324000 5.34828000 -8.72235000
2.93530000 5.34739000 -9.18162000
3.74240000 5.34925000 -8.88476000
4.51232000 5.34737000 -8.50535000
5.24036000 5.34770000 -8.05379000
5.31402000 5.36738000 -8.16146000
3.68565000 5.30547000 -8.75534000
4.44175000 5.30270000 -8.37813000
5.15822000 5.30054000 -7.93309000
5.82769000 5.30119000 -7.42001000
5.92245000 5.34970000 -7.53518000
4.36147000 5.22676000 -8.23318000
5.06564000 5.22368000 -7.79637000
5.72312000 5.22319000 -7.29288000
6.32712000 5.21997000 -6.72377000
6.44553000 5.30167000 -6.84262000
4.96300000 5.10855000 -7.64561000
5.60537000 5.10321000 -7.15094000
6.19320000 5.09599000 -6.59008000
6.73169000 5.08226000 -5.98327000
6.87669000 5.21026000 -6.10313000
5.46294000 4.92042000 -6.98026000
6.03464000 4.90334000 -6.43264000
6.56046000 4.88292000 -5.84239000
7.02648000 4.86988000 -5.20424000
7.21462000 5.08019000 -5.33130000
5.85533000 4.58542000 -6.25621000
6.36413000 4.55561000 -5.68163000
6.81780000 4.52782000 -5.06228000
7.21043000 4.50625000 -4.40018000
7.43602000 4.86089000 -4.52582000
6.20757000 4.09885000 -5.55290000
6.66032000 4.06290000 -4.95380000
7.05191000 4.03302000 -4.30933000
7.38530000 4.00701000 -3.62977000
7.54218000 4.48848000 -3.70327000
6.58424000 3.55040000 -4.90022000
6.98230000 3.51733000 -4.26700000
7.32200000 3.48774000 -3.59631000
7.59876000 3.46091000 -2.89579000
7.66033000 3.98428000 -2.92346000
6.99942000 2.99284000 -4.27457000
7.35041000 2.96155000 -3.60442000
7.63644000 2.93109000 -2.90230000
7.85791000 2.90210000 -2.17919000
7.82000000 3.43647000 -2.17682000
7.43986000 2.44168000 -3.64026000
7.73851000 2.40854000 -2.93099000
7.97627000 2.37690000 -2.20175000
8.14114000 2.34653000 -1.45783000
8.01182000 2.87616000 -1.44272000
7.95871000 1.92397000 -3.00190000
8.21063000 1.88925000 -2.25522000
8.38847000 1.85506000 -1.49292000
8.49512000 1.83090000 -0.72068400
8.23892000 2.32388000 -0.70606500
8.38847000 1.85506000 -1.49292000
8.21063000 1.88925000 -2.25522000
8.43376000 1.38932000 -2.30870000
8.61485000 1.34746000 -1.52765000
8.71341000 1.31496000 -0.73337200
8.49512000 1.83090000 -0.72068400
8.73897000 1.29838000 0.06767090
8.52652000 1.81855000 0.05971170
8.72413000 0.79887000 -1.54826000
8.82251000 0.76328700 -0.73919200
8.84653000 0.74481000 0.07640610
8.84653000 0.74481000 0.07640610
8.78703000 0.74088500 0.89450400
8.68943000 1.29357000 0.87200700
8.73897000 1.29838000 0.06767090
8.82784000 0.20045900 -0.73933900
8.84802000 0.17969400 0.08466110
8.84802000 0.17969400 0.08466110
8.78182000 0.17816600 0.90831800
8.63452000 0.18825300 1.72406000
8.65754000 0.74853900 1.71303000
8.70249000 -0.36561900 0.08785860
8.62716000 -0.36522400 0.90188100
8.48053000 -0.35503500 1.70091000
8.25746000 -0.34258300 2.47869000
8.41522000 0.19772200 2.52419000
8.37746000 -0.87449200 0.87267200
8.22979000 -0.86452500 1.64924000
8.01773000 -0.85360200 2.40622000
7.74805000 -0.84627500 3.14712000
7.97370000 -0.33589300 3.23860000
7.93237000 -1.34928000 1.58246000
7.73701000 -1.34434000 2.31955000
7.46897000 -1.32824000 3.03493000
7.13813000 -1.31019000 3.72580000
7.40287000 -0.83139200 3.86200000
7.38130000 -1.78028000 2.20413000
7.12972000 -1.76513000 2.89352000
6.81771000 -1.74744000 3.55685000
6.44637000 -1.73117000 4.18786000
6.74228000 -1.29166000 4.38156000
6.75989000 -2.17642000 2.73847000
6.46618000 -2.15747000 3.37183000
6.12139000 -2.14525000 3.97727000
5.72731000 -2.13916000 4.55329000
6.01956000 -1.72065000 4.78474000
6.06399000 -2.51208000 3.16478000
5.74351000 -2.49787000 3.73934000
5.37259000 -2.48394000 4.28165000
4.95458000 -2.47207000 4.78668000
5.27587000 -2.13109000 5.09062000
5.33009000 -2.80870000 3.49175000
4.98737000 -2.78785000 3.99751000
4.60444000 -2.77190000 4.46700000
4.18349000 -2.76605000 4.89861000
4.48989000 -2.46290000 5.24857000
4.56237000 -3.04587000 3.70856000
4.21929000 -3.03108000 4.13580000
3.84294000 -3.02265000 4.52398000
3.42773000 -3.01000000 4.86763000
3.71536000 -2.75419000 5.27955000
3.79391000 -3.26912000 3.80558000
3.45882000 -3.25227000 4.14797000
3.09626000 -3.23944000 4.44895000
2.73287000 -3.22757000 4.70324000
2.97487000 -3.00094000 5.16374000
3.09626000 -3.23944000 4.44895000
3.45882000 -3.25227000 4.14797000
3.02012000 -3.47904000 3.84310000
3.79391000 -3.26912000 3.80558000
3.31885000 -3.50354000 3.51930000
2.82545000 -3.72497000 3.33872000
2.56509000 -3.66802000 3.67659000
2.33438000 -3.88515000 3.24813000
2.10913000 -3.79029000 3.62987000
1.93919000 -3.65135000 4.05055000
1.50074000 -3.68447000 4.11836000
1.41151000 -3.46962000 4.63005000
1.85722000 -3.45717000 4.52807000
1.65281000 -3.85767000 3.65231000
1.19006000 -3.89337000 3.69248000
1.03974000 -3.70175000 4.18106000
1.85150000 -3.98451000 3.22520000
1.37450000 -4.04141000 3.23397000
0.89998200 -4.07644000 3.24089000
0.71746200 -3.91500000 3.71428000
2.07488000 -4.07573000 2.82075000
1.57913000 -4.15218000 2.79843000
1.09569000 -4.19969000 2.78557000
0.62499900 -4.22894000 2.76109000
0.42676600 -4.09720000 3.22371000
1.78876000 -4.23405000 2.37426000
1.29292000 -4.29117000 2.34329000
0.82242700 -4.32498000 2.31167000
0.36800700 -4.34239000 2.25978000
0.16436600 -4.24505000 2.70919000
1.48812000 -4.35776000 1.91309000
1.01230000 -4.39253000 1.87509000
0.55874900 -4.40825000 1.82211000
0.12448900 -4.41678000 1.74701000
-0.07603820 -4.35135000 2.18108000
1.18511000 -4.43882000 1.44970000
0.72765400 -4.44229000 1.39659000
0.29852800 -4.45235000 1.32489000
0.87155000 -4.46853000 0.98268200
0.43913700 -4.48928000 0.91979000
0.03799330 -4.49417000 0.83691700
-0.10379600 -4.45744000 1.23100000
-0.29021500 -4.42154000 1.64418000
-0.68174200 -4.43107000 1.50272000
-0.92224100 -4.37374000 1.91103000
-0.50712800 -4.36249000 2.06805000
-1.17660000 -4.27213000 2.32419000
-0.74122200 -4.26399000 2.49831000
-0.29178000 -4.25514000 2.62442000
-0.98283100 -4.12879000 2.93887000
-0.51617400 -4.12053000 3.07677000
-0.04441290 -4.11223000 3.17102000
-0.73755700 -3.94635000 3.53985000
-0.24776300 -3.94016000 3.64240000
0.23812100 -3.92980000 3.70084000
-0.43770100 -3.72305000 4.11918000
0.06814390 -3.71638000 4.18669000
0.56113700 -3.70783000 4.20527000
-0.08274460 -3.48255000 4.68577000
0.43346900 -3.47900000 4.71906000
0.93338400 -3.47868000 4.70133000
0.33452200 -3.25710000 5.25014000
0.87232600 -3.25435000 5.24173000
1.38804000 -3.24254000 5.17646000
1.38804000 -3.24254000 5.17646000
0.87232600 -3.25435000 5.24173000
0.84983900 -3.02677000 5.77310000
1.41825000 -3.01590000 5.70692000
1.96370000 -3.00531000 5.58351000
1.87629000 -3.23365000 5.05988000
1.87629000 -3.23365000 5.05988000
2.48509000 -3.00109000 5.40225000
2.32915000 -3.23097000 4.89448000
2.07375000 -2.75527000 6.07657000
2.65346000 -2.74802000 5.87379000
3.20414000 -2.74776000 5.60746000
2.81786000 -2.45468000 6.31124000
3.41764000 -2.45336000 6.01990000
3.97793000 -2.45986000 5.66533000
3.61503000 -2.11326000 6.40107000
4.21582000 -2.11405000 6.01975000
4.76945000 -2.11948000 5.57928000
4.42085000 -1.70976000 6.32950000
5.00413000 -1.71020000 5.86482000
5.53757000 -1.71435000 5.34690000
5.20904000 -1.26357000 6.11226000
5.76946000 -1.26759000 5.57536000
6.27927000 -1.27413000 4.99455000
5.97746000 -0.79969800 5.78218000
6.51646000 -0.81057000 5.18820000
6.99595000 -0.82071100 4.54807000
6.70120000 -0.30962600 5.33640000
7.19213000 -0.31549000 4.67525000
7.61602000 -0.32487000 3.97225000
7.32429000 0.21787100 4.75851000
7.75799000 0.21085100 4.04626000
8.12020000 0.20349200 3.29913000
7.78492000 0.76792800 4.05494000
8.14564000 0.76183700 3.30100000
8.44014000 0.75649900 2.51877000
8.07316000 1.30987000 3.25818000
8.35677000 1.30458000 2.47807000
8.56099000 1.29786000 1.67838000
8.18501000 1.82720000 2.41942000
8.37725000 1.82108000 1.63505000
8.48758000 1.81565000 0.84543600
8.48758000 1.81565000 0.84543600
8.37725000 1.82108000 1.63505000
8.11390000 2.30432000 1.58461000
8.22523000 2.30496000 0.81905600
8.26374000 2.30991000 0.05399450
8.52652000 1.81855000 0.05971170
8.52652000 1.81855000 0.05971170
8.07184000 2.83249000 0.80539400
8.11589000 2.84024000 0.05167920
8.26374000 2.30991000 0.05399450
8.11589000 2.84024000 0.05167920
8.09984000 2.85522000 -0.69856200
8.52652000 1.81855000 0.05971170
8.07944000 3.38644000 0.05177840
8.05335000 3.39877000 -0.69718100
7.96538000 3.41573000 -1.44072000
8.09216000 3.93810000 -0.70303400
8.00952000 3.95100000 -1.45372000
7.87298000 3.96484000 -2.19731000
8.16355000 4.45242000 -1.48301000
8.02360000 4.46055000 -2.24030000
7.81531000 4.47251000 -2.98155000
8.26989000 4.85131000 -2.30277000
8.05762000 4.85557000 -3.06581000
7.78095000 4.85801000 -3.80956000
8.29752000 5.08956000 -3.14717000
8.00270000 5.08594000 -3.90678000
7.63958000 5.08167000 -4.63782000
8.18320000 5.22600000 -3.98652000
7.80921000 5.21692000 -4.73148000
7.37167000 5.21174000 -5.43769000
7.95821000 5.30587000 -4.81476000
7.51171000 5.29930000 -5.53341000
7.00609000 5.29760000 -6.21086000
7.64266000 5.35908000 -5.62283000
7.12624000 5.35838000 -6.31087000
6.55293000 5.35509000 -6.95130000
7.23958000 5.38262000 -6.40459000
6.65412000 5.37540000 -7.05306000
6.01023000 5.36960000 -7.64131000
6.74589000 5.35955000 -7.14504000
6.09094000 5.35400000 -7.73866000
5.38313000 5.35255000 -8.26207000
6.15938000 5.29392000 -7.82043000
5.44398000 5.29344000 -8.34993000
4.68388000 5.28328000 -8.81204000
5.46602000 5.17459000 -8.37830000
4.69920000 5.16203000 -8.83469000
3.89483000 5.14622000 -9.22168000
3.89483000 5.14622000 -9.22168000
4.69920000 5.16203000 -8.83469000
4.67001000 5.05750000 -8.77444000
3.86904000 5.04184000 -9.15430000
3.03771000 5.03819000 -9.46651000
3.05663000 5.14369000 -9.53403000
3.82997000 4.97014000 -9.05578000
3.00740000 4.96604000 -9.36367000
2.15639000 4.96367000 -9.59975000
2.97114000 4.90880000 -9.24234000
2.13064000 4.90274000 -9.47141000
1.27022000 4.89705000 -9.61817000
2.10262000 4.82772000 -9.33223000
1.25405000 4.81849000 -9.47435000
0.40029100 4.81202000 -9.53913000
1.23816000 4.69593000 -9.31944000
0.39742700 4.68913000 -9.38214000
-0.44105200 4.68499000 -9.37052000
0.39664900 4.49581000 -9.19560000
-0.42671700 4.48993000 -9.18051000
-1.24497000 4.48442000 -9.08877000
-0.40913200 4.19550000 -8.97522000
-1.21049000 4.18851000 -8.88594000
-2.00152000 4.18559000 -8.72147000
-1.17893000 3.75349000 -8.71802000
-1.95663000 3.74465000 -8.55410000
-2.72164000 3.73479000 -8.32552000
-1.94032000 3.23277000 -8.51029000
-2.70336000 3.22350000 -8.27918000
-3.44850000 3.21612000 -7.98547000
-2.71644000 2.70767000 -8.34420000
-3.46504000 2.69703000 -8.05165000
-4.19764000 2.69074000 -7.72617000
-3.51940000 2.20020000 -8.21089000
-4.24990000 2.18422000 -7.84597000
-4.94343000 2.17274000 -7.41211000
-4.31874000 1.68569000 -7.98985000
-5.02539000 1.67257000 -7.53640000
-5.69242000 1.66878000 -7.02088000
-5.08079000 1.16160000 -7.62565000
-5.76555000 1.15875000 -7.11091000
-6.39850000 1.16061000 -6.52948000
-5.76971000 0.63578900 -7.12561000
-6.40667000 0.63550100 -6.54353000
-6.98476000 0.63664600 -5.90043000
-6.98476000 0.63664600 -5.90043000
-6.40667000 0.63550100 -6.54353000
-6.35169000 0.11503600 -6.50102000
-6.92761000 0.11429600 -5.86214000
-7.44669000 0.11301400 -5.17235000
-7.50250000 0.63805200 -5.20440000
-6.81863000 -0.39550600 -5.78671000
-7.32933000 -0.39848900 -5.10515000
-7.76949000 -0.39959300 -4.37262000
-7.15865000 -0.88928100 -5.00768000
-7.59442000 -0.89268500 -4.29057000
-7.95543000 -0.89220600 -3.52858000
-7.36357000 -1.35571000 -4.18267000
-7.72348000 -1.36050000 -3.44276000
-8.00677000 -1.36207000 -2.66715000
-7.44072000 -1.79579000 -3.34170000
-7.71577000 -1.79853000 -2.58889000
-7.91600000 -1.80166000 -1.81193000
-7.37879000 -2.19745000 -2.50539000
-7.57430000 -2.20409000 -1.75780000
-7.70049000 -2.21195000 -0.99399000
-8.04167000 -1.80377000 -1.01939000
-7.19031000 -2.56580000 -1.70441000
-7.31351000 -2.57616000 -0.97279900
-7.70049000 -2.21195000 -0.99399000
-7.31351000 -2.57616000 -0.97279900
-7.35851000 -2.57898000 -0.23311100
-6.88994000 -2.89507000 -0.95624000
-6.93881000 -2.90396000 -0.25379000
-6.92169000 -2.90784000 0.45229500
-6.50152000 -3.19935000 -0.27387200
-6.48992000 -3.20315000 0.39523100
-6.41758000 -3.19837000 1.06699000
-6.05555000 -3.48376000 0.34247600
-5.99125000 -3.47633000 0.97300700
-5.86416000 -3.46439000 1.59789000
-5.56794000 -3.73300000 0.87933100
-5.45078000 -3.72343000 1.46049000
-5.27001000 -3.70530000 2.02628000
-5.06133000 -3.95712000 1.33248000
-4.88981000 -3.94560000 1.86045000
-4.66813000 -3.92610000 2.37036000
-4.57779000 -4.14291000 1.72679000
-4.36792000 -4.12558000 2.20794000
