3.20955000 0.65971900 -9.12506000
3.27138000 0.63374600 -9.16482000
-7.85015000 1.88566000 3.78993000
4.92333000 4.12195000 3.49502000
4.69090000 4.16351000 3.59933000
8.01013000 0.19241800 -2.32071000
0.85717100 4.38428000 -5.42954000
0.92517200 1.99215000 -9.01242000
-5.02560000 1.51684000 -7.99263000
-5.07852000 1.45896000 -7.97879000
3.25125000 2.76095000 7.37137000
6.08642000 2.68372000 -6.13706000
6.18124000 2.63109000 -6.10096000
-0.47019100 5.23620000 -5.83319000
-2.53829000 5.17646000 -4.86356000
-2.68272000 5.22841000 -4.78377000
3.97954000 4.77907000 -3.61004000
-7.05038000 2.57654000 -3.67014000
-3.94529000 3.81287000 -6.20390000
-6.17007000 4.28298000 -3.08668000
-4.41278000 -5.65956000 2.44675000
4.53163000 3.91676000 5.14432000
3.87560000 2.58953000 6.84120000
1.91424000 1.72982000 8.43285000
-7.80982000 1.88825000 -4.54869000
5.11234000 5.00244000 -2.38306000
4.91681000 4.99465000 -2.84029000
-4.81027000 -1.94799000 6.46248000
4.73648000 -4.17390000 -4.13154000
-8.24240000 1.12724000 3.58719000
-8.19491000 1.07789000 3.64373000
3.13504000 4.45960000 3.60384000
3.05189000 4.51934000 3.60232000
-0.44324700 5.26997000 -5.75821000
6.82608000 -3.47002000 -0.82329700
6.80839000 -3.49859000 -0.58409400
-0.39468500 1.43632000 8.45489000
1.71052000 4.13753000 -6.12891000
1.94183000 4.11512000 -6.07094000
1.66669000 4.17724000 -6.05055000
1.95433000 4.16351000 -5.95543000
-4.53787000 1.56359000 -7.63788000
-8.54078000 2.21552000 -0.20655200
-8.55130000 2.25967000 -0.21680700
-9.18316000 2.14539000 -0.87101500
3.75875000 1.07269000 7.04531000
3.77695000 1.26951000 7.04497000
-6.90988000 2.44148000 4.59081000
-6.90115000 2.46746000 4.66343000
7.66736000 3.28821000 0.96073300
-6.94187000 2.90121000 4.32627000
-3.42565000 -0.91425700 7.07580000
4.52343000 0.77659900 6.31851000
-9.33102000 0.93503600 1.55700000
4.77155000 4.92972000 1.59818000
-0.51072400 -5.71151000 -4.94950000
-2.77635000 1.36879000 -8.81394000
-2.79487000 1.31944000 -8.83968000
6.97751000 2.91939000 4.46334000
9.02895000 0.62812700 -3.45483000
7.75499000 2.54797000 -0.09759750
6.57263000 3.48820000 -2.54739000
6.07743000 0.31947100 5.36592000
0.07206920 2.81809000 8.19171000
-5.71330000 -3.37428000 -0.29860100
-5.90813000 -3.23886000 -0.10289700
3.85232000 5.10374000 -4.20843000
-6.43504000 4.40766000 -2.68584000
-5.04843000 3.90835000 -2.38281000
-3.11854000 3.33496000 -6.14705000
1.27234000 -0.70387400 -9.48446000
-5.88587000 5.05699000 -5.21514000
-8.90472000 1.05939000 1.50757000
2.27656000 -5.67638000 -4.55902000
2.40337000 -5.61022000 -4.57415000
5.64708000 1.15943000 5.89098000
5.92548000 2.33239000 -6.59638000
5.87890000 2.39473000 -6.58279000
-6.68868000 3.96611000 -0.60452700
-8.99206000 1.01555000 -1.76184000
-9.04265000 0.98438500 -1.85730000
-3.02683000 4.57930000 4.69038000
2.33000000 3.12718000 -7.43828000
2.32953000 3.15834000 -7.47464000
7.80516000 0.82854500 -4.85953000
7.79187000 0.74543100 -4.88274000
8.17866000 2.67264000 1.33077000
8.21829000 2.69194000 1.39192000
-0.11256900 3.57911000 -7.30542000
7.75638000 0.76101500 -4.81474000
4.89974000 -2.80251000 -6.37273000
-0.12366200 3.59989000 -7.35983000
8.68267000 2.51161000 -0.27063000
4.96113000 -4.83511000 1.30495000
7.50766000 3.40737000 0.28048500
-6.86383000 4.06449000 -1.90948000
1.74666000 1.85968000 8.12851000
0.01111850 -1.05451000 -9.39284000
0.22795300 -1.21035000 -9.29694000
-7.88632000 2.44148000 -3.03074000
-3.51259000 5.56346000 3.36244000
-3.56551000 3.32977000 -6.16205000
-3.13383000 -3.79744000 2.60267000
-3.79317000 5.16607000 -4.28109000
7.63922000 2.21292000 4.61324000
-8.75104000 1.85709000 -3.81441000
-6.37010000 3.51214000 -1.27980000
-6.35189000 3.47522000 -1.27645000
2.48562000 4.92452000 -4.84276000
-7.98015000 1.12204000 3.98123000
-7.95984000 1.17919000 4.01405000
8.90117000 1.28827000 2.76826000
4.75528000 -0.70647200 -8.30603000
-0.68329200 3.84663000 6.82477000
-0.65266400 3.89339000 6.78281000
-2.45502000 2.82069000 7.81394000
-6.47340000 1.91163000 -7.06219000
5.31869000 -0.73504200 -7.92367000
-6.10354000 -0.54024300 5.68175000
4.09611000 4.84660000 3.40180000
5.63254000 2.40512000 6.51718000
6.25313000 1.54541000 6.29876000
1.66092000 1.57054000 8.15325000
-0.99818400 5.54151000 4.78999000
-0.93132600 5.53749000 4.71618000
-6.05621000 3.48820000 -5.53244000
-3.19442000 2.28564000 8.28586000
-3.26472000 2.48564000 -8.61542000
5.64335000 3.37132000 -4.30690000
5.10689000 4.25441000 2.42246000
4.57445000 2.54018000 -7.22311000
5.19692000 -4.85439000 -1.26461000
7.96388000 -1.70384000 3.20377000
2.49946000 -2.84407000 -7.59113000
-7.81955000 1.50385000 4.14799000
5.24743000 -3.15834000 4.45452000
-7.06886000 1.05192000 -6.70903000
-4.73835000 5.08556000 0.77034800
-8.55539000 1.88825000 2.48209000
-8.86649000 1.24671000 -2.29596000
6.27709000 1.05711000 -6.92561000
7.33929000 0.99996900 3.31315000
-8.60375000 -1.14542000 1.75540000
2.66085000 5.09335000 4.49833000
2.97138000 -3.61807000 -6.44912000
-6.60838000 1.11945000 -6.05001000
-6.58807000 1.10646000 -6.08663000
6.38425000 0.56102100 5.59054000
2.96662000 5.23880000 4.23982000
-6.44577000 5.32791000 -4.70630000
-2.68664000 5.37126000 4.36221000
-5.32693000 1.84929000 -7.99394000
5.44508000 3.61007000 5.22127000
7.73988000 0.32466500 5.36782000
5.48997000 3.64145000 -4.51792000
-4.17005000 3.10380000 -6.10878000
-3.40656000 -4.56349000 -4.51467000
7.04334000 4.91933000 3.52737000
7.27183000 4.84141000 3.31921000
2.38987000 5.16737000 -5.15272000
2.39785000 5.17127000 -5.20268000
2.14576000 5.18079000 -5.29335000
-3.44399000 -4.44921000 -4.59730000
-6.49341000 1.18957000 -6.80218000
-3.81700000 1.35061000 7.54581000
5.17527000 3.24925000 -4.34761000
-2.22128000 0.97659300 -9.27828000
-5.11433000 -0.43894700 6.45083000
-8.62887000 2.54278000 2.22328000
-5.41823000 3.21029000 6.04954000
2.07157000 3.37132000 -7.93887000
3.19039000 4.54272000 3.46546000
1.34763000 -2.59200000 7.35851000
1.45697000 -2.26227000 7.62054000
7.10561000 2.87004000 -1.10225000
4.70196000 2.49343000 -7.40659000
4.70426000 2.55057000 -7.43000000
4.22673000 3.22068000 5.06774000
7.14150000 -0.28570500 5.89766000
-7.05105000 3.22068000 -0.70634400
0.03144130 3.70118000 6.45448000
0.09211430 3.63625000 6.52642000
4.24376000 3.22068000 5.17921000
0.66399000 4.87498000 5.19869000
-6.82819000 1.78696000 -5.57182000
-1.44325000 -3.55833000 -6.96094000
-1.52060000 -3.20769000 -7.31840000
7.26786000 2.72719000 3.81539000
4.66760000 1.28827000 6.62056000
7.44329000 3.20250000 -2.91190000
7.42080000 3.20510000 -3.04408000
-5.36508000 -4.58427000 -1.49700000
3.15619000 2.38434000 -8.02821000
1.83753000 4.19208000 -5.94873000
5.37201000 3.56352000 -4.80212000
6.17465000 -4.03104000 0.22413500
-3.92266000 5.27256000 3.38852000
-4.19331000 5.30257000 3.05214000
7.86643000 2.11162000 -2.12771000
3.30793000 -2.67005000 6.53163000
-6.36664000 3.56872000 4.41755000
2.75004000 1.09087000 -9.30615000
-6.48483000 -1.81813000 3.51253000
0.68724700 2.39213000 8.15778000
8.25013000 2.71420000 -2.18462000
-8.00029000 3.20250000 0.00985271
3.54502000 4.39467000 3.36996000
6.65719000 0.75582100 -6.65778000
-5.38590000 0.97894500 6.50244000
0.77192500 -2.08045000 5.86566000
1.07444000 -2.11682000 5.75785000
0.17894400 1.44151000 -9.27033000
-5.35355000 4.54100000 -5.66966000
-5.26550000 4.48298000 -5.65175000
-8.99404000 0.96880100 -1.91507000
-8.95324000 1.00575000 -2.10843000
-4.68465000 -1.00776000 6.33358000
0.15507300 -1.75839000 -8.90637000
0.38429000 -1.82592000 -8.85738000
0.80784600 3.91157000 -7.23679000
-6.08203000 1.35580000 -6.72697000
6.39409000 3.67002000 -2.89575000
-6.61709000 2.82329000 -4.91477000
-6.18683000 3.30899000 2.45149000
-7.44158000 1.31424000 4.65223000
5.02037000 -4.95049000 0.95337200
0.67022200 -1.81293000 8.04631000
6.41937000 1.10386000 -6.16637000
-5.19083000 1.08308000 6.96353000
-5.23536000 1.13503000 7.13554000
-5.24216000 1.07789000 7.01095000
4.59398000 1.22594000 6.35137000
5.36134000 2.78433000 5.83234000
2.93777000 4.05702000 4.41942000
-0.03660010 3.77131000 6.61640000
2.24223000 3.24406000 6.67787000
9.22451000 -0.47011500 1.45752000
-6.15931000 4.51415000 -4.66612000
3.23165000 2.63628000 6.85991000
-4.93149000 5.37126000 -0.10512500
2.57934000 1.88306000 7.83981000
6.29165000 2.48488000 -6.11770000
6.75043000 -1.22074000 2.77008000
3.13872000 1.88825000 8.51314000
3.94408000 1.97396000 8.12090000
1.52813000 5.43619000 4.68440000
7.72146000 3.26224000 1.52890000
-7.05925000 4.09078000 -3.75315000
-1.89283000 -5.15828000 4.68444000
-1.86809000 -5.05308000 4.71475000
7.38162000 2.84666000 -0.24602800
-4.20681000 5.55669000 2.62626000
-4.13766000 5.55827000 2.63022000
8.14191000 2.81030000 1.10006000
-1.48299000 -0.84412900 8.66117000
-6.71984000 3.79988000 -0.60412400
2.93957000 0.74543100 -9.31379000
-4.36715000 3.51158000 -6.48678000
-4.36392000 3.49340000 -6.43746000
7.15117000 1.18178000 -5.41735000
-3.74378000 -5.12192000 -3.87651000
4.29001000 2.52200000 7.55276000
-1.13911000 -5.56606000 4.91887000
-3.76317000 4.08299000 -5.98027000
-4.68460000 4.87517000 2.51780000
-3.45018000 5.41801000 3.76945000
-3.27341000 5.38188000 3.94545000
-3.50001000 5.45806000 3.68979000
-9.38058000 0.92204900 -1.87631000
-9.32570000 0.98698200 -1.85104000
-9.38698000 0.88308900 -1.96974000
5.82353000 0.94542500 -6.84702000
6.97279000 4.30117000 2.89189000
6.92759000 4.33493000 3.01196000
6.98125000 4.23623000 2.94373000
-1.66227000 5.34789000 4.83731000
-5.10944000 -0.49108600 7.35221000
-4.48496000 4.40506000 1.48399000
4.94182000 4.28308000 -1.95440000
4.89035000 4.28558000 -2.07368000
3.93273000 3.96871000 5.43259000
4.57217000 -0.72205500 -8.40496000
8.64768000 2.54797000 0.03633140
-4.36977000 5.36607000 -2.66836000
-3.45110000 -3.51209000 -3.43494000
-3.67488000 -3.47781000 -3.36828000
8.59885000 2.58434000 0.27853300
-3.26082000 -3.53495000 -3.48793000
-2.89465000 -1.39996000 -7.71625000
-2.62322000 3.19211000 7.66286000
-2.62442000 3.29600000 7.56937000
-2.51935000 3.39989000 7.45891000
-3.95772000 -1.74010000 -7.78181000
-2.03175000 2.32128000 -9.16653000
2.42561000 1.01296000 7.80284000
3.98842000 -0.72225200 -7.50518000
2.50725000 1.06306000 7.76897000
7.20408000 2.01033000 3.70452000
-2.20967000 1.30905000 -9.38493000
-5.89113000 3.08832000 4.52013000
-3.08510000 1.14282000 8.70525000
-1.94182000 4.96868000 -5.13882000
-4.22501000 -5.06218000 2.90668000
-7.71409000 -1.96718000 -0.60899600
-8.34649000 -1.14802000 0.55721100
-0.08660480 3.18951000 -7.70837000
-0.12566200 3.24406000 -7.71566000
-7.60075000 1.23892000 -4.85271000
-2.59766000 1.18957000 8.83662000
7.37683000 3.79988000 1.79570000
7.42621000 3.34275000 -2.22333000
7.19981000 3.47262000 -2.05416000
4.03900000 2.49862000 7.62614000
-5.03695000 4.35311000 -5.25208000
-8.90281000 1.63891000 1.72810000
-8.86590000 1.67463000 1.71764000
3.61582000 3.61028000 -6.22886000
3.60810000 3.52197000 -6.22356000
2.39303000 1.04149000 8.01421000
4.48357000 1.55839000 6.65151000
-4.95795000 5.41801000 -0.34375700
3.28027000 2.77913000 7.20475000
3.32705000 2.77394000 7.20675000
5.26121000 -3.71118000 3.43959000
5.40882000 -3.61547000 3.47576000
-4.55663000 -4.24402000 2.97331000
8.26119000 2.03890000 -2.13281000
3.24668000 -4.03104000 -1.02382000
0.14655700 -2.63109000 -8.15817000
-0.03147860 -2.70883000 -8.07931000
0.28521100 -2.71160000 -8.08203000
-5.61189000 4.03104000 -5.11997000
-0.12710900 1.95319000 8.85925000
-3.71410000 -0.12207400 -9.01742000
-4.02726000 3.46223000 -7.11977000
0.63889500 -3.50379000 3.41011000
-4.71351000 0.98178700 -8.56553000
0.74364300 0.49608800 -8.98930000
7.56096000 -2.61550000 -2.85108000
7.77750000 -2.54538000 -2.37593000
-6.87572000 3.78689000 -3.82306000
6.91054000 1.64680000 4.11228000
7.96083000 -2.43889000 -2.05880000
7.74775000 -2.60252000 -2.26645000
-3.59773000 2.20513000 -8.05264000
-5.64607000 3.90118000 -4.95069000
2.49173000 3.53236000 6.68764000
-4.15737000 4.04663000 -3.31789000
0.83071800 -5.66476000 4.78692000
-7.95369000 -0.56361900 3.21461000
-4.47473000 2.94796000 6.89973000
-5.01941000 -5.59463000 -1.68329000
-7.12836000 1.02594000 5.37289000
3.06806000 1.52203000 -8.61671000
0.58635200 4.23744000 -6.27037000
0.58992400 4.27000000 -6.21054000
3.05432000 3.07003000 7.61029000
-7.73553000 0.67530400 5.22229000
-7.01215000 1.70904000 5.11943000
6.24877000 2.59992000 -6.10183000
-5.36478000 4.07780000 -5.89723000
9.38640000 0.66491400 -0.48752600
-0.30204200 3.98949000 6.57827000
9.44023000 0.41710700 -1.65250000
5.17062000 1.78955000 5.74649000
-8.68402000 -0.47761800 -3.56496000
-2.57122000 4.62323000 4.85165000
2.45075000 -1.26490000 -8.94901000
5.07564000 1.06750000 7.64392000
-4.57984000 4.78946000 -3.44751000
3.50486000 -1.80774000 7.29796000
-7.06735000 2.70381000 4.86818000
-7.01230000 2.71420000 4.90644000
-6.94265000 2.72978000 4.86917000
7.87317000 3.97650000 2.41529000
0.37211300 3.69332000 -7.36608000
6.88654000 -1.77397000 1.44357000
-6.76780000 2.26303000 -6.48116000
-4.43809000 4.68054000 1.46372000
-1.45439000 -1.07269000 -8.42581000
-3.06966000 -4.40034000 4.33774000
4.83135000 1.29347000 -8.04725000
5.02965000 5.10374000 1.47016000
5.11114000 5.08556000 1.34443000
5.04382000 5.09335000 1.36088000
-8.26248000 1.26027000 4.21032000
-7.68896000 -0.43894700 4.80608000
-2.02656000 0.84672700 -8.88337000
0.59928200 0.98438500 9.19014000
-0.00102119 3.43366000 -7.91988000
-0.13441100 3.21808000 7.08782000
3.23923000 -5.64873000 -3.84128000
3.48978000 -5.66137000 -3.58780000
-7.72602000 3.35314000 -2.88735000
-0.24935000 -1.82851000 -7.63874000
-3.01523000 1.38957000 -9.20828000
-0.81870400 4.83621000 5.19007000
-1.07123000 4.83881000 5.14658000
8.47173000 1.88825000 -1.71993000
5.49828000 4.07780000 2.35766000
-2.14906000 2.78173000 8.17365000
4.21456000 -4.75310000 2.91973000
-6.22791000 -0.63634400 -6.15622000
4.70371000 1.85993000 7.47045000
-7.66133000 2.94017000 2.11987000
5.13508000 2.13240000 -7.05632000
-7.77509000 2.47320000 2.70364000
5.54284000 1.09867000 5.80662000
-7.47125000 -2.73608000 -0.09278310
5.17041000 5.06473000 0.63873100
5.16801000 5.03264000 0.43631500
6.44713000 3.22328000 -2.61070000
3.55446000 0.55322900 -9.16848000
-2.42939000 0.81296200 -9.30157000
-5.64799000 2.41031000 -7.10922000
-8.43217000 1.76205000 -4.30944000
-6.08203000 1.54541000 -6.72697000
9.27250000 -0.32984500 1.36200000
2.67535000 -3.30899000 6.02289000
6.32427000 3.69859000 -3.27408000
-0.67936600 3.42327000 7.12863000
8.13980000 -0.38015400 -0.34496800
-6.69344000 3.45444000 -1.57595000
5.12274000 4.94544000 -2.48330000
8.87626000 0.93763300 -0.56665300
8.82162000 0.94802200 -0.57374000
8.10017000 2.60771000 2.89550000
4.08565000 3.04406000 7.01512000
-8.63886000 1.43112000 -2.16902000
-5.71680000 4.48298000 1.03495000
-6.56197000 3.55054000 -1.45296000
-6.52054000 3.52249000 -1.47941000
5.20936000 1.96877000 7.33828000
3.06155000 0.65885200 8.74768000
-3.55517000 5.02841000 -3.95428000
5.70144000 1.46749000 5.21493000
4.69189000 2.15080000 7.59468000
7.30264000 1.40515000 -4.95175000
-2.17189000 3.34016000 -8.06847000
0.59271200 -0.08830890 9.08373000
8.83853000 -1.53502000 -1.27529000
-1.81049000 3.41288000 -8.04197000
2.76851000 3.44405000 -7.47512000
8.85388000 0.76210800 2.15321000
3.64196000 4.90115000 3.83627000
-5.13854000 -4.02585000 2.36521000
4.20121000 3.40249000 -6.15590000
7.58986000 0.99217700 -4.63596000
-1.88371000 -3.93754000 -3.05375000
1.82273000 3.58171000 5.97417000
7.74671000 2.65187000 -3.95483000
4.26857000 3.90897000 5.29058000
-6.70761000 0.31167900 -7.09553000
1.82352000 1.82592000 8.24700000
-2.03680000 2.79991000 8.01634000
1.76048000 3.20250000 -7.28806000
1.77546000 3.17393000 -7.33501000
3.44998000 3.02069000 7.27269000
-8.17714000 2.99471000 -2.41916000
2.27333000 5.14789000 -5.39069000
1.80564000 3.42327000 -7.21072000
-3.51170000 2.88562000 -7.82777000
-3.54398000 -5.69852000 -1.27896000
-7.24179000 4.72713000 -3.20531000
-8.12248000 -0.96100900 3.41940000
4.44554000 3.99514000 -3.31108000
9.37014000 0.04934910 -1.94713000
4.58429000 3.85702000 -3.44642000
-8.63584000 0.25973200 2.08570000
8.67637000 1.13289000 0.05158310
7.98900000 2.45969000 0.83851600
4.24213000 3.91936000 -3.79267000
4.10805000 3.89125000 -4.09343000
-5.20515000 3.48820000 4.84932000
4.23708000 4.27917000 -3.21872000
8.17357000 0.23116200 -2.68236000
5.04563000 -5.32451000 -0.50936900
1.13951000 2.24668000 8.18051000
-4.88980000 1.35840000 6.94146000
-4.91700000 2.54797000 -6.42253000
4.98523000 1.52982000 -8.19990000
7.23449000 -1.74540000 0.42863500
4.17805000 4.22584000 -3.32428000
-5.94169000 2.68303000 4.93936000
-6.08824000 3.69339000 2.84504000
-6.08998000 3.60248000 2.70999000
-5.80532000 4.01286000 3.83364000
-5.74063000 4.05702000 3.81462000
6.89740000 0.88568600 6.10342000
-5.27172000 -5.20763000 0.09928110
7.30880000 3.21548000 -0.65549800
-6.94482000 3.79209000 -0.52588900
3.15191000 2.32636000 7.50371000
-1.33056000 3.89598000 -6.07923000
5.90830000 3.90377000 3.13162000
-5.29019000 -0.05194640 -8.16585000
-6.47348000 -1.12464000 5.79822000
-0.62799500 -4.87517000 5.07331000
8.62498000 1.07789000 -2.52455000
6.23307000 0.81296200 -6.91465000
-1.13641000 4.02123000 -5.90853000
8.56184000 -1.46749000 2.03755000
-3.54721000 1.81667000 7.52761000
-3.46578000 1.86488000 7.58803000
7.09555000 2.46746000 3.54748000
-3.62995000 4.19467000 -3.91175000
-3.74660000 4.26221000 -3.69205000
-3.93725000 4.32714000 -3.37009000
3.50716000 3.39470000 -6.39629000
3.51218000 3.43366000 -6.40935000
7.02856000 2.12201000 -4.45208000
-1.60155000 5.25698000 4.30923000
1.24650000 -2.76874000 7.21284000
-9.29980000 0.92984100 1.15917000
4.45531000 4.79985000 -2.97460000
0.82510600 -1.45969000 -9.11763000
3.64966000 3.44665000 -6.82673000
4.75862000 4.86671000 1.58192000
4.75539000 4.75829000 1.55423000
-4.87453000 5.35568000 -0.92408500
5.32904000 4.96462000 1.00676000
5.25150000 5.02062000 1.15040000
-5.34301000 4.10896000 -4.61433000
3.15558000 -1.64670000 -8.47758000
5.67929000 -2.25707000 5.51133000
-4.00788000 3.24406000 -5.82125000
3.99376000 2.71420000 7.14099000
6.29549000 -2.41031000 -1.68142000
6.13185000 1.53242000 6.16006000
4.22052000 1.33762000 8.20564000
0.97431800 3.01549000 8.06056000
-4.17005000 3.10380000 -6.10878000
9.32871000 1.04672000 -0.73094900
-4.97981000 4.18820000 -0.17363600
-6.67275000 1.71943000 5.85535000
-3.64825000 -2.69342000 -5.12716000
4.68686000 4.26221000 -2.54380000
3.45566000 1.55060000 -8.97498000
-6.03764000 -3.79988000 0.32737000
-4.78103000 5.36979000 -2.63978000
-4.86013000 5.38425000 -2.42305000
-4.44732000 2.54538000 6.60845000
6.79688000 -3.43366000 -1.87752000
6.31638000 2.02072000 -6.90015000
-5.28426000 -4.26480000 -2.47991000
1.73832000 -4.83567000 -5.32219000
-5.39664000 -4.13753000 -2.53301000
-5.22773000 0.05454380 -7.15102000
-7.41959000 2.63109000 -2.49129000
4.25866000 0.90906300 7.33757000
5.46884000 3.01289000 -4.74623000
5.03642000 4.38168000 -3.03146000
7.51232000 3.11419000 -0.18277800
7.54901000 3.15834000 -0.15727700
6.80099000 2.46226000 4.67342000
-8.69364000 2.62224000 -0.60624800
6.96402000 2.45707000 3.41930000
0.03672970 2.52979000 8.07008000
-4.17307000 4.03364000 5.51914000
-5.56821000 1.75755000 6.71133000
6.37815000 3.49340000 1.90211000
6.37034000 3.54275000 1.69961000
-5.03978000 5.50892000 0.76125400
3.29746000 2.66485000 -7.74950000
3.33511000 2.69773000 -7.76641000
6.97312000 3.51158000 -0.50050400
8.21188000 0.62335700 -5.14532000
-9.46775000 0.82335100 -1.58686000
-7.01356000 0.95062000 5.61298000
-4.54230000 1.78955000 -7.98070000
-4.52992000 1.76878000 -8.02761000
-6.10862000 3.07523000 3.47910000
4.72147000 -3.71936000 3.95479000
4.47570000 -3.89339000 3.83069000
5.19805000 5.03361000 -1.98154000
5.40625000 5.00262000 -1.24812000
-0.60010500 3.81806000 6.62888000
-3.93803000 2.99471000 -7.85343000
-3.93449000 3.06224000 -7.78074000
-6.37447000 4.44142000 -3.02430000
5.33330000 5.03852000 -1.30158000
0.91452800 1.42333000 -9.23308000
0.97706000 1.37398000 -9.21830000
4.99683000 3.37652000 5.96693000
5.28824000 -4.76609000 -0.02676370
-8.06106000 2.58434000 0.33273300
-7.89464000 2.68303000 0.34616800
-4.16084000 4.94011000 3.24873000
7.33393000 -2.87036000 2.23329000
-0.89511800 1.41125000 8.37164000
-4.22205000 4.53240000 -2.79357000
-4.12032000 3.28561000 6.58604000
5.39026000 3.97650000 3.64744000
5.58731000 3.92715000 3.61891000
-8.90765000 2.04409000 1.35411000
-8.95430000 2.04149000 1.36251000
-8.89847000 2.02072000 1.26048000
-8.85813000 2.01552000 1.36646000
-0.77111100 1.98695000 8.67275000
-0.87722300 1.98435000 8.70270000
-2.93132000 1.68802000 8.05204000
-7.82915000 3.55054000 -1.01839000
-2.10252000 -0.99996900 -8.32912000
-2.90256000 1.55067000 8.02199000
-2.91145000 1.57917000 8.07180000
6.90333000 4.88796000 3.94759000
6.07045000 0.48697400 5.77916000
0.34809800 3.34535000 -7.83867000
-4.20608000 3.42327000 5.37670000
5.05368000 1.49086000 -7.92804000
6.07110000 0.51167200 -6.78528000
-5.41955000 -4.77907000 -0.48585200
-8.84252000 2.62070000 -0.64163800
6.81043000 2.20253000 -4.24665000
6.81680000 2.23889000 -4.15582000
2.35225000 5.15568000 -5.31378000
2.20580000 3.37132000 -7.80293000
-7.04496000 -0.74543100 4.58996000
-6.23709000 4.44402000 -5.05735000
-0.99242400 2.87004000 -8.65776000
5.51892000 4.14533000 0.93913800
-5.58979000 1.09607000 6.84400000
-6.55435000 2.65187000 -4.48179000
7.65112000 1.87007000 -3.91464000
-4.72085000 3.83970000 4.68083000
8.19281000 2.91160000 -1.39423000
-7.05121000 2.58434000 -5.34295000
6.51665000 3.96351000 4.37838000
-8.10370000 3.21499000 -0.56834700
-1.85955000 4.49337000 -5.20482000
6.64599000 4.65700000 3.53250000
6.63794000 4.77818000 3.63949000
5.11259000 -0.04155710 5.47709000
4.88806000 1.23000000 -8.19934000
-2.83948000 4.92712000 3.59012000
-5.18408000 4.77907000 1.45406000
-5.20972000 4.72193000 1.48037000
-7.31427000 2.66745000 -2.78357000
-4.37616000 -2.79732000 -4.36967000
-6.52173000 5.27256000 -3.96790000
-6.49486000 5.21542000 -3.89811000
3.84390000 4.18169000 -4.86030000
4.01779000 4.05702000 -5.07295000
1.68793000 -4.92712000 -5.26364000
1.26627000 3.07263000 -8.54668000
-4.72322000 4.11288000 4.73523000
-5.63490000 4.89855000 -5.09110000
-5.55637000 4.80764000 -5.24537000
7.51428000 2.44408000 -4.85577000
-8.40607000 1.56099000 3.38410000
-7.27842000 -2.06487000 2.80587000
4.91700000 4.39936000 1.57893000
6.34302000 2.70121000 -3.83280000
1.74368000 -5.69073000 2.87113000
-2.54055000 3.44405000 -7.85330000
-8.77381000 0.98958000 -4.16998000
7.53535000 3.36873000 -1.21430000
9.16930000 1.56878000 -0.20158900
9.11250000 1.46749000 -0.17488000
0.81983700 1.57815000 -9.12288000
9.24369000 0.71945800 -2.48579000
-2.22930000 -0.11947700 -9.49637000
3.44083000 2.71420000 -7.70979000
2.66920000 -5.69593000 -0.28385000
-0.74309300 -5.66476000 4.80985000
8.86987000 1.70384000 2.15565000
6.60928000 -3.62846000 1.09389000
-3.91677000 0.52985300 -8.01735000
-5.86440000 2.51680000 -6.97135000
8.37821000 0.53504800 1.69704000
7.09511000 0.29349700 -4.93088000
-2.11807000 -4.54012000 -5.31058000
-2.12779000 4.92192000 4.79397000
-3.59914000 4.73232000 2.89600000
5.18257000 2.40245000 -7.18527000
4.96929000 -5.02062000 -1.79416000
8.87486000 1.13503000 -3.28886000
2.39918000 -0.17402100 7.56680000
5.16669000 2.37655000 -7.22297000
5.10602000 2.34538000 -7.29492000
-2.96819000 3.66742000 6.69584000
3.91253000 2.35317000 -8.19383000
-7.40872000 2.59472000 -3.05769000
-7.39929000 2.53369000 -3.08119000
4.70793000 2.19733000 -7.34692000
-5.82862000 3.56076000 2.76542000
-5.86889000 3.52457000 2.73311000
-4.25772000 5.55567000 2.38500000
-4.33131000 5.55942000 2.29356000
-4.26146000 5.54268000 2.29673000
-4.33103000 5.53230000 2.13918000
-5.95944000 -2.25707000 4.97336000
6.46294000 2.62018000 3.88744000
7.09609000 1.95838000 3.58903000
-2.63285000 4.43882000 -5.54809000
-5.49268000 2.58693000 5.71542000
-7.38950000 2.83628000 2.04882000
-7.54340000 2.77134000 1.99886000
-8.63950000 1.22594000 -2.21837000
-4.05263000 -5.69593000 -3.05170000
-4.39071000 -5.66476000 -2.68108000
-8.54731000 2.22331000 -0.31037000
-3.85036000 -0.47531000 7.17480000
-2.02405000 -2.03630000 -7.08071000
-1.62325000 3.96092000 -7.22097000
-0.58091400 2.14019000 -8.97478000
8.84886000 0.55356500 -2.69032000
-3.43242000 -4.04922000 -2.09343000
7.72145000 0.80776700 -5.50784000
1.00007000 5.48010000 4.81994000
2.24273000 1.00776000 7.92209000
-3.01179000 3.74014000 5.93532000
-5.06833000 2.51161000 -6.47512000
-7.80515000 -0.79997500 4.25690000
-7.71435000 -0.92984100 4.24794000
-7.00088000 1.82592000 -6.47353000
3.77963000 3.16613000 7.05284000
-0.62492800 1.02594000 9.13063000
2.63309000 4.09598000 4.56103000
2.50512000 3.67521000 -6.95221000
-5.90036000 4.22065000 -3.32135000
-4.87486000 3.39210000 5.48405000
-2.52595000 -5.56231000 4.31911000
-0.79072700 2.60511000 7.95868000
-0.63895400 2.53758000 8.04504000
-2.99868000 -0.43894700 7.55342000
-7.98933000 -1.67787000 0.05386930
5.00694000 4.34272000 1.52241000
5.07247000 4.28039000 1.56832000
-3.93388000 -2.03370000 -6.32613000
-7.45560000 3.09100000 2.30505000
0.43045600 2.66485000 8.38708000
0.56543900 2.67005000 8.38015000
1.60048000 4.13234000 6.26277000
1.68305000 2.67524000 -8.45595000
2.00095000 1.23892000 8.50966000
1.97019000 1.27529000 8.54123000
1.57435000 2.69610000 -8.43476000
-8.50698000 1.93500000 -4.22538000
2.72476000 0.82335100 -9.45388000
0.44720300 2.02716000 8.36612000
-7.03040000 1.08049000 5.71710000
-2.15499000 1.08308000 -9.57526000
-7.05746000 2.18086000 -4.72997000
6.77601000 3.25964000 -0.47717700
8.43903000 0.62335700 -0.02850900
-7.42403000 2.87264000 -2.63409000
8.48237000 1.21103000 -4.50722000
2.75384000 -4.72972000 -4.99168000
2.54324000 -4.83102000 -5.00714000
3.44620000 2.15733000 7.43991000
8.57891000 0.74023700 -3.07463000
8.62066000 0.68309600 -3.05959000
-4.31045000 -3.66222000 4.13383000
7.20620000 -2.98952000 2.26027000
2.72641000 5.37905000 4.14421000
-3.69833000 1.14022000 7.88456000
-1.03553000 1.23892000 8.91514000
-1.37976000 3.63106000 7.40263000
7.10523000 0.94631000 -6.60919000
-0.99416000 1.32204000 8.69901000
-0.09707860 -4.75050000 5.15217000
7.07814000 4.11156000 3.60744000
7.02228000 4.12195000 3.70687000
-3.81788000 1.29606000 7.67830000
6.81346000 0.43635000 3.82906000
6.11648000 4.20028000 4.16665000
-1.24297000 4.63362000 4.52019000
-2.09572000 0.22596700 -9.61239000
6.55755000 1.91423000 4.52850000
-0.42283700 -2.82069000 7.28117000
6.73498000 2.61810000 3.78591000
-1.21506000 2.25448000 -9.20297000
7.03947000 1.77463000 3.66319000
6.96828000 1.70644000 3.74913000
-5.97978000 3.68560000 3.59952000
-6.44661000 1.10386000 -6.59758000
8.13358000 2.19733000 0.05336340
6.57668000 -2.98952000 3.39573000
-1.80464000 3.94273000 -7.18745000
-1.53942000 3.82326000 -7.36751000
6.78502000 -2.81030000 3.43720000
0.75702000 3.53755000 6.32042000
-5.85021000 3.00510000 4.78232000
-5.87568000 2.99731000 4.82162000
8.59960000 0.89607600 -2.27745000
-6.12728000 4.12490000 -3.47378000
4.44322000 1.59819000 7.07939000
4.39058000 1.58177000 7.09430000
4.47706000 1.58287000 7.01006000
-8.20732000 1.49346000 -4.95656000
8.92101000 1.16360000 -3.53622000
-2.13900000 4.02065000 6.53967000
-7.56148000 3.13756000 3.01213000
-0.45975300 3.24146000 7.03748000
4.39119000 1.58437000 7.14105000
2.79752000 1.29087000 -9.04960000
-6.76642000 2.36616000 -5.21415000
-8.90271000 1.53502000 1.73589000
2.42118000 3.30120000 6.45477000
-6.01540000 4.34012000 -4.98748000
-2.33674000 -5.65964000 -4.61055000
-2.42617000 -5.66464000 -4.53009000
-4.76434000 4.69336000 2.57857000
-4.74680000 4.74531000 2.52899000
7.63127000 3.23886000 -0.02326770
-2.41319000 3.80508000 6.62893000
-3.74190000 1.17037000 8.04023000
6.47315000 2.48823000 4.22828000
1.20912000 -5.64658000 4.72229000
3.81721000 2.28824000 -7.73024000
-0.39094000 1.28567000 8.94578000
-5.30493000 4.45181000 -5.08498000
-5.31819000 4.50116000 -5.10559000
-6.32303000 3.42209000 -0.77470500
3.46142000 2.86744000 -7.92565000
-5.49319000 -0.02857050 7.28434000
-5.31667000 0.09265610 7.44355000
2.99723000 1.86228000 -9.07296000
-0.43958300 1.64151000 -9.09350000
-2.92671000 -2.59992000 -7.38335000
-2.75981000 -2.59507000 -7.47125000
-0.39573900 1.43632000 8.57439000
-7.53299000 2.62253000 -5.07464000
-0.73633500 0.80776700 9.15285000
2.70202000 1.22594000 7.68497000
6.33880000 0.87270000 5.28981000
0.06602040 3.12977000 -7.75710000
-4.21593000 -0.51946400 -7.64983000
3.79526000 2.80770000 -7.82087000
-1.99625000 2.74017000 7.93789000
6.20374000 -3.98689000 0.46533000
6.61664000 1.89345000 6.08626000
1.77945000 -3.15834000 -7.42857000
0.54385400 3.46223000 -7.76587000
4.30770000 -2.90381000 2.28732000
8.61502000 1.66229000 -3.89852000
8.59473000 1.53502000 -4.06190000
-4.96386000 5.42840000 -0.19821800
-6.22619000 4.76089000 -4.21329000
2.05073000 3.50379000 -6.93855000
-9.49041000 1.29866000 0.27846900
7.60987000 2.04409000 2.74339000
3.70926000 -5.46996000 3.21458000
4.38567000 -3.46163000 0.09227750
-4.45819000 -4.22844000 -3.88287000
-3.00640000 3.89301000 5.96904000
6.57458000 3.10899000 -2.39675000
-6.62709000 2.91123000 4.08734000
-6.67334000 2.93257000 4.14195000
6.61969000 3.28750000 -2.45295000
-1.12923000 2.75316000 -8.59105000
-1.12714000 2.78433000 -8.63005000
5.46859000 -3.96871000 -3.55915000
-4.56885000 3.67261000 5.64634000
7.61895000 1.33502000 3.64721000
8.09900000 2.65446000 1.19673000
-4.36814000 -5.52403000 -2.99297000
1.86498000 2.13326000 -8.72828000
5.51955000 0.03376520 -8.05874000
4.19563000 0.61296800 6.68121000
3.79858000 3.70898000 6.10709000
-8.34246000 -0.54284000 3.48199000
3.54010000 3.74793000 -6.25905000
-8.53699000 -0.21298000 -2.32619000
8.89235000 0.72725000 -3.14102000
-8.70211000 -0.22596700 0.97741200
6.33209000 -0.00519464 6.78089000
0.57881600 3.37413000 -8.24736000
-5.85699000 2.94277000 4.86034000
-5.62069000 2.29603000 -6.20303000
-1.81481000 3.83624000 5.69647000
-5.50353000 1.74540000 6.48443000
5.07221000 1.51684000 -7.49969000
3.88542000 2.20513000 6.79691000
3.73077000 2.26486000 6.88982000
1.01459000 1.30905000 -9.53049000
6.23408000 3.56352000 -0.80525800
8.93327000 0.50388000 -0.17516200
4.69610000 1.16360000 6.61500000
6.26950000 -0.32726300 -5.90468000
6.23104000 -0.42076600 -5.86522000
1.56897000 -3.85963000 -6.56591000
1.64058000 -3.57911000 -6.91766000
-8.18797000 2.43629000 -4.26327000
-8.09927000 2.58434000 -4.23325000
-7.28938000 4.68037000 -3.26963000
-9.52635000 0.93503600 -0.89515400
-8.60878000 -0.50388000 -1.64991000
-4.94085000 5.24919000 1.78341000
-4.78829000 5.24140000 2.13210000
-4.30584000 1.08568000 -8.07114000
-5.49593000 4.75050000 -5.19161000
-0.11497200 4.31937000 -5.55700000
1.95155000 2.29746000 -8.55801000
-5.47995000 4.68557000 0.46822500
-6.98688000 3.30379000 -1.56956000
8.49915000 1.87007000 3.41765000
3.13919000 3.08042000 7.54425000
-6.31621000 1.61034000 -6.75771000
-6.26922000 1.58437000 -6.74014000
-6.41898000 1.65023000 5.85355000
-6.31038000 1.67527000 -6.70844000
8.10169000 1.29347000 1.80711000
8.77633000 -0.16882600 3.35952000
-7.28124000 3.45704000 -0.83065000
7.14851000 4.17130000 2.01684000
8.73672000 1.08049000 -0.51030200
0.14167400 4.25961000 6.34136000
4.17457000 -3.30899000 -6.20751000
4.24261000 -5.25675000 2.54396000
4.14230000 -5.15828000 2.75442000
-8.06925000 2.88043000 -3.71932000
-0.31258400 1.35061000 8.37591000
-3.27730000 2.28564000 7.49988000
9.47964000 0.52206100 0.29572600
-5.08592000 1.35580000 -7.83600000
-5.12514000 1.29347000 -7.85628000
0.07228140 0.97659300 -9.08193000
-5.08562000 1.30126000 -7.81263000
-8.15263000 1.97656000 3.90034000
-5.51480000 4.01026000 -5.04330000
-4.65180000 -5.10633000 2.24203000
5.36727000 0.95062000 5.48679000
1.81293000 1.48047000 8.83418000
-6.55815000 2.29084000 -5.17788000
6.93693000 1.98176000 -4.50804000
-8.63898000 -1.25970000 -1.97680000
5.59867000 3.16890000 -4.87094000
-4.92556000 3.66482000 4.57556000
4.65143000 3.49080000 -6.29159000
-7.06841000 2.78952000 4.58507000
7.52936000 2.33545000 -4.65726000
5.25768000 5.04660000 0.02038690
5.23501000 5.03911000 -0.05272190
-3.03009000 2.83368000 -8.34830000
7.14109000 0.14545000 -6.59910000
-3.47122000 3.34016000 -5.90092000
-8.40655000 0.82594800 -3.08636000
-2.36290000 3.09601000 -7.37246000
8.05488000 0.70387400 1.80252000
8.77942000 -1.47528000 -2.03041000
1.25537000 1.12983000 -8.98812000
1.21895000 1.01296000 -8.99284000
-7.08221000 2.84948000 2.61118000
-0.38731000 5.33750000 4.60265000
-0.29274200 -5.10114000 -5.36793000
-1.81161000 4.34272000 4.73794000
-5.22462000 3.66222000 -6.10685000
8.28324000 -1.78696000 -3.03964000
-1.77703000 5.54268000 4.59982000
7.45572000 2.14539000 -3.75886000
5.81086000 4.07260000 0.61586800
-2.57832000 -4.76609000 0.08006770
5.98605000 -2.41291000 -2.51123000
-8.07913000 1.69865000 -4.28286000
9.18336000 0.81296200 -0.52126800
6.65111000 0.90906300 5.53774000
3.45164000 2.08305000 7.19994000
-3.69157000 1.07624000 7.75599000
-7.11059000 4.85439000 -4.10835000
-3.70699000 1.10386000 7.81713000
-6.03332000 3.04406000 4.28077000
-3.72068000 2.50122000 -7.91858000
-0.59259100 2.57654000 -8.87333000
-0.60507300 2.60252000 -8.83420000
-7.96158000 1.46489000 4.21217000
6.31921000 1.27484000 5.14287000
-0.58684000 1.77917000 -9.63448000
-6.41463000 -2.25448000 4.32206000
4.83571000 2.12980000 5.96121000
-4.76203000 -3.77910000 3.36040000
-1.28830000 1.17399000 9.05348000
4.97894000 4.97127000 -1.85143000
7.46813000 2.10123000 -3.60317000
5.12452000 2.30642000 -7.47179000
8.41946000 0.66491400 0.06525500
5.58170000 0.79218300 5.79832000
7.26271000 2.40252000 -4.02131000
-4.61735000 3.48128000 4.61149000
7.36136000 2.32348000 -3.91414000
-0.49447500 -0.74023600 7.76783000
-9.43810000 0.03636250 -0.09625260
2.26541000 -4.15312000 5.05411000
4.79677000 1.03633000 6.76695000
7.03194000 3.31418000 0.03123140
-6.74252000 1.51943000 6.08483000
4.22262000 3.22328000 -6.10682000
-5.17059000 4.04922000 -0.11502400
2.32106000 3.54794000 6.14436000
-7.57104000 2.70641000 -2.35166000
-2.54107000 5.47775000 4.37072000
5.39047000 3.90377000 -1.96585000
5.41899000 3.92715000 -1.76880000
3.51138000 -5.01803000 3.58080000
-0.56526400 2.59732000 -8.96979000
5.19269000 1.52723000 -7.62333000
5.25000000 1.49606000 -7.61108000
8.03622000 0.79997500 2.36903000
-7.24298000 3.14560000 -4.60572000
-0.28720700 -0.81268700 -8.69592000
8.88171000 2.09277000 1.07169000
8.91050000 2.11162000 0.87713500
-0.39745600 -0.18960400 9.04457000
2.69921000 5.11153000 -5.19878000
5.77214000 3.87379000 3.99743000
8.93379000 2.02851000 1.07165000
5.29997000 5.06997000 0.07698600
-7.39796000 3.65703000 -1.01876000
-4.54295000 3.59729000 4.63556000
3.78439000 3.24146000 -6.65184000
1.92105000 1.33502000 8.55745000
1.92844000 1.30386000 8.52618000
-4.89584000 1.58437000 7.07661000
7.74681000 3.62586000 2.68707000
-5.02496000 1.50645000 -7.94329000
4.22137000 0.61556500 -8.01340000
-0.72500000 3.46483000 6.61231000
5.52709000 -2.08045000 5.79383000
8.19914000 0.45453100 -2.31124000
8.53055000 0.72715300 0.05944990
-8.83749000 1.89604000 0.35055700
2.26266000 -5.64917000 -4.60869000
2.03813000 -5.63879000 -4.69671000
2.06234000 -5.66736000 -4.63208000
0.78345900 -0.54543700 -8.72227000
1.26375000 5.14998000 -5.75680000
-3.11782000 1.84670000 7.78095000
4.84820000 -5.59463000 -1.31465000
4.76826000 -0.86490800 5.36465000
8.84457000 0.80516900 0.19743200
5.38866000 3.59989000 -4.71922000
5.38866000 3.59989000 -4.71922000
2.52695000 1.10906000 8.00673000
2.56155000 1.15321000 8.07122000
3.61481000 1.02594000 -8.31727000
5.07527000 0.62855200 -7.86598000
2.76316000 3.30120000 7.39066000
3.85430000 3.20769000 5.59465000
3.84485000 3.23107000 5.66751000
-1.14476000 1.99734000 8.30094000
-6.52085000 2.52719000 4.94684000
-6.65673000 3.47262000 4.28103000
-4.84433000 5.48295000 0.81068000
-1.04178000 1.65059000 8.58299000
-5.08288000 -5.09595000 1.24495000
-6.33622000 1.79215000 6.57052000
-6.25841000 1.95319000 6.56172000
-6.19241000 1.91423000 6.64399000
7.09376000 -0.27791300 -4.43214000
4.07608000 2.83628000 -7.79852000
-7.55568000 1.77917000 -4.58055000
-7.45163000 3.80767000 -2.96103000
6.68354000 3.44924000 -3.21119000
-5.49260000 2.67784000 -7.14500000
-0.73868800 2.07732000 -9.01951000
3.94725000 5.06218000 -3.89795000
-9.19594000 1.51164000 -1.45789000
-9.28637000 1.52463000 -1.42036000
5.07900000 4.70894000 -1.14360000
-1.02015000 -5.70372000 -4.57148000
2.29069000 -5.59983000 -4.65062000
-6.52830000 4.61544000 -4.67694000
5.28756000 1.75319000 -7.92068000
-4.69594000 -1.80172000 -6.24798000
6.90966000 4.07520000 2.22773000
-2.58192000 0.63721800 8.84651000
3.72252000 2.78693000 7.05617000
3.76404000 2.77913000 7.05304000
2.32199000 3.51418000 -6.24851000
-4.85639000 5.44399000 0.68095900
-5.99705000 -3.88559000 0.05150680
-9.50857000 0.36102800 -0.52393600
6.79980000 0.61556500 6.39041000
-2.14668000 -2.61550000 -7.72592000
-8.55912000 2.16097000 -0.21930300
-1.22672000 -5.57449000 -5.08295000
-5.29982000 1.98695000 -6.90072000
5.75220000 -1.22334000 -5.33174000
5.52828000 0.60777300 5.68472000
8.55210000 0.55842400 2.28963000
-8.15707000 1.39216000 4.16015000
-8.01722000 -1.61381000 -1.42022000
4.32981000 3.21289000 6.00931000
8.60756000 0.54024300 2.15904000
2.49371000 4.36701000 5.03124000
5.07317000 -4.90894000 0.81761800
5.96870000 4.62722000 4.35680000
4.76092000 4.45960000 -3.44610000
0.08689130 3.63365000 -7.14695000
0.24278500 3.63625000 -7.14377000
3.58525000 3.50898000 -6.98694000
4.81553000 1.64657000 7.17942000
4.75316000 1.69605000 7.21170000
6.54597000 0.72984700 -6.41997000
-4.12940000 4.61544000 3.67172000
8.51394000 1.25827000 2.42112000
4.73726000 -1.72202000 4.37279000
1.50034000 -2.07526000 7.76024000
1.82225000 -2.68303000 -7.93565000
4.67995000 0.78958600 7.97892000
-4.49164000 4.00247000 -3.05382000
5.36521000 4.08818000 4.52313000
3.96462000 2.53385000 7.35230000
8.48413000 1.03893000 -0.55898900
0.35169000 -3.98949000 2.49169000
0.14918100 1.89085000 -9.56347000
-2.99687000 2.53649000 -8.74255000
-4.30325000 5.34269000 2.88172000
-4.90587000 2.83574000 6.91553000
-4.99283000 2.87524000 6.80772000
4.48035000 0.80776700 6.40219000
6.88630000 1.94994000 5.87651000
2.44206000 -4.70115000 -5.19806000
-8.03221000 -0.05454380 -3.86786000
-1.80291000 4.97907000 4.20533000
5.73191000 -2.76095000 -1.07151000
-4.75127000 5.55193000 1.45677000
-4.70306000 5.54773000 1.46802000
5.61677000 -2.77654000 -1.74019000
5.89606000 3.95312000 0.57580500
-7.63724000 1.81293000 -4.46001000
-1.23863000 5.04660000 -5.79989000
3.26186000 -0.00519464 8.59467000
7.38528000 0.41816900 4.05805000
7.45180000 0.37920900 3.97926000
1.73728000 3.52457000 6.79869000
0.42705400 1.11165000 8.32479000
7.46652000 0.36102800 5.72202000
-9.00935000 1.88046000 -2.09410000
-8.94438000 1.83890000 -2.09235000
6.67558000 -3.15575000 2.80741000
5.17430000 5.02994000 0.31762000
-6.31848000 5.36866000 -4.52120000
-5.60185000 1.31424000 6.51427000
-3.87722000 -4.34792000 -4.35273000
-8.89633000 -1.10646000 0.01883200
-8.89068000 -1.09867000 0.25513500
5.02357000 2.27542000 -7.69671000
-5.00549000 3.15315000 6.43124000
-6.74197000 2.47005000 4.92113000
-7.69982000 -2.54018000 -0.65899900
3.86532000 -4.92972000 3.23075000
0.05652430 1.28567000 -9.49733000
-8.29717000 2.14539000 -4.47226000
6.98551000 -2.61291000 -4.16579000
7.00184000 -2.51940000 -4.30887000
7.06309000 -2.72199000 -3.79015000
-4.26271000 -1.25970000 7.42689000
-4.33849000 -5.55827000 2.76788000
-4.33556000 -5.46736000 2.79382000
5.73025000 2.24928000 5.63535000
-3.46994000 -1.45450000 -7.41010000
-3.76876000 -1.49865000 -7.21662000
-3.32607000 -4.18429000 4.32891000
-3.22255000 -4.30376000 4.29900000
-7.23799000 2.83108000 4.52751000
7.65240000 -2.85705000 -0.80020500
7.66457000 1.21035000 -5.68893000
7.89598000 -2.62589000 -0.24228400
2.26909000 3.18951000 -7.52841000
5.11044000 2.18954000 -7.75734000
1.89548000 -5.09075000 -5.08190000
6.59636000 1.63891000 -6.94273000
3.99272000 3.32197000 5.04998000
-7.18037000 3.64417000 1.58709000
3.44810000 2.80511000 7.12725000
3.40784000 2.84666000 7.02647000
6.63579000 2.43369000 5.75873000
7.14952000 -1.78176000 4.50787000
8.32435000 1.07010000 1.54968000
0.02011780 1.27009000 -9.29945000
-0.01337610 1.22594000 -9.27824000
5.92374000 -2.05188000 -6.32881000
-2.03332000 0.02337590 8.88907000
-2.70504000 -1.07789000 7.16000000
0.44596300 1.60514000 -9.11013000
7.47180000 1.42593000 3.91926000
-5.26537000 -4.46220000 1.39537000
-1.82910000 -1.38957000 -8.07549000
-6.77063000 -0.25713500 -5.74140000
6.60616000 2.39473000 4.47073000
6.64005000 2.42850000 4.48068000
3.78010000 1.13763000 -8.99476000
-9.00263000 1.83111000 -2.17731000
7.34083000 0.54284000 3.02999000
-4.99929000 5.50354000 0.23192300
-5.03405000 5.51352000 0.18500500
5.12352000 4.42843000 1.90014000
4.99902000 4.50582000 2.14335000
-5.60881000 4.13494000 3.76357000
-4.12167000 3.13497000 -7.59130000
-7.82638000 3.32457000 -2.61331000
6.80667000 3.23107000 -0.51653600
2.99450000 2.53239000 7.40326000
-2.19995000 -3.17133000 4.03383000
0.30606800 -5.52970000 -5.26137000
0.38357900 -5.34529000 -5.29354000
6.83736000 2.94796000 -2.96641000
-3.35726000 -4.92192000 -4.31789000
-5.27371000 2.22071000 7.18279000
-0.38949300 3.69339000 -7.62913000
-7.93577000 2.87004000 2.99359000
-2.07997000 4.81543000 -5.57862000
-8.37600000 2.87783000 2.09274000
-3.39168000 3.75833000 6.48831000
3.85287000 2.99017000 -6.57869000
-5.72522000 4.55570000 -0.62217000
-8.98559000 1.07269000 -1.66322000
-0.18187200 4.87258000 -5.43170000
-2.78894000 3.57911000 5.89348000
-4.38663000 1.55839000 -8.19570000
-4.85146000 3.87001000 -2.95826000
-4.72266000 3.96871000 -2.84043000
6.04288000 1.11945000 6.10926000
6.27719000 3.15315000 5.14515000
7.54221000 1.19217000 -5.30811000
-6.17567000 3.14795000 4.92420000
-3.94396000 3.39730000 -5.90000000
-8.33932000 0.10908800 2.92088000
9.47601000 0.47920600 -0.03541290
-4.84597000 3.12198000 5.30704000
-2.77974000 -1.35580000 -8.67363000
6.50173000 1.18616000 -6.65007000
6.60518000 1.21295000 -6.66231000
4.93292000 4.39467000 2.42731000
5.01549000 4.33233000 2.38468000
6.85743000 2.25967000 -4.02647000
6.29272000 -1.88825000 -6.11798000
-2.40769000 1.52982000 -9.02911000
-2.51872000 1.55060000 -8.97832000
-0.13318500 4.22325000 -5.68429000
-3.01433000 3.31938000 6.14056000
-5.90710000 2.75576000 -4.84861000
6.59363000 0.94542500 5.71252000
-0.32149200 3.43366000 -8.19627000
-4.94328000 3.32197000 4.81217000
-2.44420000 3.64404000 5.83708000
-8.84736000 0.70906900 3.20538000
4.75650000 4.55311000 1.63993000
-2.71153000 0.79737800 -9.22519000
7.99255000 2.56096000 -3.82554000
7.98848000 1.27009000 2.09171000
7.99837000 1.30386000 2.05262000
3.42047000 3.71417000 -5.26524000
-4.31735000 3.36873000 -6.25104000
-4.42329000 5.55827000 2.23648000
5.19649000 2.47005000 6.14098000
-4.72079000 1.39476000 -7.52122000
-4.72842000 1.35320000 -7.50814000
4.55161000 3.19990000 5.48434000
-8.95499000 0.96360600 0.70534000
4.13144000 3.34275000 -6.93166000
-4.74202000 1.95838000 7.72401000
3.84992000 2.34798000 -8.01379000
3.84799000 2.35837000 -7.96182000
-8.83070000 1.78696000 1.68041000
-6.81090000 4.35831000 -3.83169000
-6.80510000 4.32454000 -3.78501000
6.89122000 1.24152000 -5.43217000
-6.26193000 3.72456000 3.67590000
-7.89902000 3.49600000 -0.19406400
7.90848000 0.86490800 3.53957000
-6.90804000 3.74014000 -1.29783000
8.71614000 0.53245100 -2.90756000
4.38634000 1.68047000 7.97232000
5.55304000 3.88559000 -1.44584000
8.44651000 0.91685500 0.14802700
7.84842000 3.35054000 2.30911000
-3.77603000 3.72716000 -6.37233000
-3.77603000 3.72716000 -6.37233000
6.66718000 2.96192000 -2.25384000
-4.99674000 4.71414000 -2.74338000
0.73755900 3.01549000 7.82984000
-2.41739000 -0.76101500 -9.17704000
-7.48470000 1.01555000 -6.32441000
7.19853000 2.70121000 -1.55022000
-8.50025000 2.19993000 -0.48761000
-8.95113000 1.45710000 -0.00124023
3.93725000 -2.59472000 3.37009000
-8.40411000 2.20513000 -0.68626500
4.72999000 1.38437000 -8.45376000
-7.12915000 3.97130000 0.48693500
-9.03948000 1.13243000 1.60518000
6.53777000 0.80776700 6.21456000
1.78533000 -0.97659300 8.50725000
4.60294000 -3.32197000 -2.00243000
5.66978000 0.69608200 5.98161000
-5.44766000 1.84446000 6.38873000
-7.87118000 2.87264000 -2.46207000
7.03821000 3.15055000 -2.49885000
9.23742000 1.57621000 0.06994450
4.82842000 -5.55307000 0.97403400
-2.03066000 1.34282000 -9.60284000
-1.96857000 1.34022000 -9.62182000
-1.96438000 1.50571000 -9.58263000
8.14363000 -2.09084000 1.63513000
2.03902000 -0.44673900 -9.45281000
-3.51272000 3.17133000 -6.29780000
-3.41920000 3.27263000 -6.09640000
-5.11324000 3.42846000 5.32868000
-5.15517000 3.47522000 5.30064000
4.12645000 2.37135000 7.76008000
6.64068000 1.09087000 5.73529000
5.13030000 2.34278000 -7.22510000
5.06693000 2.30382000 -7.30481000
5.02707000 2.31421000 -7.37442000
-4.91520000 1.85499000 6.74505000
-8.35363000 1.05711000 -4.61959000
-6.60444000 1.81033000 5.71420000
-8.54611000 0.40518200 3.80412000
-8.54557000 0.57920200 3.84567000
6.41885000 -1.47528000 -6.40794000
7.36858000 0.51946400 4.17255000
4.77836000 3.71417000 -5.51397000
6.83119000 3.99728000 1.98458000
-5.82490000 4.43363000 -4.91981000
-5.24140000 4.62583000 -2.37916000
-5.20940000 4.68817000 -2.31464000
3.45946000 3.34275000 -6.26840000
-6.39200000 1.77137000 -6.19047000
-6.40152000 1.74540000 -6.12281000
-2.44963000 3.15575000 -7.24925000
-4.02467000 3.10663000 -6.51722000
-6.51731000 2.80251000 5.01953000
-1.10480000 -3.88300000 -3.28200000
-7.21811000 1.64670000 -5.19273000
-1.76386000 2.56615000 7.83099000
-5.11643000 5.21019000 1.32233000
-2.56713000 3.41028000 -7.89972000
0.55632700 1.56629000 -9.52839000
2.07896000 0.01558390 -9.57801000
-6.81304000 2.05968000 -6.61103000
-6.17567000 3.14795000 4.92420000
-6.16831000 3.20769000 4.89034000
1.88601000 1.97106000 8.07753000
1.93362000 1.97396000 8.12350000
-4.25855000 3.06224000 -5.92192000
-6.97586000 2.12461000 -4.93871000
-7.01927000 2.12461000 -4.88100000
-3.96789000 -5.67515000 2.30073000
5.75147000 -1.16100000 4.06097000
8.01144000 2.91160000 2.26025000
-7.90732000 2.48044000 2.38020000
0.00446809 0.94802200 -9.30444000
8.00310000 1.52723000 -2.60743000
3.95073000 3.45444000 -6.04097000
6.29653000 -3.74534000 -2.60616000
-5.70629000 3.83628000 -5.83178000
-1.38219000 -3.83884000 -6.65782000
7.99580000 3.10120000 -0.35786500
7.90404000 3.14536000 -0.62422500
6.91686000 2.62589000 3.58875000
-2.70949000 -5.63359000 -4.44315000
-4.39698000 1.21295000 -8.79560000
-5.86352000 3.52976000 3.55126000
-3.49426000 -5.63359000 -3.86415000
-3.33954000 -5.65697000 -3.95187000
-2.68586000 1.67268000 -9.24890000
5.69052000 1.38076000 5.43799000
2.41801000 3.53495000 7.01328000
-2.86638000 1.66335000 -9.25492000
5.22496000 -1.85140000 -7.16297000
4.75124000 -1.93760000 -7.41242000
-1.04034000 -3.70898000 3.31491000
-6.39588000 1.74803000 -6.69740000
8.35142000 1.60514000 3.84555000
2.55720000 -0.05194640 7.53359000
8.10513000 2.94796000 1.00731000
5.95189000 1.29087000 5.90263000
-2.37315000 2.91281000 7.17784000
-0.79392300 -1.74800000 -7.76937000
3.22429000 2.24668000 7.49640000
3.36167000 2.17915000 7.47384000
3.31492000 2.20772000 7.47445000
3.67617000 3.75085000 6.19348000
3.57077000 4.44238000 4.06401000
8.46781000 0.60517600 2.39982000
8.49554000 0.55322900 2.33452000
2.35077000 4.71037000 -4.86176000
-6.47939000 -3.56353000 -1.09297000
7.05173000 1.38697000 -6.47846000
-8.29841000 3.02328000 1.86575000
-6.91171000 2.58434000 4.24796000
-6.90443000 2.54797000 4.20890000
-3.93384000 2.61320000 -8.21434000
-5.93830000 2.85197000 4.94408000
-2.89134000 5.28035000 -4.64601000
6.29934000 2.46486000 4.24611000
-7.98429000 3.27003000 -0.15919400
-3.60566000 4.26221000 3.59742000
3.25369000 1.41294000 -8.52300000
4.24737000 1.73241000 6.66496000
4.64165000 1.17918000 -7.85259000
-0.64399400 3.70638000 7.25286000
-1.36929000 2.47525000 -8.87628000
1.05057000 -1.89864000 6.12181000
6.48860000 1.87786000 6.22819000
7.15614000 2.84181000 3.91166000
7.30912000 2.01292000 -4.45051000
-6.39701000 3.49600000 -1.35119000
-1.51169000 3.74793000 -7.43281000
3.93534000 2.78173000 -7.83567000
