-4.69120000 -5.49990000 1.62007000
-4.57569000 -5.50517000 1.62880000
-4.46151000 -5.50996000 1.63272000
-4.34629000 -5.51342000 1.63443000
-4.23099000 -5.51780000 1.63690000
-4.11669000 -5.52145000 1.64000000
8.13164000 -4.93933000 1.63593000
-6.31353000 -5.40641000 1.55254000
-6.42829000 -5.38655000 1.54396000
-6.19870000 -5.42175000 1.55827000
-6.08480000 -5.43312000 1.56359000
-5.97086000 -5.44307000 1.57118000
-5.85523000 -5.45086000 1.58048000
-5.73824000 -5.45648000 1.58767000
-5.62237000 -5.46164000 1.59131000
-5.50698000 -5.46670000 1.59243000
8.17128000 -4.83843000 1.59535000
-6.65981000 -5.34097000 1.51750000
-6.77588000 -5.31489000 1.50353000
-6.54492000 -5.36433000 1.53082000
8.20645000 -4.73360000 1.55581000
-7.01476000 -5.25328000 1.47025000
-7.13337000 -5.22228000 1.45484000
-6.89446000 -5.28514000 1.48810000
8.23709000 -4.62579000 1.51583000
-7.60006000 -5.12447000 1.41092000
-7.71426000 -5.09501000 1.39702000
-7.48358000 -5.14637000 1.42266000
-7.36620000 -5.16759000 1.43233000
-7.48358000 -5.14637000 1.42266000
-7.24986000 -5.19287000 1.44170000
8.26497000 -4.51292000 1.47489000
-7.81907000 -5.05044000 1.38358000
-7.90336000 -4.99107000 1.37140000
8.29172000 -4.39907000 1.43265000
-7.95768000 -4.92621000 1.34108000
8.32133000 -4.28809000 1.39014000
-8.00874000 -4.83600000 1.29383000
8.35493000 -4.18187000 1.34895000
-8.05855000 -4.73241000 1.24796000
8.39296000 -4.07676000 1.30852000
-8.10561000 -4.62708000 1.20437000
8.43345000 -3.96964000 1.26820000
-8.15057000 -4.52212000 1.16140000
8.46993000 -3.86046000 1.22533000
-8.19286000 -4.41802000 1.11821000
8.50307000 -3.75130000 1.18008000
-8.23263000 -4.31150000 1.07529000
8.53463000 -3.64386000 1.13521000
-8.26945000 -4.20583000 1.03320000
8.56696000 -3.53638000 1.09223000
-8.30209000 -4.10285000 0.98994400
8.59882000 -3.42628000 1.05076000
-8.33284000 -4.00030000 0.94549800
8.62740000 -3.31338000 1.00892000
-8.36510000 -3.89255000 0.90171500
8.65392000 -3.20187000 0.96844100
-8.39966000 -3.78137000 0.85868700
8.68089000 -3.09227000 0.92911500
-8.43606000 -3.67293000 0.81755700
8.70739000 -2.98314000 0.88852100
-8.47087000 -3.56669000 0.77652500
8.73493000 -2.87345000 0.84563700
-8.50330000 -3.46072000 0.73402700
8.76221000 -2.76416000 0.80162500
-8.53323000 -3.35427000 0.69133700
8.78805000 -2.65712000 0.76001300
-8.56243000 -3.24999000 0.64993400
8.81397000 -2.54993000 0.71840500
-8.58966000 -3.14580000 0.60769400
8.84145000 -2.44057000 0.67432600
-8.61468000 -3.04057000 0.56499300
8.86828000 -2.32984000 0.63090400
-8.63756000 -2.93478000 0.52405500
8.89116000 -2.22082000 0.58848200
-8.65954000 -2.82908000 0.48549100
8.90877000 -2.11345000 0.54628900
-8.68204000 -2.72501000 0.44744900
8.92046000 -2.00657000 0.50533000
-8.70621000 -2.62102000 0.40794000
8.92930000 -1.90039000 0.46448900
-8.73061000 -2.51522000 0.36497500
8.93650000 -1.79529000 0.42376100
-8.75486000 -2.40721000 0.31995800
8.94247000 -1.68827000 0.38285800
-8.77675000 -2.29793000 0.27713800
8.94789000 -1.57859000 0.34207600
-8.79505000 -2.19101000 0.23672300
8.95332000 -1.46921000 0.30177500
-8.81224000 -2.08385000 0.19653100
8.95924000 -1.35981000 0.26092000
-8.82866000 -1.97667000 0.15228600
8.96551000 -1.25286000 0.21750600
-8.84312000 -1.86879000 0.10673900
8.96980000 -1.14834000 0.17082500
-8.85564000 -1.76116000 0.06160960
8.97382000 -1.04362000 0.12464100
-8.86451000 -1.65445000 0.01794130
8.97464000 -0.93689500 0.07967040
-8.86968000 -1.54779000 -0.02683950
8.97278000 -0.82837000 0.03598680
-8.87189000 -1.43928000 -0.07017660
8.96810000 -0.71892800 -0.00776394
-8.87164000 -1.32889000 -0.11040300
8.96060000 -0.60807500 -0.04821170
-8.86949000 -1.21999000 -0.14785500
8.95093000 -0.49754000 -0.08531720
-8.86631000 -1.11304000 -0.18793300
8.93953000 -0.39077800 -0.12424900
-8.86182000 -1.00832000 -0.22972700
8.92604000 -0.28642000 -0.16735200
-8.85754000 -0.90403900 -0.27124500
8.91003000 -0.18151500 -0.21219700
-8.85169000 -0.79760700 -0.31376600
8.89271000 -0.07814850 -0.25491200
-8.84256000 -0.68801700 -0.35691200
8.87447000 0.02312350 -0.29508400
-8.83098000 -0.57888500 -0.39936300
8.85272000 0.12474700 -0.33568300
-8.81655000 -0.46958000 -0.44040600
8.82804000 0.23011400 -0.37803200
-8.80113000 -0.36068800 -0.48068900
8.80045000 0.33829800 -0.42130700
-8.78458000 -0.25274100 -0.52154300
8.76892000 0.44798500 -0.46707500
-8.76414000 -0.14404700 -0.56405000
8.73519000 0.55665500 -0.51336400
-8.73973000 -0.03471380 -0.60646100
8.70161000 0.66384000 -0.55479000
-8.71330000 0.07457190 -0.64781900
8.66646000 0.76926800 -0.59374400
-8.68378000 0.18257100 -0.68808000
8.62814000 0.87291300 -0.63428000
-8.65261000 0.29134500 -0.72664500
8.58768000 0.97643100 -0.67775300
-8.61900000 0.40029600 -0.76450400
8.54270000 1.08247000 -0.72307400
-8.58187000 0.50781900 -0.80418900
8.49416000 1.19141000 -0.76688700
-8.54178000 0.61494600 -0.84883500
8.44515000 1.29924000 -0.80450400
-8.50041000 0.72080800 -0.89538600
8.39334000 1.40414000 -0.84149000
-8.45677000 0.82781600 -0.94078900
8.33836000 1.50744000 -0.88215000
-8.41024000 0.93689700 -0.98551600
8.28099000 1.61183000 -0.92440000
-8.36212000 1.04668000 -1.02897000
8.22082000 1.71678000 -0.96587600
-8.31318000 1.15653000 -1.07130000
8.15660000 1.82209000 -1.00848000
-8.26089000 1.26678000 -1.11270000
8.08902000 1.92817000 -1.05128000
-8.20640000 1.37815000 -1.15520000
8.01910000 2.03199000 -1.09218000
-8.14694000 1.48900000 -1.19839000
7.94643000 2.13412000 -1.13158000
-8.08409000 1.60128000 -1.24266000
7.86901000 2.23666000 -1.17225000
-8.01768000 1.71362000 -1.28650000
7.78471000 2.34170000 -1.21553000
-7.94760000 1.82368000 -1.33107000
7.69473000 2.44840000 -1.26096000
-7.87466000 1.93033000 -1.37326000
7.60296000 2.55089000 -1.30683000
-7.79902000 2.03631000 -1.41043000
7.51065000 2.64889000 -1.35258000
-7.71607000 2.14668000 -1.44624000
7.41529000 2.74691000 -1.39903000
-7.62435000 2.26189000 -1.48471000
7.31246000 2.85149000 -1.44559000
-7.52630000 2.37876000 -1.52963000
7.20267000 2.96052000 -1.48538000
-7.42522000 2.49196000 -1.57999000
7.09048000 3.06787000 -1.52410000
-7.32452000 2.59996000 -1.63219000
6.97636000 3.17417000 -1.56465000
-7.21778000 2.70548000 -1.69677000
6.86298000 3.27918000 -1.60586000
-7.11092000 2.82249000 -1.71906000
6.74715000 3.38080000 -1.64735000
-6.99596000 2.93024000 -1.76915000
6.62511000 3.47959000 -1.69051000
-6.87184000 3.05539000 -1.78827000
6.49894000 3.57565000 -1.73402000
-6.75288000 3.16192000 -1.82407000
6.37412000 3.66745000 -1.77560000
-6.63642000 3.26122000 -1.86391000
6.25221000 3.75527000 -1.81040000
-6.52337000 3.35649000 -1.90119000
6.13388000 3.83833000 -1.84047000
-6.41379000 3.44696000 -1.93244000
6.01615000 3.91615000 -1.86974000
5.89776000 3.98845000 -1.89919000
-6.30511000 3.53298000 -1.95854000
-6.19368000 3.61707000 -1.98258000
5.78099000 4.05677000 -1.92976000
-6.07786000 3.70491000 -2.00787000
5.55405000 4.17840000 -1.98777000
5.66678000 4.11975000 -1.95952000
-5.95022000 3.81273000 -2.03128000
-5.82886000 3.91498000 -2.11898000
5.32168000 4.28747000 -2.03689000
5.43878000 4.23401000 -2.01279000
5.20345000 4.33832000 -2.06077000
-5.73690000 4.04629000 -2.15592000
4.85132000 4.47623000 -2.11943000
4.96949000 4.43255000 -2.10197000
5.08651000 4.38679000 -2.08246000
-5.66881000 4.15806000 -2.20040000
4.61591000 4.55847000 -2.15173000
4.73317000 4.51849000 -2.13531000
-5.60966000 4.26123000 -2.25015000
4.49784000 4.59714000 -2.16970000
4.37963000 4.63595000 -2.18824000
-5.55796000 4.35745000 -2.31700000
4.02725000 4.75780000 -2.23556000
4.14348000 4.71702000 -2.21868000
4.26174000 4.67618000 -2.20367000
-5.53408000 4.44442000 -2.40709000
-5.46186000 4.37040000 -2.20496000
-5.43761000 4.46124000 -2.36128000
-5.21106000 4.45744000 -2.32273000
-5.09577000 4.44563000 -2.31176000
-4.97694000 4.43871000 -2.30438000
-4.85723000 4.44037000 -2.29934000
-4.73748000 4.44990000 -2.29721000
-4.61938000 4.46608000 -2.30110000
-4.50254000 4.48614000 -2.30889000
3.84122000 4.83274000 -2.26578000
3.75987000 4.89010000 -2.29573000
3.82864000 4.90061000 -2.20440000
3.91836000 4.79790000 -2.25279000
-5.32313000 4.46642000 -2.33905000
-4.38841000 4.50885000 -2.31600000
-4.27323000 4.53478000 -2.32284000
-4.15716000 4.56492000 -2.33001000
-4.04240000 4.59803000 -2.33713000
-3.92989000 4.63505000 -2.34648000
3.68262000 4.86465000 -2.41366000
3.69239000 4.95346000 -2.34619000
3.69239000 4.95346000 -2.34619000
-3.81918000 4.67538000 -2.35946000
-3.70617000 4.71927000 -2.37377000
-3.59031000 4.76718000 -2.38687000
3.66621000 5.08044000 -2.37861000
-3.47673000 4.81766000 -2.39893000
-3.37723000 4.87246000 -2.41876000
-3.31366000 4.92586000 -2.45072000
3.64492000 5.19436000 -2.41954000
-3.35269000 5.01701000 -2.42708000
-3.23980000 5.00449000 -2.53709000
3.60520000 5.30424000 -2.45521000
-3.36210000 5.14131000 -2.49792000
-3.35269000 5.01701000 -2.42708000
3.53344000 5.41786000 -2.47663000
-3.36501000 5.24878000 -2.55655000
3.41459000 5.48777000 -2.52898000
-3.34986000 5.35368000 -2.59956000
3.30605000 5.54303000 -2.56076000
3.19413000 5.59166000 -2.58571000
-3.30807000 5.44910000 -2.63194000
3.07976000 5.63771000 -2.60611000
2.96311000 5.68186000 -2.62446000
2.84376000 5.72491000 -2.64319000
2.72445000 5.76700000 -2.66257000
-3.13504000 5.59152000 -2.69745000
-3.03383000 5.64291000 -2.71816000
2.37096000 5.88247000 -2.71645000
2.48759000 5.84588000 -2.69968000
2.60565000 5.80749000 -2.68163000
-2.92834000 5.68392000 -2.73631000
-2.81721000 5.71853000 -2.75275000
-2.70295000 5.75286000 -2.76542000
2.01534000 5.98414000 -2.75581000
2.13537000 5.95251000 -2.74236000
2.25405000 5.91878000 -2.73035000
-2.58841000 5.78658000 -2.77524000
-2.47334000 5.82092000 -2.78408000
-2.35713000 5.85500000 -2.79278000
-2.24227000 5.88988000 -2.80063000
-2.12902000 5.92466000 -2.80883000
1.67152000 6.06224000 -2.79351000
1.78336000 6.03820000 -2.78119000
1.89726000 6.01260000 -2.76855000
-2.01665000 5.95838000 -2.81705000
-1.90413000 5.98860000 -2.82814000
-1.78950000 6.01562000 -2.84180000
1.20586000 6.14825000 -2.84229000
1.32389000 6.12881000 -2.83041000
1.44073000 6.10919000 -2.81771000
1.55750000 6.08665000 -2.80535000
-1.67376000 6.04253000 -2.85483000
-1.55781000 6.06866000 -2.86376000
-1.44319000 6.09490000 -2.86905000
-1.33112000 6.11913000 -2.87412000
-1.21898000 6.13998000 -2.88114000
-1.10247000 6.15948000 -2.88908000
0.62854100 6.22970000 -2.88246000
0.74455200 6.21711000 -2.87352000
0.85860300 6.20166000 -2.86625000
0.97318900 6.18449000 -2.86014000
1.08819000 6.16667000 -2.85229000
-0.98562300 6.17609000 -2.89554000
-0.87211500 6.19155000 -2.90022000
-0.75936200 6.20649000 -2.90401000
-0.64596900 6.22051000 -2.90655000
-0.53093900 6.23295000 -2.90822000
-0.41469300 6.24356000 -2.90803000
-0.29722500 6.25243000 -2.90662000
-0.18042600 6.25715000 -2.90788000
-0.06662450 6.25818000 -2.90929000
0.04698190 6.25826000 -2.90827000
0.16179900 6.25691000 -2.90442000
0.27701800 6.25299000 -2.90090000
0.27701800 6.25299000 -2.90090000
0.39296100 6.24753000 -2.89601000
0.51069300 6.23985000 -2.89012000
7.35872000 -5.97339000 2.24864000
7.47614000 -6.05049000 2.26815000
7.38033000 -6.04346000 2.35420000
7.58097000 -6.06375000 2.24009000
7.69267000 -6.07176000 2.23842000
7.80250000 -6.06719000 2.25856000
7.90515000 -5.97331000 2.21341000
7.90579000 -6.04721000 2.30094000
7.34746000 -5.89021000 2.16788000
7.90083000 -5.88036000 2.14396000
7.99971000 -5.84279000 2.20886000
8.00126000 -5.93382000 2.28128000
7.33821000 -5.79209000 2.10264000
7.89411000 -5.77566000 2.09119000
7.99614000 -5.74102000 2.15270000
7.89278000 -5.66550000 2.04657000
7.99471000 -5.63310000 2.10824000
7.22352000 -5.65116000 2.12500000
7.21487000 -5.55162000 2.04108000
7.89803000 -5.55308000 2.00049000
7.99542000 -5.52495000 2.06526000
7.21487000 -5.55162000 2.04108000
7.91654000 -5.44387000 1.95048000
7.08349000 -5.38802000 1.91574000
6.97502000 -5.34874000 1.90396000
0.51242200 -5.51258000 1.84618000
0.39551000 -5.51433000 1.84170000
0.62675100 -5.51086000 1.84953000
0.74019300 -5.50976000 1.85120000
0.85418700 -5.50796000 1.85029000
0.97013700 -5.50583000 1.84856000
1.08419000 -5.50376000 1.84795000
1.19638000 -5.50253000 1.84891000
1.30819000 -5.50025000 1.85283000
1.42325000 -5.49677000 1.85635000
1.54112000 -5.49399000 1.85925000
1.66039000 -5.49124000 1.86152000
1.77806000 -5.48865000 1.86294000
1.89418000 -5.48569000 1.86542000
2.00994000 -5.48204000 1.86797000
2.12536000 -5.47874000 1.87011000
2.24015000 -5.47479000 1.87050000
2.35404000 -5.47139000 1.86914000
2.46855000 -5.46734000 1.86772000
2.58306000 -5.46373000 1.86749000
2.69903000 -5.45961000 1.86782000
2.81345000 -5.45511000 1.86823000
2.92734000 -5.45133000 1.86862000
3.03980000 -5.44687000 1.86916000
3.15492000 -5.44251000 1.87013000
3.27192000 -5.43767000 1.87062000
3.38745000 -5.43272000 1.87041000
3.50236000 -5.42770000 1.86936000
3.61600000 -5.42245000 1.86978000
3.73040000 -5.41693000 1.87168000
3.84450000 -5.41078000 1.87267000
3.95939000 -5.40493000 1.87248000
4.07531000 -5.39842000 1.87146000
4.19291000 -5.39275000 1.87268000
4.31220000 -5.38711000 1.87333000
4.43014000 -5.38076000 1.87231000
4.54510000 -5.37470000 1.87157000
4.65858000 -5.36838000 1.87075000
4.77192000 -5.36229000 1.87084000
4.88581000 -5.35584000 1.87059000
5.00127000 -5.35051000 1.86920000
5.11848000 -5.34554000 1.86942000
5.23665000 -5.34059000 1.87249000
5.35595000 -5.33605000 1.87620000
5.47375000 -5.33280000 1.87582000
5.58861000 -5.32888000 1.87461000
5.70075000 -5.32585000 1.87638000
5.81409000 -5.32316000 1.87884000
5.93036000 -5.32039000 1.88026000
6.04696000 -5.31684000 1.88219000
6.16394000 -5.31439000 1.88306000
6.27976000 -5.31312000 1.88222000
6.39481000 -5.31155000 1.87964000
6.50869000 -5.31103000 1.87941000
6.62447000 -5.31154000 1.88069000
6.74220000 -5.31518000 1.88394000
6.85992000 -5.32582000 1.89146000
8.03356000 -5.21254000 1.88729000
-2.84470000 -5.54482000 1.79547000
-2.96227000 -5.54491000 1.79095000
-2.72921000 -5.54481000 1.79837000
-2.61548000 -5.54470000 1.80120000
-2.50062000 -5.54444000 1.80460000
-2.38496000 -5.54319000 1.80871000
-2.26941000 -5.54263000 1.81176000
-2.15360000 -5.54125000 1.81281000
-2.03617000 -5.54059000 1.81301000
-1.91741000 -5.53991000 1.81356000
-1.79860000 -5.53839000 1.81413000
-1.68243000 -5.53757000 1.81537000
-1.56766000 -5.53638000 1.81767000
-1.45547000 -5.53546000 1.82010000
-1.34259000 -5.53422000 1.82176000
-1.22705000 -5.53325000 1.82517000
-1.11027000 -5.53196000 1.82866000
-0.99362300 -5.53090000 1.83180000
-0.87670100 -5.52908000 1.83300000
-0.76152100 -5.52735000 1.83342000
-0.64758200 -5.52649000 1.83383000
-0.53309400 -5.52500000 1.83487000
-0.41902800 -5.52390000 1.83744000
-0.30364200 -5.52243000 1.84051000
-0.18817100 -5.52157000 1.84252000
-0.07305770 -5.51983000 1.84197000
0.04240700 -5.51805000 1.84002000
0.15970300 -5.51708000 1.83820000
0.27781600 -5.51549000 1.83842000
8.07310000 -5.11060000 1.83303000
-4.69257000 -5.50747000 1.74803000
-4.80912000 -5.50256000 1.73887000
-4.57762000 -5.51269000 1.75739000
-4.46380000 -5.51731000 1.76299000
-4.34865000 -5.52093000 1.76554000
-4.23314000 -5.52500000 1.76647000
-4.11814000 -5.52810000 1.76750000
-4.00377000 -5.53131000 1.76991000
-3.88885000 -5.53411000 1.77304000
-3.77464000 -5.53681000 1.77728000
-3.65896000 -5.53939000 1.78076000
-3.54280000 -5.54139000 1.78348000
-3.42820000 -5.54247000 1.78427000
-3.31295000 -5.54402000 1.78428000
-3.19716000 -5.54443000 1.78389000
-3.08013000 -5.54459000 1.78638000
8.11728000 -5.00559000 1.78697000
-5.85510000 -5.46014000 1.70842000
-5.96926000 -5.45225000 1.69905000
-5.73845000 -5.46606000 1.71602000
-5.62286000 -5.47124000 1.72036000
-5.50874000 -5.47583000 1.72163000
-5.39337000 -5.47976000 1.72256000
-5.27618000 -5.48452000 1.72475000
-5.16024000 -5.48932000 1.72770000
-5.04480000 -5.49412000 1.73044000
-4.92796000 -5.49883000 1.73332000
8.15679000 -4.90137000 1.74422000
-6.42826000 -5.39398000 1.67012000
-6.54573000 -5.37150000 1.65670000
-6.31196000 -5.41391000 1.68030000
-6.19651000 -5.42954000 1.68701000
-6.08258000 -5.44201000 1.69168000
8.19134000 -4.79693000 1.70230000
-6.77781000 -5.32239000 1.63115000
-6.89631000 -5.29306000 1.61605000
-6.66153000 -5.34816000 1.64393000
8.22201000 -4.69073000 1.66312000
-7.13482000 -5.23292000 1.58296000
-7.25128000 -5.20475000 1.56868000
-7.01630000 -5.26274000 1.59846000
8.24867000 -4.58282000 1.62411000
-7.60386000 -5.13153000 1.53183000
-7.71832000 -5.09944000 1.51841000
-7.48601000 -5.15595000 1.54528000
-7.36776000 -5.17928000 1.55672000
-7.48601000 -5.15595000 1.54528000
8.27414000 -4.47120000 1.58356000
-7.82153000 -5.05193000 1.50678000
-7.91178000 -4.98171000 1.50220000
8.30001000 -4.35848000 1.54108000
-7.97480000 -4.89389000 1.44288000
8.32901000 -4.24855000 1.49821000
-8.02517000 -4.79631000 1.39353000
8.36380000 -4.14200000 1.45591000
-8.07248000 -4.69199000 1.34817000
8.40337000 -4.03776000 1.41532000
-8.11849000 -4.58673000 1.30646000
8.44464000 -3.93091000 1.37557000
-8.16402000 -4.48205000 1.26586000
8.48098000 -3.82174000 1.33263000
-8.20598000 -4.37771000 1.22484000
8.51404000 -3.71222000 1.28682000
-8.24450000 -4.27090000 1.18346000
8.54530000 -3.60341000 1.24296000
-8.28041000 -4.16570000 1.14087000
8.57615000 -3.49534000 1.20061000
-8.31143000 -4.06352000 1.09753000
8.60630000 -3.38410000 1.15944000
-8.34136000 -3.95984000 1.05333000
8.63480000 -3.27057000 1.11733000
-8.37382000 -3.85207000 1.00836000
8.66250000 -3.15868000 1.07630000
-8.40905000 -3.74223000 0.96516100
8.69031000 -3.04891000 1.03635000
-8.44734000 -3.63362000 0.92382000
8.71798000 -2.93956000 0.99674400
-8.48448000 -3.52589000 0.88274200
8.74588000 -2.83023000 0.95475900
-8.51862000 -3.41855000 0.83991800
8.77345000 -2.72187000 0.91191800
-8.54937000 -3.31258000 0.79588600
8.79946000 -2.61599000 0.86916500
-8.57866000 -3.20727000 0.75499200
8.82600000 -2.50840000 0.82547200
-8.60557000 -3.10186000 0.71515600
8.85465000 -2.39750000 0.77919200
-8.63020000 -2.99587000 0.67337500
8.88029000 -2.28671000 0.73499700
-8.65252000 -2.89007000 0.63271700
8.90082000 -2.17897000 0.69464400
-8.67391000 -2.78526000 0.59378900
8.91627000 -2.07203000 0.65432300
-8.69764000 -2.68281000 0.55487700
8.92738000 -1.96398000 0.61380200
-8.72256000 -2.57937000 0.51437500
8.93653000 -1.85550000 0.57321600
-8.74754000 -2.47295000 0.47134900
8.94346000 -1.74803000 0.53232500
-8.77161000 -2.36321000 0.42720300
8.95018000 -1.64000000 0.49144500
-8.79310000 -2.25353000 0.38592900
8.95613000 -1.53243000 0.45090100
-8.81070000 -2.14718000 0.34669400
8.96194000 -1.42471000 0.41063800
-8.82636000 -2.04242000 0.30589600
8.96890000 -1.31780000 0.36973600
-8.84218000 -1.93696000 0.26140900
8.97518000 -1.21231000 0.32622400
-8.85591000 -1.83082000 0.21589900
8.98021000 -1.10929000 0.27868000
-8.86863000 -1.72348000 0.17090300
8.98340000 -1.00489000 0.23003900
-8.87736000 -1.61362000 0.12681000
8.98382000 -0.89808000 0.18367700
-8.88331000 -1.50285000 0.08169130
8.98138000 -0.78899000 0.13895400
-8.88578000 -1.39195000 0.03714140
8.97627000 -0.67838300 0.09592650
-8.88552000 -1.28202000 -0.00420712
8.96763000 -0.56701700 0.05659940
-8.88330000 -1.17617000 -0.04297840
8.95779000 -0.45505700 0.02147510
-8.88034000 -1.07187000 -0.08283060
8.94685000 -0.34700300 -0.01505660
-8.87675000 -0.96798400 -0.12268100
8.93344000 -0.24408200 -0.05609400
-8.87191000 -0.86368100 -0.16448200
8.91824000 -0.14128100 -0.09964920
-8.86606000 -0.75726100 -0.20637100
8.90090000 -0.03964540 -0.14316400
-8.85754000 -0.64865200 -0.25024000
8.88153000 0.06171520 -0.18550800
-8.84526000 -0.53927600 -0.29366000
8.85947000 0.16537200 -0.22690200
-8.83036000 -0.42896700 -0.33545300
8.83475000 0.27256300 -0.26963300
-8.81462000 -0.31938500 -0.37501900
8.80708000 0.38110400 -0.31352700
-8.79690000 -0.21072800 -0.41502100
8.77522000 0.49066800 -0.36041800
-8.77581000 -0.10268000 -0.45614000
8.74094000 0.59863000 -0.40672300
-8.75078000 0.00674433 -0.49903500
8.70647000 0.70502400 -0.44809800
-8.72305000 0.11743500 -0.54281000
8.67133000 0.81002900 -0.48685100
-8.69270000 0.22638100 -0.58402500
8.63378000 0.91368000 -0.52682100
-8.66117000 0.33444800 -0.62190600
8.59296000 1.01784000 -0.57154100
-8.62679000 0.44290200 -0.65844400
8.54705000 1.12508000 -0.61851700
-8.58973000 0.55034100 -0.69750600
8.49916000 1.23313000 -0.66262600
-8.54951000 0.65739100 -0.74159600
8.44954000 1.34011000 -0.69998200
-8.50736000 0.76269000 -0.78696700
8.39696000 1.44485000 -0.73676600
-8.46383000 0.86855600 -0.83141000
8.34079000 1.54817000 -0.77666200
-8.41744000 0.97766100 -0.87753600
8.28313000 1.65276000 -0.81793000
-8.36849000 1.08783000 -0.92216600
8.22290000 1.75756000 -0.85926800
-8.31909000 1.19920000 -0.96321000
8.15804000 1.86313000 -0.90207300
-8.26644000 1.31145000 -1.00255000
8.08863000 1.97000000 -0.94465600
-8.21057000 1.42346000 -1.04433000
8.01679000 2.07561000 -0.98580400
-8.15096000 1.53375000 -1.08712000
7.94344000 2.17705000 -1.02641000
-8.08876000 1.64381000 -1.12990000
7.86669000 2.27820000 -1.06654000
-8.02180000 1.75301000 -1.17324000
7.78182000 2.38356000 -1.10926000
-7.95060000 1.86300000 -1.21983000
7.68967000 2.49021000 -1.15429000
-7.87498000 1.97223000 -1.26608000
7.59675000 2.59420000 -1.19957000
-7.79523000 2.07977000 -1.30684000
7.50385000 2.69377000 -1.24397000
-7.71165000 2.18988000 -1.34335000
7.40798000 2.79242000 -1.28762000
-7.62226000 2.30272000 -1.38041000
7.30579000 2.89581000 -1.33022000
-7.52572000 2.41769000 -1.42279000
7.19724000 3.00214000 -1.36943000
-7.42495000 2.53152000 -1.47006000
7.08610000 3.10967000 -1.40863000
-7.32191000 2.64405000 -1.51937000
6.97219000 3.21601000 -1.45121000
-7.21629000 2.75542000 -1.56459000
6.85877000 3.31981000 -1.49460000
-7.10815000 2.86869000 -1.60012000
6.74279000 3.41922000 -1.53788000
-6.99576000 2.98186000 -1.63692000
6.62107000 3.51607000 -1.58143000
-6.87787000 3.09562000 -1.67235000
6.49561000 3.61145000 -1.62467000
-6.75791000 3.20433000 -1.71207000
6.37224000 3.70375000 -1.66504000
-6.64037000 3.30629000 -1.75486000
6.25076000 3.79059000 -1.69937000
-6.52656000 3.40238000 -1.79436000
6.01366000 3.94827000 -1.76053000
6.13248000 3.87177000 -1.72997000
-6.41600000 3.49290000 -1.82714000
5.89471000 4.02071000 -1.79018000
-6.30794000 3.57824000 -1.85423000
-6.19756000 3.65983000 -1.88000000
5.77823000 4.08837000 -1.81930000
-6.08677000 3.74169000 -1.90542000
5.66543000 4.15003000 -1.84783000
5.55371000 4.20679000 -1.87457000
-5.98468000 3.82245000 -1.92783000
-5.90148000 3.89239000 -1.95535000
5.44107000 4.26085000 -1.89934000
5.32461000 4.31349000 -1.92374000
-5.80780000 3.98213000 -2.00228000
5.08565000 4.41399000 -1.96971000
5.20491000 4.36445000 -1.94776000
-5.71726000 4.08790000 -2.04743000
4.96702000 4.45986000 -1.98922000
4.84970000 4.50272000 -2.00628000
-5.63796000 4.18741000 -2.09170000
4.49993000 4.62340000 -2.05599000
4.61719000 4.58307000 -2.03594000
4.73332000 4.54359000 -2.02107000
-5.56046000 4.27643000 -2.13687000
4.26046000 4.70710000 -2.09253000
4.38085000 4.66440000 -2.07651000
4.13982000 4.75159000 -2.10802000
4.02189000 4.80030000 -2.12907000
-5.32848000 4.40614000 -2.18842000
-5.21372000 4.41642000 -2.17994000
-5.09873000 4.41950000 -2.17454000
-4.98090000 4.42437000 -2.17161000
-4.86073000 4.43408000 -2.17073000
-4.73982000 4.44885000 -2.17163000
-4.62149000 4.46793000 -2.17776000
-4.50446000 4.49255000 -2.18651000
-4.38940000 4.52087000 -2.19434000
-4.27456000 4.55332000 -2.20336000
3.91633000 4.84914000 -2.16062000
-4.15946000 4.59028000 -2.21382000
-4.04449000 4.63025000 -2.22492000
-3.93041000 4.67308000 -2.23735000
3.78709000 5.01639000 -2.23029000
3.82864000 4.90061000 -2.20440000
3.75987000 4.89010000 -2.29573000
-3.81695000 4.71917000 -2.25328000
-3.70155000 4.76961000 -2.27143000
-3.58908000 4.82392000 -2.29123000
3.76549000 5.13211000 -2.27083000
-3.48871000 4.87764000 -2.31566000
-3.41751000 4.93285000 -2.34750000
3.73850000 5.24178000 -2.31101000
-3.50539000 4.95828000 -2.26369000
-3.47870000 5.07307000 -2.32690000
3.68697000 5.34607000 -2.34550000
-3.47870000 5.07307000 -2.32690000
-3.47558000 5.17953000 -2.39901000
3.61384000 5.43690000 -2.37047000
-3.46861000 5.28430000 -2.45515000
3.52982000 5.49362000 -2.39804000
3.42129000 5.54526000 -2.43326000
-3.44163000 5.38994000 -2.49511000
3.18801000 5.64515000 -2.48508000
3.30459000 5.59673000 -2.46235000
-3.38305000 5.49108000 -2.52692000
3.07188000 5.69142000 -2.50450000
2.95549000 5.73639000 -2.52179000
-3.28482000 5.58740000 -2.54948000
2.83845000 5.77955000 -2.53975000
2.71998000 5.82109000 -2.55906000
-3.15924000 5.64459000 -2.59399000
-3.04757000 5.69067000 -2.61494000
2.60125000 5.86173000 -2.57861000
2.48316000 5.90161000 -2.59747000
-2.93584000 5.72961000 -2.63109000
-2.82188000 5.76522000 -2.64513000
-2.70721000 5.79968000 -2.65738000
-2.59264000 5.83511000 -2.66864000
2.25071000 5.97570000 -2.62748000
2.13411000 6.00998000 -2.64017000
2.36664000 5.93966000 -2.61400000
-2.47754000 5.87213000 -2.67868000
-2.36182000 5.90958000 -2.68912000
-2.24520000 5.94691000 -2.69887000
1.78003000 6.09860000 -2.68098000
1.89598000 6.07133000 -2.66717000
2.01535000 6.04157000 -2.65390000
-2.12908000 5.98229000 -2.70985000
-2.01634000 6.01529000 -2.72060000
-1.90536000 6.04581000 -2.73126000
-1.79261000 6.07516000 -2.74377000
1.32172000 6.19331000 -2.72858000
1.43806000 6.17125000 -2.71648000
1.55366000 6.14778000 -2.70463000
1.66748000 6.12304000 -2.69343000
-1.67690000 6.10342000 -2.75502000
-1.56146000 6.13050000 -2.76309000
-1.44744000 6.15558000 -2.76995000
-1.33596000 6.17823000 -2.77707000
0.73760100 6.28412000 -2.77646000
0.85158400 6.26858000 -2.76878000
0.96698400 6.25202000 -2.76035000
1.08366000 6.23384000 -2.74985000
1.20331000 6.21411000 -2.73951000
-1.22290000 6.19905000 -2.78521000
-1.10619000 6.21887000 -2.79175000
-0.99000700 6.23683000 -2.79665000
-0.87841400 6.25363000 -2.80047000
-0.76741400 6.26865000 -2.80300000
-0.65282800 6.28248000 -2.80506000
-0.53497100 6.29651000 -2.80683000
-0.41568500 6.30872000 -2.80646000
-0.29760600 6.31830000 -2.80517000
-0.18186900 6.32355000 -2.80628000
-0.06806010 6.32424000 -2.80791000
0.04676110 6.32317000 -2.80726000
0.16223000 6.32074000 -2.80454000
0.27771700 6.31739000 -2.80136000
0.27771700 6.31739000 -2.80136000
0.39309800 6.31220000 -2.79682000
0.50866100 6.30491000 -2.79134000
0.62314100 6.29560000 -2.78430000
7.47697000 -6.08058000 2.35584000
7.58147000 -6.09760000 2.34815000
7.69347000 -6.10752000 2.35190000
7.80350000 -6.10850000 2.36705000
7.90445000 -6.09587000 2.39694000
7.99742000 -6.07109000 2.47226000
7.99454000 -6.01487000 2.36209000
7.24430000 -5.99495000 2.44266000
7.25875000 -5.94290000 2.32719000
7.24698000 -5.86161000 2.25522000
8.09433000 -5.87245000 2.36553000
8.08340000 -5.79893000 2.27970000
7.23312000 -5.76036000 2.19253000
8.08620000 -5.70339000 2.22643000
8.08748000 -5.59829000 2.18325000
7.11211000 -5.58803000 2.22935000
7.11633000 -5.51101000 2.12760000
7.22352000 -5.65116000 2.12500000
8.08587000 -5.49215000 2.14029000
7.07252000 -5.42252000 2.03550000
7.99638000 -5.42341000 2.01351000
8.08196000 -5.38831000 2.09163000
6.97122000 -5.36774000 2.02124000
6.86163000 -5.33606000 2.01373000
8.08100000 -5.28556000 2.03709000
-1.11196000 -5.53322000 1.95110000
-1.22798000 -5.53428000 1.94789000
-0.99525100 -5.53142000 1.95292000
-0.87951900 -5.52964000 1.95453000
-0.76516800 -5.52857000 1.95515000
-0.65025900 -5.52727000 1.95585000
-0.53527800 -5.52622000 1.95800000
-0.42150500 -5.52450000 1.96114000
-0.30647500 -5.52286000 1.96547000
-0.19100700 -5.52202000 1.96881000
-0.07554780 -5.52052000 1.97042000
0.04034320 -5.51931000 1.96923000
0.15818300 -5.51769000 1.96729000
0.27694500 -5.51671000 1.96645000
0.39337100 -5.51491000 1.96806000
0.50882000 -5.51292000 1.96975000
0.62394200 -5.51201000 1.97204000
0.73876900 -5.51024000 1.97365000
0.85309800 -5.50828000 1.97519000
0.96850300 -5.50724000 1.97512000
1.08299000 -5.50521000 1.97338000
1.19474000 -5.50310000 1.97206000
1.30726000 -5.50075000 1.97332000
1.42289000 -5.49811000 1.97705000
1.54111000 -5.49532000 1.97987000
1.66016000 -5.49172000 1.98132000
1.77663000 -5.48896000 1.98386000
1.89247000 -5.48625000 1.98780000
2.00923000 -5.48322000 1.99090000
2.12443000 -5.47950000 1.99318000
2.23824000 -5.47601000 1.99412000
2.35170000 -5.47222000 1.99424000
2.46664000 -5.46868000 1.99400000
2.58185000 -5.46483000 1.99321000
2.69740000 -5.46114000 1.99332000
2.81232000 -5.45663000 1.99373000
2.92604000 -5.45229000 1.99414000
3.03921000 -5.44782000 1.99489000
3.15455000 -5.44403000 1.99668000
3.27162000 -5.43933000 1.99717000
3.38743000 -5.43436000 1.99605000
3.50241000 -5.42939000 1.99445000
3.61584000 -5.42420000 1.99431000
3.72960000 -5.41813000 1.99551000
3.84442000 -5.41260000 1.99720000
3.96008000 -5.40696000 1.99749000
4.07725000 -5.40041000 1.99634000
4.19541000 -5.39452000 1.99692000
4.31461000 -5.38826000 1.99815000
4.43187000 -5.38234000 1.99692000
4.54639000 -5.37585000 1.99576000
4.66079000 -5.36995000 1.99564000
4.77399000 -5.36352000 1.99566000
4.88728000 -5.35796000 1.99420000
5.00233000 -5.35291000 1.99197000
5.11835000 -5.34793000 1.99093000
5.23597000 -5.34305000 1.99351000
5.35527000 -5.33873000 1.99777000
5.47306000 -5.33558000 1.99913000
5.58710000 -5.33255000 1.99937000
5.69979000 -5.32903000 2.00143000
5.81313000 -5.32640000 2.00382000
5.92878000 -5.32392000 2.00503000
6.04610000 -5.32121000 2.00743000
6.16356000 -5.31877000 2.00935000
6.27943000 -5.31659000 2.00859000
6.39447000 -5.31455000 2.00727000
6.50862000 -5.31396000 2.00726000
6.62567000 -5.31477000 2.00763000
6.74428000 -5.32045000 2.00890000
8.09773000 -5.17838000 1.98974000
-3.77510000 -5.54341000 1.89947000
-3.88952000 -5.54074000 1.89614000
-3.65866000 -5.54572000 1.90408000
-3.54205000 -5.54655000 1.90829000
-3.42529000 -5.54705000 1.91000000
-3.30949000 -5.54855000 1.91176000
-3.19392000 -5.54898000 1.91256000
-3.07787000 -5.54907000 1.91392000
-2.96113000 -5.54890000 1.91676000
-2.84510000 -5.54782000 1.91934000
-2.72990000 -5.54737000 1.92064000
-2.61574000 -5.54744000 1.92256000
-2.50005000 -5.54716000 1.92561000
-2.38341000 -5.54562000 1.93022000
-2.26766000 -5.54494000 1.93475000
-2.15214000 -5.54339000 1.93733000
-2.03569000 -5.54270000 1.93864000
-1.91688000 -5.54120000 1.94019000
-1.79875000 -5.54003000 1.93977000
-1.68280000 -5.53870000 1.93991000
-1.56809000 -5.53770000 1.94102000
-1.45612000 -5.53650000 1.94366000
-1.34310000 -5.53556000 1.94580000
8.12393000 -5.07034000 1.94389000
-5.04657000 -5.50208000 1.85657000
-5.16285000 -5.49750000 1.85369000
-4.92847000 -5.50676000 1.85946000
-4.80942000 -5.51041000 1.86439000
-4.69344000 -5.51502000 1.87202000
-4.57968000 -5.51991000 1.88103000
-4.46616000 -5.52365000 1.88783000
-4.35100000 -5.52764000 1.89128000
-4.23544000 -5.53108000 1.89258000
-4.11995000 -5.53409000 1.89305000
-4.00466000 -5.53782000 1.89392000
8.15272000 -4.96366000 1.89963000
-6.31250000 -5.42110000 1.80730000
-6.43026000 -5.40111000 1.79648000
-6.19606000 -5.43704000 1.81365000
-6.08059000 -5.44984000 1.81902000
-5.96672000 -5.46022000 1.82687000
-5.85310000 -5.46861000 1.83630000
-5.73797000 -5.47547000 1.84367000
-5.62314000 -5.48065000 1.84744000
-5.50994000 -5.48458000 1.84956000
-5.39582000 -5.48888000 1.85028000
-5.27890000 -5.49356000 1.85142000
8.18205000 -4.85907000 1.85511000
-6.66277000 -5.35538000 1.77204000
-6.77854000 -5.33026000 1.76051000
-6.54787000 -5.37865000 1.78397000
8.20927000 -4.75427000 1.81213000
-7.01543000 -5.27448000 1.73123000
-6.89667000 -5.30275000 1.74649000
8.23596000 -4.64715000 1.77122000
-7.48604000 -5.16737000 1.67513000
-7.60445000 -5.13929000 1.65987000
-7.36677000 -5.19289000 1.68918000
-7.48604000 -5.16737000 1.67513000
-7.24980000 -5.21886000 1.70245000
-7.13335000 -5.24626000 1.71661000
8.25994000 -4.53787000 1.73076000
-7.71897000 -5.10430000 1.64419000
-7.82052000 -5.05622000 1.63029000
8.28333000 -4.42705000 1.68998000
-7.89630000 -4.99881000 1.61641000
-7.94434000 -4.93857000 1.59048000
8.30876000 -4.31679000 1.64780000
-7.99170000 -4.85509000 1.54478000
8.33756000 -4.20764000 1.60525000
-8.03897000 -4.75581000 1.49723000
8.37235000 -4.10061000 1.56296000
-8.08497000 -4.65127000 1.45307000
8.41099000 -3.99519000 1.52191000
-8.13098000 -4.54661000 1.41274000
8.45156000 -3.88806000 1.48118000
-8.17531000 -4.44286000 1.37491000
8.48803000 -3.77887000 1.43796000
-8.21638000 -4.33768000 1.33510000
8.52144000 -3.66930000 1.39300000
-8.25519000 -4.23054000 1.29386000
8.55374000 -3.56020000 1.34991000
-8.28984000 -4.12503000 1.25121000
8.58424000 -3.45203000 1.30868000
-8.32003000 -4.02248000 1.20733000
8.61312000 -3.34060000 1.26751000
-8.34928000 -3.91762000 1.16154000
8.64220000 -3.22733000 1.22512000
-8.38244000 -3.80990000 1.11461000
8.67046000 -3.11576000 1.18318000
-8.41820000 -3.70126000 1.07077000
8.69869000 -3.00603000 1.14253000
-8.45719000 -3.59201000 1.02866000
8.72679000 -2.89666000 1.10229000
-8.49589000 -3.48362000 0.98787300
8.75503000 -2.78763000 1.06156000
-8.53092000 -3.37687000 0.94601600
8.78269000 -2.68048000 1.02030000
-8.56276000 -3.27269000 0.90264300
8.80899000 -2.57487000 0.97726700
-8.59183000 -3.16767000 0.86279200
8.83663000 -2.46611000 0.93213300
-8.61786000 -3.06136000 0.82409000
8.86548000 -2.35493000 0.88572100
-8.64231000 -2.95379000 0.78380900
8.89044000 -2.24528000 0.84220300
-8.66492000 -2.84765000 0.74294800
8.90889000 -2.13814000 0.80175600
-8.68755000 -2.74367000 0.70246300
8.92246000 -2.03147000 0.76240500
-8.71240000 -2.64058000 0.66181400
8.93281000 -1.92373000 0.72215500
-8.73880000 -2.53646000 0.62069500
8.94150000 -1.81364000 0.68132100
-8.76463000 -2.42915000 0.57796300
8.94887000 -1.70321000 0.63909100
-8.78752000 -2.31948000 0.53535500
8.95522000 -1.59412000 0.59683200
-8.80760000 -2.21092000 0.49496700
8.96218000 -1.48756000 0.55620100
-8.82484000 -2.10490000 0.45586600
8.96868000 -1.38292000 0.51679000
-8.83994000 -2.00063000 0.41533800
8.97624000 -1.27866000 0.47632600
-8.85469000 -1.89643000 0.37201900
8.98361000 -1.17497000 0.43292000
-8.86847000 -1.79170000 0.32731600
8.98934000 -1.07194000 0.38586500
-8.88064000 -1.68373000 0.28324500
8.99228000 -0.96581200 0.33802900
-8.88960000 -1.57275000 0.23833100
8.99202000 -0.85698900 0.29156000
-8.89516000 -1.46036000 0.19282900
8.98830000 -0.74647300 0.24763200
-8.89750000 -1.34915000 0.14717200
8.98262000 -0.63561700 0.20551400
-8.89748000 -1.24038000 0.10328300
8.97391000 -0.52421500 0.16773100
-8.89638000 -1.13431000 0.06339890
8.96384000 -0.41169500 0.13219400
-8.89384000 -1.02981000 0.02347990
8.95218000 -0.30252400 0.09512510
-8.89075000 -0.92558700 -0.01615640
8.93914000 -0.19991200 0.05247500
-8.88577000 -0.82100000 -0.05816020
8.92391000 -0.09861930 0.00742196
-8.87984000 -0.71513900 -0.09985000
8.90567000 0.00246914 -0.03757420
-8.87129000 -0.60801500 -0.14283700
8.88574000 0.10446100 -0.08081100
-8.85900000 -0.49918800 -0.18669100
8.86329000 0.20993300 -0.12251900
-8.84402000 -0.38951300 -0.22828200
8.83849000 0.31781200 -0.16502700
-8.82794000 -0.27921900 -0.26797900
8.81082000 0.42607300 -0.20878800
-8.80961000 -0.16987400 -0.30691600
8.77906000 0.53401500 -0.25487600
-8.78729000 -0.06090020 -0.34745600
8.74494000 0.64088400 -0.29882200
-8.76164000 0.04881760 -0.39041300
8.70998000 0.74739800 -0.33943000
-8.73328000 0.15961100 -0.43522900
8.67471000 0.85198700 -0.37868000
-8.70145000 0.26799400 -0.47834200
8.63685000 0.95691200 -0.41981500
-8.66860000 0.37622500 -0.51586200
8.59487000 1.06308000 -0.46470800
-8.63379000 0.48412800 -0.55254900
8.54864000 1.17191000 -0.51102800
-8.59506000 0.59225200 -0.59278100
8.50070000 1.27945000 -0.55381600
-8.55431000 0.70062700 -0.63614200
8.45083000 1.38489000 -0.59176100
-8.51267000 0.80638000 -0.68039200
8.39814000 1.48825000 -0.62990000
-8.46913000 0.91188400 -0.72407800
8.34170000 1.59122000 -0.66945000
-8.42238000 1.02035000 -0.76909500
8.28399000 1.69525000 -0.71115200
-8.37384000 1.13023000 -0.81366300
8.22371000 1.79908000 -0.75285900
-8.32346000 1.24133000 -0.85443000
8.15829000 1.90513000 -0.79516900
-8.27000000 1.35449000 -0.89312400
8.08754000 2.01202000 -0.83656600
-8.21314000 1.46622000 -0.93372300
8.01429000 2.11843000 -0.87770100
-8.15386000 1.57516000 -0.97590700
7.93826000 2.22137000 -0.91961600
-8.09123000 1.68430000 -1.01703000
7.85982000 2.32257000 -0.96058900
-8.02455000 1.79305000 -1.05884000
7.77484000 2.42672000 -1.00222000
-7.95174000 1.90320000 -1.10529000
7.68291000 2.53314000 -1.04585000
-7.87364000 2.01393000 -1.15387000
7.58856000 2.63861000 -1.08999000
-7.79149000 2.12397000 -1.19841000
7.49445000 2.73962000 -1.13457000
-7.70733000 2.23373000 -1.23737000
7.39764000 2.83906000 -1.17667000
-7.61927000 2.34327000 -1.27555000
7.29696000 2.94035000 -1.21722000
-7.52547000 2.45577000 -1.31589000
7.19027000 3.04424000 -1.25466000
-7.42554000 2.56930000 -1.35954000
7.07985000 3.15024000 -1.29360000
-7.32234000 2.68316000 -1.40541000
6.96624000 3.25628000 -1.33779000
-7.21663000 2.79677000 -1.44688000
6.85235000 3.35954000 -1.38274000
-7.10814000 2.91022000 -1.48451000
6.73548000 3.45761000 -1.42660000
-6.99574000 3.02325000 -1.52116000
6.61505000 3.55331000 -1.47024000
-6.87920000 3.13537000 -1.56006000
6.49172000 3.64691000 -1.51316000
-6.76011000 3.24585000 -1.60163000
6.36941000 3.73781000 -1.55223000
-6.64361000 3.35064000 -1.64415000
6.24823000 3.82439000 -1.58705000
-6.53022000 3.44680000 -1.68386000
6.12941000 3.90443000 -1.62012000
6.01027000 3.97983000 -1.65202000
-6.41949000 3.53580000 -1.71729000
5.89163000 4.05075000 -1.68234000
-6.31193000 3.61913000 -1.74589000
-6.20339000 3.69841000 -1.77318000
5.77553000 4.11693000 -1.70995000
-6.09461000 3.77671000 -1.79986000
5.66274000 4.17799000 -1.73640000
5.55116000 4.23451000 -1.76133000
-5.98850000 3.85567000 -1.82786000
-5.88594000 3.93846000 -1.85920000
5.44021000 4.28775000 -1.78556000
5.32468000 4.33916000 -1.81018000
-5.78486000 4.02973000 -1.89736000
5.20555000 4.38979000 -1.83427000
5.08476000 4.43902000 -1.85624000
-5.68872000 4.12399000 -1.94022000
4.96418000 4.48457000 -1.87583000
4.84597000 4.52657000 -1.89325000
-5.60453000 4.20824000 -1.98458000
4.61546000 4.60826000 -1.92443000
4.49718000 4.65088000 -1.94491000
4.73072000 4.56748000 -1.90859000
-5.53234000 4.27122000 -2.01388000
-5.43421000 4.32978000 -2.03253000
4.37623000 4.69450000 -1.96580000
4.25479000 4.74104000 -1.98335000
-5.32166000 4.36752000 -2.03649000
-5.20996000 4.38848000 -2.03570000
-5.09713000 4.40238000 -2.03651000
-4.98130000 4.41645000 -2.03870000
-4.86207000 4.43229000 -2.04272000
-4.74216000 4.45210000 -2.04820000
-4.62421000 4.47569000 -2.05731000
4.13623000 4.79258000 -2.00051000
4.02634000 4.85413000 -2.02729000
-4.50749000 4.50550000 -2.06791000
-4.39234000 4.54014000 -2.07765000
-4.27755000 4.57856000 -2.08850000
-4.16228000 4.62106000 -2.10045000
3.91956000 4.93552000 -2.08607000
-4.04609000 4.66646000 -2.11401000
-3.93038000 4.71477000 -2.12997000
-3.81419000 4.76768000 -2.14882000
3.87832000 5.06641000 -2.12179000
3.91956000 4.93552000 -2.08607000
-3.69896000 4.82758000 -2.17339000
-3.59467000 4.89261000 -2.21113000
3.85470000 5.18219000 -2.16414000
3.81801000 5.28858000 -2.20392000
-3.61297000 4.98676000 -2.15396000
-3.58946000 5.11387000 -2.22562000
-3.50539000 4.95828000 -2.26369000
3.75374000 5.38798000 -2.23722000
-3.58162000 5.21832000 -2.29671000
3.65937000 5.48554000 -2.25636000
-3.56617000 5.32070000 -2.35009000
3.41961000 5.59688000 -2.33607000
3.53687000 5.54539000 -2.30524000
-3.53055000 5.42610000 -2.38592000
3.29957000 5.64716000 -2.36087000
-3.46804000 5.53549000 -2.40262000
2.94734000 5.78968000 -2.41657000
3.06347000 5.74381000 -2.40000000
3.18061000 5.69597000 -2.38143000
-3.35892000 5.60803000 -2.44538000
2.83204000 5.83323000 -2.43521000
2.71431000 5.87564000 -2.45500000
-3.27072000 5.65197000 -2.46797000
-3.16443000 5.69390000 -2.49302000
-3.05267000 5.73489000 -2.51045000
2.59613000 5.91664000 -2.47460000
2.47893000 5.95751000 -2.49317000
-2.94004000 5.77351000 -2.52339000
-2.82551000 5.81161000 -2.53563000
-2.71125000 5.84916000 -2.54901000
-2.59741000 5.88678000 -2.56246000
2.13405000 6.06696000 -2.53723000
2.24874000 6.03332000 -2.52313000
2.36293000 5.99729000 -2.50874000
-2.48151000 5.92544000 -2.57407000
-2.36465000 5.96517000 -2.58544000
-2.24687000 6.00438000 -2.59724000
2.01638000 6.09928000 -2.55079000
1.89764000 6.12963000 -2.56531000
-2.12887000 6.04012000 -2.61023000
-2.01549000 6.07295000 -2.62231000
-1.90508000 6.10381000 -2.63311000
1.55011000 6.20880000 -2.60468000
1.43538000 6.23360000 -2.61581000
1.66519000 6.18344000 -2.59279000
1.78007000 6.15757000 -2.57981000
-1.79410000 6.13397000 -2.64281000
-1.68003000 6.16349000 -2.65202000
-1.56570000 6.19077000 -2.66121000
-1.45297000 6.21419000 -2.67041000
0.84528900 6.33734000 -2.67113000
0.96097400 6.32018000 -2.66047000
1.07943000 6.30056000 -2.64972000
1.20085000 6.27969000 -2.63927000
1.31957000 6.25713000 -2.62759000
-1.34166000 6.23540000 -2.67937000
-1.22736000 6.25715000 -2.68721000
-1.11090000 6.27810000 -2.69114000
-0.99600500 6.29755000 -2.69483000
-0.88532700 6.31466000 -2.69739000
-0.77566200 6.32985000 -2.69936000
-0.66026000 6.34460000 -2.70168000
-0.53933900 6.35936000 -2.70496000
-0.41748300 6.37235000 -2.70603000
-0.29794300 6.38256000 -2.70683000
-0.18214900 6.38829000 -2.70723000
-0.06811100 6.38785000 -2.70769000
0.04691490 6.38340000 -2.70557000
0.16271300 6.37852000 -2.70256000
0.27800300 6.37462000 -2.69967000
0.27800300 6.37462000 -2.69967000
0.39217900 6.37041000 -2.69636000
0.50699100 6.36591000 -2.69202000
0.62021900 6.36010000 -2.68658000
0.73219000 6.35067000 -2.67955000
7.69554000 -6.12501000 2.47432000
7.58119000 -6.11544000 2.46819000
7.80745000 -6.12805000 2.48259000
7.90871000 -6.11662000 2.48888000
7.27499000 -6.06114000 2.57241000
7.36913000 -6.07893000 2.48952000
7.47123000 -6.10077000 2.46970000
8.05856000 -5.98270000 2.43354000
7.18738000 -5.91638000 2.40576000
7.16226000 -5.82737000 2.35310000
8.14215000 -5.76817000 2.34950000
7.14026000 -5.71797000 2.29696000
8.16073000 -5.66825000 2.31082000
7.11211000 -5.58803000 2.22935000
8.16864000 -5.56411000 2.27007000
7.04295000 -5.48257000 2.20926000
8.16773000 -5.45819000 2.22871000
6.97510000 -5.39609000 2.13766000
8.16207000 -5.35205000 2.18518000
1.54227000 -5.49583000 2.10289000
1.42292000 -5.49837000 2.10069000
1.66042000 -5.49308000 2.10397000
1.89210000 -5.48675000 2.10900000
1.77634000 -5.49033000 2.10616000
2.00857000 -5.48372000 2.11154000
2.12288000 -5.48071000 2.11290000
2.23725000 -5.47700000 2.11455000
2.35092000 -5.47350000 2.11542000
2.46592000 -5.46968000 2.11554000
2.58141000 -5.46613000 2.11565000
2.69710000 -5.46203000 2.11626000
2.81243000 -5.45751000 2.11681000
2.92694000 -5.45372000 2.11748000
3.04080000 -5.44924000 2.11837000
3.15620000 -5.44489000 2.12046000
3.27306000 -5.44007000 2.12123000
3.38907000 -5.43510000 2.12095000
3.50419000 -5.43013000 2.11928000
3.61805000 -5.42512000 2.11816000
3.84783000 -5.41432000 2.12048000
3.73253000 -5.41987000 2.11942000
3.96389000 -5.40811000 2.12085000
4.08143000 -5.40219000 2.11969000
4.19930000 -5.39566000 2.11980000
4.31677000 -5.38998000 2.12010000
4.43250000 -5.38431000 2.11886000
4.54758000 -5.37783000 2.11854000
4.66253000 -5.37192000 2.11863000
4.77615000 -5.36554000 2.11865000
4.88972000 -5.36025000 2.11698000
5.00450000 -5.35533000 2.11397000
5.47211000 -5.33874000 2.12342000
5.35383000 -5.34243000 2.12008000
5.58643000 -5.33597000 2.12309000
5.81277000 -5.33089000 2.12522000
5.69942000 -5.33332000 2.12367000
5.92821000 -5.32848000 2.12621000
6.04567000 -5.32604000 2.12841000
6.16292000 -5.32361000 2.13087000
6.27871000 -5.32113000 2.13229000
6.39380000 -5.31860000 2.13426000
6.50828000 -5.31712000 2.13559000
6.62638000 -5.31819000 2.13624000
6.74848000 -5.32739000 2.13612000
6.86630000 -5.35045000 2.13427000
8.15746000 -5.24572000 2.13998000
-2.38313000 -5.54786000 2.05181000
-2.49914000 -5.54927000 2.04839000
-2.26759000 -5.54705000 2.05612000
-2.15220000 -5.54565000 2.05926000
-2.03660000 -5.54480000 2.06176000
-1.91919000 -5.54306000 2.06387000
-1.80185000 -5.54122000 2.06465000
-1.68568000 -5.54011000 2.06534000
-1.57036000 -5.53882000 2.06673000
-1.45713000 -5.53790000 2.07007000
-1.34355000 -5.53665000 2.07194000
-1.22843000 -5.53558000 2.07368000
-1.11283000 -5.53379000 2.07487000
-0.99689000 -5.53198000 2.07544000
-0.88162800 -5.53089000 2.07599000
-0.76650800 -5.52958000 2.07613000
-0.65110600 -5.52848000 2.07682000
-0.53600300 -5.52673000 2.07920000
-0.42202000 -5.52501000 2.08213000
-0.30718700 -5.52393000 2.08666000
-0.19180600 -5.52249000 2.09127000
-0.07626720 -5.52165000 2.09398000
0.03981730 -5.51990000 2.09413000
0.15716400 -5.51809000 2.09295000
0.27459400 -5.51708000 2.09281000
0.38983600 -5.51508000 2.09373000
0.50382300 -5.51333000 2.09491000
0.61901400 -5.51241000 2.09735000
0.73494700 -5.51043000 2.09994000
0.85137800 -5.50865000 2.10232000
0.96734100 -5.50767000 2.10246000
1.08211000 -5.50555000 2.09988000
1.19379000 -5.50315000 2.09794000
1.30602000 -5.50079000 2.09830000
5.11990000 -5.35064000 2.11299000
5.23599000 -5.34608000 2.11557000
8.15889000 -5.13761000 2.09609000
-4.58027000 -5.52698000 2.00231000
-4.69374000 -5.52268000 1.99538000
-4.46681000 -5.53042000 2.00792000
-4.35168000 -5.53374000 2.01285000
-4.23605000 -5.53759000 2.01701000
-4.12021000 -5.54061000 2.01838000
-4.00459000 -5.54370000 2.01906000
-3.88911000 -5.54616000 2.02003000
-3.77378000 -5.54873000 2.02253000
-3.65769000 -5.55098000 2.02707000
-3.54032000 -5.55152000 2.03185000
-3.42280000 -5.55168000 2.03482000
-3.30689000 -5.55208000 2.03758000
-3.19147000 -5.55228000 2.04048000
-3.07654000 -5.55236000 2.04359000
-2.96231000 -5.55216000 2.04614000
-2.84732000 -5.55157000 2.04710000
-2.73164000 -5.55017000 2.04696000
-2.61581000 -5.54981000 2.04645000
8.16880000 -5.02877000 2.05272000
-5.84955000 -5.47740000 1.96418000
-5.96339000 -5.46824000 1.95456000
-5.73604000 -5.48394000 1.97149000
-5.62295000 -5.48915000 1.97497000
-5.51121000 -5.49353000 1.97708000
-5.39773000 -5.49737000 1.97830000
-5.28110000 -5.50185000 1.98021000
-5.16461000 -5.50635000 1.98232000
-5.04709000 -5.51020000 1.98565000
-4.92766000 -5.51462000 1.98728000
-4.80937000 -5.51902000 1.99011000
8.18439000 -4.92120000 2.00921000
-6.43292000 -5.40702000 1.92378000
-6.55032000 -5.38457000 1.91203000
-6.31459000 -5.42724000 1.93340000
-6.19631000 -5.44426000 1.93960000
-6.07881000 -5.45739000 1.94573000
8.20439000 -4.81708000 1.96438000
-6.89724000 -5.31181000 1.87624000
-7.01543000 -5.28458000 1.86208000
-6.77950000 -5.33754000 1.88896000
-6.66486000 -5.36151000 1.90081000
8.22541000 -4.71226000 1.92062000
-7.24816000 -5.23066000 1.83565000
-7.36571000 -5.20391000 1.82176000
-7.13208000 -5.25727000 1.84870000
8.24788000 -4.60372000 1.87763000
-7.60263000 -5.14622000 1.79036000
-7.71729000 -5.10734000 1.77261000
-7.48438000 -5.17711000 1.80696000
-7.48438000 -5.17711000 1.80696000
8.27017000 -4.49304000 1.83537000
-7.81946000 -5.05505000 1.75251000
-7.89891000 -4.98792000 1.72662000
8.29205000 -4.38316000 1.79464000
-7.95705000 -4.90735000 1.69282000
8.31721000 -4.27379000 1.75446000
-8.00545000 -4.81469000 1.65030000
8.34629000 -4.16474000 1.71401000
-8.05116000 -4.71339000 1.60460000
8.38098000 -4.05711000 1.67292000
-8.09714000 -4.60941000 1.56021000
8.41849000 -3.95022000 1.63092000
-8.14209000 -4.50606000 1.52084000
8.45688000 -3.84270000 1.58914000
-8.18501000 -4.40280000 1.48385000
8.49371000 -3.73321000 1.54495000
-8.22665000 -4.29744000 1.44501000
8.52767000 -3.62355000 1.49971000
-8.26560000 -4.19001000 1.40343000
8.56025000 -3.51445000 1.45635000
-8.29895000 -4.08329000 1.36116000
8.59047000 -3.40641000 1.41484000
-8.32903000 -3.97924000 1.31598000
8.61882000 -3.29588000 1.37281000
-8.35898000 -3.87451000 1.26789000
8.64702000 -3.18444000 1.33038000
-8.39205000 -3.76668000 1.21914000
8.67539000 -3.07442000 1.28925000
-8.42871000 -3.65847000 1.17522000
8.70482000 -2.96523000 1.24873000
-8.46776000 -3.55002000 1.13456000
8.73375000 -2.85591000 1.20829000
-8.50667000 -3.44187000 1.09531000
8.76318000 -2.74692000 1.16777000
-8.54179000 -3.33765000 1.05381000
