2.65639000 4.89610000 5.67877000
2.72134000 4.97055000 5.66452000
2.71342000 4.86601000 5.65977000
5.94798000 4.66486000 4.17396000
5.85611000 4.68862000 4.23256000
3.27733000 -0.65405400 -9.07167000
3.12843000 -0.70632600 -9.11127000
7.59219000 4.06940000 -4.11362000
7.58902000 4.02980000 -4.12313000
7.02353000 2.34760000 -5.29850000
-1.54600000 3.80152000 7.21842000
-8.92435000 3.18863000 -0.59078700
3.26149000 -0.56376400 -9.11127000
0.92189700 -0.98352200 -9.55480000
0.96466600 -0.80927900 -9.61816000
0.83319200 -0.71265300 -9.66409000
1.31790000 4.82345000 -7.55568000
1.14683000 4.83771000 -7.59053000
0.90764100 4.86463000 -7.63646000
4.93263000 2.12430000 -8.18299000
4.85501000 2.23993000 -8.18616000
8.65031000 -0.87282800 2.18434000
8.68833000 -0.89975300 2.01169000
8.73268000 -0.78412000 2.02278000
3.61156000 -1.01997000 -8.78022000
4.28001000 5.57249000 5.01350000
4.27843000 5.56457000 4.97390000
4.31961000 5.55190000 4.94063000
4.30694000 5.51546000 4.90737000
6.10480000 5.54717000 3.20930000
4.82174000 2.17498000 -8.23526000
4.83917000 2.07519000 -8.26378000
7.13441000 0.33433200 -6.57683000
6.91106000 0.24246300 -6.82235000
3.41831000 -0.99303700 -8.87367000
3.51810000 -0.89799600 -8.87525000
3.70026000 -0.90750100 -8.78813000
4.41940000 5.46795000 4.76639000
2.98904000 -5.27469000 -5.46177000
2.93201000 -5.37131000 -5.39841000
-5.22884000 2.36799000 7.13920000
7.09005000 4.30379000 -1.41446000
4.45267000 -0.79028900 -8.43806000
4.38931000 -0.72851200 -8.49984000
4.67443000 -0.69525000 -8.34302000
4.36238000 -1.00888000 -8.38738000
4.27209000 -0.90433800 -8.49034000
4.62057000 2.31731000 6.75111000
4.35604000 5.54873000 4.90737000
4.39089000 5.56615000 4.88995000
4.43366000 5.56140000 4.89787000
-2.93993000 -2.04958000 -8.60916000
-2.98745000 -1.89276000 -8.70103000
-2.77361000 -2.03215000 -8.67727000
-2.66431000 -2.16363000 -8.61233000
-1.30681000 0.37398600 -9.92861000
-1.51432000 0.42467400 -9.90484000
-7.20569000 1.42725000 -3.46264000
-2.36810000 -2.39335000 -6.16820000
-2.22713000 -2.37117000 -6.35669000
-4.55721000 -2.39499000 -2.69762000
7.36092000 0.01417220 5.26685000
-2.48215000 4.09164000 -8.17504000
-2.65323000 4.03779000 -8.15920000
-6.25528000 5.13375000 2.71667000
-6.30755000 5.11316000 2.60420000
7.67931000 -2.18915000 2.68012000
7.72208000 -2.08778000 2.76407000
7.72049000 -1.96264000 2.97158000
7.68406000 -2.04818000 2.91139000
-6.59267000 4.88824000 1.95000000
-6.55941000 4.93734000 2.05772000
-6.50714000 4.98011000 2.15751000
-6.43744000 5.07198000 2.23196000
9.13977000 3.25517000 -0.98362200
7.20094000 1.98627000 5.53141000
7.11698000 2.10665000 5.58527000
-6.67188000 4.64595000 -1.70750000
-6.70356000 4.64119000 -1.39861000
-6.68930000 4.67762000 -1.54592000
7.18351000 0.27553000 5.58208000
8.03730000 1.03756000 -1.64419000
-6.25211000 4.91991000 2.70558000
-6.30438000 4.92466000 2.61370000
9.40113000 1.55394000 -1.42559000
9.36312000 1.67116000 -1.50637000
6.92849000 5.49181000 -1.67105000
6.96650000 5.48072000 -1.65679000
7.44646000 -2.18441000 3.17117000
7.18510000 -2.46478000 3.21710000
4.07409000 -6.79855000 -2.72778000
-2.80054000 -3.49910000 0.49890900
4.86610000 -1.15937000 -7.99771000
4.62057000 -1.33678000 -8.06583000
-2.61204000 0.22983600 -9.67200000
6.73682000 3.24083000 4.37510000
6.66712000 3.32161000 4.36718000
6.58792000 3.43883000 4.34184000
-0.46886900 -4.24674000 -0.58140100
-0.29779500 -4.26416000 -0.62733800
7.23737000 -0.46725700 -1.76302000
7.26746000 -0.38646800 -1.96735000
-1.66797000 3.27561000 8.23218000
-1.69015000 3.09820000 8.33039000
-1.53174000 3.25027000 8.27495000
-1.46680000 2.61377000 -8.77699000
7.89315000 2.19551000 -3.76359000
7.94701000 2.19709000 -3.63053000
7.91374000 2.30005000 -3.69864000
7.93117000 2.11789000 -3.67172000
1.41136000 3.83978000 -7.78221000
1.52224000 3.71939000 -7.89943000
8.28282000 4.15969000 -3.74296000
8.19095000 4.24680000 -3.63525000
9.18571000 3.61475000 -1.57445000
9.18888000 3.67653000 -1.54594000
9.17937000 3.68603000 -1.58871000
9.21105000 3.63376000 -1.53485000
4.45267000 -0.86790700 -8.40480000
1.18326000 -2.70538000 -7.59223000
1.06604000 -2.66895000 -7.64134000
9.06691000 2.64371000 0.72552100
9.02414000 2.71974000 0.78571500
9.12551000 2.59778000 0.25665200
1.26880000 3.81285000 -7.84874000
-7.74425000 2.87824000 -5.34442000
7.88682000 -0.81424700 3.96953000
8.03571000 -0.60832400 3.86182000
7.93750000 -0.71603800 3.95844000
9.13660000 1.84060000 1.78205000
9.32352000 0.75560900 -2.07505000
-1.13099000 4.10724000 6.86361000
-1.27830000 4.10091000 6.83351000
9.11601000 2.52649000 0.69383900
9.13502000 2.51858000 0.56236600
9.08591000 2.64847000 0.51167900
-7.23737000 4.63644000 -1.80095000
-7.14866000 4.65387000 -1.83263000
-7.21994000 4.63486000 -1.85164000
-6.63386000 4.37820000 1.06611000
-5.32071000 5.13374000 3.52927000
8.87366000 3.51023000 -3.45943000
8.84831000 3.61003000 -3.49428000
1.82320000 -5.69937000 4.88660000
1.70440000 -5.64868000 4.97847000
1.66955000 -5.80233000 4.86125000
1.50798000 -5.81658000 4.91194000
1.46521000 -5.74847000 4.97530000
1.39710000 -5.79916000 4.96263000
-3.41672000 4.19617000 -6.85714000
-3.53869000 4.06945000 -6.98861000
7.21202000 -3.35016000 -2.26203000
-3.15219000 -3.43256000 0.11399400
-3.08408000 -3.48642000 0.00152845
0.81418400 5.00719000 -7.34342000
0.84111200 4.94700000 -7.33233000
0.88229700 5.00085000 -7.34025000
0.85061700 4.89156000 -7.31966000
0.92348100 4.94066000 -7.32124000
2.16535000 4.79631000 5.87044000
4.26259000 -3.39929000 -0.41823400
-9.34094000 3.38980000 -0.15993200
-9.38529000 3.44365000 -0.15359500
-9.34094000 3.44365000 -0.13141800
-9.30293000 3.39930000 -0.11874700
-9.30134000 3.43098000 -0.08548220
8.04838000 4.20080000 0.42775100
8.09432000 4.16437000 0.29786100
8.04838000 4.17229000 0.67168900
8.01670000 4.19921000 0.72554600
8.06423000 4.13902000 0.77940200
-9.52310000 0.99953500 -1.32422000
-9.52310000 1.12626000 -1.32422000
-9.53419000 1.22922000 -1.17057000
-9.52469000 1.32901000 -1.21175000
7.21678000 -3.41510000 -2.11788000
7.20569000 -3.40402000 -2.17649000
7.27697000 -3.32006000 -2.17174000
7.16767000 -3.36441000 -2.43785000
7.17084000 -3.39768000 -2.29212000
7.14708000 -3.42777000 -2.32856000
3.85074000 -3.66372000 -6.53888000
4.09943000 -3.58452000 -6.45017000
1.87547000 4.77571000 5.96073000
1.82637000 4.75195000 5.98924000
-2.94944000 -6.54192000 -4.23735000
-3.00171000 -6.23145000 -4.54147000
7.16134000 -3.47688000 -2.14164000
7.15658000 -3.45629000 -2.22560000
7.12966000 -3.49430000 -2.23035000
-9.46766000 1.16270000 -1.91347000
-9.45657000 1.31160000 -1.94990000
-2.20970000 -3.70828000 6.48807000
5.56465000 -4.95009000 2.20804000
5.51713000 -4.88989000 2.40446000
0.89813700 3.18849000 8.38741000
-6.16974000 4.08512000 3.52608000
-6.01451000 4.17383000 3.49282000
-6.10321000 4.17224000 3.35976000
4.45108000 5.09271000 -6.09680000
4.49385000 5.15765000 -6.05086000
4.52237000 5.11647000 -6.03977000
4.43524000 5.03885000 -6.10155000
7.82821000 -2.86072000 -0.77462900
7.92642000 -2.73875000 -0.66691400
8.17827000 -2.41403000 -0.53385200
8.02938000 -2.61045000 -0.59880000
5.78641000 -4.72199000 2.15894000
6.01609000 -4.58734000 1.89124000
5.91630000 -4.61586000 2.07657000
4.66017000 4.85968000 5.03883000
4.43366000 4.86126000 5.20674000
8.53468000 4.24201000 -1.09607000
8.09907000 1.31635000 -2.25879000
7.91691000 1.01223000 -2.60252000
8.35727000 3.17759000 -3.34381000
-2.12892000 2.17947000 8.60283000
8.21154000 3.96641000 -1.91660000
6.72098000 5.11317000 2.01653000
6.73365000 5.05773000 1.99752000
6.79384000 4.96111000 1.91832000
6.76058000 4.96903000 1.99119000
5.85611000 4.13105000 4.03931000
-3.10309000 4.80264000 6.11279000
-2.88766000 4.81373000 6.20308000
-2.96369000 4.83115000 6.13497000
-3.23773000 4.81848000 6.01142000
-3.12051000 4.84066000 6.03359000
7.37835000 4.34975000 -2.95729000
7.45755000 4.31649000 -2.98422000
1.00585000 4.52067000 7.29605000
2.07981000 -3.29780000 -7.72847000
1.90082000 -3.24077000 -7.83143000
1.98952000 -3.15365000 -7.88053000
-6.26003000 5.34126000 2.73251000
-2.34434000 4.04387000 7.48929000
-2.33009000 4.08031000 7.45128000
-2.05922000 4.01853000 7.61126000
-5.34922000 0.94258500 -5.99707000
-5.31120000 1.06772000 -6.11112000
-5.60583000 0.88080300 -5.68502000
-5.49337000 0.92674200 -5.83708000
-9.09859000 -0.85217600 -1.52225000
-9.02414000 -1.08028000 -1.23397000
8.78654000 1.71872000 -3.70023000
8.75644000 1.86128000 -3.70023000
-1.43195000 2.70696000 7.94230000
4.13587000 5.34914000 5.35248000
4.21190000 5.37448000 5.30179000
4.11369000 5.40616000 5.36832000
-9.18412000 -0.71595800 -1.07714000
-2.46314000 3.89339000 7.59700000
4.79957000 -2.41567000 2.71655000
4.77898000 -2.35231000 2.92089000
2.73243000 4.02013000 6.59749000
2.71976000 3.88865000 6.80341000
2.63580000 4.05339000 6.59274000
8.73743000 -1.29732000 0.94563700
6.74474000 3.67010000 3.75734000
-6.70831000 -0.57647000 -7.03462000
-4.70294000 5.29704000 -5.79583000
-4.79323000 5.32397000 -5.74514000
-4.78690000 5.34139000 -5.77682000
4.65859000 -2.39033000 3.00959000
6.97601000 1.56175000 5.90048000
-5.27002000 -1.79942000 -1.38446000
-5.46169000 -1.55232000 -1.04072000
-1.23078000 1.81989000 8.85943000
-1.10564000 1.81039000 8.88002000
-1.15633000 1.89117000 8.85943000
-6.48338000 4.73617000 2.49965000
-6.38042000 4.75201000 2.56460000
-6.46595000 4.73300000 2.56143000
-7.04887000 1.27828000 1.18645000
-1.72975000 2.58973000 8.56482000
-1.77251000 2.71804000 8.50146000
-1.96893000 2.57547000 8.51096000
-1.87072000 2.70220000 8.48245000
-8.16560000 3.93309000 1.02492000
2.29999000 3.60193000 7.85044000
4.15804000 3.06496000 6.84775000
-1.62045000 2.25233000 8.69470000
-5.99550000 3.32338000 -7.04090000
-7.95651000 4.16118000 1.92940000
-0.89338500 4.86464000 -7.68874000
-0.92348100 4.89790000 -7.69032000
-1.04070000 4.88523000 -7.67923000
-5.26368000 1.96092000 5.76743000
-5.21458000 2.00369000 5.87039000
-5.34764000 2.05279000 5.79911000
-1.68539000 2.32361000 8.66619000
-1.74400000 2.46142000 8.60917000
3.93311000 -0.27571400 5.94956000
5.07044000 -5.92899000 1.30038000
7.98027000 0.65428600 -5.46009000
8.09432000 0.71447500 -5.27951000
7.98819000 0.74299000 -5.44583000
8.10541000 0.81902000 -5.26842000
6.53723000 2.40463000 -5.89725000
-6.35507000 -0.07274370 -7.59694000
-6.27112000 -0.02046970 -7.68723000
-4.40040000 4.46526000 4.75687000
4.70928000 2.05910000 7.58588000
7.96285000 -1.62672000 -3.95215000
3.78263000 1.67259000 8.14662000
3.87767000 1.75179000 8.10227000
3.95212000 1.65042000 8.07851000
3.99014000 1.73437000 8.04049000
1.53333000 -3.81275000 1.31942000
1.34800000 -3.85393000 1.21646000
4.81541000 0.80455800 7.65239000
6.35666000 5.21929000 2.84339000
6.45645000 5.16543000 2.61529000
-7.79177000 2.71654000 2.65644000
-7.70307000 2.69753000 2.79583000
-8.04046000 3.31697000 -2.56447000
-8.11808000 3.30271000 -2.35855000
-5.28269000 -2.93666000 -6.38205000
-7.51457000 2.79574000 3.25837000
-7.35300000 2.71653000 3.47379000
-2.72768000 -4.38782000 5.73565000
-7.13599000 4.85977000 -0.79193000
-7.14233000 4.87878000 -0.71748100
-0.23443400 4.75511000 6.93648000
-9.12393000 -0.06972220 1.59827000
-9.14769000 0.14728600 1.72183000
-9.16987000 0.41656700 1.86123000
5.92264000 3.63365000 4.90892000
3.64957000 4.22446000 6.71946000
3.84441000 4.18962000 6.65927000
3.82381000 4.22605000 6.61967000
3.67650000 4.27040000 6.62759000
3.59413000 4.26406000 6.68778000
-8.09274000 3.25836000 -2.56130000
-4.87560000 3.04302000 -8.06893000
-5.14013000 2.62484000 -8.17190000
8.76753000 3.35496000 -0.63988900
8.79762000 3.30585000 -0.54801700
1.33057000 4.79788000 6.78283000
5.98124000 -1.36076000 5.90519000
3.38979000 -1.56037000 7.44802000
3.50543000 -1.52553000 7.41792000
4.93263000 2.43453000 6.55470000
-1.33533000 2.97492000 -8.70729000
-1.13891000 2.99076000 -8.71838000
-8.34618000 3.93786000 0.51170000
-8.33351000 3.91093000 0.52595600
-8.74535000 1.35587000 3.16805000
-8.80396000 1.24657000 3.02866000
-8.76753000 1.27667000 3.09677000
-8.78020000 1.32577000 3.07935000
-0.89338500 4.63947000 7.06003000
-7.71257000 -3.03340000 0.30566700
-6.90789000 4.90257000 -2.66107000
5.01341000 5.24952000 -5.52338000
5.11320000 5.25902000 -5.41567000
5.10370000 5.20992000 -5.46952000
-7.71099000 -2.99855000 0.56703000
-7.67772000 -3.01281000 0.73176700
-8.77386000 1.22281000 3.11261000
6.45486000 5.49492000 2.03555000
6.48338000 5.50918000 1.98169000
6.52298000 5.54878000 1.98486000
6.56575000 5.56462000 1.93734000
6.51823000 5.54086000 1.93892000
-1.33374000 2.82919000 -8.76115000
7.22153000 4.83443000 -0.85529100
7.21361000 4.86136000 -0.73807400
7.29439000 4.79166000 -0.70164300
-8.71367000 1.30043000 3.24725000
-8.74377000 1.30835000 3.17280000
-8.19253000 2.54391000 1.00906000
-8.23371000 2.53125000 0.73027200
-5.37615000 4.82643000 4.04249000
-5.32546000 4.84544000 4.09159000
-5.32071000 4.82168000 4.13911000
-5.28428000 4.86603000 4.12644000
6.42318000 5.52026000 2.17177000
6.42002000 5.47116000 2.06881000
3.70185000 2.98283000 -7.83291000
3.89826000 2.94798000 -7.75688000
-9.17145000 3.12368000 0.17587600
-9.20313000 3.15219000 0.15686800
-9.16670000 3.11259000 0.13785900
-9.17779000 3.14269000 0.11251500
-8.08482000 -0.22326100 -5.36823000
-7.98027000 -0.21850600 -5.54723000
-6.45803000 -4.58095000 -1.30847000
-8.62338000 4.09309000 0.59407100
4.87718000 2.71647000 7.21524000
4.99282000 2.68004000 7.16296000
5.08786000 2.59767000 7.14237000
5.13221000 2.84953000 6.98239000
-6.16974000 -4.88508000 -1.34649000
2.49007000 3.72708000 7.10437000
5.54564000 -0.32954700 4.51127000
5.59791000 -0.40557800 4.40197000
-6.80810000 4.66973000 -3.05708000
6.53565000 2.32069000 -6.79856000
6.64495000 2.33336000 -6.68293000
5.15122000 2.44719000 7.16929000
4.92312000 2.61351000 7.23899000
5.10528000 5.06419000 -5.48378000
0.76824800 -4.91054000 5.83068000
0.64944600 -5.25427000 5.57090000
4.40832000 -2.00385000 4.10732000
-5.06410000 -0.25969200 -5.45535000
-5.21458000 -0.19633300 -5.31596000
2.19228000 -4.20711000 -2.07671000
2.28257000 -4.19920000 -1.80268000
-8.52517000 3.57190000 3.34391000
-7.91691000 2.78466000 2.48061000
-7.90899000 2.85119000 2.52813000
-7.88840000 2.81634000 2.55981000
7.09005000 3.76845000 -4.74565000
7.27538000 3.80171000 -4.41459000
6.83820000 4.84079000 -2.47099000
6.93482000 4.87405000 -2.11458000
6.95700000 4.88197000 -2.04489000
5.05618000 4.42108000 -5.93365000
5.19082000 4.27060000 -6.08730000
0.03168030 -6.72580000 4.04705000
6.94591000 3.95536000 -4.61576000
7.06471000 3.88566000 -4.55240000
7.11065000 3.87299000 -4.52230000
7.09956000 3.83181000 -4.62527000
6.93482000 4.93266000 -2.06865000
6.91264000 4.92632000 -2.15260000
8.53468000 -0.60503400 -3.78264000
8.54418000 -0.79511900 -3.54346000
-8.13075000 2.75774000 1.93254000
0.24552200 -6.72738000 4.32426000
-0.15523400 0.10126000 7.31499000
7.05679000 4.83128000 -1.79620000
7.09798000 4.80593000 -1.71700000
7.11065000 4.80751000 -1.63621000
7.15500000 4.76158000 -1.70274000
7.49715000 1.62371000 -6.03666000
7.46388000 1.76627000 -6.02557000
7.54150000 1.68232000 -5.95746000
7.62387000 1.74093000 -5.81331000
-3.24723000 5.39507000 5.75323000
-3.09834000 5.38556000 5.82610000
-0.19641800 3.92032000 7.24693000
-0.33422700 3.86647000 7.30554000
0.05544060 3.84746000 7.34989000
-6.62911000 3.59090000 4.00762000
-6.77484000 3.55289000 3.84288000
-6.74157000 3.60041000 3.81912000
7.18510000 4.29111000 -0.68581000
7.70940000 1.64747000 -5.71510000
7.78227000 1.79795000 -5.55511000
7.66664000 1.57936000 -5.81015000
-8.22421000 4.10895000 -0.60661300
-8.23055000 4.05509000 -0.67314200
2.13367000 5.12282000 -7.06780000
-2.87657000 5.51862000 5.89738000
-2.92885000 5.50911000 5.87045000
-2.88766000 5.48535000 5.91163000
-2.99379000 5.49169000 5.84669000
0.31521900 3.80152000 7.39741000
6.94908000 4.10742000 -4.33063000
-5.10370000 4.17854000 5.79281000
7.87414000 3.88090000 -3.60357000
-3.67808000 -5.43626000 -4.87094000
-3.51810000 -5.40617000 -5.04359000
-3.58621000 -5.44735000 -4.94063000
-2.93677000 4.63316000 5.50136000
8.26698000 -1.18478000 -3.81116000
8.31925000 -1.11667000 -3.77473000
8.32400000 -1.15152000 -3.70820000
7.93117000 0.64462000 4.69503000
8.08482000 0.60502300 4.46218000
7.03620000 4.05990000 -4.30371000
6.99185000 4.08049000 -4.32588000
-1.25454000 4.60010000 -7.69824000
5.72463000 4.77576000 3.11108000
5.69454000 4.81853000 3.13643000
5.75473000 4.80586000 3.04139000
5.71671000 4.94050000 3.10317000
5.73414000 4.86288000 3.06198000
0.06019260 -1.19923000 8.37626000
0.14572900 -1.26893000 8.34141000
0.30571500 -1.06143000 8.43328000
-1.81211000 3.90314000 -7.69825000
-1.79152000 3.80335000 -7.77587000
-1.69173000 3.66712000 -7.90576000
-4.43366000 -6.49443000 -2.22089000
7.75851000 4.29116000 -3.70494000
7.86464000 4.27057000 -3.85543000
7.79653000 4.27374000 -3.81741000
5.75473000 4.98960000 3.06357000
5.80225000 5.00386000 3.00179000
5.75315000 4.90882000 3.03347000
2.99854000 5.22874000 5.93222000
-9.42489000 1.96102000 -0.50843800
-9.39797000 2.06081000 -0.55595700
-9.43123000 1.94518000 -0.74920900
9.41064000 0.63838200 -1.48896000
-3.51335000 -6.71934000 -3.44059000
-5.94006000 3.52295000 -6.06039000
4.82016000 3.87937000 -6.95377000
4.74254000 3.94431000 -6.92367000
4.75363000 3.98233000 -6.85873000
4.69027000 3.91421000 -7.00287000
0.94724100 1.17708000 -9.88899000
0.92348100 1.31014000 -9.87315000
0.76666400 1.27846000 -9.90008000
-4.30377000 5.35231000 5.15606000
-4.24833000 5.40775000 5.16715000
-4.32912000 5.38716000 5.12279000
-3.31376000 -6.73835000 -3.51345000
-6.02084000 4.02966000 5.09426000
-6.06678000 3.99956000 5.13228000
-5.94956000 4.01540000 5.20356000
1.35433000 -0.19494600 7.04412000
-0.56707800 4.05520000 -7.70776000
-0.62727000 4.00293000 -7.75845000
-0.79834400 4.04887000 -7.70776000
7.83137000 4.36399000 -1.51742000
0.75399200 -1.11845000 8.37943000
-7.03461000 4.86292000 0.46261000
-6.35190000 -4.14849000 -3.05405000
8.31608000 3.97753000 -4.26728000
7.45438000 -1.63146000 -4.93582000
-4.62374000 -0.10603200 -6.09371000
-4.56513000 -0.00306882 -6.22518000
-8.53151000 2.52171000 2.97007000
-8.53151000 2.64526000 2.96215000
0.81101600 5.55029000 6.26804000
8.55369000 4.17865000 -1.19111000
5.81967000 -1.43992000 3.01911000
-1.42720000 0.81751000 -9.92701000
-3.04289000 -3.66222000 -1.38449000
-2.85756000 -3.74459000 -1.32113000
-5.13538000 -4.09475000 4.27995000
-5.07202000 -4.03931000 4.41300000
-6.16024000 4.88982000 2.01970000
-6.24736000 4.82805000 1.76625000
5.51237000 5.04661000 4.04724000
6.23944000 4.76152000 2.14959000
6.19350000 4.83597000 2.20661000
6.22835000 4.81696000 2.14483000
6.22993000 4.90091000 2.13375000
6.20301000 4.87557000 2.18127000
-1.11356000 5.25747000 -7.64438000
-1.12624000 5.27965000 -7.60319000
-1.08030000 5.26856000 -7.60953000
5.69295000 3.01745000 6.46600000
5.52030000 3.16634000 6.49610000
-8.21312000 3.01762000 -4.27838000
-8.32559000 2.91307000 -4.16275000
-8.33509000 3.03821000 -3.95682000
4.33545000 -6.76693000 0.63983500
8.01670000 -1.58871000 -3.89195000
8.04838000 -1.59821000 -3.80483000
7.96602000 3.26621000 1.81692000
7.85197000 3.40085000 1.90087000
-5.11796000 -4.55569000 3.73662000
-5.02767000 -4.32126000 4.12946000
2.81955000 -3.61950000 1.38596000
-2.77044000 3.11246000 8.02626000
-2.70075000 3.24394000 7.96448000
8.02146000 3.02554000 -4.33699000
-0.77775200 -3.43560000 -7.94548000
-5.41100000 -4.83288000 2.90501000
8.83881000 3.21402000 -3.53230000
8.83722000 3.27422000 -3.56715000
8.78812000 3.28214000 -3.71922000
-4.70453000 4.60482000 -5.58675000
-4.84550000 4.66026000 -5.44419000
-0.72706300 -2.89069000 -8.41117000
-0.64311000 -2.72437000 -8.54898000
-0.51163700 -2.85426000 -8.45394000
1.33374000 5.61840000 6.33774000
-4.98965000 -3.27741000 5.27472000
4.55405000 3.02717000 -7.29276000
5.60266000 4.71728000 -4.82959000
5.61217000 4.74420000 -4.80266000
5.48862000 4.71728000 -4.97215000
5.52663000 4.73153000 -4.93255000
7.92642000 2.84327000 2.72772000
1.26721000 -4.36077000 -1.63161000
-4.41465000 -3.55779000 5.48222000
-4.25467000 -3.50868000 5.63904000
3.48167000 -1.03921000 5.77214000
3.08091000 2.38224000 7.63499000
6.01451000 4.05832000 -4.56982000
-6.36141000 5.37612000 1.86606000
3.71452000 2.42026000 7.34512000
3.52602000 2.43927000 7.43858000
3.68284000 2.47887000 7.36255000
3.62423000 2.37115000 7.38314000
-4.54454000 -3.59580000 5.34441000
-3.90302000 4.53672000 -6.23937000
5.58999000 5.28435000 -4.84067000
8.67724000 1.30359000 3.38348000
-5.48862000 -1.92943000 6.07942000
1.34325000 4.36225000 8.00885000
1.31790000 4.38443000 7.94233000
1.40185000 4.42086000 8.04053000
9.16512000 -0.20589000 -1.98953000
9.19521000 -0.09976100 -2.01012000
1.55867000 4.63312000 7.62394000
1.60778000 4.59828000 7.63503000
1.55867000 4.58719000 7.62077000
-5.57574000 -3.39287000 -5.49501000
-5.88620000 -3.38971000 -5.11959000
-5.80859000 -3.54020000 -5.01505000
-5.97174000 -3.39130000 -5.00238000
2.10991000 -1.34627000 -9.16831000
1.98002000 -1.28132000 -9.23166000
2.01487000 -1.12450000 -9.29661000
1.85330000 -1.19895000 -9.29819000
-2.54076000 -3.48652000 6.55777000
-2.38553000 -3.54038000 6.52134000
-2.45047000 -3.54196000 6.51975000
1.37176000 4.36384000 8.05004000
1.36067000 4.32107000 8.06429000
1.40344000 4.33849000 8.08964000
-4.34812000 3.61779000 6.25850000
-4.42891000 3.64472000 6.16822000
3.20922000 1.41626000 -9.27756000
3.06665000 1.34973000 -9.34884000
2.87657000 1.28954000 -9.42646000
-5.05143000 1.31782000 5.27479000
-5.78324000 -3.36278000 -5.28591000
-5.90996000 -3.21705000 -5.32710000
-5.71196000 -3.52435000 -5.15920000
1.00427000 -1.82491000 7.98183000
-6.76692000 4.93423000 -1.23070000
-6.79068000 5.07045000 -1.12615000
-6.72098000 4.68554000 -1.19903000
-1.98319000 4.39238000 6.25535000
-1.87389000 4.35753000 6.35356000
-2.00378000 4.32743000 6.35672000
7.42745000 1.46830000 5.39677000
7.54308000 1.29406000 5.27163000
7.11223000 1.52532000 5.75951000
7.23737000 1.54116000 5.61536000
0.52747700 2.49656000 -9.54841000
0.42293200 2.62645000 -9.49613000
0.32789100 2.44904000 -9.59276000
7.73158000 3.55457000 -2.50427000
3.75095000 -3.48326000 0.84739300
7.72524000 2.49330000 -4.00594000
7.67139000 2.45054000 -4.14850000
9.35361000 3.90304000 -1.53010000
9.35045000 3.83651000 -1.36061000
9.34569000 3.89195000 -1.44139000
-6.10321000 -3.10474000 4.27046000
5.58049000 -0.01412910 -7.97235000
6.09054000 2.97963000 -6.05881000
6.09688000 2.87192000 -6.14435000
0.60826200 -0.47188100 -9.76547000
0.74131900 -0.72057300 -9.66884000
-2.19545000 -5.34297000 5.08777000
-2.20020000 -5.50612000 4.92779000
-2.36969000 -5.34138000 5.01333000
6.72890000 4.70458000 -3.09826000
-3.82698000 -5.81961000 -4.24209000
4.06934000 -6.79222000 -2.63116000
-1.60778000 3.97603000 -9.16664000
-1.48739000 3.99978000 -8.97497000
-3.91410000 2.57233000 7.17722000
-4.23407000 2.54223000 7.01089000
9.17145000 3.03342000 -1.57763000
9.21580000 3.05084000 -1.50635000
9.22531000 3.02391000 -1.43824000
6.40259000 -0.99148500 -6.82712000
2.85281000 -6.75900000 0.36738400
2.62947000 -6.76216000 -0.14583700
1.41453000 4.11832000 7.82510000
-3.90143000 -5.93683000 -4.00449000
-3.80164000 -6.10949000 -3.89202000
-3.91569000 -6.05722000 -3.82233000
8.16402000 1.34326000 -0.86960300
8.20520000 1.45731000 -0.75238400
-5.12271000 -2.08128000 -7.40372000
1.30840000 2.50262000 8.08169000
1.32741000 2.57706000 8.06585000
-7.05679000 4.68080000 -2.05598000
-7.05996000 4.69189000 -1.95618000
-7.03145000 4.70931000 -2.01479000
4.02340000 4.07081000 6.65135000
3.98855000 4.04230000 6.70996000
-8.38895000 2.77364000 -1.48259000
-4.00281000 -6.01286000 -3.77005000
-3.90618000 -2.82108000 -3.16174000
-5.22408000 -1.97515000 -7.41323000
-5.33655000 -1.85952000 -7.41798000
3.11101000 -2.30486000 7.05359000
3.11893000 -2.60740000 6.82231000
-8.18144000 4.45580000 2.25571000
-8.01512000 4.37343000 2.11790000
-8.09591000 4.46530000 2.28264000
-8.08482000 4.43046000 2.21294000
-4.22615000 -6.62596000 1.61717000
1.24028000 -3.76365000 1.53960000
1.05812000 -3.75098000 1.59663000
-3.50543000 -2.14480000 2.86703000
-6.42635000 3.74297000 4.01871000
-6.35507000 3.74613000 4.10900000
9.30451000 -0.08712460 0.23284900
9.17304000 -0.41185300 0.52747100
-4.25625000 4.79633000 4.57313000
-4.16913000 4.84543000 4.65867000
-6.84295000 3.80000000 3.18076000
-6.96175000 3.80001000 2.93524000
5.89095000 4.96279000 -4.37180000
5.90996000 5.01823000 -4.37180000
6.01768000 5.09426000 -4.26726000
6.03510000 5.05783000 -4.20548000
2.21604000 0.66198000 8.68517000
7.34983000 4.75998000 -0.56066600
7.54625000 4.62692000 -0.54324400
-8.26381000 4.44946000 2.30006000
-8.17035000 4.47956000 2.29531000
-3.25832000 -2.18758000 3.11097000
-2.94944000 -2.29846000 3.25353000
9.27125000 -0.17583100 0.30729600
9.28709000 -0.09346400 0.44352300
-6.02560000 5.40145000 3.04932000
-4.66493000 5.09095000 4.77747000
-4.77581000 5.15590000 4.70303000
-4.70453000 5.12422000 4.74263000
-2.94469000 -2.04804000 -6.02404000
1.11356000 -5.04657000 -6.44544000
1.09614000 -4.86758000 -6.61651000
1.41928000 -2.57727000 4.78052000
1.58718000 -2.62320000 4.67280000
-0.01425610 2.47439000 -9.60702000
0.07128070 2.31915000 -9.66880000
-0.06336060 2.35400000 -9.65929000
8.00562000 2.84653000 -3.11255000
7.90424000 3.02394000 -3.12997000
-0.83952800 2.05276000 7.94704000
-0.72072700 1.90703000 7.92803000
-7.04412000 5.15918000 -2.23813000
-7.05837000 5.19561000 -2.16527000
-7.04570000 5.22095000 -2.21279000
-7.06471000 5.15284000 -2.09874000
-7.08530000 5.13858000 -1.97677000
0.68746300 -4.40512000 -1.83594000
-7.43537000 1.44938000 -0.31044400
4.80590000 -1.92288000 -7.54153000
4.43841000 -1.98306000 -7.71577000
5.63434000 -3.77305000 -4.84715000
5.49495000 -3.96472000 -4.76003000
-0.04752050 -4.79946000 -6.79867000
-3.82065000 -1.95630000 2.80051000
0.66845500 2.24152000 -8.72472000
0.74924000 2.52981000 -8.76432000
0.96941800 2.50605000 -8.73581000
-6.58475000 5.39196000 1.78844000
-6.57050000 5.41097000 1.73775000
9.30768000 1.43990000 -2.06078000
9.38529000 1.31476000 -1.70121000
9.35678000 1.30526000 -1.88813000
9.35837000 1.40822000 -1.80892000
3.73036000 5.31112000 5.59800000
3.63056000 5.34913000 5.66928000
-4.53662000 -2.57718000 -0.71284800
-4.51445000 -2.57719000 -0.52751800
8.52834000 2.49643000 -1.30361000
8.50300000 2.54078000 -1.44300000
4.40673000 1.16096000 7.90743000
8.09274000 3.97910000 -3.40557000
-6.50872000 4.62064000 -4.04709000
-5.48386000 5.32698000 3.88409000
3.73986000 2.35214000 7.98506000
3.70660000 2.21274000 8.06426000
3.75887000 2.26185000 8.01674000
8.62021000 3.71774000 -3.39607000
8.72793000 3.69715000 -3.35647000
-7.10114000 4.85659000 -0.09813160
-7.09639000 4.84075000 -0.02209910
-7.10273000 4.91362000 -0.07753850
-7.10114000 4.94688000 -0.12664200
-7.10590000 4.88986000 -0.14565200
0.51322100 4.47813000 -7.30541000
0.53064500 4.52882000 -7.30066000
3.74461000 2.10661000 8.07693000
3.81114000 1.99415000 8.06426000
3.80956000 2.14463000 8.02307000
3.70818000 2.12562000 8.08802000
-8.65823000 2.98266000 2.51546000
4.14537000 -2.42346000 -5.43955000
6.10796000 -0.63828100 -4.83443000
6.25053000 -0.52423400 -4.69978000
2.64055000 4.81531000 6.33139000
0.83636000 4.61594000 -7.27531000
0.87596100 4.68880000 -7.29115000
0.83794400 4.54941000 -7.26422000
3.87767000 1.99890000 8.02941000
3.75095000 2.02583000 8.09277000
3.73669000 1.91811000 8.11653000
0.81893600 -0.76518800 6.78433000
-5.37457000 4.28626000 5.28276000
-5.23834000 4.30210000 5.38889000
-5.30804000 4.28943000 5.35879000
-1.73450000 4.00137000 -8.91161000
-1.78202000 4.01245000 -8.91953000
-1.68856000 3.97602000 -8.89894000
5.61217000 5.33028000 -4.46842000
-1.61411000 3.50082000 -9.04467000
6.25053000 3.27585000 -6.34868000
-2.20178000 -0.86338400 6.01291000
-2.47265000 -0.73507800 5.95430000
-5.19874000 4.31319000 5.40790000
1.65530000 5.01489000 6.37416000
5.99075000 -5.09417000 -1.35917000
6.12381000 -4.95003000 -1.26888000
-8.39212000 2.89240000 0.69701300
-8.34459000 2.92883000 0.91402400
2.84489000 1.08362000 -9.46448000
5.31120000 -0.70654300 4.49701000
5.18924000 -0.86811300 4.50651000
-8.75327000 2.78633000 -3.18383000
-4.85976000 4.69021000 4.00763000
-4.89936000 4.71397000 3.94586000
-4.80590000 4.75198000 4.02981000
-4.96589000 4.69338000 3.89359000
-4.96747000 4.77258000 3.86983000
8.15768000 1.93877000 4.19292000
8.23688000 1.95936000 4.04244000
7.48923000 -3.25674000 0.14409400
7.44804000 -3.28209000 0.33575900
7.56209000 -3.17595000 0.04588580
-8.17511000 4.33065000 3.15543000
-8.09432000 4.38767000 3.08415000
-8.13234000 4.37659000 3.02871000
-4.94847000 4.65378000 3.93477000
7.08055000 -3.52921000 1.33527000
2.36494000 -1.76128000 -8.86260000
2.59462000 -1.71060000 -8.82300000
-1.00585000 -3.72087000 1.33685000
-1.18009000 -3.71612000 1.27666000
-9.50093000 3.38662000 0.30893700
-9.48350000 3.39612000 0.38655400
7.99611000 -2.62313000 0.12192700
8.14659000 -2.42513000 0.12034700
7.04412000 1.27366000 -6.67185000
7.03778000 -3.48961000 1.60138000
7.13124000 -3.37715000 1.59822000
-0.28195500 5.43782000 6.57534000
5.42525000 3.44355000 6.37730000
5.37932000 3.49107000 6.36305000
5.41733000 3.51008000 6.31870000
6.02401000 3.68908000 5.60906000
4.08518000 0.46715700 7.98662000
4.35763000 0.45924000 7.84722000
-0.45302900 5.51227000 6.54683000
6.49446000 4.41311000 -2.72444000
-3.88242000 -2.70076000 1.00898000
-3.75412000 5.30656000 -6.75574000
-3.71293000 5.27330000 -6.80960000
-3.75887000 5.33349000 -6.71456000
-6.19509000 -1.58411000 5.68026000
7.20410000 -0.44190500 -2.19704000
7.25638000 -0.26924200 -2.54077000
2.25722000 4.38127000 7.45128000
2.29999000 4.30840000 7.47662000
2.03546000 4.37018000 7.48930000
2.04972000 4.32741000 7.51306000
5.65335000 4.56508000 3.46590000
5.88303000 4.49063000 3.25839000
5.78958000 4.51914000 3.34235000
1.60461000 1.18629000 8.85784000
1.48581000 1.17520000 8.87684000
1.31473000 1.03105000 8.90218000
-7.42270000 -3.45315000 -0.46258800
-7.54784000 -3.28208000 -0.23131900
4.95955000 -3.70492000 -5.63757000
-4.58573000 2.54224000 6.80972000
-4.61741000 2.47571000 6.78596000
-0.06652870 -2.53429000 -8.71213000
6.94591000 0.23438800 2.88291000
-5.14964000 2.84162000 6.30760000
-4.93579000 2.86538000 6.45333000
8.68516000 3.61795000 -3.89504000
8.65506000 3.68448000 -3.90137000
2.69758000 -1.14851000 6.06676000
2.49641000 -1.16277000 6.13171000
2.75144000 -1.26572000 5.96063000
2.70708000 2.79909000 -8.36514000
2.65323000 2.73573000 -8.41266000
2.80054000 2.72622000 -8.36990000
2.98904000 2.68979000 -8.31446000
-1.20860000 -1.02629000 -9.54846000
-1.15316000 -0.99619300 -9.56906000
-2.59620000 4.11065000 -8.08950000
-2.52809000 4.09798000 -8.13386000
-7.23262000 3.69084000 -5.16225000
-7.28172000 3.52294000 -5.31749000
4.04874000 -2.11952000 6.69243000
7.00769000 4.00908000 3.92526000
6.87304000 4.06610000 4.03772000
3.83965000 3.75581000 -6.97911000
3.76837000 3.75898000 -7.01396000
3.81589000 3.70829000 -7.04881000
9.06532000 3.31062000 -1.68692000
-4.08201000 -6.50867000 -2.90360000
-4.02974000 -6.51976000 -2.98122000
-9.38846000 0.00158611 -0.13147300
-6.28062000 -2.59469000 4.62528000
-6.39784000 -2.41887000 4.67439000
-7.83929000 2.02278000 0.24713900
-6.89364000 0.88545300 0.71440500
-6.71306000 0.58607600 0.64312000
8.38895000 3.51658000 -4.17066000
-1.41769000 0.54317700 8.81664000
-1.13416000 0.55584800 8.86416000
-1.23870000 0.41645600 8.81822000
-1.01535000 0.53525600 8.87050000
8.60121000 2.80525000 2.47903000
8.58695000 2.65002000 2.72455000
-3.80639000 3.77484000 -8.03248000
-3.75729000 3.80018000 -8.02615000
-3.67492000 3.78434000 -8.06733000
4.97539000 4.68719000 -5.56616000
4.93579000 4.71412000 -5.58200000
5.00707000 4.69511000 -5.52180000
-7.63971000 3.77157000 -1.65365000
-7.49081000 3.86503000 -1.85165000
8.13392000 0.35633500 4.29902000
8.00403000 0.24545100 4.47010000
8.07056000 0.32148500 4.39565000
8.65348000 3.09838000 -3.07769000
8.65665000 3.14907000 -3.10462000
-0.09345690 2.40124000 8.12129000
3.55295000 -3.73511000 -0.23766200
-6.42794000 4.95795000 1.37342000
-6.42477000 4.87241000 1.32115000
-6.45486000 4.97537000 1.30689000
-6.44536000 5.04032000 1.36709000
8.40162000 3.45322000 -4.20392000
-0.09345690 -4.39416000 6.29006000
4.53187000 3.89679000 -7.13751000
-4.09151000 3.86354000 -7.79646000
-6.35666000 4.97062000 1.60469000
-6.40259000 4.92310000 1.46529000
-3.55295000 4.96106000 5.05943000
-9.51994000 1.40187000 -1.22442000
4.36396000 -2.88769000 1.98473000
4.71403000 1.01864000 -7.21042000
-6.80493000 4.90416000 -2.99054000
-6.76850000 4.83922000 -3.07450000
-6.77484000 4.87406000 -3.03490000
-7.15342000 -3.07452000 -3.44053000
-7.34825000 -2.84325000 -3.46270000
-7.19618000 -3.09511000 -3.28213000
-6.28696000 -1.23225000 -7.05681000
-6.42318000 -1.10078000 -7.00612000
-6.70831000 4.77427000 -3.19488000
-6.76216000 4.79645000 -3.05549000
-6.76375000 4.77110000 -3.00005000
-8.67882000 4.08830000 2.68180000
-6.65762000 5.14335000 -3.45307000
-6.68138000 5.19879000 -3.39763000
-6.64970000 5.06257000 -3.42139000
-2.97161000 3.27721000 7.25168000
-3.04131000 3.31998000 7.18198000
-2.92251000 3.36750000 7.20891000
1.02644000 5.17827000 -7.42578000
-6.87146000 -3.53864000 -3.07305000
-6.84453000 -3.52280000 -3.18710000
5.43159000 4.83276000 4.38780000
4.91045000 -2.55338000 -3.06036000
-6.11747000 -1.48886000 -7.03622000
-7.36251000 -3.03018000 -2.95741000
-0.42610000 5.12102000 6.53098000
-5.64226000 2.55808000 6.74953000
-3.89668000 4.32447000 -6.42787000
-3.88717000 4.39733000 -6.35183000
-3.99330000 4.35298000 -6.33283000
-3.96954000 4.28011000 -6.44212000
-0.44194000 5.00063000 6.52939000
-0.51797300 5.00539000 6.52781000
-0.38016400 5.09726000 6.53415000
-0.46570100 5.05449000 6.52781000
3.00963000 -3.97745000 -0.96314500
-3.88242000 4.28941000 6.52621000
-3.99330000 4.24031000 6.53255000
-6.41210000 0.50044700 6.37092000
-6.36141000 0.57172700 6.42953000
-6.21251000 2.84322000 5.33976000
-6.27745000 2.76561000 5.30650000
-6.33765000 2.82105000 5.20987000
-3.85549000 4.26903000 -6.52291000
0.78567200 -6.74158000 0.72537200
-6.42477000 3.97580000 4.75370000
-9.19996000 0.40072800 1.75351000
-9.25540000 0.56230000 1.62363000
-6.26953000 0.49252500 6.50239000
-1.85488000 -1.80247000 -9.06377000
-1.91824000 -1.65198000 -9.14297000
6.46912000 0.57032800 -5.15913000
6.98076000 -1.38909000 -5.86880000
6.97917000 -1.24336000 -5.99235000
-4.19606000 -2.25558000 -3.96008000
0.26769900 -4.77274000 5.98592000
0.09820900 -4.72997000 6.03344000
0.18691400 -4.87728000 5.91464000
0.29462700 -4.71254000 6.03186000
1.13732000 -3.31064000 2.84167000
6.66554000 -0.68749800 2.22712000
-9.41381000 3.87766000 0.77147800
7.64288000 3.08730000 -3.55131000
7.63020000 3.02078000 -3.69229000
7.70307000 2.96058000 -3.63052000
7.56526000 3.14750000 -3.63368000
-6.28854000 5.36671000 -3.91560000
5.58999000 4.60006000 -5.02601000
5.50762000 4.61274000 -5.09887000
6.76850000 4.38617000 -2.09400000
6.72098000 4.39093000 -2.20013000
6.80176000 4.34816000 -2.17637000
6.06361000 2.13356000 6.61330000
6.21726000 1.98784000 6.52935000
6.08104000 1.94507000 6.65765000
8.34459000 3.43579000 -4.00117000
8.36994000 3.42312000 -4.05978000
8.48557000 2.50281000 -3.84912000
-5.77532000 -3.07290000 -5.68033000
-5.45060000 -3.09349000 -6.01297000
-5.62959000 -3.17586000 -5.71835000
-7.36884000 3.95690000 -1.91660000
-8.11808000 -2.42356000 0.72702500
-7.87731000 3.01751000 2.53131000
-7.82504000 3.03810000 2.62318000
1.65530000 5.38556000 6.05895000
-1.99744000 -3.54663000 1.24973000
-7.28172000 3.13484000 -4.79477000
-7.25162000 3.09208000 -4.90248000
-7.10748000 3.10317000 -5.10207000
-3.60839000 3.71283000 6.59907000
-3.65591000 3.65422000 6.63392000
-3.09041000 4.20705000 6.12070000
-3.12368000 4.16745000 6.15714000
-3.19338000 4.12468000 6.19040000
-4.72987000 5.10522000 4.18347000
-4.72195000 5.16066000 4.22307000
-4.66334000 5.12581000 4.28168000
0.92981700 -4.09468000 0.21060900
1.32899000 -4.02499000 0.48306100
1.53333000 -4.02341000 0.42603600
6.09688000 4.79645000 -3.21389000
6.08104000 4.74418000 -3.22815000
-3.69076000 -3.26159000 6.20612000
-3.38029000 -3.32020000 6.32334000
8.30499000 4.28323000 -3.36597000
-5.11954000 3.87124000 6.20148000
-2.07031000 3.53249000 -8.61699000
-2.02596000 3.51348000 -8.65026000
5.95590000 4.64281000 -3.42932000
5.95115000 4.69349000 -3.45942000
-1.79786000 -0.69367100 -8.01038000
-1.62203000 -0.72218300 -8.07691000
2.30157000 2.27478000 -8.48712000
2.24613000 2.34923000 -8.51405000
1.04862000 4.86621000 -7.29115000
0.99001000 4.93433000 -7.31015000
0.94882500 4.86305000 -7.31174000
1.51907000 4.08822000 7.66353000
1.56976000 4.05813000 7.66829000
-8.64397000 3.39616000 -2.02115000
8.25114000 4.12959000 -3.92988000
8.32242000 4.07415000 -3.95681000
-8.53626000 0.55448300 -4.86767000
-1.05812000 -0.51333000 6.80017000
-1.21494000 -0.52600100 6.74632000
-1.85013000 -6.76209000 -4.68879000
-1.89448000 -6.75892000 -4.65553000
-1.63312000 -6.74308000 -4.82344000
-1.53174000 -6.76526000 -4.79809000
-1.64896000 -6.76050000 -4.76958000
9.17779000 2.76571000 -1.16421000
9.16828000 2.68334000 -1.18005000
8.93068000 4.33864000 -1.43822000
-1.59986000 -1.77898000 7.97391000
-8.07848000 3.66705000 -3.39607000
-8.11016000 3.74149000 -3.08244000
6.03985000 4.47332000 -3.40081000
5.99233000 4.50024000 -3.41823000
6.00659000 4.52717000 -3.36596000
5.15122000 2.62800000 -7.08843000
5.50604000 -0.22025200 4.62532000
7.09481000 0.21711500 -6.60376000
7.25321000 0.27572100 -6.42952000
0.64152600 5.62157000 6.35991000
0.64944600 5.57405000 6.30289000
0.50688500 5.60256000 6.32982000
0.42293200 5.56930000 6.30130000
-7.65555000 -3.15218000 -0.91561100
-2.97637000 1.35737000 8.49193000
8.84039000 -0.86806500 1.49847000
8.81980000 -0.84113900 1.63469000
-0.30254700 -3.77622000 -4.91209000
-0.34214700 -3.88393000 -4.59846000
4.27209000 4.13598000 -6.99178000
4.29585000 4.07895000 -7.04881000
4.05983000 4.23419000 -6.96802000
-6.63544000 4.48434000 0.64951800
-6.65920000 4.43840000 0.71446200
0.47203700 5.62157000 6.35991000
-4.52078000 4.61257000 5.55363000
-4.45267000 4.69652000 5.43008000
-6.01451000 4.11695000 -6.03979000
-5.91472000 4.09795000 -6.17126000
-5.95432000 4.07260000 -6.19185000
-7.81395000 3.73354000 -1.05014000
7.53200000 3.86186000 -1.85641000
7.62704000 3.77791000 -1.87066000
7.61912000 3.80642000 -1.74077000
7.55417000 3.85236000 -1.78988000
-3.84916000 -1.94662000 -8.30819000
-3.42147000 -1.83574000 -8.57589000
-5.69929000 4.13121000 -6.33600000
-2.92568000 -0.62577700 5.70562000
-5.70721000 3.93005000 -6.63063000
-5.64226000 3.96331000 -6.65439000
-5.69929000 3.99816000 -6.55143000
-5.62801000 4.06786000 -6.50707000
1.85013000 -3.35327000 -5.99239000
1.95784000 -3.36436000 -5.85933000
7.52566000 3.83810000 -2.01956000
7.56051000 3.83335000 -1.91343000
6.61010000 5.00712000 -2.99529000
6.54674000 5.05148000 -3.16637000
-9.14136000 1.26559000 2.12102000
-9.25540000 1.16106000 1.71234000
-5.78799000 4.01558000 -6.45005000
8.74218000 -0.98838400 -2.61206000
8.53784000 -1.33528000 -2.75146000
-7.01561000 4.69823000 -2.12726000
-7.01561000 4.71406000 -2.08132000
-7.00769000 4.76951000 -2.09874000
5.43159000 5.32554000 -4.93412000
5.45693000 5.29544000 -4.98165000
5.39041000 5.32871000 -4.98165000
5.38724000 5.33663000 -4.93888000
1.61886000 5.59781000 6.33298000
1.71549000 5.59464000 6.28388000
8.51567000 -1.03589000 -3.31695000
8.58220000 -0.99471100 -3.17597000
8.67724000 -0.79829400 -3.14745000
0.10929700 3.12830000 8.47770000
0.40550800 3.23601000 8.40801000
0.22017800 3.22175000 8.42543000
7.51457000 3.86028000 -1.97045000
-2.77044000 5.10677000 5.93697000
-2.86548000 5.21449000 5.88787000
-2.90033000 5.12420000 5.88628000
6.44219000 5.42055000 -3.14260000
6.36141000 5.40313000 -3.15686000
6.40101000 5.40788000 -3.21547000
-8.22579000 4.46847000 2.29848000
-2.92726000 5.21132000 5.85936000
1.38443000 2.46487000 -8.68829000
5.83235000 -0.58139700 3.98537000
6.30597000 5.36511000 -3.16478000
6.33606000 5.39838000 -3.18062000
6.31547000 5.39838000 -3.22497000
-6.53090000 4.84232000 0.96791100
9.29659000 1.13888000 1.42405000
-6.61643000 4.77422000 0.50220900
-6.58951000 4.79797000 0.67645100
-6.51823000 4.69976000 0.88237200
3.35811000 0.56722600 -9.29341000
3.26782000 0.46584900 -9.32351000
-6.14598000 -0.55279400 -1.74084000
-6.31547000 -0.29935500 -1.48740000
4.92946000 4.22466000 -5.43152000
-6.68138000 4.86926000 0.30579300
-6.67821000 4.94529000 0.41509100
-0.68429500 4.95153000 6.54998000
-0.62251800 4.99588000 6.51514000
7.05204000 4.43995000 2.97168000
-0.22176200 4.13282000 -7.61588000
0.01267210 4.14549000 -7.59846000
-8.28440000 3.60042000 3.28214000
-3.80164000 -3.83321000 -6.57689000
-4.05350000 -3.86173000 -6.38048000
-1.48739000 -4.10097000 -3.16335000
-5.11320000 5.35248000 -5.63584000
-5.21300000 5.32238000 -5.59466000
-5.16231000 5.35565000 -5.57723000
-5.15914000 5.34139000 -5.61684000
8.31925000 3.07306000 -4.29739000
8.32400000 3.12058000 -4.30847000
8.36677000 3.12216000 -4.28630000
-3.32168000 3.74451000 6.71153000
6.65128000 4.19769000 -3.16796000
6.63703000 4.17393000 -3.22816000
6.33131000 -4.34973000 1.56335000
6.25369000 -4.33865000 1.81363000
6.16657000 -4.49230000 1.70433000
6.11272000 -4.42894000 1.98787000
2.97637000 -3.86021000 -2.42836000
-8.74535000 1.60943000 -4.32909000
-8.66932000 1.74407000 -4.44472000
-3.60522000 3.55442000 6.75430000
-2.02754000 -6.70837000 3.72233000
6.23944000 -2.42504000 -5.73576000
6.66871000 4.13275000 -3.26617000
6.58475000 4.14859000 -3.34854000
6.63861000 4.10741000 -3.38181000
6.53565000 4.17710000 -3.36755000
6.76058000 -3.85710000 1.50634000
-4.76314000 -6.50554000 -0.85547200
-4.94213000 -6.31863000 -0.67806000
-6.80810000 -3.50854000 -3.31223000
1.52382000 1.87692000 8.79449000
1.58877000 1.94028000 8.77548000
1.54283000 2.05274000 8.76439000
1.51274000 2.12878000 8.74063000
5.83235000 2.51374000 5.87199000
5.89729000 2.45196000 5.80387000
4.12795000 1.30352000 8.03257000
-0.38966800 2.76872000 8.65194000
-0.57024600 2.80991000 8.62184000
-0.24710600 2.76080000 8.65827000
-8.50300000 4.10731000 2.63904000
-5.07044000 -6.13171000 -1.04396000
-5.09736000 -6.12062000 -0.90773900
-5.21458000 -5.99073000 -0.82695200
5.64068000 -4.32430000 -4.06465000
1.42720000 5.01353000 -7.58577000
-8.83247000 -1.42720000 0.13620300
-8.73585000 -1.60778000 0.03640670
2.84806000 4.88660000 5.59165000
2.92885000 4.92462000 5.55681000
-7.43695000 3.35965000 2.97325000
-8.72476000 -1.27192000 -2.61681000
1.21336000 -1.22907000 -8.21156000
2.10833000 3.49897000 7.40216000
2.02596000 3.54333000 7.39899000
-6.81444000 2.30961000 -6.96488000
-6.90948000 2.52642000 5.54885000
-6.93957000 2.43613000 5.56627000
-6.85087000 2.35376000 5.70725000
-6.73524000 2.26663000 5.87040000
-0.77775200 4.36386000 6.57849000
-0.88071300 4.32901000 6.61175000
-2.30316000 4.70148000 -7.40678000
-2.28257000 4.75850000 -7.41945000
-2.33326000 4.82820000 -7.40995000
-2.39820000 4.90423000 -7.38936000
4.69661000 -4.98495000 3.50376000
4.50177000 -5.01189000 3.70652000
4.47168000 -5.12752000 3.60197000
-4.68869000 -2.09091000 0.71752600
-4.79798000 -1.90717000 0.91553100
-5.04984000 4.08212000 -6.94268000
-4.73304000 4.18508000 -7.00287000
-4.52870000 -6.68930000 0.28976800
-1.02961000 -3.48011000 1.95779000
-0.42451600 -4.40194000 -2.41094000
-0.19958600 -4.40828000 -2.55192000
-1.83112000 4.76642000 -7.54142000
-1.78677000 4.88364000 -7.55568000
-1.69806000 4.83929000 -7.57627000
-7.07580000 2.33634000 5.45064000
-3.03022000 -3.67172000 -1.55081000
-3.13477000 -3.61945000 -1.58566000
-2.31108000 0.63822100 8.64715000
-2.38711000 0.53526000 8.60913000
-2.48374000 0.73167800 8.61231000
-9.00196000 3.36602000 0.78097300
-8.95761000 3.36919000 0.76988500
7.45279000 3.80804000 -4.17224000
5.26052000 -2.66271000 -1.35913000
1.66955000 2.73890000 -8.66769000
2.37127000 -6.73054000 3.69540000
-6.06203000 -0.71437100 -1.24980000
-6.21568000 -0.46726200 -1.40978000
-6.10638000 -0.63992000 -1.41929000
8.59329000 2.87020000 2.42201000
8.56161000 2.97474000 2.36182000
-5.37298000 4.21973000 5.49660000
-5.37773000 4.18488000 5.54729000
8.89742000 4.22301000 -1.41763000
7.85672000 2.16213000 3.10312000
5.52663000 4.64282000 -4.23558000
5.56306000 4.73627000 -4.18965000
5.48545000 4.65549000 -4.29103000
5.43317000 4.56204000 -4.40032000
5.44268000 4.63332000 -4.36072000
1.24187000 -2.34105000 -7.88052000
1.09297000 -2.32679000 -7.90111000
1.42561000 -2.35372000 -7.85042000
-8.36044000 -0.80473000 3.11575000
-8.35410000 -0.70493800 3.21554000
0.06494460 -5.67720000 5.26676000
-0.02851230 -5.79283000 5.17014000
-6.44536000 2.53910000 5.09265000
-2.24772000 3.59267000 -7.93903000
-1.89290000 3.57683000 -7.98497000
8.33192000 2.35550000 -4.25463000
2.32534000 -6.69873000 -4.51138000
2.30157000 -6.77318000 -4.46862000
-0.02692830 -5.62968000 5.31112000
-3.56087000 2.83844000 7.25801000
5.41575000 4.66183000 -4.39240000
5.40783000 4.60480000 -4.41299000
2.79262000 1.61266000 -8.24478000
2.91301000 1.83125000 -8.24794000
-5.67870000 -0.56084800 6.69879000
1.13257000 -3.28039000 -6.55946000
5.41100000 -2.57876000 -1.08034000
3.81748000 -6.49282000 -3.54672000
3.09358000 4.60148000 5.61383000
3.24565000 4.61098000 5.52195000
3.21397000 4.66009000 5.50136000
-9.01939000 2.73875000 1.08509000
-0.11563300 5.59939000 6.49297000
-0.06811270 5.62157000 6.44228000
-0.12830500 5.61523000 6.43753000
-0.08870490 5.61840000 6.36783000
-0.15681800 5.61523000 6.40585000
-0.06177660 5.62632000 6.39951000
0.13939300 -5.35248000 5.53288000
0.06811270 -5.50929000 5.40457000
-7.81395000 3.07464000 -3.87129000
-7.81395000 3.11899000 -3.78258000
-7.85830000 3.05088000 -3.80159000
-8.21787000 4.24988000 2.24462000
5.17181000 -3.65440000 4.46687000
-5.99867000 5.09099000 2.43471000
-6.00025000 5.17494000 2.45372000
-5.97649000 5.11792000 2.47431000
-5.84027000 5.17494000 2.74677000
-5.87511000 5.19553000 2.68499000
-1.60936000 -6.68922000 -4.88521000
-1.75984000 -6.75892000 -4.73948000
-1.79786000 -6.73041000 -4.77116000
-1.72341000 -6.74625000 -4.78542000
-7.78861000 3.18551000 -3.69387000
3.07457000 5.57881000 5.82768000
-5.95115000 5.22880000 2.55985000
-5.97332000 5.18761000 2.49491000
-5.99708000 5.22563000 2.46164000
-5.96540000 5.27473000 2.55827000
-5.98283000 5.26840000 2.50917000
-4.42574000 5.23984000 5.05943000
-4.35288000 5.29370000 5.12438000
-5.39516000 1.42237000 4.96750000
-5.25893000 1.38276000 5.09580000
0.40234000 -3.09189000 -6.96813000
0.45936500 -3.03169000 -7.09644000
9.25224000 3.55456000 -1.50001000
9.21422000 3.58307000 -1.53802000
0.74448700 3.81286000 -8.63283000
-7.95018000 4.34021000 -0.23911700
-7.91691000 4.34813000 -0.17734000
-7.89473000 4.34654000 -0.27871800
-7.99770000 4.35129000 -0.15358000
-8.07848000 4.33859000 2.11790000
6.29646000 4.96753000 -3.63999000
6.21726000 5.41412000 3.18871000
6.20617000 5.37610000 3.21247000
6.23785000 5.34917000 3.15386000
1.96260000 2.44400000 8.55531000
1.95309000 2.56597000 8.51254000
1.87706000 2.48518000 8.55848000
1.65846000 4.36384000 7.83620000
1.61094000 4.34166000 7.87421000
1.66638000 4.33691000 7.87738000
2.12733000 4.58244000 7.57642000
2.16852000 4.53967000 7.58751000
-8.11174000 -0.52581200 -5.10371000
7.25954000 4.80433000 -0.85054000
6.25845000 5.38402000 3.12535000
3.06665000 2.90046000 -8.17506000
-4.57147000 1.20693000 5.68505000
-4.49227000 1.23544000 5.78801000
-9.10334000 3.86499000 0.46101000
-7.24370000 1.26246000 0.22019800
-7.31974000 1.36859000 0.24237600
0.92348100 -4.04071000 -7.37524000
0.65419900 -3.95042000 -7.49087000
0.77141600 -3.92349000 -7.49879000
3.80797000 -0.36441900 5.98282000
-2.80846000 -3.64798000 -0.25350100
-4.02498000 -0.51628700 -6.43111000
-3.71610000 -0.60023600 -6.68139000
7.25479000 4.04238000 1.59358000
7.33716000 3.98219000 1.58091000
-3.44048000 1.10871000 6.54517000
0.28195500 2.55489000 8.13555000
0.28512300 2.49470000 8.14188000
-4.00756000 0.74122600 5.82919000
-5.07677000 5.35881000 -5.49328000
-5.06410000 5.34139000 -5.47269000
-5.04034000 5.35248000 -5.54080000
7.67614000 4.25470000 -2.38704000
7.58585000 4.27847000 -2.54703000
7.66664000 4.29272000 -2.26983000
0.54331700 -3.98685000 -7.47345000
