2.27462649 5.79983568 6.62167788
2.22353196 5.83289480 6.73692513
2.16178179 5.82862043 6.58137941
2.11000061 5.85802889 6.68664217
2.04924893 5.87473822 6.79773903
2.01016760 5.90225887 6.63493872
1.98161697 5.87334871 6.91114569
1.95238006 5.91825056 6.74171448
1.86835098 6.03736591 6.82739735
1.89005256 5.92133856 6.85137653
1.79884684 6.02421427 6.94531250
1.82513511 5.90051079 6.96316099
1.81995559 6.16456413 6.96091413
1.73385155 6.13696575 7.07594252
1.72397590 5.99060869 7.05048180
1.74017012 6.28659868 7.09644318
1.62963438 6.25240040 7.20237684
1.63844907 6.08978748 7.17106485
1.72570765 6.42265844 7.09508610
1.83728862 6.30276155 6.96874571
1.68464482 6.53079128 7.05263424
1.83630574 6.42903948 6.95731020
1.61916578 6.58269644 6.95612431
1.81076634 6.53508139 6.92414141
1.34394181 6.66036034 7.05505276
1.48231041 6.59881306 7.01658010
1.43311930 6.66905069 6.87735271
1.55491936 6.61750412 6.82393360
1.50388730 6.67493248 6.67445707
1.75043571 6.58946800 6.85215664
1.67620444 6.59595919 6.74584913
1.61255085 6.61375999 6.61258221
1.56997454 6.65405846 6.46368265
1.46677148 6.73453045 6.51969147
1.78870595 6.57648849 6.63309813
1.71825016 6.56850052 6.53067493
1.66674995 6.57968664 6.40046597
1.63231766 6.60800266 6.25492048
1.53674376 6.69806957 6.31167841
1.81820822 6.52558088 6.43642712
1.75644231 6.50937128 6.33181953
1.71639359 6.51581430 6.19719505
1.68473840 6.54433393 6.05347538
1.60437560 6.64416695 6.10900068
1.75221431 6.45014858 6.00327015
1.71849978 6.47965002 5.85223341
1.65181947 6.57948303 5.90894413
1.57253325 6.68081522 5.96317434
1.67880988 6.51673460 5.69816971
1.73695612 6.41903925 5.62822819
1.68940318 6.45250416 5.47553778
1.78950167 6.31611729 5.54296732
1.74321234 6.35107946 5.39247656
1.68846714 6.39287519 5.25100279
1.79489970 6.25740814 5.28905439
1.74556816 6.30766106 5.15057659
1.69308519 6.37073708 5.01810551
1.82254529 6.25055933 5.04495573
1.79039097 6.34527540 4.93449831
1.95414305 6.27301073 4.96340752
1.75867331 6.44050598 4.83971930
1.85629117 6.17631245 5.17450905
1.96679568 6.14798021 5.06636047
2.12095284 6.19673443 5.02628040
1.97824717 6.05298424 5.20530701
2.12148333 6.06677485 5.13461685
2.26490688 6.10239315 5.10023165
2.12513399 5.96805000 5.26545000
2.25055361 5.98379135 5.21276379
2.36670589 5.95491362 5.14776897
2.24137998 5.88434887 5.33197403
2.33434868 5.84202194 5.26376486
2.31267810 5.74164248 5.38038492
2.30561090 5.65430593 5.49234056
2.24361110 5.80378246 5.45265102
2.25836992 5.72962999 5.56248426
2.28542256 5.67078066 5.65991497
2.21434283 5.80423498 5.63660669
2.28838682 5.61265039 5.75046539
2.25744939 5.75710440 5.72537899
2.26283169 5.70159388 5.80982876
2.22880530 5.84567261 5.79506969
2.24464059 5.64468002 5.88863134
2.23559189 5.79111433 5.87563515
2.22609067 5.59010649 5.96954012
2.21640205 5.73301506 5.94989777
2.19802380 5.67404222 6.02295923
2.22245550 5.54420757 6.04973125
2.16966057 5.75807047 6.08470964
2.13969016 5.84139824 6.15557051
2.18719649 5.82005501 6.01901197
2.13669467 5.77070808 6.21406031
2.10229373 5.84013414 6.29534340
2.13856697 5.76867962 6.34979200
2.17104888 5.70410538 6.27083349
2.22735429 5.72443438 6.38475513
2.24431300 5.66043711 6.29487562
2.32809258 5.68452597 6.40382004
2.32845116 5.61503696 6.30256701
2.20045757 5.78265858 6.48103142
2.10349512 5.82540655 6.43976545
2.06207347 5.87263155 6.53468418
2.06586432 5.90505123 6.38954496
2.02776599 5.96837711 6.48931551
1.98119581 6.01003361 6.59637213
2.04399133 6.06697845 6.45004702
2.00640774 6.12434435 6.57375002
1.95521951 6.15645266 6.70500469
1.92730868 6.02914524 6.71069908
1.98993254 6.26614523 6.68799925
1.92011631 6.29330683 6.83031511
1.89426482 6.17200565 6.83390284
1.92918086 6.40496588 6.80931520
1.91226888 6.50450325 6.77049923
2.00643897 6.36377859 6.66113377
1.86151755 6.56698656 6.71169758
1.99793601 6.45295668 6.62161541
1.95794964 6.51965189 6.56936646
1.89075446 6.54160357 6.50922251
1.97988522 6.48659277 6.38450527
2.04196310 6.45723057 6.42917204
2.09734797 6.37451267 6.27799511
2.02849913 6.40843010 6.24022436
2.07071638 6.39173603 6.47340202
2.11968923 6.31337118 6.32316065
2.14157796 6.21542549 6.17758465
2.10859656 6.23842192 6.36781216
2.12934661 6.15083551 6.23640156
2.13942504 6.05913115 6.12734842
2.10199714 6.08130026 6.29570246
2.12324619 5.99904966 6.19217157
2.15458941 5.90770340 6.09664488
2.07338428 5.99527407 6.34392643
2.10595989 5.92279005 6.24491978
2.15703893 6.01990843 5.96188021
2.16490197 5.96627140 6.03256941
2.20445156 5.87920046 5.94983530
2.14330959 6.11465549 6.05917025
2.10951710 6.06226635 5.89388895
2.19456029 5.93336821 5.87391949
2.10051513 6.15927601 5.99957275
2.02845240 6.30472708 6.09779882
2.11009431 6.26840782 6.12588120
2.13919091 5.97095203 5.79939175
1.97710812 6.02486944 5.61382866
2.04981065 5.99076557 5.72739077
2.10088944 5.90982580 5.62460947
2.17496490 5.88361549 5.71380186
2.14065742 5.90161991 5.40308475
2.17019081 5.85373926 5.53240538
2.04269648 5.94299412 5.50043774
1.92983603 6.06858540 5.47191811
1.87733746 6.17043161 5.59162760
1.89083266 6.11682415 5.32099056
2.00294399 5.98797274 5.35660887
1.83774102 6.21328783 5.43726778
2.07857966 6.15707636 6.41088724
2.06878209 6.31028223 6.51140690
2.04325795 6.22144747 6.54429483
1.90732324 6.47462702 6.33650017
1.50591540 6.73735380 6.16146803
1.43179333 6.78340960 6.36434841
1.35426998 6.81100798 6.56997538
1.39229047 6.74715090 6.72664356
1.26545131 6.81986952 6.76667738
1.30542207 6.74495077 6.91657448
1.19382548 6.74471760 7.08659887
1.21507454 6.64767694 7.20808649
1.02487803 6.82339478 7.10346460
1.16051650 6.82405043 6.94579697
1.03881013 6.73417044 7.22618437
0.86123520 6.80799675 7.23331451
0.85928500 6.71413898 7.33583069
1.03746831 6.63277769 7.32969952
0.84485376 6.60572481 7.41355658
1.01921475 6.52208567 7.40851784
0.81984472 6.49445534 7.46390247
0.98534417 6.40729046 7.45780230
0.79185587 6.40104961 7.48934841
1.14160752 6.29957867 7.44627333
0.94563866 6.31040525 7.48235941
0.63201976 6.46858788 7.49154806
0.60833687 6.38881826 7.50931787
0.75924897 6.31694269 7.50493431
0.45447606 6.44216013 7.51187658
0.43605080 6.36756897 7.52779007
0.58343709 6.31341696 7.52365589
0.28629318 6.41421795 7.53036404
0.27176830 6.34947205 7.54501438
0.41689235 6.30280781 7.54131651
0.12603582 6.38106489 7.54488945
0.25671297 6.28600550 7.55961657
-0.02309775 6.33424473 7.56070900
0.11623815 6.31731749 7.56067801
-0.02548476 6.27063799 7.58011723
0.10954517 6.25472498 7.57958698
-0.15825251 6.27397680 7.57932138
-0.15319765 6.21492529 7.60567188
-0.02501672 6.21214819 7.60637426
-0.27905396 6.20341158 7.60397196
-0.27036399 6.15915060 7.64621973
-0.14825201 6.17055607 7.64817047
-0.39096266 6.13705873 7.64214802
-0.38915291 6.12631035 7.70034122
-0.26746213 6.15095997 7.70552063
-0.50851905 6.09080172 7.69147968
-0.51792669 6.10849285 7.75260592
-0.39564306 6.14822960 7.76124907
-0.63493699 6.05103302 7.73631859
-0.65612364 6.08246946 7.79446459
-0.53432375 6.14261389 7.81028414
-0.77491260 6.00923681 7.77149916
-0.79989040 6.03753853 7.83006668
-0.67771596 6.11768198 7.85173750
-0.91771197 5.94793940 7.80251455
-0.94833750 5.97594309 7.86633968
-0.82912737 6.07022285 7.88971138
-1.05726635 5.87313080 7.83975506
-1.09358633 5.90729809 7.91150618
-0.98317540 6.01343393 7.93110132
-1.19040847 5.79091120 7.89284706
-1.22894394 5.82308149 7.97554970
-1.13187218 5.94600487 7.98531580
-1.31919789 5.69652271 7.96909046
-1.37352180 5.74240685 8.06062412
-1.27682459 5.86958981 8.05965710
-1.46120167 5.61129284 8.05922031
-1.52298307 5.66285515 8.16069126
-1.43165267 5.79557610 8.15548038
-1.60403228 5.52380085 8.15833569
-1.67359877 5.57732821 8.27146149
-1.58874297 5.71997118 8.26983833
-1.74846983 5.42736816 8.26150703
-1.81906617 5.47309542 8.37636471
-1.74333704 5.62875080 8.38767624
-1.88493502 5.31037331 8.35402298
-1.95420516 5.34126377 8.46527672
-2.01174307 5.17506218 8.43761539
-2.07847023 5.18891573 8.54487514
-2.12847257 5.02650690 8.51387501
-2.23967910 4.86788750 8.58781052
-2.19323397 5.02674007 8.61447334
-2.30141377 4.85968113 8.68926620
-2.28142858 4.71213865 8.55988312
-2.33959031 4.70574236 8.65929604
-2.39786172 4.68873692 8.74951935
-2.37566090 4.55412769 8.62831116
-2.42970395 4.53799582 8.71090508
-2.48053336 4.50900888 8.78633785
-2.45702219 4.38889360 8.66698742
-2.50201631 4.36297989 8.73914337
-2.53635502 4.32706547 8.79287529
-2.51821065 4.22874546 8.69995308
-2.55053663 4.17314196 8.75680447
-2.51967716 4.08791208 8.64828110
-2.54027081 4.05674076 8.71182632
-2.51377964 3.98218131 8.61809254
-2.52941251 3.95818663 8.68071651
-2.49459028 3.89509463 8.59177303
-2.51089358 3.87102151 8.65193176
-2.48983169 3.99577022 8.55177116
-2.49068975 4.10747623 8.58164787
-2.45538402 4.10955095 8.50931931
-2.47887945 4.24078989 8.62099457
-2.43858123 4.24609423 8.54613876
-2.40965629 4.39920616 8.58816910
-2.36405349 4.39090633 8.49779034
-2.32309985 4.55503273 8.53283119
-2.27122521 4.53423643 8.42891026
-2.22342253 4.69636583 8.45075226
-2.17070556 4.65628576 8.33511448
-2.17672777 4.86003971 8.48098755
-2.11600709 4.83278370 8.36864185
-2.05974865 4.79432678 8.25579739
-2.06495929 5.00631809 8.40510273
-2.00320911 4.97244787 8.29355240
-1.94512522 4.93506670 8.18256474
-1.94512522 5.14350033 8.32634640
-1.88115954 5.10632277 8.21457863
-1.82160902 5.06605530 8.10437107
-1.81628907 5.26987219 8.24105453
-1.75116885 5.22562695 8.12955093
-1.69178998 5.18356562 8.02213478
-1.67910612 5.37847328 8.14838123
-1.61612332 5.33208990 8.04119968
-1.55938113 5.29229164 7.93954134
-1.54001975 5.47395372 8.05216789
-1.48185778 5.43156481 7.95289660
-1.43758106 5.40505838 7.85712004
-1.40358579 5.56740570 7.96258497
-1.35812318 5.53752947 7.86966324
-1.32199049 5.51749706 7.78140593
-1.27729261 5.66658449 7.88006926
-1.24131584 5.64272976 7.79586887
-1.20577586 5.61985826 7.71818924
-1.15518057 5.76217318 7.81407547
-1.12226164 5.73892784 7.74004698
-1.08564532 5.71619701 7.67327309
-1.02615714 5.84813690 7.77081299
-0.99350351 5.82500029 7.70856333
-0.95818198 5.80576372 7.65058851
-0.88936430 5.92283630 7.74258995
-0.85788071 5.89860773 7.68583202
-0.75037163 5.98274565 7.71453857
-0.73062027 5.97113800 7.65428591
-0.62169147 6.03536987 7.67539454
-0.62028730 6.04830360 7.61770105
-0.50940830 6.10181522 7.63433170
-0.52168661 6.14077234 7.58883858
-0.54427737 6.19529963 7.56264353
-0.40227363 6.18074369 7.59946299
-0.41899833 6.23756313 7.57250357
-0.28868002 6.26157379 7.57668495
-0.30100510 6.32298088 7.55751038
-0.31339261 6.38462114 7.54162836
-0.16190322 6.33677292 7.55961657
-0.16694246 6.40039492 7.54400015
-0.17390068 6.46295691 7.52906990
-0.02149080 6.39903688 7.54453039
-0.02208366 6.46365786 7.52930355
-0.02075754 6.52693701 7.51339006
0.13347770 6.44557619 7.52995872
0.13932820 6.51105499 7.51413870
0.14538154 6.57999802 7.49370098
0.29805666 6.48415804 7.51289082
0.30852515 6.55611229 7.49253082
0.31696549 6.63577271 7.46287298
0.47001502 6.51834106 7.49217176
0.48527315 6.60335255 7.46468258
0.49688062 6.70997286 7.41372824
0.65281636 6.55966902 7.46468258
0.66996229 6.66903543 7.41390038
0.68002522 6.77453184 7.33651686
1.38615918 6.54438019 4.41079092
1.27701187 6.59653664 4.44597197
1.32082057 6.59077883 4.59463739
1.23078501 6.64312220 4.62975645
1.21162653 6.69533873 4.81892347
1.29308140 6.64262199 4.78667545
1.28162992 6.69872522 4.98052168
1.12950099 6.74669886 4.84784794
1.19908309 6.75944567 5.01606178
1.17305994 6.82958937 5.21268654
1.26757300 6.76406384 5.17953300
1.23818016 6.83139849 5.37773371
1.12904847 6.89508390 5.40809345
1.18608701 6.89247847 5.57360888
1.30064809 6.82523680 5.53889608
1.05902946 6.95015621 5.59743214
1.11544406 6.94886112 5.76347780
1.24424899 6.88550472 5.73486471
0.97673219 7.00413704 5.77945375
1.02862239 6.99162483 5.94854116
1.17015815 6.93876791 5.92566967
0.88508970 7.05058241 5.95944643
0.93019331 7.02056551 6.13123322
1.07892120 6.97234201 6.11514854
0.78212065 7.07627821 6.13920546
0.83429158 7.07203484 6.31077385
0.97740304 6.99460554 6.29955673
0.67724812 7.12791920 6.31631231
0.72255450 7.11642075 6.48867655
0.88190699 7.05167532 6.48079777
0.55212504 7.14801359 6.49153137
0.58934999 7.12055492 6.66033840
0.75948298 7.07527971 6.65623569
0.41406849 7.13384676 6.66043186
0.44355506 7.09782314 6.82111025
0.61952305 7.06633997 6.81925440
0.26513770 7.11072588 6.82098627
0.28794694 7.07091093 6.97373915
0.46912575 7.05041027 6.97384787
0.10726736 7.08596563 6.97556448
0.12311837 7.02025318 7.11192036
0.30624738 7.01256132 7.11358976
-0.05859089 7.01830339 7.11305952
-0.04389439 6.94227743 7.23652840
0.13739364 6.94600630 7.23752689
-0.22471435 6.92982817 7.23684072
-0.21040790 6.83829451 7.33745384
-0.03197493 6.84907532 7.33673620
-0.38723394 6.82139826 7.34094858
-0.37316149 6.72693110 7.41053057
-0.19900329 6.74120760 7.41026497
-0.54544747 6.70407486 7.41488266
-0.52772433 6.61950016 7.46190596
-0.36142924 6.64694357 7.45539951
-0.71331835 6.66750574 7.41926718
-0.69029069 6.57860899 7.46686697
-0.66629577 6.50467396 7.49181366
-0.51023519 6.54634619 7.49323320
-0.81585062 6.44858742 7.48150110
-0.78675407 6.38480949 7.49335814
-0.64322138 6.44081831 7.50573015
-0.92095709 6.31458712 7.47334146
-0.75678378 6.32223225 7.50368643
-0.88410670 6.25077772 7.48229647
-1.04857635 6.22909212 7.44390154
-0.84630454 6.18860674 7.49259329
-1.00309837 6.16545296 7.45226383
-0.95693386 6.10462332 7.46235800
-1.10756516 6.06799221 7.41636515
-0.91388965 6.04836512 7.47585297
-1.05806196 6.00752068 7.42557001
-1.01054025 5.95232296 7.43720865
-1.14752030 5.89948130 7.38074684
-1.09339917 5.84375334 7.38609838
-1.04467595 5.79131746 7.39915657
-1.16504061 5.72714853 7.31996441
-1.11301005 5.67085886 7.33413029
-1.07608163 5.62271261 7.37168312
-1.18416798 5.54191351 7.27897978
-1.07389736 5.59664297 7.43505573
-1.14825356 5.49251986 7.32689095
-1.14982927 5.46919489 7.39968777
-1.23702538 5.36396360 7.30635977
-1.23713458 5.34308958 7.37984228
-1.26094222 5.33987570 7.45802069
-1.33381629 5.21851254 7.37541151
-1.35383296 5.21721745 7.45195198
-1.38317919 5.22745180 7.52605820
-1.45627165 5.09510565 7.45168638
-1.48196697 5.10435629 7.52137804
-1.51474559 5.11605835 7.59078884
-1.58810329 4.98107529 7.51555872
-1.61740255 4.98984337 7.58053875
-1.65181923 4.99956226 7.64519024
-1.72450614 4.86191225 7.56440639
-1.75436711 4.86785603 7.62896490
-1.78372896 4.87219334 7.69834471
-1.85735178 4.73493242 7.60590601
-1.80628848 4.87053919 7.77702236
-1.88317204 4.73284197 7.67667437
-1.90616858 4.72819233 7.75313663
-1.97949505 4.59851408 7.64756203
-1.92042816 4.71923733 7.84101868
-2.00256944 4.59043217 7.72577190
-2.01749992 4.57596970 7.81381035
-2.09302616 4.46265697 7.69377327
-2.02701688 4.56238079 7.90766811
-2.11234093 4.44816351 7.78511906
-2.11920547 4.42541647 7.88240957
-2.19602656 4.32906246 7.75507069
-2.12535238 4.40641403 7.98525381
-2.19933414 4.30071449 7.86089563
-2.19270349 4.26714039 7.96778011
-2.26793337 4.18459368 7.83460665
-2.25208235 4.13963079 7.94258404
-2.21248603 4.26008844 8.07639694
-2.33139968 4.07106256 7.80313873
-2.30835652 4.01748705 7.90531254
-2.33104086 4.10407495 7.68873405
-2.26757455 4.21601534 7.72208977
-2.24197245 4.22893286 7.61475229
-2.17225003 4.34179306 7.65500355
-2.14423013 4.35040474 7.56117725
-2.06734633 4.47147179 7.60840273
-2.03913903 4.47925663 7.52863312
-1.95337844 4.60394335 7.57353354
-1.92629433 4.60874844 7.50371695
-1.83076715 4.73391819 7.54064608
-1.80521202 4.73505688 7.47600889
-1.89945996 4.61469221 7.43591356
-1.69779646 4.85746574 7.50012922
-1.67673469 4.85679436 7.43644428
-1.78519547 4.74229622 7.41271448
-1.56513798 4.97456932 7.45003271
-1.55374897 4.97792387 7.38332176
-1.66376996 4.86493826 7.37197924
-1.44171560 5.09561968 7.38126183
-1.44489825 5.11245394 7.31679678
-1.55861664 4.99765873 7.32412958
-1.33645308 5.23723316 7.30531454
-1.37464523 5.28341436 7.26766825
-1.48075008 5.15768290 7.28422165
-1.27395391 5.41103363 7.26108456
-1.32437754 5.46800947 7.24172354
-1.42402351 5.33752012 7.25306559
-1.36924708 5.51738739 7.23523331
-1.24999011 5.59374094 7.25704384
-1.29974306 5.66820669 7.25709057
-1.22187650 5.78484201 7.31759262
-1.29242599 5.83762217 7.31016636
-1.35575187 5.72666407 7.25465679
-1.20229673 5.95957804 7.37550497
-1.25960064 6.02444887 7.37154245
-1.34935534 5.91509819 7.31639147
-1.15880013 6.13220692 7.40929794
-1.21159518 6.19976091 7.40174675
-1.31862068 6.09256458 7.36581659
-1.09080923 6.29446173 7.43390131
-1.13617814 6.37644625 7.41550732
-1.26729214 6.28408718 7.38394547
-0.95810401 6.37930202 7.46252966
-0.99735701 6.45861912 7.44280958
-1.03207016 6.54788971 7.40229225
-1.17895710 6.46830702 7.38057566
-0.84692854 6.52548647 7.46106291
-0.87544787 6.61466408 7.41599083
-0.89677495 6.71165848 7.34263277
-1.05611181 6.64664698 7.33278847
-0.73272645 6.76248741 7.34812450
-0.74767256 6.85522175 7.24793339
-0.91147143 6.80414295 7.24479675
-0.56221896 6.79746532 7.34611177
-0.57714951 6.88920116 7.24532747
-0.58766484 6.96302748 7.11848831
-0.75634694 6.92903185 7.12318468
-0.40247646 6.91208887 7.24024153
-0.41511360 6.98652267 7.11412001
-0.42221218 7.04972363 6.97397280
-0.59183043 7.01373148 6.97395754
-0.23866199 7.00566626 7.11319923
-0.24899012 7.08064604 6.97985458
-0.26025432 7.12877655 6.82791281
-0.07189886 7.09255028 6.98007298
-0.08668897 7.14163208 6.82803774
-0.10550423 7.15695286 6.66414499
0.08879533 7.13068008 6.82413721
0.06629815 7.14542341 6.66185188
0.03894893 7.14327049 6.49332571
0.23874018 7.13000917 6.65955830
0.20789625 7.13604784 6.49160957
0.17416610 7.14342642 6.32057190
0.37927741 7.14693642 6.49171877
0.34180290 7.14405107 6.31957293
0.30195698 7.14077425 6.14493132
0.51032895 7.14898014 6.31865311
0.46620828 7.13681173 6.14435387
0.42391297 7.14718628 5.96768379
0.62774497 7.11826134 6.14290285
0.58345264 7.13793564 5.96685743
0.53972203 7.15414476 5.78585052
0.73815590 7.10571766 5.96453238
0.69498688 7.13021278 5.78475809
0.64510930 7.11359644 5.60476494
0.83964288 7.07342291 5.78396273
0.78664500 7.06281376 5.60721445
0.73428679 7.03301620 5.43104362
0.92234582 7.00115776 5.60677767
0.87218738 6.99354362 5.43073130
0.82758301 6.98731947 5.25293827
1.00642157 6.94962692 5.42522430
0.95501512 6.94337034 5.25033236
0.90445101 6.91399288 5.07328796
1.07112050 6.89004421 5.23805475
1.01069641 6.86952829 5.06350613
0.95038146 6.83643818 4.88301325
1.10839224 6.81784105 5.04408264
1.04392743 6.79523516 4.87129688
0.97935319 6.76604462 4.68940067
1.06229019 6.73111296 4.67531252
0.99993145 6.70953655 4.49726915
1.14549232 6.68937922 4.65434408
1.08612907 6.68146944 4.48505402
1.03431690 6.67892742 4.31320429
1.17741263 6.64291859 4.46995163
1.13154471 6.64781761 4.30682325
1.09244764 6.65870762 4.14032555
1.23939705 6.60585070 4.29530954
1.20797575 6.62372875 4.14207268
1.18513548 6.64766169 3.98596549
1.32834053 6.57815742 4.13180733
1.30723190 6.60266781 3.98579359
1.29284739 6.63000011 3.83556819
1.42616117 6.54541016 3.97287583
1.41274393 6.57160473 3.82960844
1.40949881 6.59538174 3.68092728
1.52354491 6.49595356 3.81854701
1.52295220 6.51370764 3.67707372
1.53340495 6.51976156 3.53833079
1.41466296 6.61025000 3.53336930
1.62261367 6.40833616 3.67910194
1.63490760 6.40793133 3.55285573
1.66401970 6.40211201 3.42815375
1.55655742 6.51684427 3.40231776
1.71303940 6.28815937 3.67994428
1.62105358 6.39671278 3.80219650
1.70923245 6.27505445 3.78244543
1.81118762 6.17163229 3.76501894
1.81683517 6.18584585 3.66928864
1.93788636 6.13002348 3.76261640
1.94156837 6.14044571 3.66017771
2.05325842 6.17362976 3.66028643
2.04934263 6.16046143 3.77325654
2.03062105 6.16749859 3.89479113
1.99058771 6.19870090 4.02652884
1.92209768 6.28102970 4.13999796
2.13909745 6.28074884 3.54889297
2.15277982 6.23672104 3.66651177
2.04002857 6.21308565 3.54580379
2.10296464 6.34799051 3.43409801
2.24978900 6.34355927 3.55071831
2.00394249 6.27364969 3.43133640
2.03890514 6.43139553 3.32669806
1.93212950 6.35229588 3.32540298
1.94117820 6.52909088 3.23870611
1.82894194 6.44782400 3.24599218
1.72762656 6.40303230 3.31473184
1.69464517 6.55158854 3.19731593
1.60649741 6.51465988 3.27833390
1.46864367 6.62141943 3.25917530
1.43132520 6.61769152 3.38966537
1.32152271 6.69774199 3.24251294
1.29576480 6.68939590 3.38167715
1.14769220 6.69750786 3.51329041
1.28453183 6.67555618 3.52896976
1.15402627 6.68602514 3.66741633
1.28495312 6.65583658 3.68162966
1.02561128 6.67120457 3.64691663
1.04141545 6.67318535 3.80737662
1.16710031 6.66986179 3.82639456
0.93638706 6.63697433 3.80414677
0.95726174 6.65711641 3.97006750
1.06336665 6.66980028 3.97304726
0.87741381 6.61887693 3.98448300
0.90407664 6.65742826 4.15113735
0.98952538 6.67203045 4.14046574
0.81191927 6.57787609 4.00949240
0.83465046 6.62982893 4.17038918
0.86878628 6.68037796 4.33646631
0.94640315 6.68853760 4.32228470
0.76405424 6.62365150 4.18569469
0.79438329 6.68026876 4.34810495
0.83795798 6.74290752 4.51727009
0.91830504 6.72839928 4.50836229
0.75881213 6.76690292 4.52129602
0.80432141 6.82381678 4.70227194
0.89218837 6.79542208 4.69690466
0.70907491 6.85569000 4.70214701
0.74520779 6.90587997 4.88546276
0.85316932 6.87225914 4.88839579
0.63269061 6.93779993 4.88260794
0.66195875 6.98421431 5.06497288
0.78622377 6.95181084 5.07171297
0.53135961 7.01329517 5.06185246
0.55822521 7.04730654 5.24540281
0.69395721 7.02025366 5.24922514
0.41848367 7.06740141 5.24299955
0.45062250 7.08523273 5.42804766
0.59473246 7.06658936 5.42901564
0.30189455 7.09880686 5.42782927
0.33969671 7.12755966 5.60824394
0.49396315 7.13180304 5.60540438
0.18455660 7.13344193 5.60871172
0.22315441 7.14445591 5.78909492
0.38161764 7.15281868 5.78783131
0.06363032 7.15074396 5.78890800
0.10060558 7.15704679 5.96830797
0.26270390 7.14469051 5.96798038
-0.06113391 7.17040205 5.96885395
-0.02667046 7.17004251 6.14699030
0.13734683 7.15391016 6.14594555
-0.19079697 7.17309999 6.14942455
-0.15864253 7.15930843 6.32428503
0.00746535 7.15539360 6.32196045
-0.32280022 7.14518929 6.32726479
-0.29626229 7.13796663 6.49705458
-0.12943675 7.14856005 6.49526072
-0.46251056 7.12564087 6.50093937
-0.44289964 7.11227036 6.66414499
-0.27562168 7.14260006 6.66442585
-0.61030245 7.08819818 6.66969967
-0.59699446 7.05128431 6.82288933
-0.42973208 7.09142685 6.82301426
-0.77695638 7.06003666 6.67996502
-0.76335198 7.01398134 6.82927036
-0.75881195 6.97622538 6.97949600
-0.92598075 6.96831608 6.83930159
-0.92273563 6.93171597 6.98606396
-0.92020828 6.88060474 7.12508821
-1.08085561 6.87461376 6.99359941
-1.07831252 6.81827736 7.12380838
-1.06980991 6.73921013 7.23807287
-1.23376477 6.74952269 7.11957979
-1.22507477 6.66655493 7.22599745
-1.20955145 6.56977940 7.31581450
-1.37140000 6.58360195 7.20504475
-1.35411370 6.48500109 7.29088306
-1.31766891 6.37972307 7.35244608
-1.47993886 6.38755512 7.24718380
-1.44088864 6.27826738 7.31093121
-1.38155663 6.17776299 7.34578466
-1.53473091 6.15911961 7.25875998
-1.47870636 6.07056522 7.29038382
-1.53076816 5.92478704 7.23108292
-1.41283727 5.98430634 7.31182051
-1.46709895 5.84531355 7.24696541
-1.40587914 5.77891350 7.25320625
-1.53157949 5.70455837 7.20112848
-1.47750509 5.63890648 7.21535683
-1.43672299 5.56696892 7.22861814
-1.58557582 5.49000692 7.24017859
-1.52532339 5.44457626 7.24333048
-1.47469687 5.39090729 7.24799490
-1.62662303 5.31480360 7.27941656
-1.57699502 5.26177502 7.27819920
-1.52780390 5.21025896 7.27628040
-1.68178964 5.13914871 7.29005623
-1.63375294 5.08927059 7.28632784
-1.59006906 5.04011059 7.29334831
-1.73573911 4.97700310 7.27245808
-1.69408333 4.92834282 7.28248978
-1.66695261 4.88715506 7.31540823
-1.78624070 4.81972599 7.25423574
-1.76666105 4.77892780 7.29369164
-1.77015579 4.75524521 7.35052729
-1.84619689 4.67530346 7.24509335
-1.85572934 4.64556789 7.30381680
-1.95515680 4.51744890 7.30735826
-1.87563658 4.62659645 7.36923313
-1.98074317 4.50019407 7.37731504
-2.05254078 4.38995457 7.30584478
-2.08385277 4.37404108 7.38942146
-2.00991774 4.48903942 7.45153046
-2.14379311 4.26367712 7.31353664
-2.17805386 4.24807549 7.41553783
-2.11486816 4.36090517 7.47466755
-2.23198771 4.13607359 7.36679983
-2.27247334 4.12619734 7.47058010
-2.21089458 4.23727989 7.51388931
-2.28172493 4.02263594 7.33456755
-2.33196139 4.01466322 7.43686485
-2.36962295 4.00759602 7.54197168
-2.30635953 4.11797571 7.57579565
-2.43497729 3.89732552 7.50863171
-2.39720631 3.99511504 7.65420818
-2.39085674 3.90298891 7.40689516
-2.44433808 3.78880215 7.37661266
-2.36817217 3.79164171 7.28793478
-2.49278045 3.66981053 7.34419298
-2.30217838 3.80911517 7.19094086
-2.32004189 3.68495941 7.17939568
-2.32645392 3.90773153 7.31079054
-2.27083516 3.92643762 7.20325041
-2.25930572 3.96383429 7.07662964
-2.28534460 3.84749460 7.07173109
-2.23470235 4.04063940 7.22190905
-2.19407654 4.15362501 7.25526524
-2.29202199 3.72898650 7.06338406
-2.30678082 3.88370562 6.93924379
-2.30891800 3.76859856 6.93267584
-2.29202199 3.72898650 7.06338406
-2.30891800 3.76859856 6.93267584
-2.27876067 3.66598845 6.91554499
-2.34302282 3.79686832 6.79670954
-2.34302282 3.79686832 6.79670954
-2.31344247 3.69488215 6.77859640
-2.24239397 3.61901259 6.75034237
-2.35745406 3.71207452 6.64130449
-2.28553176 3.63408351 6.61173964
-2.18491840 3.58086705 6.58194113
-2.33281946 3.64686084 6.47397947
-2.23038077 3.59161663 6.44149733
-2.11791039 3.54058433 6.41467857
-2.29063320 3.59827828 6.30276966
-2.17034674 3.54754257 6.27216005
-2.05307126 3.48565173 6.25417137
-2.23598170 3.55459428 6.14095211
-2.11215353 3.49947476 6.11364985
-2.01416135 3.41736460 6.09594250
-2.18017554 3.52499866 5.98013306
-2.06352401 3.44705391 5.95868158
-1.99397314 3.32938838 5.95765209
-2.11583543 3.46366954 5.83622646
-2.02920103 3.34591031 5.83683443
-1.97564149 3.16803908 6.08647251
-1.98962033 3.20056796 5.95659113
-2.03261757 3.08347964 5.94049072
-1.96894848 3.29748344 6.09321213
-1.96333206 3.13797498 6.22796106
-2.02037072 3.05126262 6.06814098
-1.94635773 3.26687384 6.23704147
-1.93003869 3.23921251 6.38767242
-1.94086599 3.36804867 6.39330435
-1.97139788 3.39182520 6.24194002
-1.92027223 3.34197879 6.54502773
-1.97635913 3.45571280 6.55058241
-2.00854468 3.47257805 6.40199471
-1.95011759 3.43568087 6.69943476
-2.04080844 3.51601219 6.70778179
-2.07700372 3.53005362 6.56044197
-2.01233578 3.49175215 6.85541773
-2.11103034 3.54332995 6.86908436
-2.14476037 3.56759024 6.72525501
-2.09806561 3.49122143 7.00937223
-2.18913078 3.54810429 7.02555037
-2.20643282 3.59320760 6.88953781
-1.90493608 3.31784344 6.69823360
-1.91014683 3.18663597 6.69968462
-1.91757309 3.21075559 6.54203224
-1.91779149 3.17129970 6.85917759
-1.94105327 3.05772185 6.69662666
-1.94462585 3.08288670 6.53604174
-2.00373960 2.97480059 6.52304554
-2.00484729 2.99890447 6.36497259
-2.09714508 2.92880726 6.34565830
-2.01094747 3.02363276 6.21170473
-2.10154462 2.95192885 6.19226551
-2.21986532 2.92894793 6.16688204
-2.11299610 2.97651649 6.04586220
-2.23637176 2.95665598 6.02537727
-2.36977911 2.96001029 6.01047802
-2.25590467 2.99317884 5.89727449
-2.49671197 2.94902682 5.99899578
-2.39229178 3.00353789 5.88156414
-2.46383977 2.90294051 6.13652182
-2.27127194 3.05020189 5.78708172
-2.52073812 3.00272679 5.86460543
-2.40740967 3.06684828 5.76764250
-2.27248883 3.12912917 5.70038509
-2.54570031 3.08015633 5.74299288
-2.40901661 3.15830374 5.68534517
-2.55237770 3.19272041 5.67188120
-2.39648867 3.27649999 5.66319132
-2.54543495 3.32497334 5.66679525
-2.36770415 3.39444613 5.69564247
-2.31381702 3.48799229 5.76126194
-2.45886302 3.54523373 5.78129387
-2.24746418 3.54035044 5.85744381
-2.38725257 3.59314561 5.88577652
-2.31105542 3.57766867 6.01203823
-2.44120216 3.63107228 6.04091644
-2.52275062 3.64753175 5.90944338
-2.54946017 3.69978070 6.06489563
-2.60486078 3.61879420 5.78915691
-2.63409758 3.72199726 5.92568445
-2.61206865 3.79374790 6.07993555
-2.63409758 3.72199726 5.92568445
-2.69492745 3.82031703 5.93601274
-2.76638174 3.83669853 5.78967190
-2.70779872 3.92885590 5.93198776
-2.82850623 3.84824347 5.64534378
-2.77071881 3.95093179 5.78018618
-2.88069320 3.85843134 5.50347996
-2.82371688 3.97115111 5.62986708
-2.85438919 3.72026539 5.52154636
-2.91972780 3.87857270 5.36057138
-2.86256433 3.99077749 5.48444653
-2.91506267 3.73335481 5.38224173
-2.89517117 3.59174132 5.39622068
-2.95615697 3.76321602 5.23764801
-2.95078993 3.61617327 5.25167418
-2.94411278 3.47385716 5.25593281
-2.98784328 3.64767218 5.10998249
-2.98495698 3.50165892 5.11371088
-2.98345923 3.36070037 5.11002874
-3.00971651 3.53178525 4.97495270
-3.00642467 3.68134022 4.97159815
-2.97866988 3.80053473 5.09773493
-2.98902893 3.83570004 4.96120787
-2.99208689 3.86156702 4.82898617
-2.94629693 3.99109006 4.94109774
-2.99169707 3.86865020 4.70057106
-2.94153833 4.01995230 4.80291605
-2.93227100 4.03283882 4.67083502
-2.85938168 4.16899204 4.77486467
-2.84658837 4.17080212 4.63886738
-2.80171871 4.19362688 4.49460173
-2.71873498 4.33277559 4.58877182
-2.69104266 4.36260557 4.42286634
-2.69107389 4.52844810 4.52914286
-2.70946813 4.58592367 4.33928967
-2.72583389 4.67989063 4.49861145
-2.75577259 4.75267076 4.30140972
-2.78622651 4.92927837 4.28278160
-2.76064038 4.83939886 4.48350906
-2.74641204 5.09395170 4.26087761
-2.75876832 4.98547506 4.48756552
-2.70144868 5.10296917 4.47637892
-2.66358447 5.18712282 4.29491997
-2.64723396 5.20475197 4.51388502
-2.63456559 5.28489685 4.31137896
-2.65765595 5.30355597 4.53422880
-2.66235185 5.38157797 4.33098984
-2.69915533 5.47972727 4.38932371
-2.71510029 5.59360123 4.48804903
-2.68346047 5.39588547 4.58029985
-2.70363283 5.71200037 4.61056662
-2.69917107 5.49543762 4.67412663
-2.66771865 5.81642008 4.74247646
-2.68651843 5.59963942 4.78889036
-2.59417367 5.92016935 4.87519741
-2.64386415 5.70054865 4.90881824
-2.59259772 6.04928589 4.74085379
-2.48064256 5.97443104 5.00677872
-2.57707477 5.80573368 5.02110100
-2.44984531 6.09247112 4.88146877
-2.30103946 6.05140829 4.97779179
-2.16772556 6.03260899 5.10218143
-2.35477066 5.96591234 5.11606646
-2.10361958 6.10333014 5.23746061
-2.25417280 5.96274614 5.22869301
-2.18348312 6.03303003 5.37781096
-2.09500766 6.17245960 5.42177534
-2.18104935 6.10042810 5.52575874
-2.02684522 6.24826574 5.27999020
-2.08853316 6.24355459 5.60047388
-2.18644738 6.19643831 5.69802952
-2.01336551 6.32485390 5.49324512
-2.00632930 6.37936449 5.69188213
-2.09132576 6.31235695 5.78176165
-1.92822886 6.47005510 5.59991217
-1.91835320 6.50639105 5.80407190
-2.00174260 6.42495251 5.88619757
-1.83928549 6.56374168 5.51287222
-1.84223413 6.58896971 5.73280478
-1.73962390 6.67986298 5.63479710
-1.74917185 6.63993931 5.41726685
-1.61142731 6.77173901 5.58318710
-1.62532818 6.73442078 5.36852837
-1.48532140 6.83752966 5.53278017
-1.50345016 6.80448627 5.32131863
-1.35358334 6.89534950 5.49812984
-1.37400556 6.86414576 5.29303360
-1.38906085 6.82545424 5.08389711
-1.40024698 6.77548361 4.87747478
-1.25977218 6.88069916 5.07633066
-1.27585721 6.83267832 4.87582159
-1.28693426 6.77671671 4.67886972
-1.14884639 6.88158846 4.87552500
-1.16369891 6.82102394 4.68367481
-1.17320013 6.76290941 4.50004673
-1.03700018 6.86258650 4.68634272
-1.05319440 6.80071068 4.50897026
-1.06377208 6.74131632 4.33643484
-0.92941302 6.83962107 4.51425934
-0.94738579 6.78426695 4.34225416
-0.95988250 6.73072386 4.17536640
-0.82171667 6.82834101 4.34732485
-0.84465075 6.78531313 4.17477369
-0.86184347 6.74637127 4.00431252
-0.70692176 6.83540869 4.18508577
-0.73573750 6.81210041 4.01103687
-0.75787586 6.78652954 3.84026456
-0.57675946 6.86398983 4.03270721
-0.60576242 6.85773373 3.86254311
-0.62969494 6.84926271 3.69595122
-0.42305470 6.89915609 3.89279366
-0.44497463 6.90675354 3.72990012
-0.46452317 6.91360235 3.56967378
-0.24831925 6.93525743 3.75434756
-0.26262572 6.95040655 3.59707022
-0.27424875 6.96366739 3.44011998
-0.06554910 6.95270014 3.59655476
-0.07258532 6.96241999 3.44024491
-0.07664168 6.96914387 3.28440261
0.12477212 6.91939116 3.57296586
0.12241630 6.92285490 3.41628098
0.12302477 6.92230844 3.26026726
0.29487395 6.84063530 3.38334656
0.29768220 6.82565784 3.22550750
0.30290866 6.80726337 3.06977439
0.42800051 6.70003605 3.19486642
0.42968547 6.66344976 3.03972650
0.42463061 6.62970400 2.86797071
0.49688062 6.51260090 3.02649641
0.49012521 6.44822884 2.86177707
0.46180871 6.39368725 2.67543411
0.55048692 6.31157732 2.85481858
0.54922318 6.24742413 2.66321802
0.55724233 6.23296118 2.45454979
0.67106998 6.17487717 2.64884925
0.69086820 6.18508053 2.44083595
0.70712477 6.25559902 2.25737953
0.72289777 6.34176540 2.09707522
0.85151553 6.23659611 2.28022003
0.87168813 6.31184149 2.11458015
0.87980086 6.40574694 1.96586776
1.02300584 6.31346369 2.17466092
1.03653228 6.38037872 2.01270318
1.04051065 6.45924377 1.86183786
1.16279423 6.42994452 2.08233213
1.17883241 6.46379900 1.91045177
1.18120396 6.52118158 1.75134885
1.26240909 6.55742359 1.96890986
1.29305017 6.55998135 1.79464269
1.29816735 6.58932829 1.63174868
1.36484778 6.65491676 1.82426965
1.39051187 6.64494658 1.65535343
1.39573848 6.65992403 1.49762344
1.47121799 6.71891260 1.66315424
1.47619474 6.70819521 1.50459743
1.47385454 6.71830463 1.35474610
1.56988096 6.74843073 1.65861416
1.55856991 6.74626207 1.49767053
1.55165863 6.73989725 1.34666455
1.64269269 6.74053669 1.47863662
1.62642038 6.72911596 1.33199930
1.63242686 6.70867872 1.21408403
1.68924725 6.68927097 1.32307541
1.69760942 6.65766287 1.18966794
1.72654998 6.65717840 1.08431172
1.75453901 6.60049915 1.17933977
1.79781723 6.59706593 1.08637118
1.85981703 6.59171438 0.99443227
1.87314057 6.52991819 1.09949207
1.94451702 6.51562786 1.01661754
2.01926327 6.50545549 0.92678475
2.02932596 6.42434311 1.05033207
2.10869026 6.40562201 0.96305799
2.18735242 6.39264202 0.86155534
2.19374895 6.29444647 1.01321638
2.27554703 6.27430439 0.90692419
2.34862375 6.25297832 0.78591996
2.35603452 6.14802790 0.95806545
2.42734838 6.12044382 0.82829326
2.48465204 6.09106636 0.68909770
2.49098635 5.97943878 0.87377131
2.55203462 5.94950056 0.72785157
2.54807162 5.83642149 0.92218226
2.60092926 5.92236900 0.57071447
2.60902643 5.80514097 0.76877391
2.65058851 5.65889311 0.81228614
2.68399096 5.51348877 0.85902786
2.59267616 5.69106340 0.97440004
2.70893764 5.36838007 0.90928000
2.62526751 5.54523706 1.02956665
2.47805285 5.86934042 1.06715035
2.52095652 5.72468424 1.12690353
2.39918780 5.90316343 1.19622040
2.42215323 6.01107883 1.01068890
2.31299043 5.93655109 1.31103110
2.34253931 6.04111099 1.13173997
2.22889876 5.97243357 1.40512300
2.25696564 6.06959963 1.23717415
2.14653921 6.00817680 1.47804379
2.17591667 6.10194111 1.32125008
2.06631684 6.04515219 1.53661144
2.09742594 6.13726282 1.38952160
1.99347413 6.08777523 1.58884466
2.02834320 6.17110157 1.43606043
1.95663917 6.14681005 1.64415181
1.94946265 6.22640848 1.47458041
1.98236585 6.22494221 1.69226635
2.01455164 6.30387020 1.72983468
1.93637300 6.43914890 1.60262084
1.92203534 6.51027632 1.66513550
1.99824798 6.41267347 1.77114701
1.94554663 6.49286461 1.84881079
1.85772645 6.56871843 1.90597415
1.87359309 6.57564592 1.72114468
1.92042851 6.49777937 2.02240729
1.73488116 6.64763069 1.95477521
1.79880011 6.63340235 1.77046049
1.78210652 6.60224628 2.08225417
1.61637318 6.68786621 2.13598514
1.58715177 6.71401453 1.98902011
1.70143175 6.68775702 1.80586004
1.57886744 6.73356295 1.82526803
1.45475841 6.72974062 1.83135271
1.43850172 6.73512316 2.00604129
1.32454932 6.67384100 2.00059628
1.66804481 6.72726011 1.64279437
1.74814236 6.68683672 1.61355758
1.71302366 6.70387316 1.45127177
1.81071949 6.63443184 1.56912458
1.75553751 6.65806723 1.42127049
1.73211968 6.63198233 1.28794098
1.77556968 6.56644106 1.26274490
1.78635013 6.59705067 1.39100385
1.81095350 6.54636192 1.18127429
1.83018994 6.50172615 1.27648950
1.87178338 6.47653008 1.20606506
1.95188081 6.43988228 1.13832378
1.95330060 6.37638521 1.23722088
2.03121376 6.33572721 1.18737447
2.11118627 6.31769323 1.10011613
2.10811305 6.22581577 1.24080932
2.18811679 6.19692278 1.16578233
2.27336264 6.17300463 1.07189310
2.03693938 6.24929667 1.31232584
1.95486057 6.30032778 1.35568225
1.88017678 6.42116022 1.29493034
1.85764849 6.43960142 1.37349904
1.81334054 6.52636051 1.36076832
1.86903751 6.50409746 1.48381639
1.84827197 6.57394457 1.52224255
1.20685256 6.56576967 2.14363003
1.12274551 6.40889788 2.24889255
1.15163934 6.56759596 2.30738187
1.07004404 6.39201736 2.40623212
1.09653521 6.55932665 2.45550132
1.18755364 6.69785166 2.49618983
1.01999474 6.38778925 2.55939102
1.05218053 6.55589390 2.59705281
1.13897085 6.68903637 2.63647723
1.01125801 6.55765676 2.73822951
1.09628558 6.68301487 2.77437806
1.24704170 6.74857092 2.81183696
1.29158354 6.75557613 2.67627645
1.43556869 6.83656359 2.70412517
1.64648378 6.96355772 2.57872105
1.78104568 6.90436697 2.45860624
1.81897271 7.02841330 2.64816308
1.05782819 6.67462063 2.91333961
0.96117765 6.55043411 2.88043642
0.92991245 6.55380392 3.02719831
1.03445733 6.66769314 3.05481267
0.91431111 6.56302404 3.17445993
1.18435538 6.72559023 3.08331656
1.01915240 6.66505671 3.19847035
1.16221702 6.71883535 3.22195029
1.01330185 6.66533756 3.34357882
1.15021956 6.70861673 3.36503053
0.90844500 6.57346153 3.32502866
0.91095680 6.59215164 3.48166656
1.01595402 6.66774082 3.49299288
0.83791113 6.47621822 3.33701038
0.92050487 6.61566305 3.64006710
0.84054774 6.50802898 3.50073123
0.84900373 6.54389715 3.65920997
0.77222931 6.43609142 3.53017116
0.86134446 6.57968664 3.82188582
0.78293186 6.48122597 3.69089675
0.79631788 6.52841949 3.85074854
0.70461297 6.45475006 3.71169353
0.72199285 6.51074409 3.87104607
0.67238051 6.60396290 4.02055359
0.74085498 6.56708050 4.02796459
0.69503373 6.65383959 4.18223095
0.62961715 6.70359230 4.16915655
0.64924365 6.74719858 4.34418869
0.72233611 6.70636940 4.34866619
0.55170387 6.75861835 4.16758108
0.67668647 6.80091429 4.52187252
0.56254679 6.79347229 4.34598255
0.58058202 6.83890343 4.52466536
0.45396122 6.84052563 4.35528135
0.60437411 6.88913965 4.70295811
0.46661395 6.87669039 4.53101492
0.48513278 6.92265129 4.70649958
0.33496949 6.91032696 4.53901863
0.35183457 6.95263672 4.71161699
0.37164834 6.99682045 4.88505745
0.50756758 6.96887827 4.88245201
0.22357565 7.01521397 4.88887978
0.24466872 7.05198717 5.06389618
0.39342788 7.03761768 5.06147814
0.09055831 7.05885124 5.06698561
0.11772029 7.09518719 5.24462271
0.27041098 7.08010054 5.24409199
-0.03844951 7.11300373 5.24301577
-0.00590503 7.14856005 5.42300844
0.14953150 7.12348795 5.42573929
-0.16546032 7.15169525 5.42372656
-0.13138691 7.16083765 5.60707378
0.02798117 7.15492439 5.60673046
-0.29050538 7.14620304 5.60960102
-0.25593272 7.14932394 5.79151297
-0.09623701 7.15511274 5.78951645
-0.41500437 7.13578224 5.79580355
-0.38333356 7.14515829 5.97550058
-0.22295140 7.16740608 5.97117853
-0.54210877 7.13016510 5.98255253
-0.51226336 7.12665510 6.15930033
-0.35297328 7.15375423 6.15310669
-0.67238033 7.11489153 6.16934776
-0.65003920 7.12008715 6.34205484
-0.48605305 7.12866783 6.33260012
-0.81048375 7.09699678 6.35533190
-0.79421151 7.09270668 6.52293730
-0.62946093 7.11612463 6.51011324
-0.96715283 7.05534124 6.37115145
-0.95340794 7.04663563 6.53665066
-0.93705773 7.00880194 6.69052696
-1.10233879 6.98079824 6.55365610
-1.08789182 6.94238758 6.70483398
-1.08168256 6.91082478 6.85289049
-1.23853874 6.88321066 6.72672224
-1.23459160 6.85068178 6.86975574
-1.23460722 6.80924463 7.00144720
-1.37927890 6.77879095 6.88161230
-1.37943482 6.72950554 6.99957418
-1.37954402 6.66814613 7.10678673
-1.49953425 6.63255882 6.98465919
-1.49912858 6.57132292 7.07550573
-1.49485385 6.48763752 7.16242170
-1.60832262 6.48980618 7.03438091
-1.60780787 6.54951239 6.95679522
-1.73258758 6.49014997 6.91627836
-1.61127126 6.59428883 6.87378025
-1.50132847 6.68508863 6.88665152
-1.50802147 6.72835159 6.77411890
-1.38336635 6.81777954 6.75065470
-1.39130747 6.84718800 6.60648251
-1.51914513 6.76368904 6.64230251
-1.24880457 6.91547489 6.57679319
-1.26100469 6.93769169 6.41921949
-1.40200996 6.87155676 6.45330811
-1.11505389 6.99571228 6.39199448
-1.12767529 6.98998690 6.22183037
-1.27570128 6.94483709 6.25061560
-0.98074162 7.04390478 6.19977045
-1.00483012 7.05123806 6.02459812
-1.14842510 6.99393415 6.04604959
-0.82875293 7.08844805 6.18293619
-0.85614896 7.10030460 6.00770140
-0.88689929 7.10704374 5.82546186
-0.70107126 7.12623358 5.99359751
-0.73246127 7.13551664 5.81260633
-0.76244706 7.11423683 5.62735558
-0.57384205 7.14068031 5.80232525
-0.60598081 7.12670135 5.61858749
-0.63723040 7.09500027 5.43516207
-0.44840690 7.12596846 5.61373568
-0.48157546 7.10838652 5.43112183
-0.51435399 7.07882071 5.24811745
-0.32445398 7.13339472 5.42711210
-0.35695168 7.09950924 5.24621391
-0.38840404 7.05605888 5.06832695
-0.19786438 7.11447001 5.24379539
-0.22822466 7.06481123 5.06895113
-0.25691560 7.02409124 4.89501095
-0.06784251 7.06527901 5.06807756
-0.09411523 7.02647924 4.89454317
-0.11817255 6.99093914 4.72456598
0.06707822 7.02363920 4.89251471
0.04537671 6.98747540 4.72167969
0.02458006 6.95276213 4.55398083
0.20415193 6.97463608 4.71715498
0.18578911 6.93683338 4.54777098
0.16996932 6.90960932 4.37999392
0.32230115 6.88048172 4.36752796
0.31304955 6.86233664 4.19739532
0.15695776 6.89544249 4.21388578
0.44642577 6.81500244 4.18087339
0.43931150 6.79567194 4.00958586
0.30649695 6.85412979 4.03033590
0.54118854 6.72967768 3.99387574
0.53332543 6.70260906 3.82522464
0.43441266 6.78223991 3.84045124
0.61126995 6.66441774 4.00042820
0.59662020 6.62248135 3.83817363
0.57875663 6.57725239 3.67786956
0.65305042 6.55108881 3.86251163
0.63256580 6.49813747 3.70203590
0.61420298 6.44738722 3.53928256
0.69054055 6.40039539 3.54928303
0.68674940 6.35134506 3.38248849
0.60560662 6.39814854 3.37462544
0.77024800 6.39429522 3.36371994
0.77775228 6.35827112 3.19361806
0.69573581 6.30505562 3.21141958
0.84399563 6.45209837 3.17336774
0.86146921 6.43031836 3.01276708
0.79636467 6.32766151 3.01999044
0.84630466 6.29745674 2.84676838
0.75761080 6.22196293 2.84709597
0.71714085 6.26222897 3.03293967
0.90615159 6.41353178 2.85293102
0.97094411 6.40011454 2.70640278
0.79975015 6.17458057 2.65909934
0.91201770 6.25238514 2.68516946
0.95905584 6.24311781 2.51659632
0.82853472 6.18358278 2.46494031
0.64746511 6.22630024 2.84967017
0.62322050 6.28730154 3.03470254
0.60897654 6.34602451 3.20765948
0.55067414 6.38374805 3.02903938
0.54842758 6.44532776 3.19311905
0.55143863 6.49278736 3.35518622
0.49945486 6.56322718 3.18357086
0.56212556 6.53568983 3.51730013
0.50421327 6.60350943 3.34153509
0.51156151 6.63809776 3.50115275
0.42590994 6.73214293 3.35306454
0.52224845 6.67078304 3.66169119
0.42531708 6.75297022 3.51260400
0.42993510 6.76897764 3.67429686
0.29435912 6.84782696 3.54205942
0.29758862 6.85049582 3.70259786
0.30152014 6.85099459 3.86539793
0.13057582 6.91048288 3.73102307
0.13817371 6.90023184 3.89000130
0.14691047 6.89492798 4.05096102
-0.04336394 6.92221451 3.90951848
-0.02907307 6.91436672 4.06681204
-0.19011050 6.91485119 4.22951889
-0.01322208 6.91428947 4.22619534
-0.16639641 6.92798710 4.39219379
0.00500034 6.92672300 4.38871527
-0.34008655 6.91644239 4.38960457
-0.31194165 6.94642830 4.55605507
-0.14252630 6.95578861 4.55725670
-0.47978130 6.92600536 4.54834795
-0.44914022 6.97068787 4.71933937
-0.28423363 6.98533773 4.72462845
-0.60958481 6.95032787 4.70983839
-0.57863164 6.99900484 4.88647699
-0.41895154 7.01421547 4.89190674
-0.73118192 6.98020506 4.87775564
-0.69974512 7.02221918 5.06310034
-0.54678923 7.04103518 5.06668901
-0.84819227 7.00015926 5.05954313
-0.81826878 7.03647852 5.25137806
-0.66852677 7.05972481 5.24972439
-0.96187949 7.00329447 5.25761843
-0.93571597 7.03942823 5.45024920
-0.78964031 7.07440615 5.44113731
-1.07789135 6.99504232 5.46224594
-1.05714154 7.03376484 5.65378475
-0.91346848 7.08351755 5.63844824
-1.19341958 6.97148418 5.67376947
-1.17145276 6.98947191 5.86265564
-1.03334939 7.05548143 5.84189034
-1.33192861 6.91967201 5.69865370
-1.31241131 6.93779993 5.89025450
-1.29400170 6.94820690 6.07469416
-1.44904816 6.88211918 5.92863417
-1.43193340 6.88884354 6.11351013
-1.41569233 6.88392878 6.28804302
-1.56050444 6.81294203 6.16181183
-1.54526186 6.80581236 6.33288050
-1.53184462 6.79141331 6.49486971
-1.65799749 6.71362400 6.38815641
-1.64174080 6.69714928 6.54434156
-1.67497182 6.72228336 6.21927166
-1.78368211 6.61897087 6.27499962
-1.76113808 6.61453962 6.44407177
-1.86221957 6.56314898 6.36024523
-1.83159399 6.56505203 6.53147030
-1.90303266 6.54467678 6.61329985
-1.95021129 6.54147816 6.43823671
-1.83103228 6.53235102 6.75583363
-1.86282790 6.49570417 6.82767868
-1.95874524 6.50816917 6.68787479
-1.72572303 6.53182077 6.84727383
-1.86426330 6.43601322 6.88657331
-1.96994698 6.43205023 6.75324440
-2.06591105 6.44729328 6.57648087
-2.04795384 6.34118795 6.62629557
-1.97397220 6.32427645 6.76155949
-2.02689219 6.52038527 6.51471472
-2.07268214 6.51032257 6.32688999
-2.13391757 6.45670128 6.39870310
-1.98032200 6.51798344 6.25440598
-1.99405110 6.47376871 6.06995058
-2.09631824 6.46960258 6.13591290
-1.88418615 6.54647160 6.18137550
-1.90300143 6.53054190 5.99673367
-1.80694377 6.61658335 6.09728384
-1.82608664 6.60990572 5.90953684
-1.69480109 6.72487259 6.04155636
-1.71225893 6.71669769 5.85235834
-1.57765031 6.81266212 5.98097658
-1.59414101 6.79915142 5.78836107
-1.46647489 6.86452103 5.73516130
-2.10277724 6.38900709 5.95996046
-2.20777440 6.38507557 6.02370787
-2.18381071 6.44194174 6.20975447
-2.21178389 6.35382557 6.28465652
-2.27303505 6.32802010 6.10831451
-2.13763070 6.35597849 6.45341730
-2.10132623 6.23878050 6.50560379
-2.18966126 6.24346066 6.34392643
-2.02498865 6.22038698 6.62690449
-2.07926583 6.10938263 6.52524567
-1.94273818 6.18882513 6.76202774
-2.01185226 6.08321905 6.63428354
-1.86243796 6.14638805 6.89281416
-1.94091272 6.04134560 6.75892305
-1.86652541 5.99360466 6.89320374
-1.77514815 6.09882069 7.01395893
-1.81028247 5.89597130 6.99175835
-1.70336628 5.97226191 7.08609962
-1.76664543 5.80440712 7.07556820
-1.64085150 5.86898041 7.13934708
-1.72193182 5.71705389 7.14051723
-1.59297085 6.03781796 7.20488882
-1.58492064 5.77936697 7.17482424
-1.67451930 5.63840771 7.18824196
-1.62414253 5.56542492 7.21640253
-1.79249692 5.50083494 7.24989843
-1.72157300 5.43147087 7.26874495
-1.67636025 5.37479162 7.27648306
-1.83544755 5.32017040 7.28678036
-1.78131068 5.25157166 7.29178810
-1.73065317 5.19100714 7.29319239
-1.88640165 5.13905478 7.28258324
-1.83246756 5.07900429 7.28046131
-1.78312051 5.02705193 7.27529716
-1.92620075 4.96963930 7.25278473
-1.87438858 4.91762447 7.24526453
-1.82625830 4.86770010 7.24262810
-1.95457971 4.81072378 7.19955254
-1.90385962 4.76352978 7.19622993
-1.86192298 4.71791124 7.20429516
-1.96784091 4.67029572 7.12633562
-1.93123996 4.62324238 7.13903522
-1.92134869 4.57765484 7.18140841
-1.99391079 4.53628016 7.05633211
-1.99018204 4.48563814 7.09652090
-2.01104093 4.43175077 7.14618063
-1.93311214 4.54144430 7.24021006
-2.02868605 4.41037703 7.23682404
-2.05466247 4.40589905 6.98464394
-2.05296206 4.46062899 6.95064878
-2.11998534 4.40309095 6.83490181
-2.12566423 4.34837675 6.85485554
-2.17797589 4.36410332 6.71856213
-2.18604159 4.31021595 6.73013830
-2.20173669 4.25860691 6.74829865
-2.22716689 4.34098196 6.59184790
-2.23552918 4.28542519 6.60202026
-2.25412607 4.23114777 6.61738729
-2.28128815 4.17384434 6.63433075
-2.31249094 4.21894789 6.47683430
-2.33938766 4.16197157 6.49096966
-2.37307096 4.09897327 6.50416803
-2.31990147 4.10196877 6.65036869
-2.39932799 4.17481136 6.33659363
-2.43221593 4.10770988 6.34996414
-2.46658564 4.03193426 6.36335039
-2.49295211 4.13050365 6.19384098
-2.52691650 4.05655289 6.20820999
-2.55212784 3.96759391 6.22225142
-2.58801103 4.08906651 6.05292940
-2.61868358 3.99881268 6.06924820
-2.63255310 3.89882326 6.08149529
-2.68742323 4.03251171 5.91719770
-2.74347901 4.05845642 5.76483440
-2.64661002 4.12446547 5.90039492
-2.78887892 4.08329391 5.61481142
-2.69060588 4.15176868 5.74907684
-2.81200027 4.11156368 5.47316694
-2.72233891 4.17900848 5.60290718
-2.82446551 4.14426374 5.33259821
-2.73744130 4.21183348 5.46432066
-2.88833785 4.01772118 5.34192801
