-7.03510000 -19.17730000 9.52720000
-1.39790000 -25.27220000 9.91970000
0.62970000 -25.43560000 9.91130000
2.13370000 -25.60030000 9.55420000
0.64260000 -25.42320000 9.17980000
-8.74520000 -15.74720000 9.37090000
-7.45050000 -16.81130000 9.53050000
-3.65070000 -25.45090000 -0.02860000
-3.87930000 -25.71910000 -0.86400000
-2.73750000 -25.50840000 -0.76430000
-4.70840000 -25.73310000 0.16520000
-4.38470000 -25.70380000 0.19310000
-4.42760000 -25.31310000 0.87010000
7.48300000 -6.12750000 9.43800000
7.17740000 -8.03830000 9.41970000
0.38420000 -25.19690000 7.29670000
0.74650000 -25.29280000 8.48290000
-4.88150000 -25.48310000 -0.40220000
-4.98450000 -25.57810000 -0.96750000
-0.45550000 -25.47650000 9.08130000
8.59550000 -4.54290000 9.21810000
-11.01490000 -11.36340000 9.23800000
10.10520000 -5.60640000 9.18120000
10.31350000 -5.09260000 9.18950000
-5.93070000 -16.85090000 9.40880000
9.60280000 -4.09630000 9.12830000
1.96070000 -20.94690000 9.38280000
1.54940000 -20.89300000 9.29220000
1.99660000 -21.46870000 9.39170000
-8.54290000 -18.12620000 9.40970000
-8.57810000 -20.39900000 9.54550000
1.08270000 -20.16760000 9.18530000
1.49470000 -20.05190000 9.32390000
2.34910000 -25.53750000 9.91340000
-2.72540000 -25.74320000 -1.12210000
-4.58380000 -25.73510000 -1.43430000
-3.01850000 -25.75940000 -1.52150000
0.72850000 -19.39620000 9.23820000
1.73890000 -25.20670000 8.80800000
-10.18280000 -9.08590000 9.18590000
-3.83060000 -25.61300000 -3.88620000
1.04030000 -18.74590000 9.32390000
-4.04680000 -25.49860000 -3.36280000
-5.62970000 -18.58560000 9.60870000
3.81380000 -18.36260000 9.41760000
3.64770000 -20.98570000 9.56730000
-3.34450000 -25.48680000 -2.11020000
-2.43150000 -25.53280000 -2.01230000
0.74450000 -16.75540000 9.35160000
-12.18540000 -9.23440000 9.14750000
-11.64260000 -13.51860000 9.31330000
-7.86560000 -17.58030000 9.55310000
-4.62570000 -25.42370000 -2.00770000
-12.48900000 -9.01380000 8.98100000
-12.66570000 -9.34100000 8.67300000
-12.57290000 -10.09380000 8.93500000
-4.71210000 -25.16330000 -2.89600000
-4.86040000 -25.20670000 -3.53360000
-12.59970000 -8.39170000 8.69030000
0.22980000 -17.72150000 9.25450000
-12.37410000 -8.18870000 8.99450000
-12.75420000 -12.87580000 8.51540000
-1.41380000 -16.43160000 9.27610000
3.89740000 -25.07540000 10.04630000
3.19690000 -25.31470000 10.01940000
3.57960000 -25.49990000 9.83040000
11.73550000 -4.25340000 8.25760000
-5.99460000 -25.20100000 0.05500000
12.04950000 -2.64440000 6.93990000
11.95290000 -3.19600000 7.87080000
-6.51550000 -25.29280000 -0.20640000
-11.90370000 -7.77770000 9.15350000
5.74500000 -16.75590000 9.23910000
-12.66330000 -14.24650000 8.96730000
-7.21060000 -25.21900000 0.16150000
12.05270000 -2.18710000 6.27400000
-12.70050000 -8.95690000 8.34200000
11.36850000 -19.96100000 8.84610000
11.07330000 -21.48620000 9.26530000
11.46460000 -21.70420000 8.90760000
11.70350000 -19.59660000 7.57690000
-0.54370000 -15.35140000 9.15010000
11.57570000 -19.64030000 8.36660000
4.05410000 -24.04210000 9.85980000
10.63320000 -4.56980000 8.88110000
10.21770000 -4.24920000 9.18120000
-2.35610000 -25.73000000 5.45650000
-2.93380000 -25.68230000 5.22980000
-2.93430000 -25.71200000 4.41070000
-0.99560000 -25.67560000 4.92260000
1.34680000 -16.17040000 9.26710000
10.27200000 -3.82250000 9.00300000
-1.82680000 -25.74440000 4.22170000
-4.04480000 -25.52570000 5.05800000
-4.21670000 -25.64650000 4.77740000
-3.47050000 -25.57110000 4.87380000
3.21260000 -15.31580000 9.15160000
-3.81180000 -25.32360000 4.22440000
10.32620000 -3.14820000 8.78940000
12.00490000 -16.52730000 3.65400000
12.02410000 -18.55120000 3.44330000
-4.41580000 -25.43890000 3.97780000
-3.38040000 -25.36900000 5.42830000
9.64620000 -3.31270000 9.26350000
9.92880000 -3.06910000 9.25270000
-3.45470000 -25.35840000 4.25120000
-4.71790000 -25.18790000 5.34670000
9.87600000 -2.65600000 9.06700000
-3.82480000 -24.97200000 5.77680000
-9.84480000 -4.47430000 9.22480000
-5.71720000 -25.51040000 -2.13160000
9.50690000 -2.48960000 9.41160000
-5.94300000 -25.46960000 -2.74790000
11.49860000 -2.73340000 8.33620000
-2.80990000 -25.68040000 3.44900000
-3.18680000 -25.39950000 3.53650000
-2.72370000 -25.52370000 2.15880000
10.33890000 -2.01220000 8.67040000
-2.17490000 -25.54940000 3.39300000
-1.81970000 -25.62850000 3.89670000
-5.51300000 -25.21020000 -2.83880000
-12.59320000 -12.39470000 8.96750000
-12.33380000 -13.61530000 9.21840000
-5.93750000 -25.49280000 -3.84140000
-1.54210000 -25.59920000 2.98050000
-5.47420000 -25.21540000 -3.56290000
-2.31670000 -25.73160000 2.54720000
3.11260000 -22.62660000 9.68940000
2.25440000 -22.09150000 9.49260000
-2.33630000 -25.74570000 1.61520000
12.02140000 -2.00000000 7.40880000
-1.65010000 -25.61350000 2.22000000
2.49180000 -21.59040000 9.50430000
-10.51360000 -25.17270000 2.67670000
-10.09890000 -25.21510000 2.26720000
-10.16240000 -25.18700000 3.05180000
-10.77960000 -25.31770000 1.51460000
10.74440000 -21.04600000 9.41230000
-9.58900000 -25.36530000 2.84400000
-9.57580000 -25.25320000 1.88090000
11.01430000 -19.12380000 9.09390000
-3.55860000 -25.04040000 2.96440000
9.52030000 -1.37180000 8.87610000
-10.68480000 -25.37330000 0.85910000
-10.19910000 -25.22780000 0.72570000
-4.49130000 -25.12570000 3.17160000
3.71920000 -25.72870000 1.45940000
3.18780000 -25.80270000 0.90580000
4.89980000 -25.90470000 1.20090000
3.65870000 -25.74170000 0.38210000
4.53540000 -25.82740000 0.46230000
-3.88910000 -25.01860000 3.51980000
11.32730000 -18.29480000 8.72620000
-4.11450000 -25.01520000 2.47340000
-9.85140000 -25.11890000 1.43750000
-9.27240000 -25.48460000 0.53420000
4.21280000 -25.69010000 -0.28230000
-9.25100000 -25.53480000 1.78060000
3.91080000 -25.84890000 -2.66050000
3.63950000 -25.74270000 -1.71650000
3.23780000 -25.94550000 -2.25300000
-3.09890000 -25.18060000 2.04420000
-3.68820000 -24.95390000 1.43230000
5.00480000 -25.91250000 -0.80040000
4.92060000 -25.98800000 -2.12330000
5.29770000 -25.87440000 -2.31530000
7.23460000 -5.20540000 9.66810000
10.98670000 -17.75350000 8.97600000
5.37230000 -25.69230000 -0.74800000
9.99400000 -16.86700000 9.08350000
-12.82150000 -24.97800000 2.97000000
-12.60680000 -25.34020000 4.27260000
-12.84120000 -25.19990000 4.37730000
-12.89620000 -24.63360000 3.11870000
4.12650000 -25.59720000 -1.48980000
3.79120000 -25.67890000 -0.56570000
-10.65620000 -25.55410000 4.48370000
-10.99610000 -25.48560000 5.97910000
-11.28260000 -25.51810000 2.70730000
7.94200000 -4.38500000 9.40540000
4.55270000 -25.86430000 -0.74430000
-2.44820000 -8.48670000 8.81470000
-1.86630000 -11.96500000 9.04970000
-1.88140000 -9.59010000 8.94160000
-11.63970000 -25.23950000 3.73420000
-11.40360000 -25.25390000 5.92490000
7.56570000 -4.70430000 9.66780000
-5.30740000 -25.36650000 5.03120000
-4.98510000 -25.56060000 4.53680000
-11.86250000 -25.07380000 4.46700000
-5.04330000 -25.43490000 3.68560000
-11.69260000 -25.40210000 2.37170000
-5.40520000 -25.45630000 3.96750000
7.38050000 -4.43640000 9.60320000
7.28410000 -4.04900000 9.42650000
-5.88580000 -25.31100000 4.26680000
-10.91920000 -25.56240000 3.53990000
-10.41020000 -25.46350000 3.64060000
-10.09510000 -25.55900000 4.28530000
-5.79220000 -25.23280000 5.32520000
-0.35550000 -11.98600000 9.13930000
4.44900000 -25.76150000 -1.86980000
-6.45550000 -25.31560000 5.72620000
-12.01350000 -25.14270000 5.19690000
-12.39450000 -25.23910000 5.42540000
-12.31980000 -25.24420000 3.74660000
-1.23600000 -11.36220000 9.15900000
-1.96840000 -7.82940000 8.94700000
-12.70890000 -25.24250000 5.70260000
-12.92340000 -24.95700000 4.86500000
-12.88220000 -25.12460000 6.71310000
-5.99510000 -25.30190000 6.86330000
-5.68570000 -25.17740000 5.92290000
7.84030000 -3.84920000 9.63330000
7.64930000 -3.55120000 9.64380000
-1.16390000 -25.76080000 3.40160000
-1.09960000 -25.79080000 2.02040000
-0.74840000 -25.73420000 2.16120000
-6.23300000 -25.31760000 4.71200000
11.38950000 -16.29040000 8.18880000
8.51370000 -3.31450000 9.20280000
8.16400000 -3.29480000 9.43290000
1.68840000 -25.58400000 3.83360000
2.90850000 -25.75090000 3.99500000
1.97920000 -25.79110000 4.33820000
7.27130000 -3.26840000 9.32410000
2.58760000 -25.59840000 3.75420000
-12.10360000 -25.15690000 2.62740000
2.00050000 -25.63460000 4.72280000
0.68860000 -25.75010000 4.14670000
5.73430000 -2.46430000 9.43650000
-5.27410000 -25.20550000 7.25200000
-5.44520000 -25.23370000 6.26200000
-4.56560000 -25.03620000 5.65670000
7.66040000 -3.06640000 9.45220000
0.59690000 -25.47060000 3.75890000
-7.00220000 -4.92200000 9.16950000
11.12170000 -16.24970000 8.70290000
-4.08610000 -24.94010000 6.38530000
2.23000000 -25.39860000 2.68970000
3.15670000 -25.32840000 2.26160000
3.04070000 -25.49540000 3.24150000
2.37460000 -25.41160000 3.55240000
1.83250000 -25.36470000 3.27360000
11.56120000 -15.29070000 6.92370000
-5.20250000 -25.31650000 8.46820000
-11.73450000 -25.52280000 1.28350000
1.48970000 -25.31120000 2.48860000
-12.21790000 -25.27660000 1.85170000
-11.50390000 -25.43400000 0.76310000
-12.42530000 -25.54650000 0.42970000
-11.76880000 -25.36200000 0.42820000
11.83320000 -15.03880000 4.69370000
-1.56140000 -25.72430000 5.61100000
-0.75600000 -25.75310000 5.68370000
-2.04840000 -14.82960000 9.29560000
0.40210000 -25.65400000 4.77550000
-12.26370000 -11.47040000 9.17370000
-4.90680000 -25.08060000 2.58130000
-12.56910000 -25.08330000 2.55550000
-12.74150000 -25.21540000 1.83230000
-0.32310000 -25.74050000 5.31970000
-12.49330000 -25.42250000 1.52550000
-4.68030000 -25.10140000 1.66790000
-4.45640000 -25.15390000 1.82520000
-12.86570000 -24.94040000 1.88760000
-12.79530000 -22.21460000 0.11300000
-5.80610000 -4.59230000 9.01860000
1.65130000 -25.58550000 5.83590000
2.92220000 -25.76810000 5.75000000
-12.75610000 -25.40680000 0.81540000
4.09120000 -0.73040000 9.52120000
12.11810000 -18.83850000 2.77850000
2.27650000 -25.75070000 5.35880000
-0.03840000 -25.64220000 5.69640000
0.80490000 -25.30380000 6.17390000
12.07290000 -18.47160000 1.96720000
-2.06900000 -25.50770000 6.04460000
-2.44780000 -25.59460000 6.52010000
-0.74160000 -25.58220000 6.63770000
-2.78350000 -25.59640000 6.65910000
8.15660000 -2.71790000 9.55750000
-0.38470000 -25.49740000 6.10330000
-1.62700000 -25.44080000 6.24710000
9.18880000 -2.55140000 9.26390000
-1.93440000 -25.31500000 6.63520000
0.69770000 -25.23520000 6.79590000
-10.87620000 -25.32180000 2.23730000
8.70080000 -2.32760000 9.27290000
-2.14910000 -25.51500000 7.41390000
7.84370000 -2.43890000 9.42800000
-12.70230000 -10.78400000 8.59990000
-2.09170000 -5.72120000 8.87150000
-0.90560000 -9.09060000 8.97870000
7.37180000 -2.11660000 9.27760000
-0.33530000 -25.73240000 4.17560000
8.13600000 -1.89000000 9.60880000
-0.29850000 -8.67690000 8.96510000
0.20100000 -8.06450000 9.43930000
-0.60330000 -6.95690000 9.00420000
-12.58520000 -10.93680000 8.94500000
-2.97060000 -25.34710000 7.37270000
-3.16620000 -25.21780000 6.31730000
-1.13580000 -13.31840000 9.16080000
7.97720000 -1.56860000 9.40040000
-1.16510000 -6.38920000 8.85740000
7.57110000 -1.23270000 9.20830000
-0.35380000 -5.97430000 9.44620000
-0.33960000 -25.48020000 3.38620000
-3.40870000 -24.89460000 6.94660000
-3.50090000 -24.92700000 6.21370000
-0.90950000 -5.07480000 9.12730000
-0.63880000 -25.56500000 2.56610000
0.77690000 -7.90160000 9.61060000
-3.94140000 -25.07070000 7.97260000
-12.36170000 -10.56260000 9.11400000
-9.10910000 -25.61410000 2.95300000
-8.55250000 -25.60990000 3.66620000
-9.26910000 -25.64010000 4.05140000
9.06280000 -1.79070000 9.52570000
-8.79470000 -25.54810000 4.52970000
-3.10440000 -25.05970000 7.18200000
9.28850000 -1.45810000 9.40890000
-1.57250000 -25.34070000 7.09460000
-1.74620000 -25.48350000 7.52470000
8.54410000 -1.58830000 9.55830000
-10.14080000 -25.25710000 5.45340000
-9.73540000 -25.36670000 4.84810000
-0.45630000 -25.35290000 2.68760000
-9.15680000 -25.50550000 5.61540000
-9.49920000 -25.21240000 6.05150000
7.81030000 -0.67140000 9.26490000
-0.00880000 -25.34980000 1.84940000
8.74900000 -0.76210000 9.59960000
-3.69050000 -5.88750000 8.76210000
0.44480000 -25.33550000 2.57580000
8.33620000 -0.81200000 9.56690000
-3.30380000 -25.17640000 0.77960000
-2.52980000 -25.37440000 1.10220000
-3.03100000 -5.91970000 8.78620000
-9.58730000 -25.58140000 3.73280000
-2.63920000 -25.22990000 0.29280000
12.18360000 -15.87970000 0.37840000
9.11170000 -0.72200000 9.11350000
-2.21830000 -25.29360000 -0.26290000
-1.59330000 -25.63270000 -0.85610000
-9.89460000 -25.37890000 3.49560000
6.33630000 -0.10770000 9.25990000
-8.40920000 -25.32190000 4.83520000
-8.55170000 -25.36960000 5.56530000
-3.82130000 -25.04640000 0.80570000
-4.07620000 -24.95680000 1.18770000
-3.10350000 -4.35230000 8.91560000
0.79410000 -25.25250000 3.28460000
-7.71250000 -25.22560000 5.70160000
-8.30870000 -25.23000000 6.36650000
-4.60680000 -2.46230000 8.84820000
-12.68490000 -13.34800000 3.71840000
12.08060000 -14.78020000 0.97050000
0.68910000 -25.85390000 -1.41760000
1.00930000 -25.84310000 -1.34500000
0.84530000 -25.84840000 -0.21860000
-1.80790000 -3.39550000 8.81820000
-8.08030000 -25.27480000 4.43060000
-7.79590000 -25.43550000 4.17710000
-1.87730000 -25.82470000 1.49560000
-1.77130000 -25.67180000 1.07020000
7.94360000 -0.08040000 9.52240000
0.41530000 -25.63720000 -3.12040000
0.81600000 -25.87760000 -3.15590000
-1.86120000 -25.29880000 0.52720000
1.14530000 -25.74410000 -1.99550000
1.82520000 -25.50600000 -2.18930000
1.63600000 -25.86070000 -3.16700000
2.19800000 -25.91930000 -2.77110000
2.27890000 -25.78100000 -2.13730000
6.93970000 0.27070000 9.18380000
1.54090000 -25.44310000 -1.70220000
1.21570000 -25.77290000 -3.04960000
7.44060000 0.44260000 9.39200000
-1.37410000 -25.56370000 -0.49470000
-8.72840000 -25.49460000 2.72290000
-8.75510000 -25.55180000 1.86460000
0.40390000 -25.62250000 0.07110000
0.42060000 -25.67050000 -1.06910000
0.14260000 -25.50160000 -1.32330000
-0.41990000 -25.73570000 -0.14090000
-0.34490000 -25.57070000 0.89770000
-0.70820000 -25.81480000 -0.17280000
-8.28830000 -25.33720000 2.87710000
-0.04050000 -25.51120000 0.12460000
6.59320000 1.85800000 9.00800000
-0.18530000 -25.55480000 -1.54640000
-0.43120000 -3.57990000 9.53710000
-7.48360000 -25.16330000 6.93890000
-8.26900000 -25.15850000 1.78810000
-8.34860000 -25.41400000 0.73590000
-1.06490000 -25.78750000 1.14810000
-8.89470000 -25.65430000 1.05280000
0.30220000 -2.94780000 9.60330000
-1.07280000 -25.60760000 0.51490000
-0.49980000 -25.71650000 1.26280000
1.71660000 -1.78370000 9.53990000
2.75150000 -9.40670000 9.61100000
-0.79880000 -25.85520000 -2.55310000
-0.46940000 -25.77670000 -2.01980000
-1.08470000 -25.86260000 -1.27260000
5.09430000 -14.91830000 9.19990000
5.72210000 -15.70060000 9.18850000
6.01380000 -15.43830000 9.38590000
6.79430000 -15.43520000 9.64760000
5.87380000 -14.87060000 9.72620000
5.43900000 -14.89520000 9.52750000
-0.37600000 -25.73140000 -3.53340000
-10.58100000 -25.37860000 5.53350000
-10.38920000 -25.34230000 6.41480000
-11.73580000 -21.74530000 9.54580000
-12.17170000 -23.51330000 9.39470000
-11.16140000 -23.97860000 9.61420000
3.68760000 -13.87270000 9.08130000
-1.39390000 -25.73140000 -1.76680000
4.80290000 -14.21170000 9.35720000
5.06310000 -14.26020000 9.66140000
-12.45450000 -22.29400000 9.27390000
-11.36700000 -25.39470000 -0.48090000
-11.21940000 -25.57330000 -0.73850000
-10.40540000 -25.60330000 -0.45030000
8.50830000 -17.59050000 9.27050000
-1.23240000 -25.74070000 -3.02020000
-1.37750000 -3.63040000 8.92190000
-10.95500000 -20.58260000 9.56440000
-1.39050000 -25.66890000 -2.27200000
-10.26190000 -25.35690000 0.08670000
-12.71430000 -20.47090000 9.01960000
-12.84580000 -22.62800000 8.86020000
-9.55760000 -25.61640000 -0.95710000
-10.69200000 -25.61710000 -2.30300000
-3.53260000 -1.20980000 8.89930000
-9.37050000 -25.65070000 -0.36890000
-12.86290000 -19.96380000 8.63670000
-12.93060000 -21.48580000 8.13930000
1.73770000 -12.54820000 9.05240000
-1.09060000 -2.80900000 9.34120000
3.85560000 -13.46120000 9.33520000
-1.65860000 -2.13260000 8.86920000
0.81030000 -25.66250000 0.23330000
1.34900000 -25.55200000 -0.40130000
1.13930000 -25.48040000 0.28730000
1.98100000 -11.92580000 9.22630000
1.02010000 -25.39700000 1.34730000
1.59950000 -25.33080000 0.00120000
2.47750000 -11.79130000 9.48510000
2.13710000 -25.35840000 0.02170000
2.11480000 -25.48430000 0.97640000
6.74730000 -15.00580000 9.79130000
6.31010000 -14.83100000 9.74060000
6.78790000 -14.68370000 9.51750000
6.02060000 -14.23710000 9.51460000
5.72320000 -14.37200000 9.83500000
4.00810000 -25.55120000 1.67850000
2.28190000 -25.39180000 1.68620000
2.71600000 -25.70050000 1.27730000
5.11680000 -13.79260000 9.83550000
3.02130000 -25.84710000 -0.02660000
3.32340000 -25.91210000 -0.48910000
4.63190000 -13.55020000 9.67140000
2.58910000 -25.60340000 -0.21230000
5.34920000 -13.32280000 9.62380000
-11.19920000 -25.29110000 0.22590000
4.89840000 -12.81780000 9.83820000
6.34280000 -13.35170000 9.44390000
7.24720000 -14.40560000 9.55190000
5.64450000 -12.82580000 9.47480000
-6.01070000 -0.70680000 8.83730000
7.43260000 -16.00990000 9.22640000
8.45160000 -15.79850000 9.12200000
6.88390000 -12.95660000 9.45720000
6.68560000 -15.73850000 9.31240000
7.49620000 -15.52790000 9.39180000
-9.87230000 -25.58510000 -4.27970000
10.69240000 -16.16720000 8.89770000
2.79040000 -25.89640000 -1.81680000
4.64710000 -13.02010000 9.78930000
2.52970000 -25.86030000 -3.03260000
-1.42730000 -1.38340000 9.17870000
4.31030000 -12.73660000 9.58050000
-1.63480000 -1.44140000 8.92660000
3.86680000 -12.52910000 9.51460000
2.41890000 -25.60630000 -1.65880000
5.18490000 -12.18260000 9.57390000
-1.11250000 -0.38440000 9.39930000
4.54120000 -12.22560000 9.78210000
-12.21760000 -25.41600000 -0.92590000
-11.94620000 -25.30150000 -0.59180000
2.33940000 -10.91660000 9.60700000
0.17210000 2.45270000 9.51140000
4.30420000 -11.43010000 9.56940000
1.95840000 -25.35660000 -0.95200000
4.96500000 -11.81300000 9.78020000
6.58920000 -11.29200000 9.55860000
7.75400000 -13.14000000 9.62680000
8.57280000 -12.88520000 9.69630000
4.86000000 -10.99490000 9.75730000
8.46030000 -10.88280000 9.60120000
5.74770000 -11.46990000 9.39700000
-0.89240000 1.40010000 9.47530000
5.41180000 -11.28540000 9.45100000
8.97940000 -12.05190000 9.69140000
9.82090000 -15.38900000 8.94870000
10.78750000 -14.94350000 8.80560000
10.27230000 -14.79910000 9.07760000
-4.94470000 0.08210000 9.01830000
9.08550000 -15.22560000 9.09410000
7.96440000 -9.17800000 9.51380000
4.19890000 -9.38660000 9.40010000
4.65510000 -10.45160000 9.52090000
7.61250000 -15.29590000 9.71000000
7.16650000 -15.20170000 9.82170000
8.04350000 -15.14210000 9.52860000
9.85850000 -10.67940000 9.49390000
7.70990000 -15.00510000 9.79410000
0.46910000 -25.42190000 0.80430000
7.94030000 -14.62980000 9.65750000
11.31560000 -25.74490000 8.98920000
10.83620000 -25.71790000 9.52290000
10.66450000 -25.81610000 9.24650000
-12.95210000 -24.76350000 7.13360000
11.43880000 -25.22440000 9.20080000
10.94780000 -25.30780000 9.68840000
8.33490000 -15.28320000 9.26730000
-12.83760000 -24.67560000 8.64070000
-12.62430000 -25.24810000 8.50520000
-12.44460000 -25.07420000 9.00670000
-12.68780000 -24.31960000 9.10600000
-12.07140000 -24.88780000 9.35300000
5.43360000 -10.40280000 9.67410000
5.98330000 -10.13380000 9.52980000
10.35330000 -25.83070000 5.99420000
11.05680000 -25.66690000 5.95500000
10.70650000 -25.86580000 6.96550000
8.58280000 -14.70060000 9.45000000
9.18300000 -14.80550000 9.39570000
11.37770000 -25.83640000 6.45580000
10.79280000 -25.83360000 8.29150000
11.54280000 -25.82610000 7.93750000
10.06880000 -14.26300000 9.46530000
11.39520000 -25.87610000 7.27830000
-12.93400000 -23.59550000 8.49170000
8.96350000 -13.99530000 9.65560000
6.01810000 -25.78050000 5.29210000
5.53180000 -25.82500000 6.29110000
5.40160000 -25.85110000 4.92660000
5.34580000 -9.73200000 9.75480000
10.32860000 -25.60570000 8.04650000
8.18960000 -14.27410000 9.55510000
5.20070000 -25.76830000 5.89310000
4.41570000 -25.69690000 5.84050000
4.83030000 -25.63450000 5.82350000
4.77600000 -25.83640000 6.65840000
11.79760000 -25.57250000 8.22150000
4.84290000 -9.25740000 9.35720000
5.05230000 -9.62750000 9.44490000
5.21640000 -25.80670000 2.72650000
4.75370000 -25.90240000 3.09190000
4.67690000 -25.73220000 2.73760000
11.96240000 -25.58690000 7.11910000
4.13140000 -25.78610000 4.42790000
4.27410000 -25.87570000 3.60400000
4.79280000 -25.69790000 3.79150000
11.85180000 -25.82500000 6.14600000
4.00850000 -25.72990000 3.32390000
12.08700000 -25.47810000 5.59400000
5.46650000 -25.88860000 3.81720000
5.78610000 -25.88380000 3.60360000
6.13130000 -25.90680000 4.51710000
12.07470000 -25.20170000 7.10900000
0.90390000 -10.85000000 9.09360000
1.36300000 -10.84420000 9.34140000
6.02260000 -8.98420000 9.62970000
-5.48060000 0.20450000 8.99290000
6.33960000 -25.67530000 3.44840000
6.75090000 -25.82820000 3.58940000
6.32820000 -25.52320000 2.89240000
5.63130000 -8.87800000 9.67990000
11.92790000 -25.52070000 4.53190000
11.95120000 -25.63840000 3.74960000
12.13170000 -25.35630000 3.80260000
5.78790000 -25.74880000 3.02100000
5.52060000 -8.27450000 9.55160000
11.38330000 -25.65010000 5.07250000
4.44510000 -25.53180000 4.82180000
11.91930000 -25.70830000 5.02670000
5.00390000 -25.57040000 4.67870000
-6.21840000 1.44260000 8.90990000
10.24440000 -25.61640000 4.97010000
10.66210000 -25.61700000 4.89710000
11.60560000 -25.72850000 3.72640000
-12.28410000 -19.25010000 9.34050000
9.38940000 -9.53320000 9.50480000
-2.07260000 -0.66620000 8.77230000
-2.56780000 0.74420000 8.75760000
10.14270000 -25.38400000 3.62780000
8.82510000 -8.74730000 9.62100000
9.30440000 -9.05690000 9.62470000
-1.92130000 0.48860000 8.83460000
7.58840000 -25.53430000 6.52810000
8.19840000 -25.27800000 6.29880000
8.14320000 -25.63730000 5.00590000
7.45820000 -25.90090000 4.65350000
8.54610000 -25.86750000 4.68850000
7.59580000 -25.72060000 5.02470000
7.18380000 -25.81140000 6.36320000
12.11140000 -25.18560000 6.00370000
-1.69540000 0.86960000 9.07650000
7.03640000 -25.95120000 4.16700000
8.39570000 -25.78860000 4.26790000
7.52750000 -25.75970000 3.57550000
7.06960000 -25.89450000 3.00270000
8.30260000 -25.61560000 3.80850000
-7.84620000 -23.03910000 9.69580000
9.39820000 -25.82610000 5.02300000
8.78370000 -25.74400000 5.21370000
6.46680000 -7.74310000 9.64690000
-2.25180000 2.00020000 8.70760000
11.80670000 -24.94820000 8.47970000
9.82210000 -25.84630000 5.83930000
9.31910000 -25.48850000 6.04390000
1.02090000 -9.51930000 9.53650000
11.43470000 -24.45230000 9.27590000
11.60130000 -24.08660000 8.84800000
-4.13480000 3.57160000 8.82700000
9.40510000 -25.45060000 3.54020000
-10.67090000 -16.58190000 9.40630000
-12.38760000 -17.37650000 9.24240000
8.63450000 -25.33910000 5.93070000
7.93540000 -25.41860000 5.30770000
0.56050000 -9.57230000 9.22550000
-12.72200000 -17.36360000 8.93800000
11.26040000 -14.75910000 8.42110000
11.43970000 -14.38250000 7.67830000
6.17960000 -25.46020000 6.25680000
6.54050000 -25.62540000 5.76100000
10.77320000 -14.29200000 9.24050000
11.29380000 -14.31920000 8.79670000
11.41990000 -13.62130000 9.14050000
6.92700000 -25.86810000 5.46440000
6.74540000 -25.71420000 7.08050000
6.17310000 -25.34890000 7.25290000
6.57990000 -25.51770000 6.80030000
10.87080000 -13.65730000 9.43290000
12.15710000 -25.54110000 2.45470000
5.37940000 -25.68810000 7.12010000
5.82960000 -25.57880000 6.61670000
4.20220000 -25.47390000 7.31860000
4.92810000 -25.67430000 7.15880000
11.69580000 -13.92300000 8.59780000
2.60690000 -0.24670000 9.23610000
11.67560000 -14.00760000 7.97870000
5.66380000 -25.35580000 7.52140000
11.34010000 -12.98260000 9.27150000
3.16630000 -0.32360000 9.38710000
2.01540000 1.84560000 9.23160000
5.88030000 -25.38250000 7.93040000
11.95510000 -13.57300000 8.07630000
11.94540000 -13.10900000 8.36180000
-11.93300000 -16.28550000 9.38090000
11.79810000 -12.64700000 8.89530000
9.69890000 -13.62340000 9.62900000
10.40990000 -12.82730000 9.52610000
6.31940000 -25.49540000 7.71590000
12.03220000 -11.59790000 8.28740000
7.08820000 -25.95610000 1.96430000
7.49250000 -25.81050000 2.34050000
6.28340000 -25.90740000 1.23850000
7.41520000 -25.82330000 1.39260000
11.69100000 -10.92120000 8.95760000
6.58920000 -25.60140000 0.76570000
7.68940000 -25.53720000 0.89120000
6.80550000 -25.83320000 -2.33520000
7.30190000 -26.02090000 -2.38010000
6.68060000 -26.02160000 -1.28930000
6.41070000 -25.94430000 -2.29340000
7.77870000 -25.78910000 -1.46930000
7.47200000 -25.90600000 -0.82850000
7.07800000 -25.81710000 -0.57440000
3.97160000 1.74010000 9.42420000
6.56760000 -25.64780000 -0.52860000
9.06450000 -25.45200000 -1.10500000
8.78440000 -25.55070000 -1.82130000
9.55300000 -25.61280000 -1.51910000
8.22280000 -25.49620000 -1.61580000
8.37290000 -25.36870000 -0.18410000
7.97460000 -25.52990000 -0.33550000
7.29210000 -25.43280000 0.04600000
8.13810000 -25.36350000 0.71880000
6.71190000 -25.40400000 0.28510000
8.01860000 -25.29530000 10.07340000
7.97510000 -25.53610000 9.72870000
8.70000000 -25.36650000 9.91630000
8.95660000 -25.41870000 9.39130000
9.19790000 -25.64190000 9.61540000
9.33790000 -25.64060000 9.90800000
8.14470000 -25.39430000 8.73740000
9.66940000 -25.32520000 8.34310000
6.19680000 3.13580000 8.89970000
5.29880000 -25.65730000 1.65390000
10.06490000 -25.59450000 9.89710000
9.81760000 -25.69140000 9.52990000
10.18490000 -25.57030000 8.95250000
9.38710000 -25.36300000 10.09470000
5.44770000 -25.57280000 2.50990000
3.13530000 3.00280000 9.31620000
10.49250000 -25.48440000 9.82840000
5.68270000 -25.58170000 2.19870000
4.37700000 -25.45710000 2.21180000
3.90180000 -25.41990000 2.73370000
10.78320000 -23.74970000 9.66100000
9.53790000 -24.88940000 9.93060000
8.50260000 -25.06010000 10.04560000
5.29710000 -25.64770000 0.45770000
5.38530000 -25.59150000 0.07570000
2.38850000 2.68660000 9.14380000
6.59420000 -23.44660000 9.82640000
2.59340000 3.89590000 9.12020000
6.58730000 -25.73670000 2.31910000
7.29870000 -25.31210000 10.10230000
6.74500000 -24.99020000 10.03010000
5.63810000 -23.25970000 9.88360000
11.68210000 -13.47280000 6.77510000
11.94140000 -13.35540000 7.18270000
5.82160000 -25.58640000 -0.74620000
11.69090000 -13.19110000 5.58670000
6.33380000 -25.34380000 -0.06420000
6.05840000 -25.88470000 -1.16780000
6.06380000 -26.00620000 -2.02600000
12.23710000 -12.40120000 6.46130000
5.74700000 -25.88140000 -2.12360000
12.22240000 -12.33850000 7.37640000
-1.91770000 2.10770000 8.84820000
-1.48290000 2.91200000 9.28290000
12.09060000 -12.02530000 5.70400000
11.81840000 -12.25450000 5.53010000
-12.47830000 -15.62460000 9.16110000
12.36180000 -11.45880000 6.50500000
9.54860000 -25.37780000 1.96590000
9.41880000 -25.42570000 0.21390000
8.72790000 -25.47550000 2.42730000
11.76570000 -12.04960000 3.96470000
7.81150000 -25.57460000 2.66310000
11.24940000 -24.02440000 9.45010000
11.79830000 -12.11540000 4.88020000
8.36660000 -25.47850000 3.13620000
-1.10460000 4.78080000 9.36830000
8.28910000 -25.49820000 1.67510000
-2.59180000 4.17420000 8.68940000
12.33280000 -10.90660000 5.03430000
11.96860000 -11.10150000 4.51100000
-1.82890000 3.71350000 9.00380000
-2.01030000 3.46670000 8.78310000
-1.54770000 5.59500000 9.18820000
11.90690000 -9.10850000 2.89040000
-2.16560000 4.96620000 8.72720000
12.46010000 -10.20120000 5.18510000
3.39810000 -25.70160000 5.29340000
1.77940000 5.20010000 9.11810000
2.46230000 -25.60280000 5.10980000
2.62290000 -25.41370000 6.40260000
0.90940000 4.70530000 9.42130000
-0.29980000 5.71840000 9.37830000
4.02950000 -25.71580000 6.74060000
-4.81440000 -25.39320000 9.17550000
-6.04280000 -25.48580000 9.12050000
3.06710000 -25.29820000 7.29470000
3.49930000 -25.56020000 6.56880000
-6.54860000 -25.09560000 9.78180000
-7.41990000 -25.32280000 9.54400000
-5.54700000 -25.29760000 9.78060000
-7.38930000 -25.42930000 8.99590000
4.03880000 -25.82100000 5.72770000
-7.07700000 -25.41750000 7.69220000
-6.52580000 -25.55350000 7.58900000
-7.56370000 -25.53840000 8.41680000
-1.90240000 5.44780000 8.90270000
-5.91960000 -25.48300000 8.20330000
12.23660000 -10.34150000 4.33580000
2.12390000 -25.25850000 7.08220000
12.38800000 -9.44420000 4.08560000
2.99880000 -25.71220000 4.38380000
3.31170000 -25.63440000 4.79450000
3.69080000 -25.75530000 4.10590000
-1.25970000 7.20240000 9.13910000
9.58630000 -25.31360000 7.40040000
9.91880000 -25.63840000 6.61340000
-3.66020000 -25.19000000 9.79370000
-4.38390000 -25.41540000 9.64690000
-3.85170000 -25.36060000 9.16730000
-3.46380000 -25.18680000 9.49670000
-2.36980000 -25.18760000 9.84310000
-2.49560000 -25.32140000 9.57610000
-3.33280000 -24.61310000 9.72280000
-2.69240000 -24.72540000 9.79100000
-2.53060000 -25.61390000 7.95050000
8.95060000 -25.22300000 7.47860000
-2.64170000 -25.34970000 8.97510000
-3.06780000 -25.26610000 8.24870000
-3.33060000 -25.14880000 9.11890000
-3.45270000 -25.09330000 8.08050000
-2.94770000 -25.11810000 9.18240000
-3.02330000 -24.77270000 9.60990000
-12.06420000 -25.21080000 6.55050000
-12.62890000 -25.35580000 7.26460000
11.42500000 -23.10190000 9.19030000
-12.32220000 -25.32500000 7.24270000
-6.40280000 -24.67870000 9.81760000
-4.32640000 -25.18800000 9.85940000
-12.71030000 -18.66060000 -1.73790000
-9.49650000 -25.36190000 8.29750000
-10.19970000 -25.43680000 7.57810000
-9.41210000 -25.47570000 7.71480000
-9.56810000 -25.17510000 6.91140000
-9.35120000 -25.36710000 7.02050000
-9.98200000 -25.25970000 7.08420000
-8.40380000 -25.47400000 8.02260000
-9.04590000 -25.49810000 7.16260000
-8.09110000 -25.24890000 7.38670000
-8.69930000 -25.35530000 6.81760000
-3.75130000 -24.50910000 9.83080000
-9.90050000 -25.03610000 6.51200000
-12.01190000 -25.30650000 8.68540000
-11.76320000 -25.19870000 8.15340000
-11.33360000 -25.20690000 8.80250000
-11.34330000 -25.19990000 9.29580000
-10.51600000 -25.13170000 8.86980000
-10.49730000 -25.06320000 8.37200000
-9.36940000 -25.26430000 8.73180000
-9.86730000 -25.32030000 9.06740000
-10.45170000 -25.04700000 9.59320000
-9.91530000 -25.28220000 9.48250000
-9.78750000 -24.64490000 9.74110000
-8.90790000 -25.35510000 9.46830000
-11.05330000 -25.23230000 7.87660000
-10.88070000 -25.43020000 7.17440000
-10.55830000 -25.47500000 6.70250000
-8.61420000 -25.06160000 9.73850000
-11.64060000 -25.28410000 7.28470000
-7.65600000 -25.38410000 7.92790000
-9.89090000 -25.70890000 -5.11860000
-10.46090000 -25.60850000 -4.02990000
-11.16390000 -25.64660000 -4.91650000
-10.95660000 -25.68890000 -5.59800000
-10.47980000 -25.60720000 -5.29880000
-12.76130000 -25.37450000 -0.54910000
11.85940000 -18.66730000 0.18350000
12.02410000 -17.18110000 0.35270000
12.15370000 -5.74460000 -2.99230000
12.02860000 -17.71070000 -0.32410000
12.19730000 -2.82330000 -8.57630000
12.06210000 -3.33770000 -9.16730000
12.07570000 -1.48870000 -8.94500000
11.92840000 -2.21880000 -9.27500000
0.93670000 -26.00150000 -7.67870000
0.71640000 -25.98150000 -6.79620000
0.46550000 -25.87200000 -8.25140000
1.27010000 -25.81260000 -7.64910000
1.18460000 -26.00070000 -8.42720000
11.92260000 -9.75480000 1.62840000
0.04170000 -25.69070000 -7.83620000
0.44710000 -25.85720000 -6.62090000
0.16240000 -25.64970000 -6.73310000
11.82960000 -5.14790000 -9.46270000
11.23430000 -2.67000000 -9.57440000
11.68760000 -1.04940000 -9.36340000
12.02340000 -0.66310000 -8.60610000
5.57920000 -18.00180000 -9.56620000
4.57150000 -17.50680000 -9.44840000
6.33540000 -15.78900000 -9.50580000
-0.77410000 -25.86170000 -5.41680000
0.36820000 -25.98070000 -5.07800000
-0.61470000 -25.88910000 -4.27380000
5.54420000 -15.04150000 -9.53900000
-0.18820000 -25.81000000 -5.54270000
-0.61310000 -25.88110000 -6.22740000
3.81230000 -17.65540000 -9.56690000
4.09020000 -15.88050000 -9.59350000
-1.30160000 -25.51840000 -4.75230000
-1.08460000 -25.64040000 -6.73410000
-10.99800000 -16.69920000 -10.02800000
-11.72760000 -19.41980000 -9.91040000
-11.74010000 -16.09550000 -9.93220000
-12.04120000 -17.01680000 -9.74000000
8.62800000 -2.48530000 -9.69650000
8.93250000 0.85990000 -9.61420000
5.20640000 -14.32820000 -9.60350000
2.78680000 -5.51100000 -9.67480000
2.55960000 -0.32110000 -9.61190000
3.98740000 -2.32450000 -9.57170000
-3.24080000 -25.49140000 -4.56490000
-1.90980000 -25.33480000 -5.18510000
-1.94490000 -25.43710000 -3.91080000
-1.39220000 -25.54140000 -3.87640000
10.12470000 -18.68870000 -9.43750000
8.30230000 -19.29720000 -9.44780000
8.52560000 -17.15810000 -9.51840000
-2.15840000 -25.55360000 -6.31140000
-2.99430000 -25.54150000 -5.39110000
6.56060000 -19.25390000 -9.59870000
6.95180000 -16.37580000 -9.63600000
7.16600000 -17.17340000 -9.67980000
7.68620000 -18.41900000 -9.62540000
11.01430000 -0.31930000 -9.52380000
-1.32710000 -25.81270000 -8.70990000
-1.10530000 -25.71980000 -8.15450000
-1.41630000 -25.46760000 -7.55740000
-2.44410000 -25.80530000 -6.94960000
-3.08330000 -25.82100000 -6.00350000
-3.23920000 -25.86170000 -6.33410000
12.02150000 -15.39400000 -1.25500000
-3.14270000 -25.71200000 -7.25370000
-2.52710000 -25.94080000 -8.01260000
5.23330000 -1.92060000 -9.60290000
5.90890000 -4.46610000 -9.55290000
-1.88530000 -25.52020000 -7.54100000
12.16270000 -15.31390000 -0.68310000
-3.15090000 -25.75700000 -8.35890000
-1.99610000 -25.86280000 -8.54090000
12.12260000 -16.98540000 -1.68230000
12.10010000 -17.87850000 -1.22980000
12.00230000 -17.66160000 -2.43330000
-1.57200000 -7.95400000 -9.72110000
-3.07880000 -8.08620000 -9.68620000
-2.57590000 -7.46850000 -9.85180000
-0.47690000 -25.88230000 -7.17320000
-0.77040000 -25.93930000 -8.01510000
-3.89710000 -7.77310000 -9.71820000
-3.48550000 -7.04360000 -9.72100000
-0.22080000 -25.65980000 -6.38990000
-0.19450000 -25.67320000 -7.16620000
12.01330000 -16.24560000 -2.43580000
12.13320000 -16.33810000 -4.38670000
-4.35800000 -7.31210000 -9.94840000
-3.95070000 -6.56300000 -9.81610000
12.06190000 -9.65830000 3.67630000
11.98380000 -15.52010000 -3.33560000
-0.32810000 -26.03370000 -8.58710000
12.00960000 -8.45120000 2.96830000
-12.41330000 -14.61160000 -9.20670000
-12.47680000 -18.44180000 -9.07210000
-12.41540000 -11.38350000 -8.14670000
-1.01500000 -6.77680000 -9.86000000
-1.95430000 -6.27810000 -9.85850000
-2.97700000 -6.31330000 -9.92610000
12.28030000 -8.74610000 3.40950000
-1.48240000 -25.43730000 -6.48610000
-8.13760000 -25.72460000 -5.87300000
-9.12660000 -25.75980000 -5.75320000
-8.62360000 -25.79310000 -6.66510000
-7.73270000 -25.76090000 -7.03900000
-3.79690000 -6.05980000 -9.94250000
-6.26860000 -25.89650000 -8.91200000
-6.73870000 -25.74380000 -8.55630000
-7.09910000 -25.74500000 -8.60020000
-2.44360000 -5.29890000 -9.93760000
-3.24000000 -5.30770000 -9.94640000
11.84470000 -5.77220000 1.33930000
-7.52060000 -25.84150000 -9.07100000
11.92960000 -6.09470000 2.02880000
-4.74650000 -8.20440000 -9.99430000
-4.51620000 -6.33420000 -10.00790000
-5.12800000 -5.58870000 -9.87060000
-2.47540000 -25.99340000 -9.05440000
-11.61830000 -13.12640000 -9.97470000
11.95370000 -14.45610000 -2.76750000
-8.43420000 -25.78000000 -8.21640000
-9.18240000 -25.73660000 -7.40100000
12.51510000 -6.13720000 3.13310000
-3.57270000 -25.91640000 -8.87340000
-3.49340000 -25.92090000 -9.34740000
-9.29530000 -25.73570000 -8.35560000
12.59160000 -5.43040000 3.74170000
-12.31240000 -16.10960000 -9.46770000
-3.14450000 -25.82250000 -9.61350000
3.98010000 0.85050000 -9.49790000
-12.13590000 -13.79150000 -9.70030000
-8.06360000 -25.71340000 -7.62340000
-1.10520000 -25.97110000 -9.32470000
0.76420000 -25.98480000 -9.22920000
12.20330000 -7.38140000 2.80880000
-0.20270000 -25.90430000 -9.53930000
1.48770000 -25.72350000 -8.24200000
1.89980000 -25.93180000 -8.83150000
2.11900000 -26.02700000 -9.20150000
-8.06590000 -25.65490000 -9.17860000
6.43340000 -2.52030000 -9.70140000
6.17220000 1.13620000 -9.66500000
7.62090000 -2.81990000 -9.63760000
3.06630000 -26.01440000 -9.37030000
0.98210000 -25.74140000 -9.58100000
3.34660000 -25.76660000 -9.51430000
-8.84740000 -25.53870000 -9.00950000
-4.26940000 -5.29150000 -10.02510000
-2.20750000 -25.33490000 -9.73310000
1.20770000 -23.82300000 -9.63590000
0.25830000 -25.95500000 -8.72960000
-3.80950000 -4.91330000 -9.84050000
-3.29960000 -4.95070000 -9.80710000
-4.70790000 -3.75470000 -9.97660000
-6.73720000 -25.84630000 -9.49310000
-7.75080000 -25.67680000 -9.58480000
-6.87470000 -25.67200000 -9.74110000
-7.97180000 -25.35410000 -9.66420000
5.07600000 1.37120000 -9.63380000
12.11050000 -3.94510000 -2.02790000
-5.65390000 -25.52980000 -9.81470000
-7.85750000 -24.26280000 -9.89340000
-4.14290000 -23.58780000 -9.80160000
-8.66110000 -24.87240000 -9.60890000
-0.85400000 -5.92270000 -9.84820000
-1.04220000 -5.10950000 -9.80900000
-2.34810000 -25.64200000 -9.69980000
-2.35640000 -4.30790000 -9.76280000
-11.12080000 -25.70590000 -7.86670000
-11.59580000 -25.60120000 -8.61500000
-10.64850000 -25.69470000 -8.88770000
-11.08020000 -25.57650000 -9.08800000
-12.00200000 -25.48450000 -8.78660000
-11.42380000 -25.30790000 -9.17220000
-11.64630000 -25.52900000 -7.81290000
-12.40510000 -25.46230000 -7.45230000
-11.84910000 -25.68310000 -6.66040000
-12.34740000 -25.68330000 -5.89380000
-11.80910000 -25.55760000 -7.10310000
11.89260000 -3.71500000 0.09140000
-12.63960000 -25.48350000 -6.19520000
0.47860000 -7.19420000 -9.66290000
-0.23360000 -1.85580000 -9.67210000
12.21600000 -11.65080000 -1.65780000
12.11070000 -13.25390000 -1.74410000
12.06260000 -9.35040000 -3.24800000
-12.16420000 -25.53770000 -8.11570000
-12.42440000 -25.35220000 -8.40270000
-12.61370000 -24.77220000 -8.12410000
-3.24540000 -3.37930000 -9.70080000
-12.10440000 -24.82300000 -9.04270000
-12.38680000 -24.71750000 -8.84100000
-3.97200000 -3.80080000 -9.71590000
-11.27140000 -24.31330000 -9.31340000
-4.50630000 -2.98880000 -9.77150000
-9.93030000 -25.76490000 -6.98460000
-10.72090000 -25.74400000 -6.77260000
-10.21150000 -25.61950000 -7.97820000
-11.65140000 -25.55310000 -5.75050000
5.29980000 3.22110000 -9.35940000
7.19550000 3.15710000 -9.53720000
8.58210000 3.20450000 -9.48560000
12.26240000 -13.94770000 -6.70180000
9.17450000 -25.92530000 -7.98030000
8.43120000 -26.11440000 -7.54320000
8.67430000 -26.04170000 -8.24050000
10.12290000 -26.03620000 -8.47540000
9.71150000 -26.12780000 -7.37690000
12.11330000 -17.11350000 -4.65900000
-4.12520000 -0.82540000 -9.66940000
-2.80370000 -1.64890000 -9.74070000
9.18240000 -25.96960000 -8.65580000
8.83790000 -26.10660000 -8.91180000
5.56430000 4.25320000 -9.23370000
7.57090000 -25.98810000 -9.34150000
9.23650000 -26.06100000 -9.11960000
8.49810000 -25.75590000 -9.42790000
12.24380000 -6.06580000 -4.08290000
12.27780000 -2.80550000 -5.12340000
12.11900000 -1.75430000 -3.77890000
10.77730000 -26.16930000 -8.92900000
10.22650000 -25.98420000 -9.28110000
-9.29530000 -25.66110000 -5.21770000
-9.42710000 -25.69850000 -6.49100000
12.20500000 0.04470000 -5.98620000
10.81290000 -25.43470000 -9.36890000
9.99320000 -23.22450000 -9.41910000
6.59350000 -25.22790000 -9.50890000
12.32600000 -25.91510000 -5.04410000
12.02370000 -26.03680000 -5.33720000
12.20600000 -26.09980000 -6.32460000
11.88700000 -26.01240000 -6.73860000
12.34680000 -25.94490000 -6.75580000
12.41280000 -25.58810000 -5.90070000
-5.58740000 -2.10410000 -9.90990000
-6.70480000 -5.45960000 -9.89490000
12.12250000 -13.53680000 -5.54730000
9.28450000 -25.89040000 -2.14380000
9.31210000 -25.99890000 -2.82940000
-1.58390000 -21.06150000 -9.67160000
-4.12010000 -18.81650000 -9.72600000
10.41670000 -25.90980000 -2.15950000
10.04340000 -25.69120000 -2.90060000
12.21000000 -14.97690000 -7.52450000
9.43970000 -25.73900000 -3.38050000
9.37950000 -25.97590000 -4.16410000
9.71090000 -25.68490000 -4.30700000
9.85520000 -25.55060000 -3.60200000
10.60610000 -25.64200000 -3.11750000
-10.62320000 -25.66850000 -8.45980000
-9.79680000 -25.50170000 -8.88080000
-9.81990000 -25.31170000 -9.16360000
-10.51380000 -25.41930000 -9.29110000
-10.25200000 -24.91980000 -9.35440000
9.13020000 -26.11860000 -4.87110000
9.50340000 -26.03820000 -5.31310000
12.07310000 -5.98530000 -4.77490000
-0.36420000 -20.49590000 -9.72780000
-2.07340000 -18.52380000 -9.68240000
12.12410000 -10.13410000 -4.28410000
12.04810000 -5.97950000 -5.49530000
-1.15190000 -19.57280000 -9.71210000
-9.41840000 -25.05100000 -9.32090000
9.92140000 -25.71780000 -5.44670000
8.48440000 -26.05780000 -6.52050000
9.27600000 -26.06970000 -6.07140000
8.41240000 -26.07230000 -5.19940000
9.59470000 -25.88080000 -6.44170000
10.31990000 -26.00920000 -7.08110000
10.19080000 -25.67450000 -6.28190000
1.47500000 -20.88620000 -9.72710000
0.41570000 -19.91370000 -9.72200000
1.98560000 -20.27480000 -9.70510000
1.45300000 -19.22980000 -9.68360000
-8.38530000 -9.60120000 -9.97870000
-8.18250000 0.57260000 -9.97520000
-0.29540000 -19.09110000 -9.70700000
10.72540000 -25.64180000 -5.43470000
11.24910000 -25.90380000 -7.04710000
11.61280000 -25.83090000 -5.51030000
12.05820000 -0.40200000 -7.78390000
12.24000000 -2.97540000 -5.80870000
12.08040000 -2.74090000 -6.59960000
-0.38540000 -18.33350000 -9.73160000
0.37780000 -18.84500000 -9.69470000
10.99290000 -25.71740000 -3.96010000
12.25560000 -0.01310000 -7.16310000
-12.00840000 -25.60870000 -5.86930000
10.15120000 -25.50180000 -4.46140000
1.06250000 -18.36080000 -9.69550000
-5.05540000 -1.77010000 -9.94380000
0.16030000 -17.16240000 -9.81530000
12.25600000 -25.93990000 -3.55890000
12.10240000 -26.05910000 -4.13600000
12.35830000 -25.69420000 -3.79450000
12.29250000 1.30190000 -7.80290000
12.07940000 -13.50600000 -3.05250000
12.12290000 0.50040000 -3.97980000
11.95730000 -0.44780000 -1.40110000
12.03440000 -12.40150000 -2.62990000
-4.63750000 -1.09360000 -9.76850000
-1.20080000 -17.65500000 -9.80150000
11.58150000 -25.80750000 -2.31150000
12.02020000 2.23830000 -4.26570000
12.29440000 -4.69920000 -4.32730000
12.24170000 -25.69990000 -2.30250000
12.15220000 -25.82560000 -2.75480000
-1.94680000 -17.04590000 -9.74360000
-12.69850000 -23.94240000 -6.67010000
-5.03150000 -0.31390000 -10.00620000
11.79670000 -25.95310000 -3.76380000
12.00280000 -25.96000000 -3.11510000
-5.66380000 1.35590000 -9.88120000
12.56590000 -4.64850000 5.00140000
-0.97250000 -16.44760000 -9.81700000
11.93190000 1.49160000 -1.52740000
12.33570000 -25.44160000 -2.54680000
-1.50040000 -15.41740000 -9.74830000
11.96790000 2.50470000 -2.69190000
-6.16330000 -20.60630000 -9.83340000
-4.65200000 -16.96340000 -9.75940000
-5.60960000 -17.54340000 -9.89750000
12.27610000 -24.06270000 -2.51240000
12.22870000 -12.23210000 -5.64590000
-6.29740000 1.36900000 -9.83280000
-6.34010000 -17.32000000 -9.81800000
-11.97380000 -23.58820000 -9.35610000
-12.30840000 -23.78250000 -9.10960000
12.31730000 -11.12190000 -7.79340000
-12.59590000 -22.25770000 -8.36250000
-12.55710000 -23.90380000 -8.64170000
12.39390000 -23.06810000 -6.87050000
12.29270000 -11.57990000 -4.97400000
12.19440000 3.54410000 -7.00020000
-12.47690000 -22.56490000 -8.92380000
12.31610000 -8.14640000 -6.75140000
12.19420000 -4.95690000 -7.13150000
11.83260000 -0.14250000 -9.19830000
-9.95600000 -24.31280000 -9.44580000
12.38110000 -7.04560000 -8.47170000
12.35460000 -9.50710000 -8.09770000
12.26050000 -8.55430000 -8.96230000
-1.50760000 -1.38890000 -9.72000000
12.31040000 -4.88570000 -8.34340000
-9.59660000 -23.77200000 -9.70380000
12.27630000 -21.10880000 -5.99440000
11.47280000 0.67450000 -9.36340000
12.12270000 -26.03450000 -7.94530000
11.12120000 -26.18100000 -8.24630000
11.97520000 1.02640000 -8.93740000
11.66030000 -26.13540000 -8.62590000
12.18920000 -25.84540000 -8.46720000
11.70950000 -25.62450000 -9.06290000
12.03610000 -7.32250000 -9.34920000
12.24180000 -6.16490000 -9.01430000
12.37700000 -25.45300000 -8.15370000
11.56210000 -6.42340000 -9.57000000
10.85350000 2.75670000 -9.29240000
-0.73840000 0.42220000 -9.69560000
-10.55360000 -22.31300000 -9.97510000
12.16540000 -25.07950000 -8.84130000
12.15730000 1.29560000 -8.35940000
12.43270000 -25.00290000 -7.49510000
-2.54290000 -0.27640000 -9.75950000
-3.30530000 -0.85370000 -9.73530000
-1.72450000 -0.15870000 -9.79360000
-11.55190000 -22.88420000 -9.64430000
11.86920000 1.61750000 -9.04440000
-2.22220000 0.56210000 -9.70290000
-2.55530000 0.15160000 -9.70370000
11.54070000 2.16750000 -9.14920000
-12.30110000 -22.13040000 -9.36550000
12.17440000 -4.29020000 -9.08340000
12.30120000 -4.91770000 -8.81980000
11.14020000 -25.95240000 -9.16760000
-8.82040000 -18.87910000 -9.95600000
12.24170000 2.82270000 -8.12370000
11.45520000 -20.13980000 -9.40300000
11.79780000 -18.60220000 -9.36380000
12.00900000 -19.64100000 -9.17460000
11.41000000 -18.13490000 -9.40600000
-12.09040000 -21.66550000 -9.65660000
12.13770000 -18.68250000 -8.88590000
12.07690000 -18.06300000 -9.13820000
-11.57730000 -21.80500000 -9.91040000
12.18520000 2.51490000 -8.50690000
11.80860000 -17.79160000 -9.34270000
11.78280000 3.34760000 -8.75540000
11.91010000 -16.79280000 -9.25550000
11.97490000 5.22290000 -7.84850000
12.34710000 -23.85840000 -8.44300000
-4.76270000 -25.82410000 -5.17220000
-4.90860000 -25.62890000 -4.29650000
-5.57080000 -25.60140000 -4.85550000
-5.38480000 -25.82830000 -5.61100000
-5.78010000 -25.87140000 -6.68120000
-5.27740000 -25.81300000 -6.24230000
12.02870000 3.62580000 -4.53670000
-4.56270000 -25.86680000 -6.49400000
-3.84290000 -25.87010000 -5.69930000
2.01310000 1.72790000 -9.48010000
-1.39300000 1.17740000 -9.75300000
-6.20770000 -25.84740000 -7.64250000
-4.77460000 -25.87940000 -8.45340000
11.58970000 -16.32270000 -9.41330000
-5.08340000 -25.85200000 -7.72360000
-0.72050000 1.57650000 -9.63580000
11.85040000 -24.95660000 -9.16130000
-5.57120000 -25.90020000 -9.25530000
-5.64580000 -25.76800000 -8.38920000
11.46000000 -24.05680000 -9.36430000
9.61160000 -15.31280000 -9.51140000
12.14470000 -23.68370000 -8.99850000
-4.64190000 -25.78260000 -9.06860000
0.10510000 1.80590000 -9.46530000
-5.02080000 -14.56600000 -9.84930000
11.84360000 -23.33510000 -9.23600000
-3.94400000 -25.67930000 -6.37550000
-4.51130000 -25.64370000 -7.32910000
-3.67170000 -25.51920000 -7.40440000
-0.62320000 2.75020000 -9.33390000
-4.11310000 -25.76240000 -8.35910000
12.10500000 -16.58980000 -8.67890000
-4.16310000 -25.52310000 -7.95340000
-3.21590000 0.67100000 -9.63270000
3.49730000 -13.93550000 -9.66930000
3.98920000 -12.23340000 -9.61180000
4.60910000 -13.73450000 -9.66000000
2.60000000 -13.10210000 -9.78830000
2.75490000 -12.30450000 -9.67380000
9.63850000 3.50890000 -9.37560000
-4.44040000 0.59490000 -9.71020000
10.80480000 4.05390000 -8.99090000
-4.88990000 0.73410000 -9.95170000
11.94530000 -16.00780000 -9.16490000
-6.06160000 -12.54460000 -9.84530000
6.45600000 -11.90570000 -9.62340000
6.45020000 -13.18080000 -9.49030000
-7.37530000 -25.76630000 -5.06670000
-6.78130000 -25.73520000 -5.59390000
-7.12860000 -25.79190000 -6.17930000
-7.10810000 -25.64020000 -7.39510000
-6.76610000 -25.73790000 -7.08840000
7.28230000 4.99040000 -9.20900000
-3.95470000 2.71020000 -9.47160000
-1.85730000 -12.33320000 -9.66460000
6.68090000 -9.58490000 -9.55010000
-5.24190000 1.03170000 -10.04320000
11.52730000 -14.20650000 -9.39930000
-8.14900000 -25.57340000 -4.79050000
2.08290000 -10.74470000 -9.62500000
-7.09790000 1.63520000 -9.96890000
-7.80290000 -25.64630000 -5.33050000
2.33870000 -18.59060000 -9.59420000
12.19150000 -14.75220000 -8.84010000
1.48330000 -13.15950000 -9.77790000
1.37020000 -11.43130000 -9.71850000
12.27580000 -15.97140000 -8.19220000
2.20470000 -17.79160000 -9.70020000
12.31730000 -15.86160000 -7.52360000
1.45750000 -16.61170000 -9.70730000
2.25850000 -16.49510000 -9.71060000
11.96750000 -14.41610000 -9.27750000
12.21990000 -13.64590000 -9.03200000
0.83910000 -16.11970000 -9.76660000
12.03880000 -21.74130000 -9.12380000
-5.72130000 -25.46630000 -4.46130000
-6.23540000 -25.79670000 -5.19560000
12.23740000 -20.64730000 -8.77410000
-5.17380000 1.99680000 -9.92790000
-4.62200000 2.67090000 -9.70480000
11.69730000 -20.91330000 -9.35590000
-5.05020000 2.80460000 -9.87370000
12.34650000 -21.45120000 -8.35260000
-5.85580000 2.79230000 -9.81750000
-6.27370000 2.91580000 -9.87920000
-5.43980000 2.74360000 -9.89690000
1.38080000 -15.04090000 -9.75230000
-2.18310000 1.91890000 -9.58730000
11.63210000 5.52790000 -8.14340000
3.18890000 -25.99830000 -4.33350000
3.08940000 -25.99270000 -5.36020000
3.39380000 -25.97580000 -5.65210000
10.98860000 5.85560000 -8.35780000
