50.71933000 -7.54651000 -7.53308100
-44.79376200 -5.95197700 -11.29400600
-31.01520300 8.16593900 9.29126000
-28.63646100 11.28062600 -1.63885500
-9.14405600 -6.87621700 -11.07281500
-13.71931700 5.53850400 10.99945100
19.11445000 11.63566200 1.61773700
51.08040200 -2.82528100 -1.80743400
2.73927800 -10.84885800 2.36029100
5.05465800 -10.40742500 -6.37518300
49.84288000 6.32603000 -5.37731900
-12.13724300 6.04328900 10.78418000
-13.31740500 9.98296000 -7.23016400
43.51149000 7.82022400 6.13830600
-49.23284900 5.76700600 -10.42285200
37.03643000 8.90961700 -6.54156500
5.57975800 -10.24159600 -6.64819300
46.67108900 -6.82784900 -9.24993900
-43.01432400 3.33986700 -11.08075000
28.16458100 3.07291200 10.78320300
5.13214100 -10.25474500 -6.58844000
22.99472600 -10.25961300 -7.57226600
-21.84936900 6.08709700 -10.29956100
32.52179000 -10.49797200 -0.27960200
49.98014800 7.44633800 1.56189000
-15.21950100 10.77204100 5.24243200
-11.41128200 -9.82836900 10.42907700
-51.28550700 -1.45196500 6.57305900
39.49953500 -10.20359800 -3.40545700
-31.14496400 4.76044800 10.98266600
11.42105700 2.97183700 11.23706100
-43.14950600 11.33662200 0.10113500
-24.18368100 11.27905100 4.04455600
-49.54570800 4.46218900 10.39947500
-51.29676100 -2.21103300 5.70953400
42.03491600 0.63138900 -9.35607900
-17.75093500 11.27819400 1.25195300
26.39700900 9.67692100 -7.37439000
23.88765300 -7.48737100 -10.68225100
-24.88306200 11.23701700 3.77569600
-25.93865800 7.20217100 -9.38531500
-47.57186900 7.16181900 -9.95111100
-48.75247200 3.87108200 10.65655500
-17.63073300 11.29850800 0.27655000
-2.50639700 -11.08708000 5.72033700
15.06502700 6.14589300 -10.04357900
8.96306600 -10.25367700 -8.15679900
17.48774700 -10.88521400 9.63134800
-41.25142300 7.74821900 9.21337900
36.19572400 -2.77587300 10.89190700
-3.28108600 -11.13670500 5.74816900
25.22302800 11.15777500 -2.81597900
-10.68098800 -1.38770700 11.05584700
-31.73497800 11.05327600 -4.18725600
10.46742400 -10.21242900 -9.63757300
-42.79637500 10.27074400 -6.51971400
-26.81054100 -8.83460600 10.48864700
-18.68232500 -5.74679900 10.78515600
-32.47108100 11.11817400 -3.82397500
48.62999300 -5.15788700 -8.63378900
10.45163200 -10.23348200 -8.50628700
45.41399000 5.76606100 -6.71972700
-42.79513200 -1.35349700 -11.36492900
-24.85194400 -7.88290800 10.50506600
-20.54025500 10.88446800 5.49670400
-1.83201800 -10.69730800 -1.48950200
1.58999300 -10.93061800 5.53234900
-38.78503400 -10.70439900 -10.06835900
11.72095600 -2.66658900 11.38830600
3.51386400 8.51499700 -8.68103000
-26.78147700 -7.37773100 10.52362100
27.68423100 4.87842300 -10.11554000
-44.39493600 -11.60362200 4.50158700
4.98521500 -10.18870500 -6.91149900
6.37617900 11.58021900 0.57739300
-43.85794100 -11.70712300 4.40417500
-1.56705100 6.89277800 10.03759800
40.41392500 10.05541300 -2.28363000
-51.12136800 7.96446200 2.52142300
4.68909500 -10.30223800 -6.95660400
-10.25765100 11.40736200 -0.17547600
-0.87370000 6.86276300 9.95111100
4.79138600 -10.25937300 -7.67169200
-51.08836400 7.86011900 3.41485600
-43.64614900 -11.70613500 3.82397500
-40.90719200 -11.43896500 -1.58123800
-9.24723600 11.50915900 0.10388200
-35.98534000 -11.72110400 5.84069800
-43.41465000 -11.64511500 3.47735600
-51.03355000 8.30030800 3.78570600
-2.50653400 -10.51355000 -6.38537600
-6.70262000 -8.65173300 -11.12481700
35.70914800 7.83746100 -8.48449700
4.26082500 -10.88845400 4.53875700
-15.18030200 -4.95736300 -11.10595700
50.37564500 -8.38681100 -6.12774700
-2.24483500 -10.54708100 -5.37213100
-5.90007800 -7.49259900 -11.20446800
-33.64933800 -11.48637800 2.08880600
-35.46101400 11.37879200 -1.25604200
-27.54114700 5.21964100 10.36077900
-1.12586300 9.11093700 8.23962400
-1.93528500 -10.52307900 -5.09338400
2.85370700 -10.90680500 3.52862500
-35.15648700 11.24005100 -2.38507100
32.59346800 9.94259200 -5.90893600
-25.93506400 9.71630500 6.96154800
-6.52412300 -10.38205300 10.29266400
41.36714200 -8.20612900 -9.97314500
37.39241400 -1.30360900 10.82366900
33.31109600 10.20428700 -5.96386700
11.22738700 6.79547700 -9.83429000
-42.85328300 -6.07245600 -11.42340100
-6.08919900 -10.66195900 10.18371600
-31.85355900 -11.61328500 4.69952400
32.72319000 11.14585000 -3.93420400
42.89390600 -10.66238600 4.67688000
-5.26129700 -10.26297000 10.23938000
-10.86022900 10.90764600 5.27636700
-31.81430800 -11.63908800 5.75073200
50.84302500 -0.84389600 -7.39019800
0.66332100 11.54822200 1.36181600
51.10408800 -3.01242100 -4.26745600
-5.43638400 -10.76142900 10.02624500
-10.56940300 11.01041000 4.87506100
50.58171800 -1.05438700 -7.79034400
-32.92650200 0.80840700 10.77508500
0.40356200 11.63159200 0.43402100
30.90223900 -10.85985100 8.68713400
-23.75393500 10.83578700 -5.11279300
-10.57244800 11.01982000 4.38964800
35.03521700 -10.96228100 8.83612100
0.43751600 11.57912200 0.54846200
-1.65730600 11.56657000 -0.89373800
19.73240500 -7.46030400 -10.61846900
-49.32853700 2.72935500 10.73236100
-46.72175600 -6.32696200 -11.45141600
-43.87583200 -11.05491300 -6.78320300
-1.89117900 11.56483300 -1.80285600
44.51204700 6.63762400 -6.01709000
-40.97687100 -11.63284700 3.30877700
-39.58551800 -5.38802700 -11.28912400
46.64952100 -10.20947800 3.37927200
-25.32749900 2.42224100 -10.96221900
-26.62854000 -10.81164900 -8.26287800
-40.29725600 -11.61884700 3.95159900
-34.48476400 -10.90956100 -7.26617400
-38.93935800 -6.26569700 -11.26141400
-25.79692300 3.50407000 -10.63183600
-26.34994500 -10.75817500 -8.93371600
-12.18001700 -11.20169400 9.67083700
-0.66651100 10.21107300 6.77111800
-32.65295400 -2.68888900 10.69451900
-13.11349700 -10.74696000 -3.61419700
36.24968000 6.08880100 -9.27258300
-5.51030500 10.95460600 4.87500000
0.29910000 5.63806700 10.23779300
36.08795500 5.31435400 -9.47027600
-50.59280000 9.32667500 1.05175800
-4.91483900 10.85430200 5.35968000
32.24746300 -10.29725300 -3.12670900
-47.00267000 10.14070900 -2.07006800
3.79252100 11.59307700 -0.22027600
27.23326500 7.88160600 9.88897700
2.64382500 6.87714800 -9.42633100
-31.87569400 9.62161100 7.60351600
3.66774500 11.55508100 -0.63793900
18.45622600 -9.91995200 -10.57910200
17.18925300 11.48866900 1.44848600
33.67359900 -5.67395000 -10.52819800
12.67967200 -10.53417000 -3.50622600
-20.91995200 -0.83437000 10.94171100
18.90098600 -10.07462300 -10.33197000
2.24299300 7.14404700 -9.01470900
-40.02420800 -10.44366800 -11.11029100
-31.49683800 10.80774500 5.17761200
-4.55759100 -6.46257000 -11.12799100
-36.18467300 11.42228500 1.31207300
-24.20698400 11.58770600 -0.78448500
19.12511300 -6.49037400 -10.68701200
-40.47621900 -10.60941300 -10.97576900
50.89000300 4.89983800 5.05047600
0.97685200 7.39582100 -8.78271500
37.72206500 -10.38496300 -0.88024900
-6.94635500 -10.83972200 -1.66345200
-8.96979800 11.32931700 2.93743900
50.31105000 -1.63620000 8.31951900
42.87231800 2.41481800 -8.92938200
13.37931800 11.26944100 -3.47497600
-8.55868100 11.32518500 3.00909400
19.60671000 -5.33676900 -10.66009500
1.75181300 11.55871400 3.09826700
23.21192600 -9.19330000 -10.65423600
-45.85420200 9.79809200 -7.08917200
45.44018200 -9.23990900 7.28894000
-5.06501000 -4.26097900 -11.02813700
11.51432100 -4.43210200 -10.72692900
-46.39546200 9.70141200 -7.25616500
48.49506400 -9.30478100 2.22161900
-8.00141100 -10.60322200 -6.73498500
-46.91257100 11.24837900 -0.65905800
-9.40046800 -11.04997600 0.66076700
-46.89352000 9.22356800 -7.95599400
2.77301900 -10.63122600 -3.18573000
-46.30063200 -10.65036000 -10.78424100
-45.99463300 11.26328300 -0.55871600
-12.92841700 -5.56015800 -10.92480500
7.96401000 -4.15105100 11.02960200
-45.76862300 -10.61110700 9.46093800
-47.83797100 -10.94002200 -9.03179900
48.64227300 7.58652700 0.31665000
-44.57656500 -3.62042600 -11.37085000
-32.20456700 -11.28820400 -0.38031000
23.50354800 9.23156700 8.75134300
-47.89099100 -10.96726600 -7.97406000
21.96741500 0.89296800 11.25305200
-36.51164200 4.98988700 -10.75640900
2.84569600 8.80083800 9.32202100
-31.33105500 -11.49019200 1.81738300
47.77749300 -10.19670800 -0.93402100
20.60414500 1.18616300 11.28759800
-34.75294500 11.42478900 -0.06384300
17.31490100 -5.46501400 -10.64251700
26.31012300 11.66379900 -0.25897200
21.06479300 7.92570200 -9.03680400
21.42704600 1.37976600 11.29943800
-50.66509200 -9.34035900 8.24359100
-2.44197000 -10.86821400 1.42590300
-46.60308100 -11.65099700 8.81585700
-51.08808900 -7.38766100 -5.86810300
20.57552000 8.02907800 -8.99108900
-41.37780400 -8.61625700 10.03613300
-51.23275000 -4.10563700 6.71026600
-48.84414300 -10.98415400 -7.72412100
-51.11238900 -7.01705600 -5.01757800
42.42925600 -9.77051500 -7.49951200
29.07595300 -0.26301300 11.28485100
-50.96963100 -8.25470700 -4.98864700
-51.24659300 -5.60660600 6.24890100
48.33442300 6.59863000 -4.27465800
27.57315100 -0.49883700 11.33935500
-44.88539900 -7.04454800 -11.30529800
7.78455400 10.97315300 -4.15905800
21.81086500 -3.71631800 11.21063200
-19.43046000 -11.03681200 -1.22522000
-45.33696000 -10.75912500 -10.73547400
-46.85435500 5.36066800 10.26861600
47.18007300 3.84669300 7.50628700
23.14586800 -2.05909300 11.21295200
-47.86998700 -10.84843100 -9.79913300
-1.70003200 -0.46897900 11.47454800
-41.67179500 -2.78740300 -11.36413600
5.93043300 11.28432700 3.48632800
29.62738400 8.50269700 9.01825000
-1.89561000 -1.16007600 11.35900900
-46.76872300 -11.02103800 -9.28637700
-2.28950800 7.86875400 9.60162400
-24.36804600 -10.89482100 10.10424800
-50.08200500 -10.69706300 -3.34014900
-50.99267200 2.93515000 -6.58978300
40.30130000 9.18433300 6.35730000
-38.09608500 -11.82331100 7.03253200
34.33426700 -10.64251200 10.15527300
48.63417400 -9.39883400 3.64239500
17.45356000 11.51101700 2.42755100
-1.89811700 -6.28479400 -11.08544900
-35.51630400 -2.47909500 -11.24578900
-22.92589000 10.09442100 7.21490500
17.37548100 -1.16959400 11.30487100
-38.24987400 -11.79649400 6.14630100
17.23089800 11.56597700 2.06860400
-34.33842100 -2.37693800 -11.23846400
-21.00496100 -10.65572700 -5.80377200
17.90593300 -1.93248100 11.26391600
-34.52463200 9.21857300 8.02111800
4.63663300 9.38291700 8.50116000
-47.04746200 5.83208500 9.81976300
-21.01978300 -10.76303500 -4.90332000
-10.26236900 1.19849800 -11.07275400
50.80492000 -5.41173300 8.29028300
-8.10043000 -11.16376100 5.61523400
-44.49320200 -10.98253600 -8.43444800
17.12120600 -5.10367600 11.17413300
-36.63351100 9.84800000 -7.44268800
-51.33823400 -2.67578500 3.37158200
-18.94332300 -7.00970100 10.55609100
50.41149100 -5.69710500 8.35559100
-20.38095500 -10.96678500 -1.95459000
-23.57095500 -11.19799400 9.95538300
-24.11328100 10.29695100 6.71014400
-47.66366600 9.51659200 6.43853800
-51.30942900 -3.09468100 4.62890600
-2.36605900 11.47358200 -2.02374300
-43.50860200 -11.80339400 8.68670700
-27.03446200 -10.11670300 10.08306900
-48.10199700 9.87439900 5.43969700
-24.56332000 4.51433900 -10.50000000
-3.22577100 10.85188700 5.45239300
-2.34121200 11.30939300 -3.41369600
-49.43475000 9.64910100 -1.29693600
7.32791900 9.55795900 -7.75244100
-47.73676300 9.96319200 5.01739500
40.06417800 9.98438100 3.54241900
-25.87844500 0.72353700 -11.08331300
-50.61568100 -10.21472500 -4.50647000
8.04467400 -10.39444400 -6.14758300
40.46537400 9.77989700 4.02569600
35.96841000 -9.94378400 9.22949200
-19.52285000 -10.64553500 -7.73181200
-44.36362100 8.57818800 8.26751700
-32.92224900 11.45288700 -0.64660600
29.93398700 2.10807600 11.18957500
51.22679100 -2.57229600 3.94726600
40.00975800 -10.49352100 2.30419900
-20.12062300 -10.74614000 -6.27734400
-14.67609800 8.92772600 8.68103000
-44.36544800 -11.18005000 -2.90808100
-47.24993100 9.87093400 -3.49914600
51.22325100 -2.10163200 2.89746100
-37.30192600 -10.98028200 -8.03826900
-19.51585000 -10.75481000 -6.52545200
-15.51564300 9.26276400 8.31225600
-6.04406400 10.83447500 -5.15325900
-40.97385400 11.37399100 0.70202600
-19.79895800 -10.74169500 -5.66461200
51.22986600 -2.01075700 4.02368200
-6.34308000 10.84328800 -5.19879200
12.62171200 10.80511700 -4.91937300
-24.29013400 8.32399000 -8.09851100
51.22330900 -1.53214100 3.57897900
-40.46975700 11.48333700 -0.01886000
5.04074000 -10.81918900 3.37689200
28.28173100 -11.04544800 6.78546100
-44.60440800 6.35218800 9.91424600
-4.50614600 0.48393600 -10.90338100
49.40211900 -10.22411100 0.17919900
-40.50715300 11.43311700 0.42047100
-20.85848400 10.41051500 6.54333500
-50.45235800 -11.07115200 0.65881300
5.23066900 -10.82467300 3.07421900
50.99623900 -6.46831800 7.42486600
22.80783700 -10.56830600 0.04754600
-14.41109000 10.56661800 -5.69531300
11.05019600 -9.79306000 -10.64074700
3.06468300 9.32021300 -7.48712200
5.08219100 -10.71994000 2.27569600
11.36195800 -4.86161000 11.03118900
12.08636500 -9.26657900 -10.68609600
0.06356300 5.60866400 -10.24603300
-18.81019200 11.17421000 3.71368400
-46.97592500 10.78167000 0.98522900
-21.83549700 9.72397200 -7.77569600
11.02661500 -10.22911300 10.46936000
-32.60216900 -4.44284100 10.55896000
50.94500000 1.90986500 0.53802500
-46.44866600 10.71223100 1.01074200
-1.09344200 2.32228500 -11.00396700
-46.05533200 10.57333000 1.13678000
24.34853200 -10.69849600 2.54449500
51.00366600 2.60575700 0.15625000
10.32226300 -10.31286200 -7.81152300
-5.23798400 11.20763300 4.48345900
-0.48580500 1.94859700 -10.91882300
-46.49492600 10.35200900 1.49377400
47.95211400 1.92168500 -7.43151900
5.02721100 -10.56286600 -3.61706500
35.08829900 8.64024700 9.09094200
10.20814500 -6.10475700 10.91272000
2.83437100 6.99502900 10.41345200
45.08341600 -10.44162200 2.77941900
-50.47209200 -4.03389000 10.09875500
4.49672600 6.47157900 -10.10766600
-50.97195100 -5.61299100 -2.58490000
-21.75403600 -10.79428900 -6.27398700
22.38641000 -10.93653300 8.72753900
14.14074100 7.97123200 9.99835200
-51.09607700 -4.77073700 -2.28411900
-37.85738800 7.05516100 9.79614300
-50.86388400 -10.53321500 5.72528100
7.93527900 8.47643800 -8.76214600
-49.96740700 -10.58505200 -6.68945300
49.33940500 7.60852800 2.20867900
28.95548600 10.62944100 -4.38757300
-38.92862300 6.67370600 9.89959700
8.66091700 8.13992300 -9.02893100
-13.53451300 9.21937000 8.39099100
-50.41865200 -10.40670800 -6.82440200
-41.54349100 -10.93476500 -8.50598100
27.87393000 10.44174400 -5.83435100
42.03419500 9.56652500 2.41107200
-29.18869000 -9.98834200 10.06286600
-33.74393500 11.48410600 0.20758100
39.26196700 -9.65116700 -8.97021500
8.90337400 6.98378300 10.43640100
-40.16329200 -10.93587500 -8.87652600
30.57852600 11.45346100 -1.96728500
-33.14387500 11.50411400 0.09283400
-10.33494900 3.25411200 11.14276100
51.08788700 -3.31240100 7.38024900
-23.79255300 -1.54199200 10.90826400
5.94520700 11.60876700 -0.89312700
-39.12633500 -10.39444700 -11.05743400
31.56202900 11.42404400 -2.82312000
-8.76500200 10.04963700 -6.76287800
-11.44120700 2.97256900 11.15319800
10.59405300 -10.13696300 -9.89965800
5.80676300 11.47214900 -1.58502200
-39.02600100 -10.61111500 -10.82208300
-8.73159400 9.82970200 -7.28399700
-27.48837700 10.33537700 -5.25537100
47.52880100 -5.51850800 8.31958000
-49.68116400 -6.11083200 -11.40759300
33.63657400 -9.68486800 -9.98730500
-6.37407800 -10.44756700 -10.20660400
-35.96859700 -10.92570500 -7.38452100
-27.47615600 10.09963800 -6.94897500
-25.83564800 -10.10543400 -11.00781300
35.67124200 -10.62225400 8.86364700
-12.14516100 -2.44981800 -10.98284900
18.31947100 10.46161400 7.01464800
51.00042300 2.56781200 4.14410400
-3.62779600 11.45196900 2.12982200
13.74278800 -7.76546100 10.81048600
6.45348700 8.41148000 9.51879900
-12.29671300 -1.20816800 -11.00067100
22.40018800 11.68292200 0.55127000
-13.82638800 8.08750700 -9.35333300
-4.45077900 10.03454400 7.39923100
8.13913300 11.51460500 1.82757600
-2.88339700 1.96749300 11.22741700
51.06439200 -0.34800600 -2.34277300
5.40614600 -9.87564800 10.01196300
-2.12272400 1.55861900 11.25695800
-7.28215700 11.05938000 -4.20129400
-49.12401200 -11.47269400 1.60156300
-25.78061300 -9.90414000 10.12585400
-11.09045200 -11.42955800 9.27636700
6.77673100 -11.03664600 6.08764600
17.43720600 -9.51622600 -10.64556900
-47.92775700 -11.09887700 -4.95922900
23.85677500 -2.88739000 -10.70898400
-47.69887500 -8.77650100 -11.43640100
10.34964100 -10.42547200 -4.44824200
39.81082900 -10.32167000 9.06005900
-51.17884100 0.22936600 9.49444600
4.09966500 0.98861500 -10.85278300
-12.28046400 -10.87006400 -2.34307900
44.64221600 -6.16398300 9.16394000
-51.27921700 0.38710000 9.19482400
2.08989600 4.11140600 10.82269300
10.16834800 -10.44496500 -5.41931200
-40.64052200 5.58453800 -10.58239700
3.32538900 0.93709900 -10.83770800
35.51913800 -6.61179500 10.76171900
43.29977400 -5.17794000 9.63031000
51.29838200 -4.56616800 0.73901400
9.46727400 -10.44692400 -4.76226800
-41.71652600 5.82605700 -10.48309300
-50.86309100 -7.16617200 9.07635500
18.99793600 10.69910600 -5.65844700
21.13153800 -7.46296300 -10.52447500
51.34266700 -5.03001200 2.38623000
-50.99141700 -9.17015800 7.32171600
9.54465900 -10.45462200 -5.26379400
22.01335300 11.45712700 2.26385500
-50.83835600 -9.47691000 7.63238500
2.51855900 -7.17594500 10.73315400
-47.36933100 10.04666500 4.99340800
-38.91125100 -11.17579300 -2.93963600
-50.99144700 8.30308200 3.49365200
2.95421900 -4.89385600 -10.86969000
-3.19989900 -6.30832700 10.76861600
-50.04857600 -11.41013300 5.13580300
-8.28118200 1.48302700 11.24865700
-49.70145000 6.71308100 -10.07922400
24.10254500 -10.20191600 -8.64202900
-50.85760900 1.41003400 -8.89166300
-2.60801800 -7.01818500 10.72534200
-7.53636800 8.53547900 -9.01434300
-49.38686400 -9.89283400 -10.69445800
-21.98018100 7.13561200 -9.66302500
-51.07766300 -9.07413100 3.21240200
-42.95908700 4.88342700 10.47686800
7.79289500 -9.74201600 -10.71069300
-50.83818400 8.16347100 7.21997100
-32.24935900 10.14630900 6.78015100
45.18302500 -10.32023000 4.89581300
7.82073100 -10.13561200 -10.48632800
-49.37744900 -11.51326400 6.66217000
-51.02405200 8.29182100 3.08154300
-50.87230700 8.29048200 6.78662100
23.24154700 2.19876000 11.24719200
-9.31621000 8.04261400 -9.46325700
37.58483900 -10.66064500 2.84198000
-51.40191300 4.36973600 0.06463600
7.98634500 11.47337600 2.80676300
49.56950400 -8.65008800 2.85302700
22.56509400 3.07469700 11.31292700
16.01902200 3.07660100 11.17358400
41.85690300 6.72815400 8.48425300
-43.35138700 -8.36210300 -11.42248500
7.81922400 11.41499000 3.55767800
-17.38921400 11.24990800 2.91333000
3.79706600 9.33974600 8.62115500
1.68929500 6.10970500 10.31408700
-11.31952600 -10.80859000 -3.77966300
51.12550000 -7.75685500 -1.85907000
-17.60727500 10.74733000 -5.31884800
-35.17533100 -11.02779000 -4.75787400
50.56409500 1.10932000 8.28637700
15.23012600 -11.10098100 9.25561500
-10.83872700 -10.72931300 -4.33221400
32.37666700 -5.86961200 -10.52252200
29.67101700 0.06667300 -10.54699700
-34.02800800 -11.18520400 -3.15948500
26.63662900 -10.65226700 8.98522900
-24.62165500 -10.79130200 -6.15264900
34.14489000 11.22542700 4.05090300
-34.52069900 -11.10411800 -3.71917700
-44.49445000 11.24047900 -1.28106700
-13.52156400 11.23810400 3.70172100
29.15098000 0.43099200 -10.51770000
-50.00383800 8.12052200 -9.04223600
-18.64719000 -11.05338700 -1.25000000
29.67485800 -10.82534300 8.64721700
43.29256100 7.49240800 -5.85290500
3.00292800 1.80588200 11.12786900
-51.05606100 4.95878200 -5.94964600
-7.79085100 -11.34056100 9.36694300
-31.05833200 9.36019300 8.06866500
-49.06330900 -7.62002900 -11.39489700
-46.84275400 -11.46907800 0.94989000
-8.88771900 -11.35327000 9.57379200
28.69578000 10.10347700 -6.45709200
-51.05366900 4.40483100 -5.90979000
-14.74837900 -11.31919100 5.15655500
-2.70146700 8.17030200 9.62420700
40.25924300 -10.17835700 -3.27160600
-24.20592900 5.86761100 10.46392800
28.64221400 9.92639200 -6.83313000
-44.26923800 5.82872800 -10.44232200
-8.24373200 -10.74739100 -4.40350300
45.18424600 -10.28972500 -0.22210700
-48.02620300 11.06690600 0.22814900
-45.60550700 5.43918200 -10.51385500
31.78996100 -9.11883400 10.45031700
49.72545600 6.28118500 6.62365700
26.12945200 -10.19258500 -5.52496300
51.28516800 -7.22020700 -2.81286600
-50.28556100 -9.35620900 -9.09997600
-46.43471500 7.64463400 9.19220000
25.39930500 11.61816800 1.33544900
-10.91614700 -9.33878700 -10.91766400
19.11020100 -8.96631600 -10.57482900
41.55216600 8.50665100 6.20532200
51.39802600 -6.80125900 -3.00476100
25.56299200 11.67319100 0.73596200
-2.27121100 -10.41316200 -7.72131300
-51.02290000 -8.22037900 -5.83563200
43.83630400 4.04079100 -8.02642800
15.43469400 -10.26432800 -7.05432100
-39.86584100 7.10512500 -9.98107900
18.68466200 9.42548800 -7.72601300
5.06148600 11.20756500 2.96917700
43.03432500 5.46563400 -7.78595000
-24.73064000 -6.64826200 -11.24877900
-4.10755100 10.37553000 -6.16815200
42.70089000 8.54530000 -4.62280300
18.79415100 8.84593800 -8.22039800
-4.18844400 4.98212900 10.97436500
42.17226400 6.38886500 -7.75640900
18.40209000 -0.99262100 11.34533700
-10.00542600 11.35800600 1.50445600
-37.04227800 -11.57649600 8.07617200
42.05246400 7.24044500 -7.33575400
32.55273800 11.30492400 2.78460700
51.32902100 -3.88225700 -0.12133800
-49.88813800 3.56698200 -10.65698200
35.45619600 -10.73503500 4.83050500
20.95264600 5.01120900 10.60260000
1.98306000 11.47082800 -2.65075700
-42.44618200 -10.90031800 -9.04205300
-9.92021300 11.34203000 2.68975800
-19.78951800 -11.14263900 -0.04290800
-27.42178300 6.75270500 -10.03656000
-47.47580300 10.26276800 1.58410600
2.51829000 11.36618800 -2.95495600
-9.66011700 11.32165100 2.01757800
-50.21279100 6.65874900 -9.21319600
-28.76668700 7.08225300 -9.99755900
-9.40532000 11.32535400 1.35742200
14.28368000 7.32958000 -9.66674800
-27.16967800 -10.80126200 -7.45977800
-10.44416600 10.27481500 -6.38391100
20.43171700 0.13802100 11.25500500
-50.09306000 6.82330700 -9.53906300
50.82509600 5.95002900 -2.68280000
15.22024900 7.46364700 -9.44317600
21.04745300 0.90712100 11.32421900
-23.23172200 -6.44870400 10.47674600
50.83390800 2.05427600 -7.22692900
-51.32520300 1.77203400 6.94427500
22.73279400 -5.83956400 11.11438000
49.83285500 -8.45639000 -3.41217000
25.20640200 -10.51371800 -0.18493700
50.75024000 6.42250600 -1.18029800
-12.96999300 5.49073200 -10.50042700
-51.36626800 0.90972100 -2.69921900
-42.26014700 -11.47660800 3.02417000
-51.29014600 1.72230900 8.07159400
21.61987500 8.73568600 -8.30383300
50.83928700 5.78206000 -0.95556600
-22.72767600 11.53994200 0.66638200
-17.88990600 -9.36433000 9.79657000
-17.94757500 10.36112400 6.48907500
50.79174000 6.04943500 -0.65008500
-41.21740000 10.42426700 -6.04370100
-45.07270100 -10.65475100 9.51355000
32.07266200 11.08279100 4.91717500
-6.65440400 -10.98269700 2.56134000
8.58729600 8.96901200 -8.38586400
-45.66156000 10.53600300 -4.52392600
-31.52692800 -11.51420200 2.99353000
38.59161400 -10.66817900 3.96130400
-31.99955600 -10.91257900 -6.53106700
-8.57232000 -6.81554000 -11.20385700
-46.47412100 -11.66779300 5.33520500
-16.67394600 -10.82141500 -6.24731400
34.72937800 -10.90350000 6.12768600
1.58311500 -5.51791800 -11.14093000
30.24861100 -10.26594000 -5.16449000
-7.93068400 -6.88089000 -11.18811000
-45.72478100 -11.77142000 5.84863300
-16.17301400 -10.80425300 -6.24932900
-51.05938000 -9.70937000 4.64233400
-10.97705800 11.13009500 -4.38397200
31.72022100 -10.30443400 -4.22888200
-7.18662800 -6.14257000 -11.20227100
43.33670000 7.30706000 6.69842500
-51.01982100 -9.96571000 3.98822000
-19.11278200 -10.57541300 -10.03155500
-11.39003500 11.12591000 -4.23925800
-7.12961200 -6.97759200 -11.03137200
-31.72002400 -4.45819100 -11.29901100
-6.43281000 -1.65155800 -11.02252200
-51.10597600 -9.47103500 4.11999500
36.77516900 10.68611000 -3.72522000
-51.11157200 -9.74614000 4.26574700
-49.94866200 9.32057600 -6.39263900
34.87461900 11.35905000 0.31616200
-7.34028200 -7.98675500 -11.16894500
32.45534500 -10.49123000 -1.62793000
-50.21312300 9.07526400 -6.31695600
-27.11294200 -10.95114900 -5.59027100
3.61656000 10.35210300 -5.62097200
27.71680500 -11.10213600 7.31359900
9.86493100 -1.11101300 -10.77600100
-50.97302600 -4.52615700 -6.03369100
51.23464200 -7.24878900 -3.65393100
11.74649500 -11.00397500 9.97619600
-15.44789100 11.42802800 -1.37847900
-43.15530000 11.22503500 0.57196000
-38.60087600 -11.70616900 5.20648200
-50.92270700 -4.73838000 -5.75238000
-27.07414200 -4.11394100 -11.27545200
-28.31015000 -11.10159700 -3.56665000
44.24472000 8.82864100 -1.97302200
-42.85863500 11.27688800 0.27868700
-14.41531800 11.49351700 -0.12091100
-50.95067600 -5.59120200 -5.13006600
-48.68449400 7.48932600 -9.72961400
-42.64501200 11.34835400 0.58477800
44.57630900 8.62784500 -0.15637200
-10.00946800 -11.35176800 7.04962200
4.54379600 -0.23768800 11.35394300
22.04909300 -10.50666000 -1.89636200
18.29107300 8.10646700 9.83502200
30.04427700 11.48341900 2.34045400
-49.14303600 4.07992600 -10.91748000
25.87688100 -9.79604000 -10.22259500
50.95505900 4.26512900 -0.01232900
16.23214000 4.82233800 -10.38507100
51.05690000 -0.36205500 6.48510700
-5.68241500 -11.10154700 3.45159900
-23.43664200 -9.91976900 10.29174800
-30.38476900 -9.48612600 10.09936500
28.56132100 -10.78704500 3.88171400
-50.70018800 -10.83152400 4.11438000
39.78202800 8.52829400 7.72039800
-40.04594400 10.16737700 -6.77758800
50.74196600 2.40180500 7.90716600
-30.01687800 -9.19388200 10.31475800
-37.14630900 -9.70978900 -11.24768100
-13.51237700 7.26514900 10.16900600
50.83093300 2.06206900 7.78784200
11.01975400 11.55428700 -1.33258100
35.02069100 10.53064600 -5.42962600
-26.48852000 -11.26832200 -0.99163800
10.00627500 11.07111200 -4.24762000
51.04930900 -1.79203100 -5.84710700
35.59694700 -8.82258000 10.05731200
-51.18492900 -2.70542500 8.88885500
10.33432000 11.29962700 -3.72430400
-4.92458100 9.08973600 8.64685100
-36.76334000 1.16499700 10.80023200
-22.89180600 -6.20769100 -11.33319100
13.49676800 -11.04990000 7.32049600
43.72055800 2.63225700 -8.53607200
-51.16294100 -9.67981300 2.74981700
10.59521700 11.01784500 -4.33770800
8.08204300 -2.77510100 -10.81549100
0.32400900 2.50135500 11.28350800
-7.53126600 11.16267800 4.18542500
-22.28886400 -6.84205600 -11.29583700
31.94139500 7.09553200 -8.36883500
3.53645600 11.31079500 3.27246100
11.19825200 -9.94812400 -10.41772500
1.51147900 1.99869200 11.15814200
-7.89166800 11.16078900 4.34484900
-23.00568800 -6.94032300 -11.32092300
-32.89427200 4.79718400 -10.64727800
11.80966800 -11.09487200 7.83490000
-33.59350200 -2.17551400 -11.25360100
15.00972200 -10.94534100 6.20886200
13.29718000 -1.58093800 11.42321800
-28.12130700 -10.90366000 -6.64129600
50.87709400 5.58997900 1.19274900
-12.27970900 -5.08924300 10.84210200
13.76328500 -11.05359600 7.65472400
-29.86264400 -6.55295600 -11.30682400
-22.78058200 -10.86434200 -5.64288300
50.74843600 6.34875200 1.64703400
13.44875400 -11.06751400 8.48626700
-48.33665100 10.59829700 1.02453600
-15.55020900 -7.02682500 -11.07952900
10.98381700 8.26845700 9.72387700
-23.72044000 -10.82339900 -5.46258500
50.60243200 6.76681600 1.01733400
14.56096600 10.41623300 -6.01403800
-37.14140300 8.90843400 8.36206100
10.65064600 8.69619200 9.37335200
18.45499800 -10.77388400 3.45819100
-27.12123900 9.90656300 6.26922600
0.92843600 -2.07838400 -10.86499000
-7.96585700 8.14764000 -9.37701400
2.87771100 9.19249000 8.77813700
-27.06072400 10.80737500 5.31835900
10.81832500 9.27589500 8.82385300
34.37107100 10.39937200 6.65197800
-21.79246700 -4.76821100 10.75390600
47.21920000 -10.27330000 -0.34808300
34.18102600 -10.49337800 0.04418900
-26.65771100 10.43488900 5.96148700
-48.37138400 0.00214000 10.50738500
-29.60761100 -11.33949300 0.91204800
-50.83234400 -2.59951800 -9.56042500
-18.94914200 8.27399600 -9.14483600
-25.64343300 10.60885400 5.99292000
-30.27994500 -11.34099600 1.17681900
-25.99355300 6.32025000 9.57904100
2.57781100 3.26446000 11.02337600
-10.92947800 3.20855700 -11.00457800
28.81355700 -10.92053900 6.32482900
-0.94962000 -1.48783100 -11.12530500
-30.31937000 -11.21466400 0.34960900
45.77447100 8.10510200 -1.86639400
-4.71821900 -11.09023100 9.54284700
-11.60946200 4.57557300 -10.93090800
-1.44198300 4.06986600 11.04864500
-50.51436600 9.88612700 -1.27594000
31.11622800 -11.04943000 6.84027100
3.31780000 10.76912700 -4.23883100
-5.59853800 -11.17275200 9.50598100
-0.97575000 -10.78988800 9.44799800
-11.01034700 4.41231200 -10.95092800
20.12506700 6.56852700 10.46801800
-51.31146600 -2.62080400 1.39325000
-7.10447300 -9.89086500 -11.06353800
40.86788900 -10.38883800 -2.08203100
8.66094400 11.45062700 -1.52233900
-19.36423900 -9.13274800 -11.07977300
19.77354400 11.49514500 -2.72186300
-14.77058200 -8.73233400 10.53698700
-38.33496100 10.59134500 5.35961900
44.93618400 2.18413100 8.73297100
7.39148500 -11.10301200 8.45459000
24.82825900 9.01454200 9.02130100
-44.64386000 10.59038500 -2.93072500
4.12763600 -10.85497300 8.54986600
-39.41862500 10.44788200 5.53991700
-19.04045100 5.67627100 10.85015900
24.97783700 8.75785700 9.25866700
-44.21536600 10.79012700 -3.89666700
51.04815300 2.11743200 -0.68304400
15.37161300 -2.24557600 11.33685300
42.13347200 -10.49844400 6.88989300
-23.31911800 6.21370100 10.50878900
16.97265600 -10.66885200 10.02307100
-17.46739800 -10.17197800 -10.92028800
-46.31927100 8.93470000 -8.46472200
0.15054200 -10.44274100 -6.53002900
-25.41523000 1.64671300 -11.11450200
-2.91598700 3.42427400 11.16473400
7.63804700 -11.23356100 10.22009300
-17.77648900 -10.38040200 -10.89306600
-51.05862400 -1.00255200 -4.65948500
-50.55714400 1.83391600 10.34539800
-49.66037800 -0.35411800 -11.43072500
-14.73842900 9.91931900 7.45288100
7.68883000 -11.05043000 10.44543500
46.35666300 -8.35824900 -8.51300000
39.88708900 -10.01344100 -6.60974100
6.21840500 10.13506200 7.42865000
42.68381500 9.16092900 -3.39117400
-1.39850400 -7.55117800 10.86035200
-30.21542500 -8.81998400 10.40142800
7.80520800 -11.20944600 9.21258500
-13.01812200 -11.07944900 2.28295900
42.25610700 9.59492700 -1.73217800
1.52526100 -9.18199200 -11.05822800
-37.35804000 11.21778700 -2.98132300
51.03470600 0.31572500 -4.59332300
42.11140400 9.55270000 -2.79986600
8.46554600 -11.24941300 9.86554000
29.35335200 11.26728200 3.93188500
2.85672100 10.10011200 7.00579800
9.27127600 -11.22094900 9.52819800
11.21806100 -8.50677500 10.67053200
-43.76229100 -11.18427700 -1.52856400
-3.31979600 -10.67892500 -3.60937500
29.78665500 11.34178400 3.54699700
-45.14697300 -0.30680500 10.62164300
-26.07259200 10.55723600 6.01141400
-34.49771900 11.23576000 3.03833000
-2.12354400 -10.57958200 -3.54827900
30.32823600 -9.93881800 -9.50634800
6.61321300 -5.65638000 -10.84027100
-51.01456100 -5.24994700 -7.08502200
-49.61498300 8.99358700 -2.28454600
50.73361200 3.63620500 -7.14440900
46.46766700 -5.48143000 8.75921600
-8.50380700 11.18055200 3.75006100
47.66119000 -9.44052300 5.74395800
50.95596300 -8.21768100 4.63501000
-0.69083400 -2.39474300 11.18249500
34.12376000 8.21723400 -8.08648700
41.69400000 -10.32593600 -0.06671100
-8.99923300 11.11207400 3.74279800
51.10012100 -8.16512500 4.93682900
45.73355500 8.15937500 0.55188000
-34.89619800 3.30762100 10.77154500
-11.50925400 10.36558000 6.63665800
37.80096400 -10.63484600 5.10858200
37.85621300 10.78943300 1.18963600
51.11954100 -7.47319300 -3.96655300
15.38672400 -10.94131700 5.72100800
-2.65354600 3.89023400 -10.69201700
7.37597800 -10.71120500 0.43866000
-44.94362300 -10.79616200 -10.79730200
42.08903100 9.82206700 -0.15362500
9.31513200 11.55132500 -0.80169700
-48.18767500 -11.61584900 8.90161100
-44.81893200 -10.82361600 -9.82684300
3.23753600 -7.18280800 -10.84643600
8.49148900 11.52963600 -0.80383300
-17.37635400 -10.57359700 -8.96221900
17.53901900 6.74030900 10.51257300
-46.96820400 7.04236600 9.29272500
-30.57796100 10.82619100 -4.90466300
-11.04632800 -6.21167800 10.82586700
17.92261900 -9.82168400 -10.51159700
27.37337500 7.59521300 -9.13122600
-39.02970100 10.23996700 -6.57702600
48.30634700 -9.34357700 -3.74023400
-47.84739700 7.54019200 8.96325700
-10.90475700 -6.73198700 10.84021000
27.39943300 8.32500100 -8.59515400
33.50393700 -10.87503100 5.91626000
42.66773600 -7.65587600 -9.84491000
-37.97080200 7.78313400 -9.65985100
-50.28565200 -5.67323700 -10.56420900
-49.75729000 8.28144100 -9.27301000
30.44432100 -7.66422900 10.85565200
33.58057800 -10.90366700 5.53472900
22.12504200 -9.36490400 -10.66912800
-50.86257600 -10.32241800 0.11895800
-50.17303800 -5.21372600 -11.06707800
32.71148300 -9.91733200 -9.23736600
50.51710500 0.36726600 -7.68359400
-0.23283200 -10.82099200 1.02105700
33.42301600 -9.98366400 -8.88507100
-22.45253600 3.11518900 -11.07739300
-20.76262500 3.58961300 11.04950000
-45.28551500 -11.48914700 1.33795200
23.11079400 4.03514100 -10.37994400
-1.24810300 -10.79153800 0.45849600
-21.59809900 7.81694400 9.66534400
8.75586700 -10.46428300 -3.74554400
0.46567500 11.63777500 -0.45849600
5.73241800 -9.25516500 10.57244900
18.95142400 -4.22840700 -10.67108200
17.04241600 4.13820600 -10.56707800
41.75806400 -6.55116400 9.20306400
-10.61732300 6.30781400 -10.25994900
-51.47461700 4.30448200 1.63861100
13.13540500 10.41017200 7.15362500
-45.80137600 0.11309800 -11.31286600
-8.33661800 10.37199000 -6.25695800
8.86340000 10.38621300 -6.23248300
-50.14650700 9.91214000 0.98663300
13.83767100 10.63668300 6.95349100
10.48706200 11.31508800 -2.98883100
38.43245700 -4.86643200 -10.29608200
-4.08370300 2.22177500 -10.88995400
9.72830200 10.47422500 -5.58526600
18.03270000 1.42163500 11.40594500
15.83488800 -10.20869800 -7.72064200
-32.80097200 -2.60830300 -11.32238800
38.82795000 -6.79964300 -10.28222700
2.72065100 4.28731900 -10.32818600
14.62785300 -10.17021800 -8.51501500
18.65695200 11.41037600 4.10784900
51.02362100 -3.63710700 -7.52484100
-30.10692200 -11.68142300 8.12103300
2.49120400 -10.66126800 0.72119100
-14.41470100 11.27054200 3.03997800
-29.52431500 -11.62647200 7.27557400
-33.42784500 2.78778100 -11.06024200
51.06068800 -2.51155600 -7.21563700
45.58833700 -9.99319200 -4.19122300
-14.50104100 11.40688000 2.78100600
2.48809600 -10.59601600 -0.83868400
-30.51599500 -11.71752900 7.57605000
-20.45942300 -8.10012100 10.09570300
33.92898600 -9.75989500 -9.78265400
23.60083000 9.69426700 8.21929900
51.05099900 -2.25945000 -6.68719500
-45.20064500 -11.74269100 6.49554400
-4.14368400 -10.30648400 -10.31750500
-34.97103900 -8.85974100 10.18927000
31.21384800 -10.82718300 5.21472200
-42.88191200 11.02967800 -3.65905800
47.05255500 5.09579400 7.02636700
5.89310100 -10.29101200 -9.44122300
-3.30114800 -10.26408000 -9.28356900
11.35524000 9.86065700 8.03051800
-31.26670600 -11.26265300 8.27441400
21.20642500 -10.16162300 -9.65594500
-49.53512600 -11.19076900 -2.77465800
-46.50320400 10.00739700 2.26019300
48.63374700 2.19416300 -7.22467000
-36.16714500 -3.31140100 10.58044400
-30.42293500 -11.57460000 8.29834000
8.04710600 -6.79922500 -10.82806400
-22.53063800 -11.50110200 9.47705100
23.11320700 11.44731400 -1.75982700
51.00790400 1.69465800 -6.61810300
19.19368700 -10.95472700 7.58831800
49.51690300 -9.42222100 0.61993400
32.38301800 -8.08995400 -10.42694100
-25.76926200 10.86056100 5.10711700
51.03756000 0.59408100 -6.33197000
10.41445100 -1.63377300 11.35986300
-29.11646100 10.87247100 -3.45623800
51.32176600 -6.75589700 -4.43200700
13.02611400 11.44903200 -1.87127700
31.68736600 3.46239100 -10.31750500
9.76933900 -1.38205700 11.26239000
-2.22319200 6.74086600 -10.08319100
1.77468300 11.57609000 1.62780800
-27.15592600 6.03939400 9.89233400
32.11820200 2.62321000 -10.39776600
-45.38267900 -11.11921300 -4.91656500
41.35901600 -10.46420800 1.62878400
-11.67207400 -6.67075000 -11.06237800
28.05352000 11.46307400 -2.45037800
43.46197900 -10.59174100 3.73834200
24.83877900 -10.52069500 -1.36523400
-45.27470400 -11.05832700 -5.58166500
-32.86435700 11.14118400 3.49011200
30.48851000 7.87361700 -8.11737100
-28.12174000 11.35165600 -1.33685300
-28.19969000 6.57467300 -10.22515900
-27.63164100 11.24009300 -2.01342800
-46.07736200 -11.56238600 9.08349600
30.80816300 6.94947500 -8.60632300
-48.36288500 -11.04640200 -5.79797400
-29.14028200 -0.35546900 -11.13147000
0.89192000 11.57787200 1.01428200
49.44579300 -9.97089600 -0.81567400
9.86169600 -10.51186800 -1.29266400
-31.68873000 7.84019500 -9.46142600
51.33022300 -6.11201000 0.70007300
-24.00251000 11.42633800 2.82586700
20.91713700 11.40425200 4.00750700
42.44592700 5.98772700 8.56341600
51.32013300 -5.27821400 1.30249000
11.79901200 10.81798100 -4.97277800
49.81761900 7.56841500 -1.70422400
-50.44789900 -2.15282100 10.21362300
-15.99050600 11.07651400 3.94006300
-49.87424500 -7.57725100 -11.00982700
51.36830500 -6.15885600 1.10748300
-33.79715700 5.87435500 10.46411100
-50.70682900 -2.43763700 10.13513200
-3.93378300 -11.22184200 9.02899200
1.16923100 7.09584600 9.45959500
-17.38667500 11.12251900 4.08093300
-50.09292200 -6.90417500 -10.78814700
-1.79018800 9.11156500 -8.16772500
5.74182100 -10.48649600 -3.78533900
-3.96418000 -11.13491800 9.42321800
-25.25227900 10.51625400 6.17309600
-9.32596100 -11.43317000 9.11401400
-3.73121700 -7.81824500 -11.06909200
-37.00818600 2.53963100 10.76849400
-0.37054500 5.36475000 -10.45764200
-5.18688600 11.37415300 0.48217800
-49.55030100 -10.86119800 -5.61322000
-3.66561300 -8.96335600 -11.07391400
40.45798900 9.79694000 -3.20971700
-4.84116600 11.35035100 0.96075400
2.24820200 -10.30849100 -10.51367200
-28.68750200 9.44425600 7.88299600
-11.05511200 -10.99460600 9.95904500
-4.46689000 11.40749400 0.46020500
4.13680800 -3.10346600 11.11114500
-49.87379800 -3.07089600 -11.34631300
16.01280200 -3.12154800 -10.61578400
-48.96218900 -11.12201300 -4.72772200
19.77503600 2.16266900 11.06530800
49.83282500 7.43931500 4.23284900
21.65994800 -11.00918800 8.72180200
20.29517400 11.71962000 0.24273700
50.28982200 6.52884700 5.07916300
15.24326600 6.69668700 10.66174300
50.15401800 7.26136600 3.60937500
-23.19743000 10.54192900 -6.03503400
50.36869400 6.26543700 4.49719200
-50.80249000 8.18483700 -3.14105200
20.34110300 11.56801800 0.55963100
41.74727600 8.81407900 -5.18237300
-33.48347500 9.93210600 7.16821300
-48.17542300 9.74942800 -0.13262900
-28.47843600 10.73501400 -4.86328100
30.51382600 -6.74816500 -10.46679700
13.39411400 7.64687900 -9.36230500
5.35123500 11.65761700 0.49237100
-26.18690300 -9.47605100 10.28613300
1.56473000 11.58759700 -0.29486100
50.62160900 -6.41460500 -8.38281300
31.29347200 -5.92207300 -10.46026600
34.58642600 -10.49129500 -1.44085700
-1.46625700 10.32475700 6.90820300
-46.66496700 11.14392100 -1.31268300
6.72503800 -3.08709000 -10.94213900
35.11817900 -10.45880300 -1.08752400
8.59832300 10.69802500 6.01470900
-14.81801200 -10.27067600 -10.56512500
32.55149100 -10.69957800 9.71148700
-2.24087700 10.08960900 7.39184600
12.99117900 11.10930200 4.69287100
-20.15860600 2.41339900 -11.14636200
25.68811800 10.70912900 -4.90576200
-14.09300600 -10.28208900 -10.44000200
-46.04563900 7.21157500 9.48767100
50.61268200 5.50945900 6.45892300
0.52334400 -11.12683300 6.47955300
-35.97120700 7.60369100 -9.72711200
-45.82871600 10.01104700 3.09356700
-14.18578700 -10.39373400 -10.04693600
-43.48721700 11.10111200 0.98071300
-49.76319900 -11.35893600 0.65728800
1.74352400 -11.05928000 6.66967800
-45.71611800 10.14494300 3.59582500
-43.71166200 10.96229600 1.21075400
35.94643800 10.97231100 -3.12115500
4.35888400 -10.31185200 -8.31512500
51.43979600 -7.55771500 0.48645000
2.14853400 -10.94720800 4.97991900
-19.77392600 4.20475000 10.87506100
-42.49576600 -11.33323700 9.16955600
51.47779100 -7.21675800 1.28686500
2.06040400 -10.91608400 5.25848400
47.92455300 -9.56859000 -5.01647900
-38.64814400 5.91974600 -10.36877400
10.56171200 11.57130600 1.89904800
38.58644900 2.01943700 10.31170700
-50.96623600 -7.86842700 -3.08923300
39.34930000 6.65093600 -8.36468500
39.60573600 2.33020100 10.14624000
-4.46366800 11.14648000 -4.05035400
31.47283700 -10.87509700 8.74023400
50.73021300 -1.98074600 8.27764900
-51.04793900 -7.81934700 -3.98474100
32.84222800 0.03512000 -10.42895500
38.92985900 7.55730800 -7.48303200
50.18383000 -3.01945100 8.29638700
-3.76013400 11.37989100 -2.50451700
30.81782300 -10.20900000 9.15325900
-41.76145900 -11.83965300 7.78167700
-51.24478100 -2.55752900 -1.36132800
-47.79220600 5.36519600 -10.58502200
-3.78331900 11.47828700 -2.05053700
50.93848400 -3.99028900 8.24963400
18.63952600 -10.99467100 6.95819100
49.62760900 -8.99107000 -4.74865700
-48.97463200 9.77783200 -5.25921600
-29.91511900 -11.47810400 4.31085200
-3.19754300 11.45503700 -2.34381100
2.57520800 2.36560600 -10.71545400
-12.50630100 -4.56090500 -10.93280000
50.70849600 -4.14574000 8.35168500
45.33032200 7.80969300 3.80053700
38.53251600 -10.16661500 -5.41961700
-38.18575300 -1.28028500 -11.26995800
-47.01435100 9.79230100 3.39587400
10.76781800 -6.16762500 -10.75134300
-13.01344700 -9.16392100 10.46081500
-10.81407100 -7.63500800 10.72851600
37.97501400 -10.12661000 -5.71398900
-19.35176700 4.75458700 10.94781500
35.85930300 -10.83445000 7.14489700
-51.17394600 -9.41983000 2.48468000
-49.25128200 9.04857600 -2.20617700
38.47949600 -10.15240900 -4.92968800
46.62460700 -10.11565400 4.81927500
3.17199000 -6.25595900 -10.90582300
-23.83314300 -10.84968200 -3.61462400
-33.34569500 -11.68268600 6.53967300
-47.09405500 -10.48213600 -11.13659700
47.22419700 -10.06844500 4.48809800
-22.83367900 -10.88099700 -3.65246600
-3.49507500 11.51251600 1.20825200
40.40966000 -5.05878400 9.90319800
-43.68204900 -10.00191100 -11.22595200
-44.52296400 10.63653000 4.23449700
8.90748200 11.53758500 3.74084500
-15.91647200 3.54749100 11.26031500
41.18233500 -4.06399700 10.06738300
48.20999100 -9.66600300 4.73144500
-50.84959400 9.51492300 0.08233600
-3.97406700 0.75920100 -10.91943400
-13.78030500 10.58506400 5.70794700
28.02665700 -10.52496400 9.09478800
38.84162100 -9.95999500 -6.97430400
31.83342900 -4.87927800 11.03936800
45.80194500 -9.57594700 -6.45752000
47.04064900 -9.82003000 -1.65521200
-7.59307900 -5.31215100 10.75970500
21.74213000 -9.60927800 -10.59350600
38.03669700 10.09693100 6.04046600
47.19014400 -9.86811900 -1.63885500
26.04932000 11.54033100 1.28479000
0.99334500 -10.20906400 -10.52795400
21.15739800 -9.61949700 -10.48602300
39.69522900 -10.69734400 3.31262200
-49.72946900 8.73471500 -7.82421900
39.01628100 -10.28066300 -1.60882600
5.79713800 5.85523900 10.95355200
-7.89411200 10.71644200 5.43627900
29.14440000 6.06593500 -9.75408900
-27.65547900 11.33103000 1.06604000
-10.13288700 -9.39991400 -10.83575400
33.73223900 -3.34519800 10.85083000
6.11863300 5.39563300 10.99157700
-5.16673100 8.78444400 9.04834000
-1.73980100 -10.35041400 -10.26666300
16.22884200 -11.08228900 8.54834000
-10.13314700 -9.90795900 -10.79211400
34.46260800 -3.65833800 10.82720900
-29.87960800 -2.90777600 10.77557400
-33.67524300 -10.83976000 -9.77288800
15.37872100 -11.10141000 8.77453600
-44.40755800 -11.10329400 -3.39929200
-30.38786500 11.21709800 -1.67114300
0.49528500 3.92899100 -10.66949500
-42.53303500 5.83002900 10.24444600
-50.34233900 -10.46453900 -7.27179000
41.04695900 -8.98030100 -9.82281500
24.92725900 3.76318900 11.19964600
-27.27428100 1.52040300 10.85919200
1.61783500 -1.21416700 11.32208300
10.82640600 -7.77204500 -10.74792500
42.16826200 -8.64653000 -9.80181900
-42.84513500 6.29632900 10.00341800
26.42073600 11.65427200 1.95465100
-51.14696500 7.57552000 -1.72143600
1.87418100 -3.58476800 11.06811500
9.41122600 -8.87511100 -10.69519000
-5.21008200 9.95963100 -7.06945800
34.50019100 9.13302000 -7.39282200
21.20277800 4.36702100 10.94384800
-50.96066700 8.18304800 -2.21429400
-0.00706300 -1.61858600 11.33416700
10.50686100 -8.83874900 -10.67987100
5.87073200 -10.30006800 -6.74200400
34.88826400 7.90376200 -8.56225600
44.32402400 8.27522500 4.35070800
2.49001300 -1.86420600 11.19726600
42.30259300 7.12807100 7.63439900
34.84307500 8.54520300 -8.08752400
-50.18309800 7.26577800 -9.31219500
6.58342800 -10.36430700 -6.58178700
42.09783200 7.82740000 6.83935500
0.73810300 -1.36177300 11.30316200
29.31723200 11.59742300 0.04272500
-51.08148200 -7.22028000 0.43866000
26.89748800 -1.61658700 11.18908700
19.98327400 -3.23300100 11.19366500
-36.28718600 11.34558900 2.16595500
49.87895600 -7.93241500 1.08642600
49.75463500 6.74060200 -4.81085200
9.63888000 -11.03931000 6.86480700
20.71053300 -1.72656400 11.36352500
-10.15992500 -10.68830500 -4.50207500
0.54607200 2.06283200 -10.87316900
1.39980300 8.04006600 -8.39489700
-51.26242800 5.55231100 7.77374300
-51.25827400 -4.40892000 4.16601600
21.04850200 10.53997500 -6.05108600
8.86710900 -11.02726900 5.64514200
24.67487100 7.80521000 -9.06872600
2.11884500 7.73598500 -8.54272500
-1.02681300 11.48246500 -2.43005400
40.09272800 -3.08358600 10.29187000
40.89471400 9.87214800 2.79772900
-25.21176500 5.57584000 -9.96057100
-9.51123000 10.97825100 4.67718500
-32.44897500 -10.91555800 -5.96148700
25.02442200 10.87913700 5.88085900
40.64679700 9.86981100 3.24780300
-31.84042000 4.87177300 -10.58252000
51.29430000 -5.70572800 -5.27899200
50.90977500 2.78521100 -3.71905500
-18.52767200 -10.71576700 -6.03949000
37.35529300 -10.79049500 5.48425300
20.56794700 10.44949900 7.03076200
-38.51366400 -10.85942500 -8.83081100
-44.27051500 -11.02798500 -6.11096200
-22.31653000 -11.20681000 9.78418000
-29.80623400 -10.04404400 9.97106900
-1.83105100 11.62942900 -1.55481000
44.84738900 7.36302600 -4.87255900
-30.16180400 3.94952400 -10.92852800
-50.44314600 8.18979300 7.65130600
-51.30421400 -0.87531300 7.15417500
-11.17644000 3.56328600 11.24450700
25.54615200 -10.47206900 -0.79834000
45.09329600 6.74376600 -5.52203400
-29.55225800 -5.79351000 10.54693600
17.18151900 11.13633700 -4.54962200
25.16956300 11.67316200 0.41241500
32.29810700 11.33032600 -3.36462400
-24.29453700 -4.75980800 10.70007300
36.70758100 9.29451500 -6.18652300
-51.27271300 4.63724500 -3.33453400
-43.56296900 -10.87170800 -9.53015100
47.21112100 -4.40963600 8.26434300
-17.16832400 -7.13412100 10.50897200
-50.60380600 -10.56988500 -1.54077100
-51.26207000 5.84909400 -3.96588100
-40.29402900 9.81452900 -7.46606400
-7.46087200 11.44889200 0.43927000
-17.66099200 -7.98743100 10.29437300
-46.47010800 -11.03251600 -6.27722200
-50.38580700 -10.70356800 -1.96923800
-25.55836700 -10.93037800 -3.52771000
-6.71279000 11.40806300 1.31372100
-45.95293400 11.23816700 -0.05188000
-49.93345300 1.29297300 10.54010000
22.56139200 -10.80125800 5.41955600
-5.64402100 11.39761900 1.34613000
-7.64105800 11.44887100 1.31225600
22.59649100 11.44509200 -2.65295400
50.93415100 4.25959200 -1.78064000
-50.19484300 0.44057500 10.53887900
-5.86227400 10.25675000 6.84680200
-49.15923300 10.18864100 -0.57403600
51.18268600 -2.17337100 1.06280500
22.83693500 -1.20568000 11.25946000
-23.21697800 7.45346600 9.86090100
-2.44624900 6.61062800 10.47656300
27.29361700 11.61332100 2.34008800
24.88994200 11.38202700 2.48931900
51.16063300 -1.64233900 1.59222400
13.74108100 5.45710200 10.86248800
-1.81797100 6.41141000 10.47308300
48.03326000 3.38576500 7.52240000
14.84093700 10.75794700 6.42895500
51.15483100 -1.17040500 0.82537800
9.65247600 3.96610500 -10.60296600
-18.23208200 3.42014500 11.27429200
12.28682500 8.83401800 9.28564500
-3.34915900 -10.87808600 -0.34661900
34.72380100 10.43817300 -5.72637900
-50.58464800 6.19035300 9.37085000
24.61189800 9.76010200 8.10205100
-26.99096500 -11.28707900 -0.89801000
-31.01931000 11.18344500 -2.40588400
12.11192700 8.07098500 9.88745100
49.64126600 5.88783400 6.89538600
-46.72460600 -11.38757700 -0.86584500
3.76510000 -10.45484900 -5.88421600
-49.88596700 -11.04106900 -1.28949000
-36.07253300 -1.00887300 10.78503400
-10.17998100 -9.40032600 10.63861100
-43.28553000 -10.41888400 -10.94696000
35.27005800 0.44999100 -10.30853300
50.39302100 6.93377500 -2.33264200
3.65448500 -10.45666100 -5.35137900
-6.75253500 -10.51199700 -9.45648200
-42.59027100 11.36078600 -0.29046600
31.81068000 2.56330100 11.18664600
2.69163100 -10.54997600 -5.18615700
-35.34129300 -11.45960600 8.27154500
4.48869600 -5.57866300 -10.77569600
9.23990200 11.00900100 -3.95513900
21.31705700 7.15043100 -9.53973400
-3.80317200 -10.59457800 -6.32000700
1.76085800 -10.58758900 -3.13159200
-25.82256300 -11.61611900 6.21698000
30.57949300 -10.54534700 0.52856400
16.48544500 -10.07648100 -9.85357700
27.46183800 11.57862900 1.40972900
1.97940900 -10.52396800 -4.80035400
26.32512900 10.10652800 7.49505600
30.47658200 -10.67725000 3.00256300
-49.57415000 8.91229200 -7.72094700
16.54430000 -9.91143400 -10.23895300
26.40532700 10.59506200 6.41595500
