-9.87390000 -5.89030000 4.62390000
-10.32400000 -6.51890000 4.19020000
-9.86640000 -6.44050000 4.62550000
-10.32020000 -7.07000000 4.18530000
-9.86260000 -6.99310000 4.61760000
-9.38750000 -6.90950000 5.03440000
-9.86160000 -7.54860000 4.60330000
-9.38860000 -7.46660000 5.01760000
-8.90840000 -7.38190000 5.42500000
-9.39210000 -8.02560000 4.99790000
-8.91510000 -7.94170000 5.40430000
-8.43170000 -7.85840000 5.80210000
-8.92260000 -8.50230000 5.38280000
-8.44150000 -8.41850000 5.77940000
-7.94880000 -8.33750000 6.16020000
-8.45070000 -8.97980000 5.75520000
-7.96030000 -8.89690000 6.13460000
-7.45660000 -8.81830000 6.49650000
-7.97350000 -9.45880000 6.10930000
-7.47450000 -9.37740000 6.47150000
-6.96350000 -9.30050000 6.82190000
-7.49610000 -9.94180000 6.44690000
-6.99250000 -9.85960000 6.79820000
-6.47700000 -9.78950000 7.13610000
-7.02530000 -10.42980000 6.76930000
-6.52350000 -10.35820000 7.10460000
-6.00890000 -10.29660000 7.42500000
-6.57110000 -10.94180000 7.07070000
-6.07200000 -10.87380000 7.39140000
-5.55590000 -10.81210000 7.69970000
-6.11240000 -11.46300000 7.37330000
-5.61890000 -11.39420000 7.67880000
-5.11070000 -11.33250000 7.97050000
-5.64110000 -11.99070000 7.67710000
-5.15570000 -11.92580000 7.96540000
-4.66060000 -11.87220000 8.23430000
-5.15760000 -12.53240000 7.97170000
-4.68240000 -12.47730000 8.24050000
-4.19800000 -12.43780000 8.48480000
-4.66500000 -13.09250000 8.25570000
-4.19590000 -13.05130000 8.49950000
-3.72200000 -13.02960000 8.72130000
-4.15730000 -13.67040000 8.52920000
-3.69180000 -13.64300000 8.75230000
-3.22200000 -13.63180000 8.96140000
-3.61810000 -14.25350000 8.79860000
-3.14990000 -14.22810000 9.01100000
-3.50980000 -14.85250000 8.86190000
-3.03530000 -14.81310000 9.08100000
-3.37760000 -15.43460000 8.94360000
-2.89340000 -15.38060000 9.17000000
-3.23380000 -15.99750000 9.03700000
-2.73640000 -15.92850000 9.27060000
-2.24130000 -15.83680000 9.49920000
-2.57370000 -16.45650000 9.37020000
-2.06370000 -16.34250000 9.60200000
-1.56490000 -16.19210000 9.84350000
-1.88770000 -16.83690000 9.69890000
-1.37600000 -16.66800000 9.94520000
-2.41130000 -16.97050000 9.46300000
-2.24980000 -17.47870000 9.55370000
-2.93960000 -17.07250000 9.21980000
-2.79040000 -17.59410000 9.30640000
-2.64130000 -18.10890000 9.39470000
-3.32870000 -17.68650000 9.04330000
-3.19430000 -18.21330000 9.12690000
-3.06150000 -18.73190000 9.20930000
-3.73850000 -18.30080000 8.83930000
-3.62120000 -18.83080000 8.91540000
-3.50720000 -19.35140000 8.98130000
-2.93210000 -19.24170000 9.28480000
-3.40190000 -19.85910000 9.03310000
-2.81410000 -19.74250000 9.34850000
-3.31100000 -20.35310000 9.06670000
-2.71330000 -20.23710000 9.39230000
-3.23750000 -20.83560000 9.07860000
-2.62540000 -20.72530000 9.41250000
-3.18120000 -21.30550000 9.06920000
-2.56080000 -21.20540000 9.40390000
-3.14940000 -21.72060000 9.04270000
-2.52230000 -21.65350000 9.37510000
-3.13630000 -22.09500000 9.00700000
-2.51250000 -22.03010000 9.33530000
-1.86850000 -21.94620000 9.65740000
-2.50400000 -22.38590000 9.28170000
-1.86880000 -22.30850000 9.60400000
-1.21620000 -22.21240000 9.91410000
-1.86000000 -22.65630000 9.52300000
-1.21560000 -22.57430000 9.83770000
-0.56100000 -22.47670000 10.13810000
-1.20260000 -22.92120000 9.73030000
-0.55350000 -22.84140000 10.03830000
0.09910000 -22.76330000 10.31640000
-0.49940000 -23.08310000 9.81920000
0.13760000 -23.06260000 10.12160000
0.78540000 -23.02150000 10.37790000
0.22930000 -23.16350000 9.76320000
0.85710000 -23.15210000 10.02790000
1.48540000 -23.13510000 10.26750000
0.94010000 -23.21080000 9.64260000
1.55160000 -23.20420000 9.87750000
2.16930000 -23.19700000 10.07700000
1.62680000 -23.20850000 9.45810000
2.22450000 -23.21380000 9.65400000
2.82750000 -23.20040000 9.79350000
2.28870000 -23.18130000 9.20320000
2.86770000 -23.18880000 9.33800000
3.45030000 -23.16530000 9.40250000
2.91560000 -23.11950000 8.80310000
3.47000000 -23.11030000 8.88380000
4.02980000 -23.08530000 8.89280000
3.50690000 -23.03150000 8.27140000
4.04260000 -23.01260000 8.29370000
4.59020000 -22.98690000 8.26390000
4.10050000 -22.95750000 7.66980000
4.63610000 -22.93330000 7.65860000
5.18230000 -22.90270000 7.61910000
4.74210000 -22.90810000 7.06310000
5.28450000 -22.88040000 7.05460000
5.84350000 -22.84630000 7.04360000
5.43170000 -22.88080000 6.51470000
5.98490000 -22.84440000 6.54000000
6.55240000 -22.80290000 6.57930000
6.14640000 -22.84790000 6.05540000
6.70650000 -22.80310000 6.12430000
7.28370000 -22.75070000 6.21040000
6.88310000 -22.80550000 5.67860000
7.44550000 -22.74740000 5.78560000
8.02000000 -22.67760000 5.90550000
7.62050000 -22.74490000 5.36370000
8.17730000 -22.67100000 5.49370000
8.73590000 -22.56300000 5.63400000
8.35170000 -22.66840000 5.07890000
8.88730000 -22.55980000 5.22370000
8.54510000 -22.67100000 4.66190000
9.07010000 -22.56380000 4.81090000
8.76790000 -22.67580000 4.24660000
9.28080000 -22.57170000 4.39160000
9.78330000 -22.41940000 4.55150000
9.51580000 -22.57820000 3.96690000
9.00420000 -22.67920000 3.82840000
9.24070000 -22.67030000 3.40090000
8.48420000 -22.75330000 3.69740000
8.72230000 -22.74590000 3.28570000
8.94550000 -22.72250000 2.86910000
8.20050000 -22.80300000 3.16690000
8.42810000 -22.78510000 2.76690000
8.63820000 -22.75560000 2.36720000
7.91480000 -22.83790000 2.65400000
8.12990000 -22.81420000 2.27650000
8.32330000 -22.77800000 1.90040000
7.63460000 -22.86210000 2.14800000
7.84240000 -22.83140000 1.79620000
7.16070000 -22.89840000 1.98680000
7.37660000 -22.86970000 1.64410000
6.71240000 -22.92440000 1.79620000
6.94770000 -22.89480000 1.44600000
6.29380000 -22.94000000 1.58170000
6.54950000 -22.91280000 1.22110000
5.89200000 -22.95300000 1.35870000
6.03380000 -22.95780000 1.96220000
5.61490000 -22.96940000 1.75120000
5.21790000 -22.98520000 1.53210000
5.33960000 -22.98410000 2.16270000
4.92770000 -23.00030000 1.95930000
4.53150000 -23.01700000 1.75040000
4.64700000 -23.01990000 2.41040000
4.23700000 -23.03340000 2.21910000
3.83850000 -23.04170000 2.02420000
3.95700000 -23.04520000 2.71770000
3.54930000 -23.04560000 2.53060000
3.15480000 -23.04220000 2.32480000
3.45620000 -23.04660000 1.81290000
2.77030000 -23.03690000 2.10370000
3.08300000 -23.04740000 1.58580000
2.39340000 -23.03310000 1.87070000
2.71730000 -23.04620000 1.34820000
2.02310000 -23.03290000 1.62580000
2.35680000 -23.04490000 1.10150000
1.65880000 -23.03600000 1.36990000
2.00110000 -23.04460000 0.84690000
2.35140000 -23.04500000 0.33420000
1.64940000 -23.04930000 0.58410000
2.00620000 -23.04800000 0.07060000
2.36720000 -23.03930000 -0.43250000
1.66380000 -23.05870000 -0.19840000
1.30110000 -23.06310000 0.31370000
0.95600000 -23.08760000 0.03680000
1.32420000 -23.07780000 -0.47230000
0.61450000 -23.11810000 -0.24670000
0.98810000 -23.10280000 -0.75170000
0.27880000 -23.14350000 -0.53920000
0.65680000 -23.12630000 -1.03930000
-0.04960000 -23.15680000 -0.84250000
0.33040000 -23.13980000 -1.33690000
-0.37310000 -23.15650000 -1.15330000
0.00630000 -23.14000000 -1.64180000
-0.69330000 -23.14580000 -1.47010000
-0.31610000 -23.13050000 -1.95220000
-1.01280000 -23.13070000 -1.79000000
-0.63660000 -23.11840000 -2.26540000
-1.33290000 -23.11670000 -2.10860000
-0.95600000 -23.10950000 -2.57820000
-1.65340000 -23.10500000 -2.42340000
-1.27480000 -23.10300000 -2.88730000
-1.97370000 -23.09350000 -2.73310000
-1.59310000 -23.09560000 -3.19120000
-2.29260000 -23.08370000 -3.03870000
-2.35810000 -23.09280000 -2.28280000
-2.67990000 -23.08430000 -2.59670000
-2.99780000 -23.08460000 -2.91110000
-3.07130000 -23.09390000 -2.16520000
-3.39130000 -23.09760000 -2.49220000
-3.70260000 -23.11280000 -2.82840000
-3.78710000 -23.11480000 -2.08200000
-4.09860000 -23.12840000 -2.43210000
-4.39760000 -23.15020000 -2.79700000
-4.49730000 -23.14160000 -2.04090000
-4.79530000 -23.15920000 -2.41910000
-5.08150000 -23.17770000 -2.81030000
-5.19610000 -23.16770000 -2.04180000
-5.48020000 -23.18220000 -2.44530000
-5.75410000 -23.18730000 -2.85950000
-5.88350000 -23.19290000 -2.08020000
-6.15420000 -23.19640000 -2.50480000
-6.41530000 -23.18640000 -2.93720000
-6.56090000 -23.21680000 -2.14960000
-6.81840000 -23.20730000 -2.59000000
-7.06680000 -23.18540000 -3.03460000
-7.23040000 -23.23470000 -2.24340000
-7.47510000 -23.21280000 -2.69380000
-7.71020000 -23.18140000 -3.14490000
-7.89490000 -23.23800000 -2.35630000
-8.12620000 -23.20670000 -2.81140000
-8.34790000 -23.17070000 -3.26320000
-8.55590000 -23.22660000 -2.48630000
-8.77520000 -23.19110000 -2.93950000
-8.98240000 -23.15670000 -3.38450000
-9.21880000 -23.20470000 -2.62860000
-9.42560000 -23.17330000 -3.07530000
-9.61370000 -23.14810000 -3.51690000
-9.17670000 -23.12990000 -3.82560000
-9.78010000 -23.13100000 -3.95240000
-9.36100000 -23.11270000 -4.26490000
-9.95170000 -23.12180000 -4.40020000
-9.55030000 -23.10470000 -4.70650000
-10.14040000 -23.12050000 -4.84030000
-9.81840000 -23.10650000 -5.15450000
-10.37600000 -23.12370000 -5.25500000
-10.12310000 -23.11380000 -5.57960000
-9.85490000 -23.10730000 -5.93050000
-10.50120000 -23.11930000 -5.97780000
-10.27880000 -23.11380000 -6.33190000
-10.01750000 -23.11230000 -6.69020000
-10.73160000 -23.11310000 -6.68470000
-10.46010000 -23.10920000 -7.06740000
-10.15340000 -23.10630000 -7.44230000
-10.82210000 -23.09890000 -7.34540000
-10.50100000 -23.09440000 -7.74070000
-10.15030000 -23.08700000 -8.12350000
-10.80000000 -23.07130000 -7.98580000
-10.43950000 -23.06440000 -8.38960000
-10.05440000 -23.05720000 -8.77820000
-10.70670000 -23.01570000 -8.63150000
-10.31430000 -23.00980000 -9.03870000
-9.90230000 -23.00670000 -9.43300000
-10.55510000 -22.91250000 -9.27500000
-10.13740000 -22.90770000 -9.68450000
-9.70280000 -22.90100000 -10.08400000
-10.34560000 -22.72940000 -9.90510000
-9.90300000 -22.70590000 -10.31060000
-9.44240000 -22.67270000 -10.70320000
-9.96710000 -22.36350000 -10.37460000
-9.50660000 -22.32280000 -10.77110000
-9.02830000 -22.27990000 -11.15490000
-9.51960000 -21.93480000 -10.77180000
-9.03980000 -21.88530000 -11.15230000
-8.54110000 -21.83990000 -11.52060000
-9.03910000 -21.47450000 -11.12900000
-8.54190000 -21.42700000 -11.49560000
-8.02540000 -21.38610000 -11.85220000
-8.54000000 -20.97460000 -11.46770000
-8.02430000 -20.93270000 -11.82400000
-7.48700000 -20.89680000 -12.16980000
-8.01730000 -20.41190000 -11.79430000
-7.48130000 -20.37550000 -12.14020000
-6.92010000 -20.34900000 -12.46600000
-7.46950000 -19.83180000 -12.10480000
-6.91270000 -19.80650000 -12.43170000
-6.32940000 -19.78760000 -12.72440000
-6.89950000 -19.25710000 -12.38680000
-6.32400000 -19.23710000 -12.68480000
-5.72210000 -19.21880000 -12.93590000
-6.31610000 -18.68350000 -12.63890000
-5.72270000 -18.66340000 -12.89670000
-5.10640000 -18.64110000 -13.10040000
-5.72350000 -18.10660000 -12.85690000
-5.11300000 -18.08300000 -13.06300000
-4.48400000 -18.05590000 -13.20670000
-5.12050000 -17.52490000 -13.02800000
-4.49640000 -17.49760000 -13.17400000
-3.85980000 -17.46650000 -13.24720000
-4.50860000 -16.93960000 -13.14300000
-3.87540000 -16.90900000 -13.21750000
-3.23800000 -16.87540000 -13.21550000
-3.89020000 -16.35230000 -13.19140000
-3.25580000 -16.31940000 -13.18990000
-2.62590000 -16.28350000 -13.12210000
-3.27230000 -15.76380000 -13.16650000
-2.64510000 -15.72840000 -13.10020000
-2.02810000 -15.68960000 -12.98020000
-2.66310000 -15.17320000 -13.07870000
-2.04890000 -15.13440000 -12.95960000
-1.44830000 -15.09240000 -12.79530000
-2.06890000 -14.57880000 -12.93740000
-1.47130000 -14.53670000 -12.77190000
-0.88950000 -14.49250000 -12.56710000
-1.49360000 -13.98080000 -12.74540000
-0.91390000 -13.93660000 -12.53990000
-0.35020000 -13.89210000 -12.30090000
-0.93650000 -13.38080000 -12.51160000
-0.37420000 -13.33690000 -12.27100000
0.17110000 -13.29470000 -11.99920000
-0.39590000 -12.78230000 -12.23870000
0.14820000 -12.74090000 -11.96410000
0.67520000 -12.70210000 -11.66380000
0.12760000 -12.18790000 -11.92620000
0.65550000 -12.14910000 -11.62690000
1.16750000 -12.11260000 -11.30810000
0.64020000 -11.59640000 -11.59100000
1.15240000 -11.55930000 -11.27220000
1.64650000 -11.52470000 -10.93370000
1.14090000 -11.00580000 -11.23660000
1.63340000 -10.97030000 -10.89620000
2.10890000 -10.93770000 -10.54080000
1.62180000 -10.41550000 -10.85610000
2.09610000 -10.38180000 -10.50000000
2.55650000 -10.35140000 -10.13480000
2.08550000 -9.82480000 -10.45760000
2.54430000 -9.79310000 -10.09250000
2.99190000 -9.76510000 -9.72250000
2.53490000 -9.23320000 -10.04910000
2.98060000 -9.20360000 -9.68010000
3.41650000 -9.17840000 -9.30870000
2.97200000 -8.63960000 -9.63670000
3.40500000 -8.61250000 -9.26680000
3.82860000 -8.59070000 -8.89470000
3.39510000 -8.04360000 -9.22230000
3.81490000 -8.02030000 -8.85190000
4.22690000 -8.00360000 -8.47900000
3.80350000 -7.44680000 -8.80590000
4.21130000 -7.43010000 -8.43430000
4.61440000 -7.42150000 -8.05990000
4.19790000 -6.85430000 -8.38500000
4.59850000 -6.84740000 -8.01330000
4.99880000 -6.84920000 -7.63890000
4.58570000 -6.27150000 -7.96320000
4.98460000 -6.27670000 -7.59230000
5.38460000 -6.28980000 -7.21620000
4.97250000 -5.70250000 -7.54400000
5.37070000 -5.71980000 -7.17040000
5.77050000 -5.74280000 -6.79080000
5.35810000 -5.14840000 -7.12590000
5.75710000 -5.17550000 -6.74910000
6.15840000 -5.20540000 -6.36740000
5.74170000 -4.60760000 -6.71010000
6.14210000 -4.64080000 -6.33060000
6.54430000 -4.67210000 -5.94870000
6.11840000 -4.07570000 -6.29850000
6.51840000 -4.10790000 -5.91930000
6.91950000 -4.13550000 -5.53940000
6.48420000 -3.54380000 -5.89620000
6.88350000 -3.57130000 -5.51850000
7.28220000 -3.59440000 -5.14000000
6.84040000 -3.00640000 -5.50080000
7.23650000 -3.02800000 -5.12460000
7.63120000 -3.04600000 -4.74650000
7.17810000 -2.46000000 -5.10670000
7.57180000 -2.47710000 -4.73020000
7.96420000 -2.49080000 -4.35100000
7.48460000 -1.91030000 -4.69500000
7.87910000 -1.92450000 -4.31590000
8.26940000 -1.93530000 -3.93310000
7.73060000 -1.38050000 -4.21440000
8.12420000 -1.39290000 -3.83080000
8.51040000 -1.40230000 -3.44440000
7.85830000 -0.94830000 -3.60170000
8.24810000 -0.95780000 -3.21750000
8.62210000 -0.96560000 -2.83230000
7.88130000 -0.69700000 -2.87780000
8.25640000 -0.70480000 -2.49770000
8.61020000 -0.70770000 -2.11980000
7.85790000 -0.57550000 -2.11390000
8.20990000 -0.57810000 -1.74320000
8.53530000 -0.57830000 -1.37650000
7.81260000 -0.50280000 -1.33880000
8.13840000 -0.50220000 -0.97440000
8.44080000 -0.49790000 -0.62140000
7.76890000 -0.44480000 -0.54400000
8.08570000 -0.44060000 -0.18990000
8.39650000 -0.43330000 0.13180000
7.77670000 -0.39240000 0.28330000
8.11480000 -0.38400000 0.59030000
8.46050000 -0.36600000 0.85530000
8.27340000 -0.31350000 1.31800000
8.65670000 -0.26810000 1.52260000
8.65590000 -0.18950000 2.00730000
9.01520000 -0.07860000 2.11210000
8.72330000 -0.10790000 2.53200000
9.05650000 0.00640000 2.57160000
9.34680000 0.18290000 2.60130000
9.43130000 0.22710000 3.05300000
9.67570000 0.46530000 3.05820000
9.59750000 0.43480000 2.62060000
9.15230000 0.05720000 3.04910000
9.29250000 0.03960000 3.53390000
9.55370000 0.20770000 3.52470000
8.85800000 -0.04600000 3.05880000
9.01690000 -0.06630000 3.55890000
9.15740000 -0.20220000 4.01790000
9.44120000 -0.08380000 4.01210000
8.73890000 -0.09970000 3.61270000
8.85450000 -0.23410000 4.05450000
8.91320000 -0.46830000 4.47310000
9.25280000 -0.43290000 4.46100000
8.47680000 -0.05050000 3.70250000
8.57420000 -0.15880000 4.12780000
8.59290000 -0.36400000 4.53580000
8.56910000 -0.60410000 4.97480000
8.93440000 -0.73520000 4.92890000
8.35810000 0.03830000 4.21890000
8.35240000 -0.11560000 4.62180000
8.28980000 -0.31380000 5.04660000
8.52110000 -0.86410000 5.46870000
8.24170000 0.24800000 4.68220000
8.16710000 0.10600000 5.11010000
8.18320000 0.62670000 5.08470000
8.24340000 0.70790000 4.67290000
8.30740000 1.27150000 4.57020000
8.27140000 1.26260000 4.95280000
8.24460000 0.34510000 4.28440000
8.22580000 0.75710000 4.28550000
8.26340000 1.26320000 4.19620000
8.30600000 1.82730000 4.02860000
8.36760000 1.88090000 4.37860000
8.08790000 0.77320000 3.95180000
8.10550000 1.24440000 3.87620000
8.12910000 1.76700000 3.72110000
8.14340000 2.33080000 3.51630000
8.32820000 2.43000000 3.80560000
7.84650000 1.21690000 3.65070000
7.85940000 1.70880000 3.49880000
7.86240000 2.24370000 3.30930000
7.82920000 2.80830000 3.08840000
8.12130000 2.93200000 3.28330000
7.54170000 1.66200000 3.37470000
7.53260000 2.16400000 3.18690000
7.48810000 2.69260000 2.97410000
7.39600000 3.21490000 2.73800000
7.75710000 3.37450000 2.84620000
7.18370000 2.09190000 3.12870000
7.12460000 2.57490000 2.92320000
7.01440000 3.05100000 2.69820000
6.85420000 3.49210000 2.45440000
7.25940000 3.69910000 2.48690000
6.75610000 2.45590000 2.92050000
6.62860000 2.88500000 2.70690000
6.44920000 3.28380000 2.47460000
6.22460000 3.63290000 2.22450000
6.65330000 3.88570000 2.19980000
6.25200000 2.72440000 2.75610000
6.05400000 3.08270000 2.53610000
5.80650000 3.38830000 2.29590000
5.51800000 3.63800000 2.04150000
5.95940000 3.93150000 1.96020000
5.67590000 2.89950000 2.64340000
5.40050000 3.16360000 2.41890000
5.08210000 3.37290000 2.19000000
4.72600000 3.53560000 1.96130000
5.19270000 3.83220000 1.77910000
5.02160000 2.98350000 2.61080000
4.65630000 3.17000000 2.41950000
4.26430000 3.31990000 2.23750000
3.87960000 3.46110000 2.06280000
4.35860000 3.67910000 1.74510000
4.28690000 3.03780000 2.73720000
3.87360000 3.18720000 2.60490000
3.43360000 3.34700000 2.45310000
2.99810000 3.51580000 2.26890000
3.49520000 3.60870000 1.86900000
3.55160000 3.12980000 3.01460000
3.04740000 3.31050000 2.88890000
2.54230000 3.51330000 2.70910000
2.05220000 3.76690000 2.48840000
2.58720000 3.70260000 2.06250000
2.72110000 3.32710000 3.37380000
2.14080000 3.56450000 3.19890000
1.58800000 3.88740000 2.91300000
1.19470000 4.27680000 2.51100000
1.73460000 4.04640000 2.12940000
1.85650000 3.67290000 3.64460000
1.21400000 4.07560000 3.33060000
0.74480000 4.56450000 2.91030000
0.49150000 5.04470000 2.46130000
1.00850000 4.64780000 2.03550000
0.96560000 4.35010000 3.76110000
0.44750000 4.90860000 3.35110000
0.13210000 5.48820000 2.97200000
-0.04450000 5.98520000 2.64370000
0.35520000 5.30010000 3.80880000
0.01680000 5.95390000 3.48680000
-0.18570000 6.58170000 3.21730000
-0.33600000 7.03770000 2.90250000
-0.20920000 6.40480000 2.34280000
0.13840000 6.35930000 3.96350000
-0.07590000 7.02910000 3.68800000
-0.23430000 7.63790000 3.36980000
-0.36290000 8.19400000 3.03160000
-0.49150000 7.50450000 2.60800000
0.20820000 7.49580000 4.04940000
0.07100000 8.17650000 3.70860000
-0.04410000 8.79680000 3.32910000
0.52260000 8.62330000 3.87590000
0.41440000 9.28020000 3.46960000
1.03690000 8.95430000 3.91280000
0.97140000 9.66700000 3.48050000
0.88720000 10.30660000 3.03220000
1.53300000 9.92140000 3.46610000
1.46110000 10.57300000 3.01500000
2.11170000 10.12690000 3.42420000
1.58070000 9.21970000 3.88880000
2.14680000 9.44690000 3.83600000
2.73330000 9.61410000 3.77980000
2.71900000 10.26610000 3.38390000
3.34370000 9.70770000 3.73230000
3.36140000 10.32240000 3.35860000
3.98280000 9.70310000 3.69170000
4.04040000 10.27490000 3.35070000
4.64010000 9.58280000 3.64950000
4.73250000 10.12350000 3.34150000
5.27450000 9.41420000 3.52160000
5.39310000 9.90580000 3.26270000
5.53680000 10.36830000 2.97570000
5.86280000 9.16990000 3.24280000
5.21600000 8.90800000 3.73400000
5.78430000 8.71950000 3.39210000
6.19430000 8.47870000 2.87590000
5.76190000 8.27010000 3.49510000
6.17110000 8.06480000 2.98770000
6.48530000 8.23120000 2.30080000
5.83520000 7.82050000 3.58380000
5.23630000 8.41030000 3.88050000
5.32550000 7.93490000 3.99260000
5.50820000 7.48180000 4.09270000
4.74930000 7.97560000 4.29490000
4.95070000 7.50640000 4.42100000
5.28900000 7.05070000 4.51810000
4.37760000 7.44690000 4.65920000
4.73880000 6.97820000 4.78170000
5.18030000 6.54310000 4.90010000
4.16130000 6.82420000 4.97770000
4.66790000 6.38000000 5.09780000
5.21920000 5.96340000 5.23150000
4.16280000 6.15560000 5.24960000
4.77340000 5.73780000 5.37660000
5.38970000 5.33080000 5.50040000
4.34580000 5.46110000 5.47900000
5.02800000 5.08320000 5.57890000
5.61810000 4.67250000 5.64720000
4.70090000 4.76960000 5.61590000
5.31790000 4.38440000 5.64160000
5.74370000 3.94210000 5.65310000
5.05850000 4.07720000 5.56260000
5.48610000 3.69860000 5.53040000
5.77480000 3.24620000 5.54420000
5.25910000 3.45510000 5.35620000
5.55690000 3.07310000 5.35030000
5.71080000 2.63090000 5.43020000
5.36780000 2.91910000 5.12800000
5.53370000 2.51450000 5.20030000
5.53880000 2.08690000 5.33080000
5.38550000 2.41090000 4.95480000
5.40290000 2.01350000 5.06980000
5.26850000 1.64210000 5.18450000
5.30800000 1.94800000 4.79620000
5.19000000 1.58320000 4.89590000
4.95730000 1.25600000 4.98130000
5.16040000 1.52520000 4.61160000
4.96620000 1.19000000 4.67760000
4.70250000 0.87380000 4.71440000
5.04090000 1.13020000 4.39110000
4.83360000 0.79870000 4.41230000
4.61720000 0.47870000 4.41100000
5.01900000 0.74740000 4.13470000
4.85120000 0.42520000 4.11300000
4.67790000 0.12490000 4.04580000
5.12200000 0.37930000 3.84240000
4.96790000 0.08320000 3.75330000
4.78340000 -0.16300000 3.57590000
5.28940000 0.04800000 3.48020000
5.11080000 -0.17810000 3.25920000
4.89970000 -0.32940000 2.96020000
5.46930000 -0.18560000 2.95260000
5.27490000 -0.30750000 2.60320000
5.04300000 -0.37330000 2.24530000
5.69850000 -0.29180000 2.26390000
5.46570000 -0.34740000 1.85900000
5.16000000 -0.38010000 1.49710000
5.92130000 -0.33110000 1.49320000
5.57790000 -0.35800000 1.09580000
5.19660000 -0.37410000 0.74840000
5.99340000 -0.34880000 0.70440000
5.59160000 -0.35810000 0.32820000
5.17570000 -0.36030000 -0.00110000
5.97740000 -0.35690000 -0.07530000
5.55770000 -0.35500000 -0.43160000
5.12130000 -0.35290000 -0.74780000
5.93420000 -0.36860000 -0.84930000
5.49940000 -0.36470000 -1.19120000
5.03760000 -0.35910000 -1.48850000
5.88210000 -0.39420000 -1.62180000
5.42560000 -0.38500000 -1.95420000
4.92610000 -0.36220000 -2.22980000
5.82960000 -0.42600000 -2.39710000
5.34540000 -0.39810000 -2.72570000
6.24460000 -0.48170000 -2.83010000
5.78400000 -0.45510000 -3.18570000
6.66390000 -0.55550000 -3.24660000
6.22950000 -0.53640000 -3.61710000
7.07800000 -0.67860000 -3.63970000
6.66100000 -0.66540000 -4.01860000
6.24420000 -0.64120000 -4.38280000
5.84450000 -0.60700000 -4.71640000
7.05210000 -0.92100000 -4.36490000
6.64880000 -0.90050000 -4.74080000
6.25410000 -0.87800000 -5.10040000
5.87100000 -0.85500000 -5.42790000
5.47230000 -0.56480000 -5.02140000
6.93490000 -1.34740000 -4.97170000
6.54240000 -1.32880000 -5.34000000
6.15830000 -1.30840000 -5.69530000
5.78630000 -1.28010000 -6.02420000
6.70040000 -1.87490000 -5.44390000
6.31330000 -1.85530000 -5.80920000
5.92580000 -1.82840000 -6.16760000
5.54010000 -1.78390000 -6.51880000
5.42010000 -1.22670000 -6.33020000
6.39380000 -2.41720000 -5.85290000
6.00150000 -2.38700000 -6.22270000
5.60670000 -2.34320000 -6.58850000
5.21100000 -2.28240000 -6.94630000
5.15870000 -1.71180000 -6.85310000
6.04830000 -2.94760000 -6.25120000
5.65040000 -2.90530000 -6.62340000
5.25230000 -2.85310000 -6.98830000
4.85990000 -2.79510000 -7.34210000
4.82130000 -2.20270000 -7.29170000
5.68780000 -3.47090000 -6.64880000
5.29030000 -3.42710000 -7.01740000
4.89650000 -3.38350000 -7.37590000
4.51180000 -3.34550000 -7.72380000
4.48070000 -2.73610000 -7.68260000
5.32290000 -4.00190000 -7.04730000
4.92840000 -3.96800000 -7.41010000
4.53930000 -3.94210000 -7.76410000
4.15600000 -3.92910000 -8.11060000
4.13730000 -3.32070000 -8.06210000
4.94840000 -4.54870000 -7.45090000
4.55610000 -4.52990000 -7.81030000
4.16690000 -4.52400000 -8.16340000
3.77770000 -4.53550000 -8.51320000
3.77520000 -3.93590000 -8.45280000
4.56660000 -5.11320000 -7.85980000
4.17320000 -5.11230000 -8.21860000
3.77870000 -5.12630000 -8.57540000
3.37870000 -5.15630000 -8.93400000
3.38340000 -4.56690000 -8.86510000
4.17930000 -5.69590000 -8.27540000
3.78160000 -5.71110000 -8.63840000
3.37780000 -5.73980000 -9.00240000
2.96220000 -5.78120000 -9.36780000
2.96750000 -5.20150000 -9.29690000
3.78690000 -6.29220000 -8.69930000
3.37950000 -6.31960000 -9.06660000
2.96010000 -6.35770000 -9.43300000
2.52530000 -6.40430000 -9.79840000
2.53130000 -5.83260000 -9.73510000
3.38270000 -6.89680000 -9.12390000
2.95920000 -6.93190000 -9.49030000
2.52120000 -6.97430000 -9.85480000
2.06810000 -7.02160000 -10.21790000
2.07410000 -6.45660000 -10.16330000
2.96060000 -7.50380000 -9.54200000
2.52040000 -7.54220000 -9.90710000
2.06590000 -7.58520000 -10.26980000
1.59680000 -7.63120000 -10.62900000
1.60030000 -7.07160000 -10.57910000
2.52310000 -8.10790000 -9.95700000
2.06720000 -8.14720000 -10.31980000
1.59650000 -8.18990000 -10.67740000
1.10890000 -8.23470000 -11.02470000
1.11070000 -7.67900000 -10.97930000
2.07100000 -8.70770000 -10.36760000
1.59920000 -8.74750000 -10.72400000
1.10990000 -8.78980000 -11.06880000
0.60230000 -8.83340000 -11.39680000
0.60180000 -8.28030000 -11.35460000
1.60430000 -9.30420000 -10.76950000
1.11440000 -9.34430000 -11.11300000
0.60550000 -9.38620000 -11.43830000
0.07760000 -9.42820000 -11.74160000
0.07500000 -8.87670000 -11.70230000
1.12180000 -9.89840000 -11.15680000
0.61180000 -9.93870000 -11.48000000
0.08210000 -9.97970000 -11.77930000
-0.46330000 -10.02060000 -12.05650000
-0.46770000 -9.46970000 -12.02050000
0.61950000 -10.49110000 -11.51900000
0.08920000 -10.53130000 -11.81640000
-0.45650000 -10.57190000 -12.09180000
-1.01690000 -10.61280000 -12.34110000
-1.02430000 -10.06140000 -12.30670000
0.09860000 -11.08320000 -11.85270000
-0.44640000 -11.12360000 -12.12800000
-1.00640000 -11.16470000 -12.37660000
-1.58190000 -11.20630000 -12.59070000
-1.59270000 -10.65390000 -12.55650000
-0.43280000 -11.67580000 -12.16540000
-0.99240000 -11.71740000 -12.41340000
-1.56810000 -11.75960000 -12.62550000
-2.15860000 -11.80140000 -12.79630000
-2.17220000 -11.24770000 -12.76330000
-0.97580000 -12.27090000 -12.44900000
-1.55200000 -12.31390000 -12.65890000
-2.14320000 -12.35610000 -12.82760000
-2.74740000 -12.39630000 -12.95020000
-2.76210000 -11.84170000 -12.92060000
-1.53420000 -12.86900000 -12.68940000
-2.12620000 -12.91140000 -12.85700000
-2.73160000 -12.95150000 -12.97700000
-3.34780000 -12.98920000 -13.03780000
-3.36240000 -12.43450000 -13.01370000
-2.10810000 -13.46720000 -12.88430000
-2.71510000 -13.50700000 -13.00300000
-3.33290000 -13.54400000 -13.06260000
-3.95570000 -13.57850000 -13.05310000
-3.96890000 -13.02460000 -13.02760000
-2.69780000 -14.06240000 -13.03020000
-3.31790000 -14.09880000 -13.08920000
-3.94270000 -14.13250000 -13.07980000
-4.56400000 -14.16380000 -12.99760000
-4.57500000 -13.61060000 -12.96980000
-3.30290000 -14.65370000 -13.11600000
-3.93020000 -14.68660000 -13.10880000
-4.55370000 -14.71720000 -13.02780000
-5.16610000 -14.74570000 -12.87970000
-5.17350000 -14.19310000 -12.84560000
-3.91760000 -15.24110000 -13.13770000
-4.54410000 -15.27140000 -13.06190000
-5.15810000 -15.29960000 -12.91260000
-5.75360000 -15.32560000 -12.69850000
-5.76000000 -14.77240000 -12.66640000
-4.53290000 -15.82650000 -13.09080000
-5.14940000 -15.85430000 -12.94290000
-5.74730000 -15.88000000 -12.73090000
-6.32230000 -15.90420000 -12.46280000
-6.32610000 -15.35050000 -12.42860000
-5.13910000 -16.41020000 -12.96840000
-5.73960000 -16.43570000 -12.75930000
-6.31720000 -16.45920000 -12.49380000
-6.87280000 -16.48170000 -12.18560000
-6.87570000 -15.92720000 -12.15290000
-5.73230000 -16.99210000 -12.78860000
-6.31250000 -17.01510000 -12.52450000
-6.87040000 -17.03720000 -12.21810000
-7.41220000 -17.05930000 -11.88760000
-7.41270000 -16.50370000 -11.85330000
-6.31000000 -17.57160000 -12.55790000
-6.87060000 -17.59330000 -12.25290000
-7.41400000 -17.61560000 -11.92330000
-7.94170000 -17.63980000 -11.57520000
-7.93920000 -17.08250000 -11.53890000
-6.87420000 -18.14940000 -12.29080000
-7.41950000 -18.17210000 -11.96150000
-7.94800000 -18.19750000 -11.61410000
-8.46090000 -18.22620000 -11.25270000
-8.45400000 -17.66660000 -11.21230000
-7.43110000 -18.72800000 -12.00530000
-7.96100000 -18.75490000 -11.65850000
-8.47460000 -18.78590000 -11.29880000
-8.96990000 -18.82130000 -10.92480000
-8.95690000 -18.25850000 -10.87750000
-7.98230000 -19.31070000 -11.71030000
-8.49670000 -19.34470000 -11.35220000
-8.99150000 -19.38360000 -10.97960000
-9.46820000 -19.42720000 -10.59440000
-9.44770000 -18.86090000 -10.53790000
-8.51930000 -19.90200000 -11.40230000
-9.01510000 -19.94460000 -11.03340000
-9.49210000 -19.99260000 -10.65170000
-9.95190000 -20.04560000 -10.25710000
-9.92890000 -19.47550000 -10.19810000
-9.02880000 -20.50040000 -11.07240000
-9.50570000 -20.55180000 -10.69360000
-9.96460000 -20.61030000 -10.30080000
-10.40330000 -20.67560000 -9.89060000
-10.39240000 -20.10410000 -9.84700000
-9.51310000 -21.07420000 -10.72510000
-9.97160000 -21.13360000 -10.33300000
-10.41050000 -21.20090000 -9.92340000
-10.82920000 -21.27130000 -9.49490000
-10.82140000 -20.74330000 -9.46220000
-9.97670000 -21.58070000 -10.35750000
-10.41700000 -21.63490000 -9.94730000
-10.83690000 -21.68890000 -9.51800000
-11.23700000 -21.74170000 -9.07070000
-11.22880000 -21.33720000 -9.04900000
-10.42220000 -22.02720000 -9.96620000
-10.84340000 -22.06530000 -9.53680000
-11.24510000 -22.10410000 -9.08860000
-11.62020000 -22.14420000 -8.61850000
-11.61150000 -21.78910000 -8.60230000
-10.83330000 -22.42100000 -9.53860000
-11.23820000 -22.44860000 -9.09270000
-11.61710000 -22.48220000 -8.62510000
-11.96190000 -22.50610000 -8.13300000
-11.96290000 -22.17730000 -8.12490000
-11.17570000 -22.76430000 -9.04870000
-11.56200000 -22.79030000 -8.59230000
-11.92140000 -22.81440000 -8.11340000
-12.23970000 -22.83030000 -7.60640000
-12.27480000 -22.52310000 -7.62110000
-11.33100000 -22.93570000 -8.41070000
-11.67730000 -22.94720000 -7.94890000
-11.99010000 -22.96030000 -7.46580000
-12.26230000 -22.97270000 -6.96040000
-12.51850000 -22.84420000 -7.08080000
-11.41430000 -23.03210000 -7.76710000
-11.71930000 -23.04260000 -7.30820000
-11.98550000 -23.05530000 -6.82970000
-12.21150000 -23.07350000 -6.33270000
-12.49930000 -22.99190000 -6.43780000
-11.42650000 -23.08540000 -7.13140000
-11.68390000 -23.09740000 -6.68130000
-11.90210000 -23.11300000 -6.21520000
-12.08090000 -23.12980000 -5.73000000
-12.39830000 -23.09180000 -5.81520000
-11.35880000 -23.11650000 -6.51820000
-11.56850000 -23.13020000 -6.08620000
-11.73980000 -23.14410000 -5.63630000
-11.86720000 -23.15490000 -5.16070000
-12.21330000 -23.14070000 -5.21740000
-11.16220000 -23.13280000 -5.91990000
-10.96630000 -23.12150000 -6.30020000
-10.69470000 -23.12900000 -5.62520000
-11.11010000 -23.10540000 -6.93800000
-11.13060000 -23.07780000 -7.56610000
-11.07570000 -23.02370000 -8.20900000
-10.95390000 -22.92190000 -8.85140000
-10.77010000 -22.74580000 -9.48530000
-10.41030000 -22.39500000 -9.96600000
-9.98050000 -21.98430000 -10.37700000
-9.51750000 -21.52580000 -10.75050000
-9.03580000 -21.02190000 -11.10250000
-8.53270000 -20.45410000 -11.43810000
-8.00400000 -19.86410000 -11.75920000
-7.45040000 -19.28150000 -12.05690000
-6.88390000 -18.70450000 -12.33540000
-6.31090000 -18.12800000 -12.59550000
-5.72670000 -17.54930000 -12.82060000
-5.12960000 -16.96730000 -12.99720000
-4.52090000 -16.38260000 -13.11620000
-3.90440000 -15.79620000 -13.16680000
-3.28790000 -15.20860000 -13.14230000
-2.68050000 -14.61780000 -13.05590000
-2.08870000 -14.02300000 -12.91190000
-1.51480000 -13.42480000 -12.71780000
-0.95710000 -12.82550000 -12.48170000
-0.41570000 -12.22860000 -12.20290000
0.11100000 -11.63540000 -11.88880000
0.62860000 -11.04370000 -11.55560000
1.13100000 -10.45210000 -11.19840000
1.61210000 -9.86010000 -10.81390000
2.07710000 -9.26690000 -10.41350000
2.52800000 -8.67150000 -10.00430000
2.96520000 -8.07300000 -9.59080000
3.38750000 -7.47160000 -9.17490000
3.79430000 -6.87060000 -8.75550000
4.18730000 -6.27630000 -8.33160000
4.57560000 -5.69360000 -7.91150000
4.96120000 -5.12660000 -7.49610000
5.34390000 -4.57560000 -7.08420000
5.72000000 -4.03920000 -6.67580000
6.08580000 -3.51060000 -6.27370000
6.44450000 -2.98040000 -5.87630000
6.78540000 -2.44030000 -5.48090000
7.09080000 -1.89320000 -5.07130000
7.33180000 -1.36580000 -4.59430000
7.45760000 -0.93550000 -3.98410000
7.48680000 -0.68910000 -3.25850000
7.08250000 -0.56550000 -2.86880000
7.48190000 -0.57130000 -2.49020000
6.67610000 -0.49290000 -2.46210000
7.08140000 -0.49700000 -2.08790000
7.46030000 -0.50030000 -1.71140000
6.68960000 -0.44090000 -1.67450000
7.07520000 -0.44380000 -1.29700000
7.43430000 -0.44590000 -0.91750000
6.70650000 -0.40000000 -0.88090000
7.08210000 -0.40160000 -0.48890000
7.43770000 -0.39970000 -0.09250000
6.74160000 -0.37120000 -0.07630000
6.34710000 -0.37140000 -0.47540000
6.38830000 -0.35280000 0.31850000
6.30800000 -0.39770000 -1.26060000
6.27570000 -0.43730000 -2.04410000
-12.29190000 -23.14280000 -4.67590000
-12.61960000 -23.10680000 -4.69750000
-12.53660000 -23.10360000 -5.26950000
-11.93980000 -23.16090000 -4.65710000
-11.95290000 -23.16230000 -4.13240000
-12.30610000 -23.14260000 -4.11690000
-11.46490000 -23.16720000 -4.19500000
-11.36810000 -23.17140000 -3.72030000
-11.87140000 -23.16530000 -3.60730000
-10.94070000 -23.15480000 -4.34930000
-10.85320000 -23.16050000 -3.88500000
-10.72510000 -23.16800000 -3.43750000
-11.22470000 -23.17730000 -3.24450000
-10.50140000 -23.13720000 -4.56470000
-10.36300000 -23.14160000 -4.10940000
-10.23850000 -23.15080000 -3.67360000
-10.07660000 -23.16510000 -3.23350000
-10.55620000 -23.17830000 -2.98360000
-10.35770000 -23.19230000 -2.52480000
-10.82980000 -23.19640000 -2.29130000
-11.04220000 -23.18580000 -2.76790000
-9.88650000 -23.18510000 -2.78710000
-9.67550000 -23.20970000 -2.33440000
-10.13780000 -23.21120000 -2.06080000
-9.90360000 -23.23510000 -1.58930000
-10.34960000 -23.23070000 -1.32810000
-10.59650000 -23.21120000 -1.81250000
-9.45050000 -23.23830000 -1.87280000
-9.21480000 -23.26150000 -1.40020000
-9.65940000 -23.25620000 -1.10750000
-8.99860000 -23.23700000 -2.17260000
-8.76800000 -23.26140000 -1.70670000
-8.52490000 -23.27020000 -1.23500000
-8.96730000 -23.26980000 -0.91850000
-8.32650000 -23.25400000 -2.02600000
-8.08520000 -23.26520000 -1.56270000
-7.83210000 -23.25860000 -1.09920000
-8.26880000 -23.26180000 -0.76180000
-7.65290000 -23.25500000 -1.89990000
-7.40030000 -23.25260000 -1.44450000
-7.13520000 -23.23410000 -0.99250000
-7.56480000 -23.23960000 -0.63760000
-6.97610000 -23.23890000 -1.79550000
-6.71080000 -23.22460000 -1.35240000
-6.43210000 -23.20360000 -0.91720000
-6.85480000 -23.21270000 -0.54680000
-6.29330000 -23.20940000 -1.71560000
-6.01400000 -23.19230000 -1.29030000
-5.72060000 -23.17790000 -0.87590000
-6.13790000 -23.18800000 -0.49160000
-5.60200000 -23.17920000 -1.66540000
-5.30780000 -23.16680000 -1.26290000
-5.00040000 -23.16120000 -0.87400000
-5.41360000 -23.17090000 -0.47430000
-4.90000000 -23.15440000 -1.65140000
-4.59140000 -23.14870000 -1.27490000
-4.27330000 -23.14880000 -0.91010000
-4.68320000 -23.15970000 -0.49680000
-4.18690000 -23.13260000 -1.67710000
-3.86760000 -23.13180000 -1.32480000
-3.54350000 -23.13430000 -0.97960000
-3.94990000 -23.14890000 -0.55330000
-3.46690000 -23.11160000 -1.74240000
-3.14190000 -23.11530000 -1.40830000
-2.81810000 -23.12120000 -1.07270000
-3.22060000 -23.13520000 -0.63390000
-2.74680000 -23.09980000 -1.84150000
-2.42230000 -23.11010000 -1.51550000
-2.10220000 -23.12100000 -1.18360000
-2.49990000 -23.12560000 -0.73060000
-2.03510000 -23.10540000 -1.96550000
-1.71350000 -23.11930000 -1.64330000
-1.39480000 -23.13440000 -1.31700000
-1.78580000 -23.13140000 -0.84830000
-1.46820000 -23.13970000 -0.51280000
-1.86070000 -23.12770000 -0.04180000
-2.18250000 -23.12760000 -0.38560000
-1.07790000 -23.14860000 -0.98950000
-0.75810000 -23.15740000 -0.66560000
-1.14520000 -23.14390000 -0.18140000
-0.81390000 -23.14050000 0.14250000
-1.19130000 -23.11850000 0.62900000
-1.53100000 -23.12560000 0.29750000
-0.43240000 -23.15680000 -0.34870000
-0.09880000 -23.14370000 -0.04080000
-0.47290000 -23.12660000 0.45620000
-0.12210000 -23.10330000 0.75850000
-0.48160000 -23.08420000 1.26060000
-0.84100000 -23.10400000 0.95030000
0.24390000 -23.11810000 0.25630000
0.59220000 -23.08740000 0.54570000
0.23450000 -23.07690000 1.05360000
0.59480000 -23.05450000 1.34390000
0.25370000 -23.04950000 1.85860000
-0.11610000 -23.06480000 1.56210000
0.94400000 -23.06090000 0.82850000
1.29950000 -23.04430000 1.10370000
0.95910000 -23.03910000 1.62660000
1.32820000 -23.02870000 1.89890000
1.00900000 -23.02560000 2.42810000
0.62850000 -23.03730000 2.14850000
0.69960000 -23.02420000 2.95710000
0.30710000 -23.03570000 2.67040000
-0.07920000 -23.04490000 2.37410000
-0.01110000 -23.03190000 3.19110000
-0.40740000 -23.04030000 2.88870000
-0.79800000 -23.04800000 2.57770000
-0.45990000 -23.05420000 2.07090000
-1.18280000 -23.06040000 2.25790000
-0.83490000 -23.06780000 1.76040000
-1.56070000 -23.07710000 1.92860000
-1.20360000 -23.08500000 1.44080000
-1.93020000 -23.09300000 1.58950000
-1.56350000 -23.10040000 1.11080000
-2.28990000 -23.10520000 1.24130000
-1.91310000 -23.11120000 0.77120000
-2.63870000 -23.11540000 0.88590000
-2.25170000 -23.11920000 0.42390000
-2.97650000 -23.12570000 0.52590000
-2.58040000 -23.12640000 0.07180000
-3.30480000 -23.13620000 0.16410000
-2.90180000 -23.13230000 -0.28190000
-3.62700000 -23.14470000 -0.19660000
-3.70650000 -23.13680000 0.60860000
-4.03530000 -23.14820000 0.23950000
-4.36000000 -23.15650000 -0.12770000
-4.44300000 -23.15270000 0.67470000
-4.77270000 -23.16270000 0.29710000
-5.09680000 -23.16800000 -0.08400000
-5.18550000 -23.17280000 0.72200000
-5.51280000 -23.17830000 0.32750000
-5.83060000 -23.18120000 -0.07650000
-5.92930000 -23.19350000 0.73660000
-6.25020000 -23.19520000 0.31860000
-6.55890000 -23.19940000 -0.10960000
-6.67140000 -23.21090000 0.70990000
-6.98360000 -23.21150000 0.26850000
-7.28170000 -23.22080000 -0.18100000
-7.41100000 -23.21890000 0.64090000
-7.71250000 -23.22600000 0.17880000
-7.99830000 -23.24300000 -0.28940000
-8.14590000 -23.22470000 0.53190000
-8.43440000 -23.24180000 0.05070000
-8.70750000 -23.26090000 -0.43390000
-8.87110000 -23.23570000 0.38250000
-9.14500000 -23.25440000 -0.11680000
-9.40700000 -23.26350000 -0.61500000
-9.57680000 -23.24550000 0.18700000
-9.83800000 -23.25450000 -0.32830000
-10.09520000 -23.24880000 -0.83440000
-10.24580000 -23.24270000 -0.06770000
-10.51220000 -23.23760000 -0.58610000
-10.78040000 -23.22210000 -1.09100000
-10.88860000 -23.21540000 -0.37250000
-11.16430000 -23.20100000 -0.88950000
-11.43130000 -23.18400000 -1.40410000
-11.04100000 -23.20460000 -1.58950000
-11.68440000 -23.16990000 -1.92230000
-11.28880000 -23.19090000 -2.08620000
-11.91320000 -23.15830000 -2.45040000
-11.51690000 -23.17990000 -2.58530000
-12.10590000 -23.14940000 -2.99210000
-11.71530000 -23.17100000 -3.09160000
-12.24330000 -23.14450000 -3.54920000
-12.46600000 -23.11130000 -2.90700000
-12.58950000 -23.10920000 -3.50140000
-12.63940000 -23.10870000 -4.10450000
-12.91830000 -23.05540000 -3.46120000
-12.95760000 -23.05590000 -4.09580000
-12.93020000 -23.04590000 -4.71850000
-13.25490000 -22.95650000 -4.09060000
-13.22150000 -22.94290000 -4.74260000
-13.12690000 -22.92550000 -5.37200000
-12.84120000 -23.03450000 -5.32010000
-12.96990000 -22.89630000 -5.97030000
-12.69510000 -23.01540000 -5.89340000
-12.76260000 -22.86480000 -6.53730000
-13.03620000 -22.59340000 -5.97130000
-12.82170000 -22.56240000 -6.54610000
-12.56360000 -22.53900000 -7.09440000
-12.83090000 -22.24970000 -6.53650000
-12.57240000 -22.22410000 -7.08690000
-12.27960000 -22.19980000 -7.61380000
-12.56740000 -21.90090000 -7.07280000
-12.27330000 -21.86300000 -7.59950000
-11.95490000 -21.82740000 -8.10990000
-12.26700000 -21.47880000 -7.58260000
-11.94780000 -21.43860000 -8.09220000
-11.60360000 -21.39330000 -8.58270000
-11.94270000 -20.92170000 -8.06480000
-11.59660000 -20.86840000 -8.55310000
-11.22060000 -20.80890000 -9.01730000
-11.59110000 -20.28710000 -8.51440000
-11.21330000 -20.22740000 -8.97640000
-10.81270000 -20.16560000 -9.41980000
-11.20310000 -19.64180000 -8.92670000
-10.79830000 -19.58390000 -9.36640000
-10.37300000 -19.52800000 -9.78960000
-10.78500000 -19.00320000 -9.31020000
-10.35690000 -18.95210000 -9.73240000
-9.90990000 -18.90460000 -10.14020000
-10.34970000 -18.37720000 -9.68240000
-9.90130000 -18.33410000 -10.09180000
-9.43650000 -18.29450000 -10.48970000
-9.89830000 -17.76500000 -10.04860000
-9.43190000 -17.72920000 -10.44750000
-8.95070000 -17.69640000 -10.83600000
-9.43130000 -17.16500000 -10.40910000
-8.94890000 -17.13510000 -10.79820000
-8.45140000 -17.10770000 -11.17500000
-8.94910000 -16.57510000 -10.76220000
-8.45070000 -16.54980000 -11.13900000
-7.93860000 -16.52610000 -11.50330000
-8.45180000 -15.99290000 -11.10470000
-7.93890000 -15.97080000 -11.46820000
-7.41360000 -15.94910000 -11.81860000
-7.93990000 -15.41650000 -11.43370000
-7.41370000 -15.39570000 -11.78210000
-6.87700000 -15.37390000 -12.11660000
-7.41440000 -14.84340000 -11.74630000
-6.87860000 -14.82160000 -12.08070000
-6.33020000 -14.79770000 -12.39460000
-6.88160000 -14.27020000 -12.04710000
-6.33480000 -14.24600000 -12.36160000
-5.76560000 -14.22020000 -12.63210000
-6.34010000 -13.69500000 -12.33020000
-5.77280000 -13.66870000 -12.60230000
-5.18240000 -13.64080000 -12.81630000
-5.77960000 -13.11810000 -12.57120000
-5.19200000 -13.08900000 -12.78860000
-4.58610000 -13.05790000 -12.94170000
-5.20210000 -12.53730000 -12.76140000
-4.59850000 -12.50520000 -12.91890000
-3.98240000 -12.47080000 -13.00400000
-4.61050000 -11.95270000 -12.89260000
-3.99530000 -11.91740000 -12.97750000
-3.37620000 -11.88020000 -12.98620000
-4.00730000 -11.36460000 -12.94660000
-3.38890000 -11.32680000 -12.95500000
-2.77520000 -11.28790000 -12.88880000
-3.40020000 -10.77420000 -12.92310000
-2.78650000 -10.73500000 -12.85660000
-2.18320000 -10.69480000 -12.73050000
-2.79560000 -10.18300000 -12.82640000
-2.19160000 -10.14280000 -12.69940000
-1.60050000 -10.10220000 -12.52370000
-2.19800000 -9.59170000 -12.66770000
-1.60640000 -9.55140000 -12.48980000
-1.02940000 -9.51070000 -12.27150000
-1.61070000 -9.00140000 -12.45340000
-1.03300000 -8.96060000 -12.23410000
-0.47040000 -8.91910000 -11.98270000
-1.03480000 -8.41110000 -12.19470000
-0.47150000 -8.36890000 -11.94250000
0.07480000 -8.32520000 -11.66190000
-0.47020000 -7.81860000 -11.90130000
0.07710000 -7.77350000 -11.62070000
0.60460000 -7.72670000 -11.31230000
0.08200000 -7.22160000 -11.57850000
0.60980000 -7.17290000 -11.26850000
1.11550000 -7.12270000 -10.93280000
0.61670000 -6.61900000 -11.22190000
1.12270000 -6.56610000 -10.88370000
1.60720000 -6.51130000 -10.52700000
1.13190000 -6.00970000 -10.83100000
1.61710000 -5.95080000 -10.47120000
2.08300000 -5.89060000 -10.10370000
1.62890000 -5.39090000 -10.41020000
2.09470000 -5.32380000 -10.03790000
2.54020000 -5.25900000 -9.66540000
2.11040000 -4.75680000 -9.96920000
2.55440000 -4.68240000 -9.59300000
2.97770000 -4.61690000 -9.22420000
2.57390000 -4.10110000 -9.51980000
2.99210000 -4.02470000 -9.15160000
3.38980000 -3.96820000 -8.79740000
3.00670000 -3.42100000 -9.07810000
3.39450000 -3.35490000 -8.73010000
3.76800000 -3.32130000 -8.39470000
3.39210000 -2.72060000 -8.66230000
3.75460000 -2.68550000 -8.33540000
4.11460000 -2.69380000 -8.01120000
3.72330000 -2.03720000 -8.26180000
4.08480000 -2.05430000 -7.93880000
4.44690000 -2.11150000 -7.61980000
4.02720000 -1.43840000 -7.81310000
4.40430000 -1.49860000 -7.48420000
4.77980000 -1.60470000 -7.16970000
4.31120000 -0.96520000 -7.26150000
4.68720000 -1.05740000 -6.92470000
5.05870000 -1.14570000 -6.61800000
4.51080000 -0.59830000 -6.65000000
4.18190000 -0.48440000 -7.02470000
3.83420000 -0.37550000 -7.40710000
3.92640000 -0.89260000 -7.61480000
3.53780000 -0.85090000 -7.96610000
3.46990000 -0.29730000 -7.78000000
3.65020000 -1.41420000 -8.14490000
3.27560000 -1.43250000 -8.48170000
3.14540000 -0.85620000 -8.31350000
3.36360000 -2.06930000 -8.58650000
2.99820000 -2.16270000 -8.92340000
2.90720000 -1.52430000 -8.82570000
3.01570000 -2.80100000 -9.00320000
2.60990000 -2.91940000 -9.37020000
2.60580000 -2.32030000 -9.29270000
2.59420000 -3.51400000 -9.44580000
2.15080000 -3.62080000 -9.82990000
2.16650000 -3.05260000 -9.76100000
2.13030000 -4.18920000 -9.89950000
1.66000000 -4.27410000 -10.28000000
1.67930000 -3.71800000 -10.21510000
1.64280000 -4.83200000 -10.34580000
1.15480000 -4.89930000 -10.71150000
1.17010000 -4.34600000 -10.64930000
1.14260000 -5.45400000 -10.77330000
0.63640000 -5.51180000 -11.11890000
0.64820000 -4.95950000 -11.06100000
0.62580000 -6.06510000 -11.17250000
0.09820000 -6.11760000 -11.48920000
0.10910000 -5.56590000 -11.44030000
0.08910000 -6.66960000 -11.53500000
-0.45860000 -6.71790000 -11.82090000
-0.44950000 -6.16750000 -11.77890000
-0.46580000 -7.26830000 -11.86090000
-1.03040000 -7.31270000 -12.11660000
-1.02410000 -6.76380000 -12.07880000
-1.03420000 -7.86180000 -12.15480000
-1.61350000 -7.90360000 -12.37790000
-1.61090000 -7.35550000 -12.34180000
-1.61340000 -8.45220000 -12.41520000
-2.20650000 -8.49270000 -12.59790000
-2.20810000 -7.94470000 -12.56190000
-2.20290000 -9.04170000 -12.63400000
-2.80860000 -9.08200000 -12.76540000
-2.81350000 -8.53340000 -12.73090000
-2.80270000 -9.63190000 -12.79700000
-3.41810000 -9.67200000 -12.86310000
-3.42530000 -9.12270000 -12.83230000
-3.40990000 -10.22260000 -12.89270000
-4.02850000 -10.26180000 -12.88430000
-4.03760000 -9.71210000 -12.85440000
-4.01840000 -10.81270000 -12.91530000
-4.63240000 -10.85000000 -12.83140000
-4.64240000 -10.30020000 -12.79980000
-4.62170000 -11.40100000 -12.86260000
-5.22380000 -11.43560000 -12.70760000
-5.23390000 -10.88580000 -12.67660000
-5.21310000 -11.98620000 -12.73590000
-5.79640000 -12.01760000 -12.51380000
-5.80660000 -11.46830000 -12.48650000
-5.78790000 -12.56750000 -12.54280000
-6.34980000 -12.59580000 -12.26570000
-6.35630000 -12.04700000 -12.23510000
-6.34480000 -13.14500000 -12.29790000
-6.88860000 -13.17020000 -11.98240000
-6.89140000 -12.62170000 -11.94880000
-6.88540000 -13.71970000 -12.01510000
-7.41820000 -13.74170000 -11.67910000
-7.42020000 -13.19250000 -11.64600000
-7.41590000 -14.29200000 -11.71200000
-7.94070000 -14.31170000 -11.36360000
-7.94130000 -13.76110000 -11.32920000
-7.94040000 -14.86350000 -11.39870000
-8.45380000 -14.88300000 -11.03600000
-8.45260000 -14.33030000 -10.99940000
-8.45350000 -15.43730000 -11.07120000
-8.95150000 -15.45880000 -10.69260000
-8.95080000 -14.90310000 -10.65590000
-8.95050000 -16.01630000 -10.72760000
-9.43340000 -16.04110000 -10.33630000
-9.43360000 -15.48170000 -10.29930000
-9.43230000 -16.60230000 -10.37250000
-9.90010000 -16.63180000 -9.97090000
-9.90080000 -16.06810000 -9.93250000
-9.89880000 -17.19750000 -10.00910000
-10.34840000 -17.23310000 -9.59560000
-10.35020000 -16.66430000 -9.55550000
-10.34750000 -17.80410000 -9.63720000
-10.77660000 -17.84710000 -9.21110000
-10.77740000 -17.27250000 -9.16660000
-10.77850000 -18.42410000 -9.25870000
-11.18700000 -18.47460000 -8.82030000
-11.18600000 -17.89410000 -8.77120000
-11.19210000 -19.05740000 -8.87210000
-11.57670000 -19.11350000 -8.41670000
-11.57450000 -18.52800000 -8.36650000
-11.58390000 -19.70020000 -8.46790000
-11.93610000 -19.75800000 -7.98670000
-11.93370000 -19.17060000 -7.94010000
-11.93960000 -20.34390000 -8.02900000
-12.26020000 -20.39770000 -7.52240000
-12.25740000 -19.81440000 -7.48260000
-12.26270000 -20.96930000 -7.55620000
-12.55720000 -21.00640000 -7.02910000
-12.55270000 -20.44670000 -6.99610000
-12.56180000 -21.52230000 -7.05540000
-12.81910000 -21.55150000 -6.50470000
-12.81230000 -21.04520000 -6.47850000
-12.82550000 -21.92620000 -6.52220000
-13.03670000 -21.95210000 -5.94570000
-13.02940000 -21.57450000 -5.92880000
-13.04220000 -22.27850000 -5.95960000
-13.19680000 -22.31400000 -5.35600000
-13.19300000 -21.98480000 -5.34470000
-13.19280000 -22.62950000 -5.36750000
-13.28410000 -22.66230000 -4.73620000
-13.28850000 -22.34660000 -4.72790000
-13.32630000 -22.36810000 -4.07970000
-13.32820000 -22.04240000 -4.07980000
-13.28710000 -22.01680000 -4.72110000
-13.32060000 -22.68230000 -4.08260000
-13.29130000 -22.68320000 -3.41860000
-13.30140000 -22.36080000 -3.42170000
