-2.84110000 -2.21310000 -0.93260000
-2.59960000 -2.16660000 -0.93540000
-2.98830000 -2.95960000 -1.64740000
-3.04270000 -2.76150000 -1.64840000
-2.96850000 -2.65190000 -1.64670000
-2.86690000 -2.86670000 -1.65060000
-2.98440000 -3.12120000 -1.64730000
-2.86610000 -2.62810000 -1.65260000
-2.79060000 -2.69670000 -1.65160000
-2.91270000 -2.44050000 -1.64880000
-2.89110000 -2.37690000 -1.65110000
-2.86260000 -2.56800000 -1.65700000
-2.77810000 -2.48790000 -1.65890000
-2.77730000 -2.64920000 -1.65610000
-2.65630000 -2.81880000 -1.65790000
-2.68990000 -2.57620000 -1.65840000
-2.53900000 -2.76690000 -1.66140000
-2.71690000 -2.82990000 -0.94580000
-2.70770000 -2.74990000 -0.95090000
-2.47900000 -2.59220000 -1.66530000
-2.60530000 -2.49580000 -1.65880000
-3.39990000 -1.36560000 -0.90430000
-3.47460000 -0.90510000 -0.88680000
-3.12600000 -0.90700000 -0.89620000
-3.22300000 -1.45390000 -0.90860000
-3.20810000 -1.27840000 -0.90660000
-3.16330000 -1.49230000 -0.91240000
-3.01930000 -1.51790000 -0.91250000
-3.07100000 -1.27140000 -0.90650000
-3.00750000 -1.37260000 -0.90670000
-2.87370000 -1.21240000 -0.90750000
-3.32210000 -0.58570000 -0.87800000
-2.81630000 -0.63580000 -0.88650000
-2.69270000 -1.01800000 -0.90430000
-2.91090000 -1.61060000 -0.91480000
-2.83640000 -1.54480000 -0.91690000
-2.88480000 -1.34500000 -0.91040000
-2.75110000 -1.38990000 -0.91280000
-2.62910000 -1.51180000 -0.91830000
-2.49200000 -1.15270000 -0.91050000
-2.43250000 -0.80870000 -0.89810000
-2.27070000 -1.12370000 -0.91490000
-3.49620000 -1.83960000 -1.62120000
-3.39010000 -1.87790000 -1.63180000
-3.39490000 -1.80640000 -1.62900000
-3.33600000 -1.72930000 -1.63050000
-3.27600000 -1.94150000 -1.65160000
-3.26800000 -1.89700000 -1.64550000
-3.26330000 -1.84340000 -1.63500000
-3.23550000 -1.74240000 -1.62970000
-3.15750000 -1.84210000 -1.63300000
-3.12830000 -1.72290000 -1.62970000
-3.30580000 -1.58500000 -1.62800000
-3.29680000 -1.49600000 -1.61990000
-3.24610000 -1.64420000 -1.63000000
-3.18290000 -1.58630000 -1.62450000
-3.26290000 -1.45930000 -1.62420000
-3.24820000 -1.40300000 -1.62210000
-3.16890000 -1.54120000 -1.62460000
-3.20550000 -1.44400000 -1.62880000
-3.14070000 -1.52440000 -1.63220000
-3.16890000 -1.47990000 -1.63460000
-3.16520000 -1.34010000 -1.62310000
-3.13570000 -1.43090000 -1.62910000
-3.11310000 -1.37990000 -1.63100000
-3.09410000 -1.65480000 -1.62880000
-3.09230000 -1.45290000 -1.63570000
-3.08690000 -1.51680000 -1.63820000
-3.05510000 -1.59450000 -1.63920000
-3.07780000 -1.59430000 -1.63300000
-3.02630000 -1.49700000 -1.63930000
-3.01130000 -1.62580000 -1.64380000
-2.95850000 -1.55570000 -1.63570000
-2.95200000 -1.64680000 -1.64210000
-3.02360000 -1.70830000 -1.63850000
-2.94640000 -1.46120000 -1.63430000
-2.88150000 -1.62790000 -1.63630000
-3.26890000 -1.99930000 -1.65500000
-3.21890000 -1.98240000 -1.65590000
-3.18450000 -1.89690000 -1.64570000
-3.15170000 -1.92870000 -1.64680000
-3.13470000 -1.99630000 -1.64830000
-3.07880000 -1.84230000 -1.63430000
-3.19550000 -2.06060000 -1.64890000
-3.14570000 -2.11550000 -1.64320000
-3.11330000 -2.07060000 -1.64750000
-3.05090000 -2.13290000 -1.64620000
-3.03340000 -2.02370000 -1.64580000
-3.03750000 -1.94370000 -1.64240000
-2.95250000 -1.89590000 -1.64160000
-2.95920000 -2.14030000 -1.64320000
-2.94230000 -2.27730000 -1.65490000
-2.87390000 -2.23910000 -1.64930000
-2.88830000 -2.26790000 -1.65260000
-2.87050000 -2.17670000 -1.64490000
-2.93550000 -2.03360000 -1.64940000
-2.88380000 -1.91630000 -1.64770000
-2.92970000 -2.09390000 -1.64670000
-2.81050000 -1.98440000 -1.64980000
-2.84010000 -2.12190000 -1.64940000
-2.84390000 -2.05150000 -1.65280000
-2.89270000 -2.30250000 -1.66030000
-3.03480000 -1.80070000 -1.63780000
-2.89710000 -1.75240000 -1.64180000
-2.83930000 -1.83740000 -1.64450000
-2.80010000 -1.92180000 -1.65010000
-2.70080000 -1.93210000 -1.64950000
-2.64670000 -1.85940000 -1.65320000
-2.79910000 -1.70710000 -1.64160000
-2.63410000 -1.75720000 -1.65340000
-2.66040000 -1.66280000 -1.64920000
-2.82800000 -1.49570000 -1.63780000
-3.09270000 -1.29200000 -1.62390000
-2.96450000 -1.19880000 -1.62670000
-3.02570000 -1.35520000 -1.63000000
-3.02390000 -1.38370000 -1.63530000
-2.94350000 -1.33900000 -1.62870000
-2.95610000 -1.39860000 -1.63380000
-2.82470000 -1.26070000 -1.63220000
-2.93970000 -1.01380000 -1.61910000
-2.81770000 -0.71690000 -1.61540000
-2.71560000 -0.93180000 -1.62710000
-2.64320000 -1.04680000 -1.63600000
-2.60760000 -1.46370000 -1.64770000
-2.56660000 -1.58450000 -1.65390000
-2.68410000 -1.34520000 -1.64330000
-2.50590000 -1.23920000 -1.64760000
-2.46100000 -0.97830000 -1.64280000
-2.33780000 -1.28680000 -1.66060000
-2.30380000 -1.12160000 -1.65700000
-2.43140000 -1.41830000 -1.65750000
-3.00550000 -1.76010000 -0.92050000
-2.93970000 -1.88310000 -0.92300000
-2.86070000 -1.84720000 -0.92460000
-2.67710000 -1.97070000 -0.93190000
-2.83880000 -1.76020000 -0.92440000
-2.75100000 -1.70420000 -0.92210000
-2.73700000 -1.47170000 -0.91730000
-2.59650000 -2.00050000 -0.93140000
-2.69160000 -1.84660000 -0.92700000
-2.47600000 -1.69880000 -0.92860000
-2.33890000 -2.00240000 -0.93900000
-2.81520000 -2.18410000 -1.65080000
-2.75400000 -2.10930000 -1.65020000
-2.78050000 -2.22110000 -1.65930000
-2.68130000 -2.19250000 -1.65660000
-2.81590000 -2.28990000 -1.66150000
-2.78580000 -2.35350000 -1.65980000
-2.73890000 -2.28230000 -1.66750000
-2.68330000 -2.31640000 -1.66360000
-2.71960000 -2.23810000 -1.66520000
-2.65250000 -2.25130000 -1.66070000
-2.45120000 -2.16810000 -1.66480000
-2.66710000 -2.39500000 -1.65810000
-2.57600000 -2.30300000 -1.65860000
-2.52520000 -2.22700000 -1.66000000
-2.46610000 -2.40720000 -1.66630000
-2.36710000 -2.36590000 -1.66940000
-2.65740000 -2.02740000 -1.65490000
-2.64130000 -1.96940000 -1.65180000
-2.57910000 -2.06590000 -1.65570000
-2.53630000 -1.98750000 -1.66080000
-2.50580000 -1.81520000 -1.65730000
-2.45790000 -2.02150000 -1.66440000
-2.37500000 -1.88470000 -1.66510000
-2.38430000 -2.11010000 -1.66630000
-2.30080000 -1.99080000 -1.67130000
-2.24430000 -2.09030000 -1.67430000
-2.19580000 -2.04060000 -1.67320000
-2.21640000 -2.20800000 -1.67630000
-2.20620000 -2.34510000 -1.67760000
-2.18700000 -2.26660000 -1.67530000
-2.16530000 -2.33230000 -1.66610000
-2.16260000 -2.26940000 -1.66310000
-2.15340000 -2.33390000 -1.64740000
-2.14910000 -2.25590000 -1.61940000
-2.18200000 -2.37720000 -1.67460000
-2.16070000 -2.40510000 -1.66000000
-2.15030000 -2.09220000 -1.62420000
-2.15140000 -2.12690000 -1.64310000
-2.15990000 -2.08800000 -1.65510000
-2.13980000 -2.36260000 -1.50010000
-2.14280000 -2.16950000 -1.55680000
-2.13400000 -2.01490000 -1.41590000
-2.14410000 -2.01330000 -1.55820000
-2.17870000 -2.11970000 -1.67070000
-2.17490000 -2.22110000 -1.67030000
-2.15940000 -2.19440000 -1.65720000
-2.16210000 -2.12970000 -1.66300000
-2.15180000 -2.20930000 -1.63940000
-2.12820000 -1.11130000 -1.46950000
-2.12560000 -1.23380000 -1.42230000
-2.13990000 -1.35400000 -1.55660000
-2.22450000 -1.79350000 -0.93760000
-2.28280000 -1.51510000 -0.92750000
-2.20750000 -1.42950000 -0.92630000
-2.16790000 -1.32360000 -0.92730000
-2.13670000 -1.39590000 -0.93770000
-2.13520000 -1.29570000 -0.93540000
-2.12230000 -1.37580000 -0.95020000
-2.11300000 -1.33860000 -0.95710000
-2.11760000 -1.29750000 -0.94670000
-2.11310000 -1.37170000 -0.97490000
-2.11140000 -1.33640000 -1.00180000
-2.10920000 -1.26720000 -0.97060000
-2.11610000 -1.49730000 -1.06830000
-2.11290000 -1.18830000 -1.14270000
-2.18760000 -1.02230000 -0.91500000
-2.16730000 -1.14800000 -0.92100000
-2.14680000 -1.05900000 -0.91660000
-2.13220000 -1.11870000 -0.92400000
-2.14200000 -1.15720000 -0.92570000
-2.10800000 -1.09630000 -0.94110000
-2.12410000 -1.07430000 -0.92400000
-2.14160000 -1.22250000 -0.93030000
-2.12650000 -1.17710000 -0.93380000
-2.11910000 -1.21020000 -0.94160000
-2.11010000 -1.20010000 -0.95340000
-2.11580000 -1.25280000 -0.94840000
-2.11710000 -1.13340000 -0.93490000
-2.10890000 -1.15280000 -0.95070000
-2.10710000 -1.12850000 -0.99630000
-2.10260000 -1.10360000 -0.95950000
-2.12730000 -1.38980000 -1.38020000
-2.12620000 -1.57890000 -1.32020000
-2.13390000 -1.69660000 -1.45260000
-2.11980000 -1.17750000 -1.33240000
-2.34890000 -1.65720000 -1.66560000
-2.43470000 -1.53710000 -1.65640000
-2.28280000 -1.71670000 -1.66740000
-2.22480000 -1.83290000 -1.67150000
-2.30850000 -1.42480000 -1.66340000
-2.23120000 -1.38000000 -1.66730000
-2.21360000 -1.28160000 -1.66810000
-2.20360000 -1.56790000 -1.66980000
-2.18230000 -1.63310000 -1.67120000
-2.18840000 -1.69140000 -1.66910000
-2.17520000 -1.56710000 -1.66480000
-2.16140000 -1.58090000 -1.65520000
-2.18790000 -1.51060000 -1.66710000
-2.17150000 -1.44270000 -1.66250000
-2.16410000 -1.50590000 -1.65730000
-2.15290000 -1.54110000 -1.63950000
-2.15490000 -1.46550000 -1.64840000
-2.14970000 -1.43590000 -1.62980000
-2.14570000 -1.49290000 -1.60070000
-2.18320000 -1.42110000 -1.66550000
-2.18340000 -1.34840000 -1.66670000
-2.16270000 -1.36350000 -1.65780000
-2.14640000 -1.23630000 -1.61970000
-2.15160000 -1.31400000 -1.64150000
-2.15660000 -1.24780000 -1.64760000
-2.17210000 -1.28170000 -1.66290000
-2.19430000 -1.25020000 -1.66410000
-2.16260000 -1.30890000 -1.65780000
-2.15540000 -1.38900000 -1.64730000
-2.14720000 -1.33070000 -1.62390000
-2.18730000 -1.75270000 -1.66740000
-2.16390000 -1.71730000 -1.65760000
-2.15720000 -1.80030000 -1.65000000
-2.15180000 -1.72770000 -1.63040000
-2.14140000 -1.67480000 -1.53950000
-2.15100000 -1.90550000 -1.62700000
-2.12310000 -1.81340000 -1.16710000
-2.16670000 -2.02360000 -1.66110000
-2.17570000 -1.98010000 -1.66880000
-2.15440000 -2.00120000 -1.64060000
-2.15540000 -1.92090000 -1.64490000
-2.17110000 -1.90730000 -1.66520000
-2.16150000 -1.86780000 -1.65420000
-2.19240000 -1.88000000 -1.67130000
-2.16170000 -1.96090000 -1.65940000
-2.17570000 -1.81030000 -1.66590000
-2.15330000 -1.61420000 -1.64030000
-2.16360000 -1.64280000 -1.66200000
-3.63380000 -0.14770000 -1.54300000
-3.64220000 -0.16150000 -1.56260000
-3.62260000 -0.17560000 -1.56890000
-3.14200000 -0.16660000 -1.12030000
-3.31730000 -0.17170000 -0.91840000
-3.31100000 -0.17570000 -0.89060000
-3.30300000 -0.18970000 -0.87140000
-3.27110000 -0.17850000 -0.88150000
-3.24700000 -0.17230000 -0.90260000
-3.59990000 -0.14520000 -1.52070000
-3.49960000 -0.14550000 -1.46980000
-3.58970000 -0.14850000 -1.54980000
-3.57050000 -0.15920000 -1.56230000
-3.55220000 -0.17410000 -1.56880000
-3.48200000 -0.17960000 -1.57490000
-3.53310000 -0.14480000 -1.52950000
-3.52000000 -0.14650000 -1.54780000
-3.51130000 -0.15520000 -1.56370000
-3.48590000 -0.14200000 -1.53150000
-3.47690000 -0.16060000 -1.57150000
-3.46720000 -0.14450000 -1.55270000
-3.36860000 -0.14210000 -1.53370000
-3.43620000 -0.15220000 -1.56490000
-3.40870000 -0.14500000 -1.55160000
-3.19050000 -0.14200000 -1.51900000
-3.44060000 -0.27730000 -1.58350000
-3.42930000 -0.16370000 -1.57250000
-3.31030000 -0.17150000 -1.57880000
-3.35530000 -0.21690000 -1.58450000
-3.22110000 -0.27300000 -1.59060000
-3.33840000 -0.15130000 -1.56610000
-3.26770000 -0.14490000 -1.55620000
-3.23540000 -0.19890000 -1.58600000
-3.22120000 -0.15620000 -1.57390000
-3.18930000 -0.16290000 -1.57960000
-3.00150000 -0.14920000 -1.40320000
-2.75850000 -0.16430000 -1.24800000
-3.13210000 -0.21150000 -1.59220000
-3.17150000 -0.14440000 -1.55860000
-3.05560000 -0.14310000 -1.55300000
-3.16600000 -0.17430000 -1.58470000
-3.14460000 -0.14880000 -1.56990000
-3.11510000 -0.16580000 -1.58600000
-3.04250000 -0.19880000 -1.59560000
-3.03240000 -0.28580000 -1.60150000
-2.83710000 -0.36350000 -1.61020000
-2.82770000 -0.54100000 -1.61200000
-3.08490000 -0.15330000 -1.58050000
-3.03250000 -0.16710000 -1.59050000
-3.02570000 -0.14720000 -1.57290000
-2.99450000 -0.15200000 -1.58230000
-2.97480000 -0.16340000 -1.59120000
-2.96600000 -0.14390000 -1.53970000
-2.95610000 -0.14620000 -1.57060000
-2.89870000 -0.14500000 -1.55980000
-2.83080000 -0.14780000 -1.53590000
-2.86770000 -0.22940000 -1.60440000
-2.92740000 -0.18190000 -1.59790000
-2.92330000 -0.14950000 -1.58030000
-2.89850000 -0.16120000 -1.59110000
-2.84910000 -0.14970000 -1.57530000
-2.86210000 -0.16630000 -1.59510000
-2.81820000 -0.18530000 -1.60160000
-2.82210000 -0.15520000 -1.58590000
-2.77370000 -0.16900000 -1.59680000
-2.75790000 -0.15110000 -1.57520000
-3.26850000 -0.20960000 -0.86520000
-3.25680000 -0.19380000 -0.86920000
-3.22510000 -0.19190000 -0.87230000
-3.21180000 -0.17900000 -0.88590000
-3.19300000 -0.21230000 -0.86700000
-3.18250000 -0.18530000 -0.87640000
-3.19480000 -0.17080000 -0.92120000
-3.18460000 -0.17280000 -0.89870000
-3.13010000 -0.17410000 -0.89190000
-3.09090000 -0.17080000 -0.91080000
-3.04960000 -0.17140000 -0.94210000
-3.13920000 -0.18980000 -0.87240000
-3.07670000 -0.20700000 -0.86930000
-3.08740000 -0.18020000 -0.88380000
-3.07120000 -0.19100000 -0.87450000
-2.80530000 -0.17680000 -1.01670000
-2.95020000 -0.25980000 -0.86990000
-3.02650000 -0.20450000 -0.86960000
-3.03480000 -0.17400000 -0.88940000
-3.01500000 -0.18900000 -0.87480000
-3.00150000 -0.17950000 -0.88460000
-2.98820000 -0.17070000 -0.91650000
-2.97860000 -0.21320000 -0.87020000
-2.96690000 -0.19750000 -0.87470000
-2.97010000 -0.17860000 -0.89160000
-2.93280000 -0.17590000 -0.89730000
-2.84950000 -0.17430000 -0.93900000
-2.90500000 -0.17200000 -0.91610000
-2.88430000 -0.21370000 -0.87170000
-2.90410000 -0.19150000 -0.87780000
-2.89450000 -0.17940000 -0.88830000
-2.86070000 -0.17790000 -0.89580000
-2.81050000 -0.17820000 -0.90030000
-2.83180000 -0.19370000 -0.87900000
-2.80850000 -0.18610000 -0.88500000
-2.79650000 -0.21550000 -0.87170000
-2.78470000 -0.19960000 -0.87500000
-2.77170000 -0.18770000 -0.88250000
-2.74390000 -0.24500000 -1.60800000
-2.58810000 -0.15330000 -1.51490000
-2.70390000 -0.15010000 -1.55680000
-2.72760000 -0.18300000 -1.60410000
-2.73140000 -0.16210000 -1.59500000
-2.68940000 -0.24460000 -1.61250000
-2.69030000 -0.15450000 -1.58330000
-2.68410000 -0.16470000 -1.59850000
-2.68370000 -0.19300000 -1.60870000
-2.63610000 -0.22790000 -1.61040000
-2.63400000 -0.15440000 -1.58560000
-2.62060000 -0.17980000 -1.60600000
-2.61020000 -0.16170000 -1.59640000
-2.55060000 -0.15350000 -1.56880000
-2.57550000 -0.16750000 -1.60110000
-2.56470000 -0.15540000 -1.58220000
-2.39630000 -0.17310000 -1.26650000
-2.49500000 -0.42270000 -0.88060000
-2.63030000 -0.26580000 -0.87580000
-2.74260000 -0.20970000 -0.87310000
-2.75540000 -0.17630000 -0.91690000
-2.74580000 -0.17930000 -0.89530000
-2.64230000 -0.18020000 -0.92920000
-2.72400000 -0.19190000 -0.88200000
-2.69040000 -0.18070000 -0.91030000
-2.67850000 -0.18890000 -0.89060000
-2.68290000 -0.20900000 -0.87760000
-2.61570000 -0.18460000 -0.90010000
-2.52770000 -0.18150000 -1.03760000
-2.59840000 -0.22000000 -0.87590000
-2.63210000 -0.19560000 -0.88200000
-2.58610000 -0.19760000 -0.88270000
-2.53860000 -0.18470000 -0.92080000
-2.53940000 -0.19910000 -0.88630000
-2.52230000 -0.18970000 -0.90160000
-2.50950000 -0.21740000 -0.87770000
-2.49480000 -0.20370000 -0.88150000
-2.48180000 -0.19380000 -0.89040000
-2.46940000 -0.22950000 -0.87790000
-2.38240000 -0.31730000 -0.88020000
-2.44680000 -0.21190000 -0.88050000
-2.46720000 -0.18790000 -0.90750000
-2.37620000 -0.18960000 -0.97940000
-2.43320000 -0.19980000 -0.88910000
-2.41880000 -0.19260000 -0.91060000
-2.26520000 -0.18050000 -1.25560000
-2.52040000 -0.15720000 -1.58970000
-2.45140000 -0.15640000 -1.56870000
-2.41000000 -0.15840000 -1.53640000
-2.19070000 -0.17140000 -1.47650000
-2.26900000 -0.16600000 -1.53190000
-2.16740000 -0.17730000 -1.38990000
-2.16210000 -0.18570000 -1.24920000
-2.13350000 -0.19180000 -1.30550000
-2.13070000 -0.19150000 -1.35050000
-2.15020000 -0.18210000 -1.37240000
-2.14190000 -0.19010000 -1.41140000
-2.11600000 -0.20750000 -1.33800000
-2.11090000 -0.22710000 -1.37350000
-2.12320000 -0.21230000 -1.42140000
-2.18730000 -0.59060000 -0.89710000
-2.30930000 -0.58990000 -0.89050000
-2.30940000 -0.25910000 -0.88210000
-2.39890000 -0.22070000 -0.88140000
-2.38460000 -0.20770000 -0.88840000
-2.36240000 -0.19440000 -0.91510000
-2.34160000 -0.22340000 -0.88220000
-2.35510000 -0.20430000 -0.89180000
-2.32580000 -0.20320000 -0.89580000
-2.29270000 -0.19990000 -0.91780000
-2.21580000 -0.19920000 -0.97710000
-2.30280000 -0.23810000 -0.88230000
-2.29110000 -0.22220000 -0.88600000
-2.24860000 -0.23320000 -0.88600000
-2.27740000 -0.21130000 -0.89590000
-2.24310000 -0.21060000 -0.90200000
-2.19930000 -0.20450000 -0.92400000
-2.20520000 -0.33850000 -0.88690000
-2.13940000 -0.35030000 -0.89300000
-2.14170000 -0.42700000 -0.89600000
-2.21250000 -0.22760000 -0.88760000
-2.18490000 -0.21410000 -0.89930000
-2.17040000 -0.24300000 -0.88400000
-2.15830000 -0.22620000 -0.88880000
-2.10580000 -0.38960000 -0.90100000
-2.09580000 -0.35410000 -0.90650000
-2.12860000 -0.24220000 -0.88650000
-2.11670000 -0.28370000 -0.89120000
-2.10250000 -0.27070000 -0.89830000
-2.10340000 -0.32090000 -0.89890000
-2.08890000 -0.31090000 -0.91570000
-2.08900000 -0.28590000 -0.93260000
-2.09370000 -0.26240000 -0.90990000
-2.09310000 -0.39620000 -1.11060000
-2.09870000 -0.68100000 -1.07580000
-2.10160000 -0.60550000 -1.20730000
-2.08920000 -0.35380000 -0.98990000
-2.09330000 -0.47970000 -1.03150000
-2.08650000 -0.39320000 -0.94480000
-2.08650000 -0.26420000 -0.98930000
-2.08660000 -0.38760000 -0.91770000
-2.10400000 -0.47100000 -1.28960000
-2.15080000 -0.83100000 -0.91070000
-2.14630000 -0.91180000 -0.91380000
-2.11970000 -0.88760000 -0.92440000
-2.15520000 -0.73050000 -0.90410000
-2.13500000 -0.65070000 -0.90490000
-2.11660000 -0.70220000 -0.91240000
-2.10410000 -0.65720000 -0.92180000
-2.13660000 -0.78050000 -0.90860000
-2.12010000 -0.75710000 -0.91360000
-2.13080000 -0.72900000 -0.90870000
-2.11510000 -0.81330000 -0.91950000
-2.10370000 -0.77270000 -0.92580000
-2.09890000 -0.80510000 -0.94100000
-2.10460000 -0.85860000 -0.93580000
-2.10120000 -0.83780000 -1.00370000
-2.10230000 -0.92490000 -0.96430000
-2.09750000 -0.76100000 -0.96150000
-2.10440000 -0.73160000 -0.92560000
-2.09900000 -0.74940000 -0.93800000
-2.10080000 -0.68670000 -0.92730000
-2.09680000 -0.69760000 -0.94390000
-2.13670000 -1.01010000 -0.91820000
-2.11530000 -0.98010000 -0.92670000
-2.12520000 -0.94340000 -0.92310000
-2.10670000 -0.92920000 -0.94330000
-2.12520000 -0.59920000 -0.90420000
-2.10930000 -0.62560000 -0.91410000
-2.10610000 -0.55390000 -0.91030000
-2.13530000 -0.52620000 -0.89850000
-2.09520000 -0.56410000 -0.92530000
-2.10410000 -0.59080000 -0.91260000
-2.09460000 -0.60450000 -0.92530000
-2.09530000 -0.63900000 -0.94300000
-2.09250000 -0.59210000 -0.94430000
-2.12150000 -0.47440000 -0.90380000
-2.11200000 -0.51550000 -0.90920000
-2.09270000 -0.46840000 -0.92050000
-2.09440000 -0.51510000 -0.93000000
-2.09000000 -0.50150000 -0.95030000
-2.09900000 -0.42950000 -0.90640000
-2.08540000 -0.44290000 -0.93390000
-2.14470000 -0.20820000 -0.91390000
-2.12680000 -0.21600000 -0.90130000
-2.14880000 -0.20170000 -0.96400000
-2.11700000 -0.20310000 -0.99980000
-2.11760000 -0.20930000 -0.93670000
-2.09890000 -0.21250000 -0.98250000
-2.09680000 -0.22250000 -0.94150000
-2.09030000 -0.24130000 -0.94600000
-2.10730000 -0.22790000 -0.90330000
-2.15090000 -0.19550000 -1.08200000
-2.12940000 -0.19990000 -1.10590000
-2.13010000 -0.19780000 -1.20800000
-2.11260000 -0.20480000 -1.04490000
-2.10060000 -0.21680000 -1.07620000
-2.11850000 -0.20470000 -1.12150000
-2.10640000 -0.21520000 -1.14650000
-2.10750000 -0.21950000 -1.19460000
-2.09630000 -0.23450000 -1.13360000
-2.12420000 -0.20070000 -1.26200000
-2.11200000 -0.21100000 -1.23240000
-2.10900000 -0.22250000 -1.28640000
-2.10310000 -0.26920000 -1.28930000
-2.09900000 -0.24720000 -1.21580000
-2.11180000 -0.41420000 -1.40160000
-2.09640000 -0.21340000 -1.02710000
-2.08750000 -0.22980000 -1.01910000
-2.09240000 -0.23860000 -1.08540000
-2.08730000 -0.27200000 -1.06210000
-2.62730000 -0.64360000 -1.62460000
-2.57250000 -0.75240000 -1.62940000
-2.50620000 -0.46970000 -1.62300000
-2.63420000 -0.43620000 -1.61810000
-2.41200000 -0.56480000 -1.63290000
-2.57550000 -0.28010000 -1.61580000
-2.50160000 -0.37160000 -1.61980000
-2.47610000 -0.25080000 -1.61580000
-2.53030000 -0.20140000 -1.61150000
-2.52830000 -0.17510000 -1.60590000
-2.38090000 -0.79350000 -1.64240000
-2.28220000 -0.72520000 -1.65040000
-2.28760000 -0.85340000 -1.65360000
-2.22430000 -0.93450000 -1.66000000
-2.19760000 -0.80330000 -1.65780000
-2.30300000 -0.35900000 -1.62920000
-2.26080000 -0.56030000 -1.64570000
-2.20050000 -0.50360000 -1.64670000
-2.15990000 -0.43680000 -1.64140000
-2.16520000 -0.51460000 -1.64580000
-2.14500000 -0.48410000 -1.63810000
-2.11890000 -0.45520000 -1.54120000
-2.12490000 -0.56660000 -1.57900000
-2.12830000 -0.54810000 -1.60860000
-2.12930000 -0.48450000 -1.61840000
-2.12540000 -0.43330000 -1.60310000
-2.30350000 -0.65890000 -1.64330000
-2.19450000 -0.68900000 -1.65530000
-2.16630000 -0.73960000 -1.65260000
-2.15410000 -0.68160000 -1.64910000
-2.16720000 -0.65270000 -1.65170000
-2.17300000 -0.59200000 -1.64890000
-2.14430000 -0.53790000 -1.63810000
-2.14930000 -0.60780000 -1.64240000
-2.14200000 -0.64380000 -1.64030000
-2.13350000 -0.60690000 -1.62300000
-2.13570000 -0.55780000 -1.62650000
-2.48800000 -0.16290000 -1.59930000
-2.46150000 -0.17470000 -1.60680000
-2.45720000 -0.15840000 -1.58700000
-2.43320000 -0.19020000 -1.61310000
-2.42180000 -0.16850000 -1.60390000
-2.38650000 -0.16120000 -1.59320000
-2.37250000 -0.18150000 -1.61370000
-2.36560000 -0.19900000 -1.61680000
-2.34520000 -0.16030000 -1.58000000
-2.30170000 -0.19370000 -1.61880000
-2.31710000 -0.17200000 -1.60940000
-2.28030000 -0.16340000 -1.58760000
-2.26640000 -0.22400000 -1.62420000
-2.27320000 -0.16710000 -1.60730000
-2.25240000 -0.17720000 -1.61760000
-2.23810000 -0.19150000 -1.62270000
-2.19850000 -0.21250000 -1.62500000
-2.21860000 -0.29470000 -1.62960000
-2.24150000 -0.34140000 -1.63410000
-2.16590000 -0.25370000 -1.62610000
-2.24230000 -0.16340000 -1.59620000
-2.22690000 -0.17020000 -1.61170000
-2.19400000 -0.16720000 -1.58920000
-2.20460000 -0.18180000 -1.61870000
-2.16090000 -0.20010000 -1.62520000
-2.15650000 -0.17120000 -1.59360000
-2.17050000 -0.17370000 -1.61180000
-2.14470000 -0.18410000 -1.61810000
-2.11350000 -0.25000000 -1.43150000
-2.11620000 -0.23320000 -1.46920000
-2.11560000 -0.31260000 -1.50720000
-2.11630000 -0.23510000 -1.52360000
-2.17210000 -0.38020000 -1.64140000
-2.14970000 -0.36940000 -1.63790000
-2.13260000 -0.40140000 -1.62620000
-2.15720000 -0.32140000 -1.63380000
-2.13650000 -0.27970000 -1.61980000
-2.13950000 -0.23390000 -1.61990000
-2.12470000 -0.25700000 -1.60040000
-2.11880000 -0.25660000 -1.57370000
-2.12170000 -0.35070000 -1.59930000
-2.13020000 -0.31800000 -1.61940000
-2.14270000 -0.19000000 -1.45500000
-2.16200000 -0.17520000 -1.50600000
-2.12750000 -0.19980000 -1.48620000
-2.14210000 -0.18340000 -1.50820000
-2.13650000 -0.17960000 -1.58560000
-2.13240000 -0.18710000 -1.54330000
-2.12860000 -0.19210000 -1.60910000
-2.12280000 -0.19320000 -1.58100000
-2.12040000 -0.21650000 -1.59680000
-2.11890000 -0.21460000 -1.50470000
-2.11920000 -0.20700000 -1.55710000
-2.11790000 -0.71130000 -1.46130000
-2.11040000 -0.78270000 -1.29850000
-2.10910000 -0.85510000 -1.25840000
-2.19830000 -1.08380000 -1.66200000
-2.20540000 -1.17390000 -1.66290000
-2.17710000 -1.13060000 -1.66150000
-2.16230000 -1.08450000 -1.65310000
-2.17870000 -1.07180000 -1.65850000
-2.15470000 -1.12090000 -1.65170000
-2.14710000 -1.08450000 -1.63250000
-2.18210000 -1.00720000 -1.66040000
-2.19030000 -0.91060000 -1.66030000
-2.16790000 -0.96140000 -1.65620000
-2.17350000 -0.84060000 -1.65650000
-2.15960000 -0.86000000 -1.65190000
-2.15450000 -0.92220000 -1.64750000
-2.14480000 -0.86410000 -1.63860000
-2.15750000 -1.01480000 -1.64940000
-2.14540000 -0.96050000 -1.63090000
-2.14830000 -1.03530000 -1.63720000
-2.14080000 -1.01610000 -1.60680000
-2.13970000 -0.90000000 -1.61690000
-2.13460000 -0.83800000 -1.61160000
-2.12950000 -0.86920000 -1.55300000
-2.13370000 -1.04700000 -1.55270000
-2.14520000 -1.13450000 -1.63180000
-2.15190000 -0.78020000 -1.64670000
-2.14530000 -0.80610000 -1.64130000
-2.13380000 -0.76580000 -1.61530000
-2.12730000 -0.64270000 -1.60180000
-2.14370000 -0.71990000 -1.63910000
-2.13320000 -0.68350000 -1.62560000
-2.10530000 -0.98470000 -1.00700000
-2.10900000 -0.93760000 -1.14500000
-2.10090000 -0.99150000 -0.95120000
-2.11800000 -1.02870000 -0.92610000
-2.10600000 -1.03980000 -0.93780000
-2.10620000 -1.01450000 -0.93490000
-2.10100000 -1.05060000 -0.95150000
-2.16940000 -1.15930000 -1.65720000
-2.16980000 -1.21600000 -1.65590000
-2.15130000 -1.17340000 -1.64140000
-2.97460000 -3.45960000 -0.95040000
-2.91690000 -3.28930000 -0.95030000
-3.01160000 -3.59220000 -0.95160000
-2.97340000 -3.55040000 -0.94890000
-2.87790000 -3.54150000 -0.94840000
-2.79260000 -3.54040000 -0.95370000
-2.84000000 -3.46920000 -0.95110000
-2.88430000 -3.40720000 -0.94720000
-2.79710000 -3.20470000 -0.94690000
-2.73570000 -3.32380000 -0.94800000
-2.49060000 -3.29020000 -0.95210000
-2.66230000 -3.47770000 -0.95230000
-2.45520000 -4.18070000 -0.94920000
-2.37950000 -3.46780000 -0.95620000
-2.35590000 -3.85860000 -0.95660000
-2.38970000 -2.40990000 -0.94460000
-2.56320000 -2.63290000 -0.94750000
-2.64570000 -2.95310000 -0.94560000
-2.54310000 -2.72750000 -0.94740000
-2.36080000 -2.88100000 -0.95200000
-2.24590000 -3.57070000 -0.95980000
-2.19130000 -3.31900000 -0.96100000
-2.21540000 -3.08820000 -0.95790000
-2.17710000 -3.15320000 -0.96280000
-2.17650000 -2.99870000 -0.95950000
-2.15690000 -3.04620000 -0.96440000
-2.14200000 -3.18280000 -0.97520000
-2.16170000 -3.14450000 -0.96630000
-2.13260000 -3.13970000 -0.98500000
-2.13100000 -3.17020000 -0.99060000
-2.14320000 -3.10910000 -0.97240000
-2.12780000 -3.07540000 -0.99330000
-2.12740000 -3.18140000 -1.01040000
-2.12640000 -3.07230000 -1.04920000
-2.13230000 -3.30770000 -1.10230000
-2.17800000 -2.86060000 -0.96000000
-2.17450000 -2.77220000 -0.95840000
-2.18920000 -2.67130000 -0.95560000
-2.15270000 -2.73830000 -0.96360000
-2.16010000 -2.69070000 -0.96040000
-2.13140000 -2.70730000 -0.97310000
-2.13520000 -2.67710000 -0.97000000
-2.14940000 -2.90710000 -0.96820000
-2.15240000 -2.80230000 -0.96430000
-2.14720000 -2.84540000 -0.96850000
-2.12690000 -2.81220000 -0.98170000
-2.13200000 -2.76970000 -0.97530000
-2.13260000 -2.86000000 -0.98160000
-2.12280000 -2.82230000 -1.00090000
-2.12150000 -2.76990000 -0.99750000
-2.12170000 -2.71880000 -0.98870000
-2.11940000 -2.69710000 -1.01170000
-2.12360000 -2.86700000 -1.03900000
-2.13520000 -2.93400000 -0.97800000
-2.12860000 -2.89050000 -0.98620000
-2.12450000 -2.87820000 -1.00440000
-2.12500000 -2.94970000 -0.99830000
-2.13510000 -3.05580000 -1.26790000
-2.14730000 -3.00910000 -0.96600000
-2.13370000 -2.98740000 -0.97710000
-2.14700000 -2.97220000 -0.96870000
-2.13360000 -3.04170000 -0.97790000
-2.12460000 -3.00430000 -0.99620000
-2.17760000 -3.47850000 -0.96410000
-2.19030000 -3.65080000 -0.96300000
-2.16970000 -3.54020000 -0.96590000
-2.15090000 -3.50220000 -0.97120000
-2.14690000 -3.56250000 -0.97300000
-2.13730000 -3.53570000 -0.98160000
-2.13310000 -3.49820000 -0.99030000
-2.17400000 -3.38370000 -0.96250000
-2.14940000 -3.33770000 -0.96840000
-2.13140000 -3.34310000 -0.98480000
-2.15510000 -3.39060000 -0.96800000
-2.13510000 -3.31240000 -0.97990000
-2.16340000 -3.28410000 -0.96530000
-2.14860000 -3.28210000 -0.97090000
-2.12740000 -3.33030000 -1.00220000
-2.12920000 -3.39280000 -0.99600000
-2.13600000 -3.38910000 -0.98150000
-2.13020000 -3.41650000 -1.04590000
-2.14950000 -3.42670000 -0.96960000
-2.15470000 -3.46060000 -0.96830000
-2.13790000 -3.43880000 -0.97880000
-2.13730000 -3.47680000 -0.98020000
-2.13060000 -3.44940000 -0.99420000
-2.13050000 -3.50390000 -1.01760000
-2.14600000 -3.23370000 -0.97220000
-2.13510000 -3.26360000 -0.98390000
-2.13190000 -3.21890000 -0.98620000
-2.12910000 -3.23510000 -1.00220000
-2.12940000 -3.27280000 -1.00350000
-2.22420000 -2.40840000 -0.95070000
-2.18870000 -2.22270000 -0.95050000
-2.17470000 -2.03930000 -0.94670000
-2.14980000 -2.23560000 -0.95850000
-2.13080000 -2.19700000 -0.96410000
-2.15020000 -2.17920000 -0.95530000
-2.13250000 -2.23420000 -0.96550000
-2.12080000 -2.20870000 -0.97640000
-2.14160000 -2.12640000 -0.95530000
-2.15190000 -2.04430000 -0.95380000
-2.12840000 -2.08580000 -0.96740000
-2.11690000 -2.21010000 -0.99240000
-2.11760000 -2.07470000 -1.01410000
-2.11720000 -2.13110000 -0.98490000
-2.12640000 -2.14890000 -0.96390000
-2.11910000 -2.17050000 -0.97410000
-2.16760000 -1.84460000 -0.94270000
-2.14260000 -1.96230000 -0.94940000
-2.12550000 -1.93340000 -0.95930000
-2.13450000 -1.88230000 -0.95340000
-2.11720000 -1.89180000 -0.96940000
-2.13260000 -2.00350000 -0.95720000
-2.12040000 -1.97790000 -0.96790000
-2.12490000 -2.02520000 -0.96820000
-2.11580000 -1.97850000 -0.99020000
-2.11990000 -2.04860000 -0.98700000
-2.11400000 -1.92900000 -0.98110000
-2.11510000 -1.87050000 -0.98860000
-2.11950000 -1.95080000 -1.05570000
-2.16830000 -2.31860000 -0.95460000
-2.14520000 -2.28730000 -0.96130000
-2.11680000 -2.29300000 -1.00560000
-2.11810000 -2.44820000 -1.03820000
-2.12480000 -2.19460000 -1.17090000
-2.12820000 -2.57190000 -1.23180000
-2.15020000 -2.63140000 -1.60680000
-2.14990000 -2.46190000 -1.62880000
-2.14150000 -2.76820000 -1.47300000
-2.12530000 -2.25740000 -0.97230000
-2.11700000 -2.26800000 -0.98830000
-2.18440000 -2.50460000 -0.95440000
-2.17260000 -2.44100000 -0.95410000
-2.15220000 -2.45970000 -0.95930000
-2.15400000 -2.51490000 -0.95990000
-2.13300000 -2.47590000 -0.96980000
-2.15680000 -2.58220000 -0.95890000
-2.14010000 -2.55170000 -0.96500000
-2.12890000 -2.50090000 -0.97540000
-2.12610000 -2.53280000 -0.97790000
-2.11920000 -2.53140000 -0.99550000
-2.14330000 -2.63160000 -0.96470000
-2.12800000 -2.58400000 -0.97440000
-2.11970000 -2.63650000 -0.99410000
-2.12580000 -2.63500000 -0.97770000
-2.14430000 -2.39240000 -0.96130000
-2.16560000 -2.37520000 -0.95470000
-2.12950000 -2.42550000 -0.97160000
-2.12080000 -2.43940000 -0.98480000
-2.11800000 -2.42170000 -1.00280000
-2.12580000 -2.39470000 -0.97680000
-2.14570000 -2.33540000 -0.95890000
-2.12780000 -2.35270000 -0.96900000
-2.12640000 -2.30380000 -0.97140000
-2.11940000 -2.32010000 -0.98240000
-2.11980000 -2.36110000 -0.98240000
-2.18150000 -1.59800000 -0.93410000
-2.17000000 -1.50480000 -0.93330000
-2.14200000 -1.55480000 -0.94200000
-2.14750000 -1.61160000 -0.94280000
-2.12310000 -1.56510000 -0.95130000
-2.14980000 -1.44100000 -0.93270000
-2.13930000 -1.47310000 -0.93720000
-2.12140000 -1.51470000 -0.94960000
-2.11260000 -1.52690000 -0.96520000
-2.11650000 -1.59590000 -0.96930000
-2.11570000 -1.59730000 -1.00400000
-2.12440000 -1.48650000 -0.94610000
-2.11260000 -1.44980000 -0.96950000
-2.12320000 -1.59190000 -0.95590000
-2.15510000 -1.76630000 -0.94300000
-2.14590000 -1.82690000 -0.94910000
-2.12510000 -1.79430000 -0.95920000
-2.13810000 -1.76870000 -0.94790000
-2.11730000 -1.80930000 -0.97580000
-2.16040000 -1.69160000 -0.93900000
-2.13950000 -1.70370000 -0.94600000
-2.14360000 -1.66200000 -0.94320000
-2.12660000 -1.67770000 -0.95460000
-2.11990000 -1.69920000 -0.96370000
-2.13250000 -1.73540000 -0.95030000
-2.12170000 -1.74770000 -0.95960000
-2.11520000 -1.70980000 -0.98000000
-2.11540000 -1.75830000 -0.97540000
-2.12790000 -1.63680000 -0.95490000
-2.11850000 -1.65050000 -0.96790000
-2.11480000 -1.66100000 -0.98470000
-2.13060000 -1.84010000 -0.95660000
-2.12010000 -1.85150000 -0.96950000
-2.12140000 -1.44560000 -0.95030000
-3.97270000 -5.63870000 -1.47610000
-3.96910000 -5.63100000 -1.20290000
-3.97220000 -5.47600000 -1.30430000
-3.96800000 -5.83120000 -1.22480000
-3.96900000 -5.84610000 -1.46990000
-3.97020000 -5.70800000 -1.55560000
-3.96700000 -5.98280000 -1.49890000
-3.96380000 -6.03860000 -1.57510000
-3.96340000 -6.14650000 -1.45440000
-3.96620000 -5.90560000 -1.55590000
-3.96250000 -5.94120000 -1.58420000
-3.95700000 -5.97640000 -1.59770000
-3.96630000 -5.96340000 -1.31440000
-3.94110000 -5.93050000 -1.61410000
-3.95490000 -5.92670000 -1.60220000
-3.96370000 -5.84270000 -1.58870000
-3.95480000 -5.87820000 -1.60690000
-3.94370000 -5.88540000 -1.61740000
-3.92190000 -5.92070000 -1.62030000
-3.95490000 -6.06010000 -1.59560000
-3.95860000 -6.02490000 -1.59370000
-3.93340000 -6.03720000 -1.61230000
-3.94580000 -6.09680000 -1.60690000
-3.94540000 -5.98560000 -1.60800000
-3.90210000 -6.01120000 -1.61770000
-3.77540000 -5.92550000 -1.62200000
-3.96400000 -5.76940000 -1.59010000
-3.95140000 -5.83000000 -1.60960000
-3.95410000 -5.74090000 -1.60460000
-3.93540000 -5.79230000 -1.61500000
-3.93110000 -5.85190000 -1.62320000
-3.90840000 -5.78730000 -1.61940000
-3.96610000 -5.68770000 -1.59100000
-3.93990000 -5.71950000 -1.61490000
-3.95700000 -5.67690000 -1.60690000
-3.92780000 -5.70120000 -1.61990000
-3.86230000 -5.72340000 -1.62030000
-3.78710000 -5.82970000 -1.62060000
-3.97960000 -5.03640000 -1.43070000
-3.97750000 -5.03840000 -1.58560000
-3.98010000 -5.12610000 -1.50000000
-3.98250000 -4.70370000 -1.48440000
-3.97960000 -4.94740000 -1.58830000
-3.97160000 -4.99460000 -1.61030000
-3.98100000 -4.87980000 -1.54410000
-3.97080000 -4.93460000 -1.61250000
-3.95330000 -4.92970000 -1.62490000
-3.97840000 -4.84720000 -1.59270000
-3.97410000 -4.87690000 -1.60380000
-3.96420000 -4.88930000 -1.61710000
-3.96460000 -4.84200000 -1.62140000
-3.93770000 -4.86670000 -1.62830000
-3.91050000 -4.90330000 -1.63080000
-3.96800000 -5.24370000 -0.98070000
-3.97350000 -5.26250000 -1.17330000
-3.96780000 -5.33560000 -1.00570000
-3.94670000 -5.03050000 -0.94900000
-3.96470000 -5.02950000 -0.96740000
-3.96130000 -5.07180000 -0.96110000
-3.92540000 -5.05310000 -0.94270000
-3.94950000 -5.09030000 -0.94840000
-3.96440000 -5.17780000 -0.96700000
-3.97140000 -5.18760000 -0.99870000
-3.97310000 -5.02470000 -1.04330000
-3.96770000 -5.10140000 -0.97440000
-3.95650000 -5.14020000 -0.95420000
-3.93090000 -5.12380000 -0.94190000
-3.97670000 -5.30010000 -1.38760000
-3.96950000 -5.46340000 -1.04290000
-3.97500000 -5.49200000 -1.38930000
-3.97150000 -4.80220000 -0.98710000
-3.96330000 -4.97730000 -0.96050000
-3.97300000 -4.97480000 -0.99930000
-3.95070000 -4.95890000 -0.94950000
-3.97040000 -4.95480000 -0.97530000
-3.97310000 -4.90030000 -0.98990000
-3.96780000 -4.83090000 -0.97320000
-3.95240000 -4.83110000 -0.95280000
-3.96730000 -4.87980000 -0.96770000
-3.92820000 -4.90210000 -0.94230000
-3.95800000 -4.90110000 -0.95410000
-3.86220000 -5.07370000 -0.93950000
-3.97620000 -5.22630000 -1.48420000
-3.97440000 -5.17100000 -1.59430000
-3.97650000 -5.26470000 -1.57260000
-3.97790000 -5.13160000 -1.58740000
-3.97320000 -5.25340000 -1.59770000
-3.97040000 -5.21580000 -1.60700000
-3.95180000 -5.24210000 -1.62330000
-3.96600000 -5.26720000 -1.61200000
-3.93450000 -5.21120000 -1.62540000
-3.95570000 -5.20070000 -1.62140000
-3.96410000 -5.16120000 -1.61530000
-3.94650000 -5.15740000 -1.62400000
-3.97480000 -5.10630000 -1.60100000
-3.94780000 -5.11930000 -1.62640000
-3.96710000 -5.10330000 -1.61450000
-3.96980000 -5.05960000 -1.60760000
-3.95080000 -5.07900000 -1.62120000
-3.95900000 -5.04560000 -1.61880000
-3.92890000 -5.07600000 -1.62530000
-3.88910000 -5.14220000 -1.62720000
-3.93940000 -5.01560000 -1.62510000
-3.95780000 -4.99670000 -1.62160000
-3.94100000 -4.96590000 -1.62670000
-3.84490000 -4.92620000 -1.62850000
-3.81040000 -5.02670000 -1.62570000
-3.97330000 -5.40670000 -1.57890000
-3.96840000 -5.42750000 -1.60140000
-3.97190000 -5.48700000 -1.59140000
-3.96330000 -5.46870000 -1.61150000
-3.97070000 -5.57860000 -1.58480000
-3.97450000 -5.52680000 -1.53230000
-3.96530000 -5.61470000 -1.59790000
-3.95680000 -5.62800000 -1.61130000
-3.95440000 -5.57890000 -1.61310000
-3.96070000 -5.55270000 -1.60900000
-3.94200000 -5.60300000 -1.62160000
-3.91910000 -5.59580000 -1.62460000
-3.97370000 -5.43080000 -1.47770000
-3.96560000 -5.51750000 -1.60750000
-3.94710000 -5.51130000 -1.62310000
-3.93410000 -5.54320000 -1.62480000
-3.95450000 -5.47340000 -1.61990000
-3.92650000 -5.47000000 -1.62660000
-3.89220000 -5.49970000 -1.62200000
-3.89440000 -5.55430000 -1.62340000
-3.86870000 -5.53420000 -1.61950000
-3.97430000 -5.32510000 -1.59170000
-3.97680000 -5.30550000 -1.52670000
-3.95780000 -5.28750000 -1.62020000
-3.96760000 -5.31220000 -1.60920000
-3.94100000 -5.28850000 -1.62550000
-3.94070000 -5.43550000 -1.62920000
-3.95200000 -5.40710000 -1.62280000
-3.96490000 -5.37470000 -1.60730000
-3.92800000 -5.39510000 -1.62990000
-3.95680000 -5.34450000 -1.61790000
-3.93220000 -5.34560000 -1.62660000
-3.86460000 -5.39940000 -1.62780000
-3.86340000 -5.31670000 -1.63130000
-3.91360000 -5.28350000 -1.62550000
-3.87080000 -5.36380000 -1.62710000
-3.87410000 -5.43930000 -1.63310000
-3.81890000 -5.47420000 -1.62870000
-3.83100000 -5.34140000 -1.63550000
-3.77710000 -5.40720000 -1.63120000
-3.82200000 -5.52440000 -1.62220000
-3.72480000 -5.51030000 -1.62610000
-3.94340000 -5.65220000 -1.62020000
-3.92460000 -5.64940000 -1.62400000
-3.75360000 -5.67230000 -1.62500000
-3.78920000 -5.59320000 -1.62440000
-3.73910000 -5.73980000 -1.61990000
-3.68420000 -5.59230000 -1.62250000
-3.62290000 -5.46960000 -1.63500000
-3.61610000 -5.55390000 -1.63040000
-3.89520000 -5.22790000 -1.62400000
-3.86370000 -5.27870000 -1.62470000
-3.80090000 -5.26530000 -1.62940000
-3.78310000 -5.24170000 -1.63110000
-3.78310000 -5.14040000 -1.62870000
-3.78430000 -5.34080000 -1.63560000
-3.72110000 -5.32650000 -1.63070000
-3.72660000 -5.21730000 -1.62770000
-3.61470000 -5.05120000 -1.63220000
-3.59750000 -5.21190000 -1.62950000
-3.68710000 -5.38950000 -1.63210000
-3.63300000 -5.33640000 -1.62620000
-3.60280000 -5.41930000 -1.63370000
-3.44010000 -5.39960000 -1.63570000
-3.58060000 -5.37900000 -1.62920000
-3.98420000 -4.23060000 -1.56790000
-3.98350000 -4.34570000 -1.59810000
-3.98370000 -4.45930000 -1.55770000
-3.97660000 -4.32340000 -1.61690000
-3.98190000 -4.26560000 -1.60130000
-3.97530000 -4.26780000 -1.61760000
-3.95680000 -4.31470000 -1.62870000
-3.97130000 -4.22850000 -1.62510000
-3.96130000 -4.25040000 -1.63160000
-3.94340000 -4.28800000 -1.63080000
-3.98350000 -3.88350000 -1.57080000
-3.98070000 -4.02060000 -1.59380000
-3.98470000 -4.10080000 -1.54540000
-3.98460000 -4.13750000 -1.59910000
-3.97810000 -4.12040000 -1.61920000
-3.97210000 -4.15080000 -1.62530000
-3.97790000 -4.19290000 -1.61230000
-3.96110000 -4.18060000 -1.63090000
-3.93990000 -4.19170000 -1.63340000
-3.97910000 -4.07740000 -1.60800000
-3.97070000 -4.05130000 -1.62250000
-3.96170000 -4.08490000 -1.63000000
-3.95150000 -4.02320000 -1.63250000
-3.95100000 -4.11390000 -1.63340000
-3.90490000 -4.05550000 -1.63590000
-3.84750000 -4.19250000 -1.63270000
-3.83240000 -4.28240000 -1.63370000
-3.95220000 -4.41030000 -1.63070000
-3.97050000 -4.43110000 -1.62340000
-3.97350000 -4.40390000 -1.61850000
-3.96390000 -4.34870000 -1.62800000
-3.97430000 -4.36620000 -1.62060000
-3.98070000 -4.41480000 -1.59850000
-3.90550000 -4.36800000 -1.63170000
-3.98020000 -3.96910000 -1.60430000
-3.98150000 -3.89970000 -1.60680000
-3.96910000 -3.96550000 -1.62310000
-3.97420000 -3.99590000 -1.61730000
-3.96920000 -3.93500000 -1.62870000
-3.94020000 -3.96860000 -1.63390000
-3.98020000 -3.82180000 -1.61600000
-3.96940000 -3.82120000 -1.63410000
-3.97480000 -3.89000000 -1.62380000
-3.95650000 -3.87470000 -1.63440000
-3.95360000 -3.91380000 -1.63460000
-3.92440000 -3.89950000 -1.63650000
-3.98110000 -3.71330000 -1.62010000
-3.97970000 -3.76220000 -1.61460000
-3.97300000 -3.72420000 -1.63540000
-3.96090000 -3.73500000 -1.64250000
-3.97270000 -3.77320000 -1.62990000
-3.95260000 -3.75990000 -1.64300000
-3.96490000 -3.66940000 -1.64440000
-3.97520000 -3.68570000 -1.63630000
-3.94570000 -3.64030000 -1.64900000
-3.95540000 -3.70210000 -1.64630000
-3.93260000 -3.71260000 -1.64690000
-3.94730000 -3.81130000 -1.64330000
-3.88520000 -3.76100000 -1.64070000
-3.84100000 -3.78990000 -1.63730000
-3.85910000 -3.64480000 -1.64380000
-3.96580000 -4.01770000 -1.62720000
-3.82210000 -3.93760000 -1.63770000
-3.75800000 -4.09730000 -1.63640000
-3.76450000 -3.65290000 -1.63960000
-3.71310000 -3.81530000 -1.64000000
-3.65690000 -3.93770000 -1.63920000
-3.68140000 -3.66240000 -1.63910000
-3.61850000 -3.77000000 -1.64150000
-3.66470000 -3.52320000 -1.63750000
-3.61460000 -3.60980000 -1.64170000
-3.57460000 -3.70380000 -1.64070000
-3.54990000 -3.57200000 -1.63930000
-3.46300000 -3.53810000 -1.63820000
-3.53020000 -3.63060000 -1.64670000
-3.98070000 -4.73100000 -1.56400000
-3.98060000 -4.63830000 -1.56010000
-3.97630000 -4.64720000 -1.60800000
-3.98040000 -4.77090000 -1.59920000
-3.97450000 -4.80530000 -1.61300000
-3.97600000 -4.71570000 -1.60350000
-3.96790000 -4.74700000 -1.61920000
-3.96260000 -4.79180000 -1.62490000
-3.94550000 -4.75470000 -1.62960000
-3.94800000 -4.81640000 -1.62990000
-3.92820000 -4.80390000 -1.63140000
-3.95130000 -4.69390000 -1.63020000
-3.95940000 -4.64500000 -1.63380000
-3.96500000 -4.67830000 -1.62470000
-3.97000000 -4.63310000 -1.62640000
-3.92740000 -4.69250000 -1.63070000
-3.86250000 -4.74880000 -1.62690000
-3.90580000 -4.77750000 -1.63130000
-3.88690000 -4.56540000 -1.63030000
-3.86050000 -4.68520000 -1.62850000
-3.98250000 -4.56410000 -1.59910000
-3.97840000 -4.57440000 -1.61590000
-3.96750000 -4.58540000 -1.63110000
-3.95940000 -4.60810000 -1.63730000
-3.98090000 -4.50290000 -1.59880000
-3.97750000 -4.52630000 -1.62010000
-3.96810000 -4.53910000 -1.63330000
-3.95310000 -4.56280000 -1.64010000
-3.94430000 -4.61190000 -1.63880000
-3.93420000 -4.55810000 -1.64070000
-3.97830000 -4.46320000 -1.60920000
-3.95230000 -4.46960000 -1.63400000
-3.96970000 -4.49040000 -1.62650000
-3.95300000 -4.51680000 -1.63960000
-3.92270000 -4.48100000 -1.63530000
-3.91100000 -4.56970000 -1.63450000
-3.82270000 -4.53570000 -1.62820000
-3.80430000 -4.79870000 -1.62970000
-3.77670000 -4.68320000 -1.62700000
-3.61230000 -4.82870000 -1.63090000
-3.72860000 -4.59130000 -1.63040000
-3.60230000 -4.72490000 -1.63070000
-3.79810000 -4.40740000 -1.63010000
-3.65280000 -4.40530000 -1.63370000
-3.65140000 -4.13240000 -1.63870000
-3.63400000 -4.48390000 -1.63010000
-3.54410000 -4.61780000 -1.63340000
-3.38010000 -4.46050000 -1.63250000
-3.51350000 -4.32450000 -1.63590000
-3.62340000 -4.93080000 -1.63200000
-3.44940000 -4.85770000 -1.63710000
-3.52780000 -5.13640000 -1.63390000
-3.42450000 -5.05200000 -1.63800000
-3.44070000 -4.96240000 -1.63520000
-3.44880000 -4.80680000 -1.63240000
-3.46770000 -4.71150000 -1.63120000
-3.29900000 -4.71470000 -1.63350000
-3.31600000 -4.84000000 -1.63750000
-3.21560000 -4.54260000 -1.63530000
-3.48770000 -3.92370000 -1.64070000
-3.45360000 -4.21990000 -1.63860000
-3.52580000 -4.12320000 -1.63780000
-3.51110000 -4.04720000 -1.64040000
-3.45330000 -4.02960000 -1.64580000
-3.39270000 -4.11140000 -1.63720000
-3.36810000 -4.06540000 -1.64370000
-3.54870000 -3.81030000 -1.63900000
-3.48630000 -3.79310000 -1.63930000
-3.49520000 -3.70530000 -1.64820000
-3.44260000 -3.63820000 -1.64330000
-3.44710000 -3.76630000 -1.64660000
-3.40730000 -3.70290000 -1.64890000
-3.40930000 -3.74770000 -1.65310000
-3.39620000 -3.87610000 -1.64840000
-3.41710000 -3.94520000 -1.64490000
-3.39920000 -3.83530000 -1.64540000
-3.34280000 -3.83200000 -1.65100000
-3.33280000 -3.74390000 -1.64870000
-3.36740000 -3.62780000 -1.64610000
-3.31840000 -3.62700000 -1.64980000
-3.27290000 -3.72240000 -1.64450000
-3.30940000 -3.92770000 -1.65310000
-3.27520000 -3.81050000 -1.64370000
-3.20010000 -3.71450000 -1.64270000
-3.37240000 -3.96290000 -1.64980000
-3.30850000 -3.97840000 -1.65120000
-3.21560000 -3.91380000 -1.64540000
-3.27500000 -4.30610000 -1.63660000
-3.27690000 -4.08500000 -1.64340000
-3.19300000 -4.18000000 -1.63960000
-3.11830000 -4.45020000 -1.63720000
-3.10580000 -4.52280000 -1.63790000
-2.96470000 -4.37720000 -1.64130000
-2.98910000 -4.19510000 -1.64140000
-3.15840000 -3.83610000 -1.64270000
-3.20080000 -4.02330000 -1.64350000
-3.25320000 -4.03970000 -1.64250000
-3.21060000 -3.99460000 -1.64770000
-3.11450000 -4.07970000 -1.64000000
-3.14030000 -3.98930000 -1.64350000
-2.99550000 -3.83640000 -1.64660000
-2.96950000 -4.09520000 -1.64510000
-3.96170000 -6.57330000 -1.26220000
-3.96140000 -6.63690000 -1.37980000
-3.95870000 -6.69480000 -1.22670000
-3.96290000 -6.37660000 -1.24240000
-3.96220000 -6.35050000 -1.41750000
-3.96290000 -6.45490000 -1.36640000
-3.95900000 -6.49200000 -1.19710000
-3.96000000 -6.48160000 -1.53280000
-3.94430000 -6.65800000 -0.94810000
-3.95210000 -6.65820000 -0.98760000
-3.95130000 -6.70850000 -0.95520000
-3.93750000 -6.67780000 -0.93700000
-3.93570000 -6.74720000 -0.93130000
-3.91900000 -6.67960000 -0.92620000
-3.91640000 -6.73160000 -0.92210000
-3.88470000 -6.68140000 -0.92030000
-3.87630000 -6.78420000 -0.91540000
-3.95860000 -6.79400000 -1.14330000
-3.95970000 -6.88550000 -1.32940000
-3.95520000 -6.94240000 -0.98580000
-3.95190000 -6.91840000 -0.94680000
-3.95490000 -6.86680000 -1.04400000
-3.95020000 -6.86410000 -0.95660000
-3.95860000 -6.94970000 -1.16620000
-3.95500000 -7.00790000 -1.10060000
-3.95520000 -7.12070000 -1.02980000
-3.95760000 -7.10600000 -1.16970000
-3.95310000 -6.81080000 -1.01790000
-3.95560000 -6.71650000 -0.99790000
-3.95730000 -6.65690000 -1.11710000
-3.94680000 -6.81350000 -0.94780000
-3.95460000 -6.80300000 -0.98450000
-3.93200000 -6.81960000 -0.93030000
-3.93890000 -6.85140000 -0.93680000
-3.94580000 -6.75730000 -0.94260000
-3.95260000 -6.75650000 -0.96150000
-3.91100000 -6.78430000 -0.92230000
-3.95650000 -6.86510000 -1.16720000
-3.95520000 -6.49260000 -1.04530000
-3.95660000 -6.55270000 -1.04270000
-3.95330000 -6.50600000 -0.96640000
-3.95770000 -6.24700000 -0.98840000
-3.96080000 -6.27700000 -1.22610000
-3.95790000 -6.33340000 -1.12710000
-3.95330000 -6.40690000 -0.96720000
-3.94730000 -6.36490000 -0.94890000
-3.95460000 -6.32730000 -0.97600000
-3.94030000 -6.28740000 -0.94470000
-3.95280000 -6.26320000 -0.96300000
-3.93110000 -6.40560000 -0.93580000
-3.91050000 -6.34600000 -0.93070000
-3.92640000 -6.25200000 -0.93850000
-3.95830000 -6.41030000 -1.05090000
-3.94500000 -6.43910000 -0.94900000
-3.95600000 -6.59660000 -0.98460000
-3.95110000 -6.58860000 -0.95390000
-3.93720000 -6.59010000 -0.93310000
-3.94600000 -6.53540000 -0.94290000
-3.93030000 -6.49140000 -0.93100000
-3.94560000 -6.48700000 -0.94690000
-3.92250000 -6.52440000 -0.92650000
-3.90750000 -6.59160000 -0.92350000
-3.88260000 -6.54950000 -0.92200000
-3.91030000 -6.47070000 -0.92860000
-3.86180000 -6.38010000 -0.92630000
-3.91830000 -6.62240000 -0.92580000
-3.82190000 -6.49430000 -0.92400000
-3.71840000 -6.23290000 -0.92760000
-3.67790000 -6.75630000 -0.91490000
-3.94820000 -7.25480000 -0.93790000
-3.95230000 -7.27920000 -0.96940000
-3.94990000 -7.41180000 -0.94500000
-3.94850000 -7.15090000 -0.94170000
-3.94470000 -7.06270000 -0.93610000
-3.95150000 -7.03970000 -0.96060000
-3.93740000 -7.18160000 -0.92110000
-3.93440000 -7.26680000 -0.91680000
-3.91380000 -7.18380000 -0.90980000
-3.95500000 -7.23170000 -1.05570000
-3.91980000 -7.09840000 -0.91500000
-3.94250000 -7.10920000 -0.92770000
-3.92890000 -7.04340000 -0.92050000
-3.87360000 -7.11280000 -0.90870000
-3.92210000 -7.35460000 -0.90820000
-3.94050000 -7.38070000 -0.92050000
-3.92470000 -7.42440000 -0.90830000
-3.90150000 -7.33710000 -0.90410000
-3.86130000 -7.46270000 -0.89720000
-3.85200000 -7.27670000 -0.90340000
-3.77930000 -7.54270000 -0.89720000
-3.72770000 -7.16320000 -0.90660000
-3.81360000 -6.80930000 -0.91500000
-3.95130000 -6.97480000 -0.95370000
-3.93960000 -6.97010000 -0.92780000
-3.91410000 -7.01210000 -0.91590000
-3.92430000 -6.85200000 -0.92600000
-3.94630000 -6.89830000 -0.93470000
-3.90450000 -6.87440000 -0.91870000
-3.92790000 -6.93080000 -0.91920000
-3.88880000 -6.93930000 -0.91310000
-3.87220000 -6.99990000 -0.91210000
-3.47650000 -6.56770000 -0.92050000
-3.95940000 -7.24940000 -1.32070000
-3.95650000 -7.30120000 -1.45890000
-3.95400000 -7.31590000 -1.39400000
-3.95940000 -7.22130000 -1.42450000
-3.95500000 -7.39210000 -1.28900000
-3.95670000 -7.29240000 -1.31520000
-3.95640000 -7.35620000 -1.20650000
-3.95620000 -7.19290000 -1.21040000
-3.95840000 -7.28290000 -1.16890000
