17.93400000 14.49530000 3.33110000
-1.33280000 4.94430000 -7.66140000
-0.98660000 5.02590000 -6.73190000
18.57140000 15.05360000 3.14920000
-1.52620000 5.52950000 -7.28670000
-1.08450000 5.53460000 -6.42740000
-0.64400000 4.99740000 -6.42650000
-0.10920000 5.02990000 -6.62470000
-0.18860000 5.16970000 -6.23870000
-0.49000000 5.45340000 -6.11360000
-1.64280000 5.92320000 -6.97960000
-3.14740000 -26.72950000 -7.94270000
-1.24250000 6.22200000 -6.65070000
-8.18100000 7.93140000 6.73830000
-0.66160000 6.10920000 -6.42120000
18.73420000 15.36760000 3.59550000
-8.29920000 8.22770000 6.73080000
-21.97670000 -5.69860000 4.15810000
-9.66220000 8.34360000 8.16910000
-9.99320000 8.97920000 8.02830000
-11.00350000 9.00300000 8.21940000
-9.37910000 8.41440000 7.72470000
-0.00340000 5.75020000 -6.15770000
18.57070000 16.18160000 3.54480000
1.13430000 5.65370000 -6.90920000
0.84410000 5.55040000 -6.45820000
0.47430000 5.61610000 -6.16610000
-4.44060000 -26.46520000 -9.47440000
-3.09040000 -26.79100000 -9.11650000
0.08070000 6.42720000 -6.64460000
-8.90420000 8.07180000 7.49040000
-8.90890000 8.60060000 7.41900000
13.93230000 -26.03940000 11.07380000
1.31260000 6.28480000 -6.59710000
16.43480000 16.85730000 5.68330000
-22.32320000 -4.38810000 2.23350000
17.33880000 16.88890000 5.29170000
-2.49710000 -26.57720000 -8.71630000
-2.31060000 -26.33820000 -8.53810000
-1.98330000 5.67550000 -8.36760000
15.10240000 -26.38150000 10.04000000
-1.83710000 -26.76350000 -11.04540000
-2.19390000 6.16420000 -8.12800000
-2.01790000 6.44790000 -7.69000000
15.32530000 -26.12060000 10.40900000
-5.64280000 -26.70650000 -9.77900000
16.01020000 2.48140000 9.69080000
-7.76710000 11.08110000 8.16130000
-9.49030000 10.39110000 8.24650000
14.86060000 -26.36350000 9.24390000
14.96020000 -25.74800000 10.68280000
-5.07810000 -26.59110000 -10.47520000
16.10510000 3.12050000 9.46630000
-1.92430000 6.77980000 -7.28610000
-4.42470000 -26.36030000 -10.29140000
15.98230000 18.93950000 4.87870000
16.09380000 -26.29700000 9.84540000
-1.60520000 7.30970000 -7.40580000
16.51470000 19.33360000 4.41890000
16.36050000 -25.83410000 9.98850000
15.92700000 -24.94180000 10.11110000
17.51280000 17.59140000 4.80820000
-2.34270000 5.46220000 -9.01530000
-2.12070000 5.73250000 -8.88990000
17.89520000 17.73420000 3.97990000
-21.40310000 -5.39110000 5.55860000
-3.46330000 -26.78020000 -11.30680000
-4.49990000 -26.72500000 -11.09340000
-2.52900000 7.41240000 -8.07000000
-12.08520000 -0.90800000 -10.70700000
-11.98320000 -8.56220000 -10.77940000
-2.60090000 6.63440000 -8.91870000
-2.81510000 7.13940000 -8.54410000
-2.89940000 6.85570000 -9.12930000
16.27230000 3.36410000 9.01940000
-2.81730000 -26.76820000 -12.15050000
-2.36250000 7.75940000 -7.79070000
-0.97780000 -26.54180000 -11.49290000
-1.68380000 -26.64820000 -10.81090000
18.74990000 6.44850000 -3.28910000
15.16290000 3.80280000 8.13530000
15.72920000 3.58810000 7.87370000
-3.39130000 7.91080000 -8.43290000
-3.48550000 -26.70840000 -10.36500000
-3.17440000 8.16520000 -8.06210000
15.28490000 4.25540000 8.11310000
-20.88790000 -3.68040000 6.41530000
17.57840000 7.90370000 -2.56810000
18.32270000 7.85020000 -1.95580000
18.35090000 7.47540000 -2.73950000
16.15240000 -7.45510000 -10.50880000
-3.29680000 8.59590000 -8.18530000
-0.90620000 7.64180000 -7.68720000
15.41090000 6.16160000 -5.75590000
17.57290000 6.71650000 -4.07940000
-4.01140000 -26.47930000 -10.47990000
16.39850000 7.11070000 -4.33820000
17.30340000 7.48160000 -3.49650000
17.00190000 8.18120000 -2.66670000
14.10680000 -26.08280000 9.06000000
16.45990000 7.78280000 -3.63480000
-1.63460000 -26.26150000 -10.20320000
14.87600000 -26.26410000 8.68310000
-14.51720000 0.62800000 -9.77020000
17.26810000 -8.32130000 -9.84280000
18.93970000 6.99620000 -2.71300000
-21.74400000 -4.74970000 4.43740000
17.91160000 2.38660000 8.54560000
17.02770000 8.17030000 -1.77080000
15.97250000 8.45310000 -1.99700000
1.99880000 6.37480000 -6.92680000
1.17480000 6.71780000 -6.99810000
14.75500000 -19.64330000 10.57920000
-10.63480000 -3.78710000 -11.23500000
2.49870000 6.32750000 -8.20500000
18.18980000 -4.32700000 -9.05020000
17.39440000 -25.84370000 9.35040000
17.78820000 -25.21180000 9.00760000
16.17470000 -19.74550000 9.90740000
17.70820000 2.83440000 8.58250000
17.91650000 3.02990000 8.19300000
15.94430000 8.16210000 -3.01330000
15.36180000 8.31670000 -2.36460000
16.37220000 8.27030000 -2.95530000
1.75930000 -26.70530000 -4.28320000
-0.88660000 8.13620000 -8.26560000
0.39260000 8.30340000 -8.52760000
17.57940000 -21.23850000 9.04410000
3.06440000 7.89920000 -8.10180000
19.17160000 7.11630000 -2.11830000
3.24830000 6.63360000 -7.84340000
3.69870000 6.65810000 -8.76320000
3.46250000 6.81610000 -7.48560000
4.24320000 6.71090000 -8.05680000
4.00970000 7.10800000 -7.48410000
4.65560000 6.82290000 -7.93760000
4.45270000 7.52180000 -7.83030000
7.92890000 4.32410000 -9.25000000
5.02570000 4.39250000 -9.91810000
7.75260000 4.57030000 -9.08950000
5.83690000 4.70710000 -9.59810000
7.58340000 5.23820000 -9.28130000
-19.17650000 -1.83340000 8.55430000
2.83550000 -26.56240000 -3.36890000
-10.43220000 0.13790000 -11.23340000
16.15980000 10.52860000 -0.43690000
5.28070000 6.54570000 -8.67570000
14.29640000 5.11140000 8.50490000
5.47160000 6.74080000 -8.46660000
15.96060000 10.88880000 -0.55470000
14.63070000 10.80050000 -0.88180000
5.03780000 7.15630000 -8.02330000
3.67830000 -26.58940000 -2.82350000
14.91560000 5.17360000 8.47240000
2.50620000 6.52220000 -7.30880000
2.86870000 7.26280000 -7.50470000
4.32330000 -26.51670000 -0.61710000
-17.93630000 -1.24130000 9.51070000
2.95520000 7.01090000 -7.34040000
5.95660000 -26.41230000 -1.39280000
17.15950000 11.30400000 -0.23240000
-10.67600000 1.92710000 -11.00350000
5.11060000 -26.56660000 0.11180000
4.09900000 -26.52690000 0.32310000
5.58970000 -26.49860000 -0.31600000
15.83180000 11.75980000 -0.95310000
14.40820000 11.50840000 -1.41830000
6.38630000 -26.57190000 -0.47280000
4.80440000 -26.41850000 -1.77890000
14.69840000 12.32590000 -1.51030000
4.25650000 -26.53580000 -3.58240000
4.96930000 -26.60040000 -2.72850000
16.25700000 12.72510000 -1.04930000
6.37070000 -26.62560000 -4.03730000
6.31160000 -26.49700000 -2.41200000
18.01910000 11.72710000 -0.06930000
3.61270000 -26.64700000 -4.41760000
17.81040000 12.50780000 -0.24640000
17.36920000 12.55670000 -0.61130000
-16.18490000 2.77370000 -8.80560000
2.86670000 -26.68540000 -5.89990000
17.69940000 13.18120000 0.70870000
17.89810000 13.41440000 1.23370000
-13.90440000 2.38440000 -9.93740000
1.03290000 4.38050000 -11.67850000
-2.40820000 4.37440000 -11.54590000
17.73040000 13.86470000 0.35820000
17.94400000 13.72800000 1.49710000
17.81730000 14.18530000 2.05420000
18.03430000 14.07230000 0.92190000
6.09230000 -26.63280000 -5.98920000
17.53560000 13.23380000 -0.43920000
17.06370000 14.09300000 -1.51410000
16.22060000 13.49640000 -1.69520000
0.55660000 4.21090000 -11.99950000
17.34200000 13.97270000 -0.81890000
17.37070000 15.05230000 -0.67910000
3.01670000 4.47030000 -10.13580000
17.69450000 15.28650000 -0.17080000
18.14510000 14.59230000 0.54660000
6.60730000 4.31830000 -10.47910000
4.28110000 4.55460000 -9.83690000
14.63810000 12.93660000 -1.91900000
-14.61770000 3.74680000 -9.39180000
-16.24750000 3.89470000 -8.48040000
-14.28170000 4.22160000 -9.27170000
5.70640000 3.84420000 -12.15130000
0.56200000 3.83010000 -12.23030000
15.84530000 13.18940000 -1.53090000
14.11750000 14.03770000 -2.86790000
15.16950000 14.71400000 -2.84420000
5.84350000 4.23840000 -11.61620000
-1.80670000 -26.75610000 -6.99400000
-2.00830000 -26.51080000 -7.96610000
-11.16020000 3.17490000 -10.60890000
2.40540000 5.73570000 -9.82280000
2.79090000 5.23600000 -9.91740000
-18.27990000 1.85770000 9.24110000
-19.74710000 1.69310000 7.90910000
19.39470000 -3.65100000 -7.90290000
-13.08910000 3.77880000 -9.93830000
3.70490000 5.64660000 -9.98130000
-0.95030000 -26.71910000 -9.32160000
17.29540000 15.00240000 -1.23110000
-1.41030000 -26.52960000 -9.19860000
-1.91590000 -26.30460000 -8.66170000
-0.59250000 -26.74790000 -8.30010000
3.39340000 6.21320000 -9.86070000
-15.07750000 4.53210000 -8.35100000
-13.72900000 4.35420000 -9.24880000
-13.65260000 4.51420000 -8.66220000
-3.37710000 7.64650000 -8.91970000
-3.27630000 9.03930000 -8.70070000
0.29950000 -26.63410000 -6.97180000
-12.34120000 4.16830000 -9.63020000
0.60740000 -26.64910000 -7.62350000
-3.08720000 9.36460000 -9.08270000
-3.78890000 9.94490000 -9.10000000
16.28560000 15.09540000 -2.49820000
0.33130000 -26.47470000 -8.35940000
0.13170000 -26.72730000 -9.22880000
-11.75850000 4.36150000 -8.92660000
17.05970000 15.63390000 -1.82920000
-13.07400000 4.73320000 -8.23920000
0.41020000 -26.57750000 -8.87970000
-13.59100000 4.60100000 -8.26640000
2.56050000 -26.68860000 -8.62990000
1.90280000 -26.44800000 -7.32500000
1.83150000 -26.58710000 -8.15180000
13.68870000 -14.29800000 11.00250000
-11.38730000 3.77220000 -10.25120000
16.19190000 16.41940000 -2.62150000
4.39770000 -26.55770000 -7.54810000
3.33620000 -26.69580000 -7.33620000
2.67820000 -26.56600000 -7.17510000
-2.45010000 10.63820000 -9.69180000
-0.59300000 9.44710000 -9.32530000
-1.67330000 10.19920000 -9.64340000
-17.83990000 4.09280000 -7.29880000
1.05890000 -26.54760000 -6.53940000
-16.33870000 2.00800000 10.44700000
18.39620000 14.88610000 2.13820000
18.40360000 14.49760000 1.85600000
2.23390000 -26.57300000 -6.50550000
18.37440000 14.26160000 1.39090000
18.75450000 14.67710000 1.50440000
-17.32140000 4.46660000 -7.20150000
18.81990000 15.23010000 1.84180000
18.50790000 14.58400000 0.84380000
0.77880000 -26.47260000 -8.04140000
18.78380000 14.83510000 1.16400000
18.85980000 15.45420000 1.44350000
-17.47960000 3.22500000 9.69540000
18.39450000 15.55440000 0.42230000
1.17870000 -26.24980000 -8.67080000
1.64600000 -26.47430000 -8.57900000
18.53090000 16.32370000 0.75120000
-16.15540000 4.59380000 -7.42070000
-15.98810000 4.78750000 -7.13530000
-16.57100000 5.24390000 -6.81900000
2.88470000 9.20750000 -9.13020000
13.79850000 14.57850000 -3.35250000
14.07180000 15.78640000 -3.59960000
0.07390000 -26.70370000 -10.36980000
-0.93380000 -26.58730000 -10.00940000
-16.20510000 4.28850000 -8.23110000
13.38830000 15.84240000 -3.86720000
1.64450000 -26.61840000 -10.09180000
-0.53540000 -26.44140000 -10.47630000
-0.86210000 -26.15750000 -10.91550000
15.00200000 16.16800000 -3.48930000
0.53520000 -26.46020000 -10.91080000
-0.01770000 -26.40280000 -11.38810000
15.41400000 16.34820000 -3.33160000
1.38100000 -26.67460000 -10.39370000
1.99880000 -26.51990000 -11.42360000
-1.47880000 -26.21930000 -9.73060000
17.44330000 16.44680000 -1.10680000
17.87970000 16.63370000 -0.41590000
-21.47300000 -0.55460000 5.11010000
16.65180000 17.09580000 -1.91220000
-16.67780000 6.07890000 -6.93930000
16.82740000 18.02830000 -1.13020000
-17.48530000 6.84770000 -6.44950000
-1.02700000 -26.10180000 -10.49410000
15.29950000 -15.01860000 10.37490000
-0.63610000 11.30290000 -10.14320000
2.22900000 -26.23940000 -9.08960000
1.66470000 -26.32930000 -9.74730000
0.94890000 -26.30380000 -9.10380000
18.61580000 -13.46990000 8.27210000
19.55330000 -24.01280000 7.52160000
1.96080000 -26.07340000 -9.40170000
-15.57790000 7.56710000 -7.52780000
3.71810000 -26.48580000 -8.93630000
2.26400000 10.18090000 -9.77600000
3.10750000 -26.42750000 -9.11600000
1.25730000 11.12010000 -10.09530000
-16.27190000 8.16330000 -7.01730000
-17.55670000 8.18840000 -6.04570000
3.04650000 -25.97100000 -9.60150000
-14.71730000 4.61940000 -7.89290000
-14.87210000 5.02460000 -7.57610000
2.51180000 -26.39650000 -10.86910000
-0.28100000 12.75340000 -10.27320000
-14.02640000 4.79840000 -7.88180000
1.84400000 11.99370000 -10.16790000
12.63960000 20.53260000 3.94050000
11.35000000 21.50810000 3.10000000
13.04700000 20.84740000 3.91170000
-14.81970000 6.07830000 -7.78750000
3.06990000 -25.86090000 -10.15640000
-6.89740000 -26.26210000 -12.36150000
-9.11690000 -25.20200000 -11.90270000
-6.69830000 -24.85000000 -12.34960000
4.26060000 4.89230000 -9.78710000
3.09910000 -26.14060000 -11.05870000
14.75130000 20.52070000 4.35680000
14.54080000 19.53090000 4.60520000
13.55330000 19.82840000 4.39520000
5.41300000 5.69870000 -9.80210000
-13.52750000 5.14490000 -8.02130000
6.65390000 -26.65420000 -8.02100000
7.02750000 4.25980000 -9.89330000
5.88580000 -26.42800000 -10.77210000
5.50130000 -26.59440000 -9.57330000
5.23210000 -26.23260000 -10.38270000
-3.60200000 -26.59870000 -12.55400000
-5.10410000 -25.99060000 -12.61540000
7.32680000 -26.47950000 -9.52820000
7.22650000 -26.40830000 -8.86370000
6.45670000 -26.52220000 -9.66940000
-12.30770000 5.28000000 -8.45000000
-13.26210000 6.26870000 -8.19620000
-13.37230000 6.86450000 -8.05210000
-14.09890000 7.51630000 -8.10650000
-3.58870000 -26.30790000 -12.67610000
6.47780000 -26.61690000 -11.24720000
7.57200000 -26.64710000 -10.41250000
-4.28010000 -24.48820000 -12.57120000
13.45400000 21.56820000 3.83990000
14.20810000 22.03080000 3.61210000
4.87140000 6.20260000 -9.70110000
3.56820000 6.51540000 -9.52210000
10.62520000 22.57620000 2.49590000
-0.62940000 -26.72950000 -12.06220000
-12.34760000 8.52350000 -8.64110000
11.50680000 23.01920000 2.75790000
-0.37630000 -26.34120000 -12.84510000
1.09450000 -26.69620000 -12.47860000
-13.09460000 9.40630000 -8.48600000
4.58600000 6.58330000 -9.08120000
-1.17750000 -25.45430000 -12.77370000
5.69670000 6.20700000 -9.39450000
-15.86370000 9.40640000 -6.87580000
-13.87700000 10.18790000 -8.03370000
12.37760000 23.13390000 2.92480000
-18.13670000 9.43530000 -4.44680000
6.78150000 5.68080000 -9.62010000
13.27060000 23.24100000 2.82200000
14.78680000 22.16380000 3.26400000
6.50720000 6.09120000 -9.55310000
6.51940000 -26.44990000 -6.47050000
-20.81000000 2.42670000 6.38580000
13.81160000 23.28240000 2.46810000
15.19210000 21.98760000 2.86550000
14.36090000 22.92490000 1.80690000
-17.52960000 9.41400000 -5.39470000
8.36630000 6.64230000 -9.25520000
12.56030000 24.29800000 1.44430000
7.26040000 6.64790000 -9.42180000
4.00030000 -26.70600000 -12.44530000
3.30560000 -26.68300000 -11.95560000
-18.12820000 10.08260000 -3.99770000
18.35440000 15.03510000 2.54700000
6.18380000 6.49110000 -9.12160000
5.86070000 7.13870000 -8.62480000
5.33770000 -26.52520000 -7.87360000
1.27280000 -26.50610000 -12.84270000
4.44050000 -26.59730000 -12.76270000
3.66960000 -26.29440000 -12.96120000
5.48130000 7.83740000 -8.44520000
18.82670000 15.66680000 2.35160000
18.53680000 16.63980000 1.57650000
4.55420000 -26.56380000 -9.50350000
4.19260000 -26.23810000 -9.80360000
6.82200000 6.88230000 -9.26640000
18.24210000 17.14490000 2.88910000
6.59390000 7.78900000 -8.88710000
7.50760000 7.79390000 -9.10350000
6.36340000 8.50080000 -8.85160000
0.98440000 -26.65630000 -11.99180000
5.59860000 -26.63400000 -8.85030000
17.77990000 17.87430000 1.18130000
-16.70140000 10.37230000 -5.81430000
3.73620000 -25.87950000 -10.77430000
4.05650000 -25.87930000 -10.38170000
17.24080000 19.23650000 3.00720000
17.23860000 19.06510000 3.73420000
17.11390000 -8.77090000 9.34370000
5.18980000 -26.46360000 -9.99580000
8.40120000 -5.80640000 -12.64680000
17.67410000 18.02250000 2.39640000
16.22190000 -9.85630000 9.86940000
16.95350000 19.00540000 1.78670000
-15.51920000 11.38010000 -6.70240000
-16.18510000 12.26440000 -5.99100000
-13.94320000 -26.65410000 3.56850000
-14.33560000 -26.64640000 4.72470000
-14.78150000 -26.60120000 3.57880000
17.93130000 17.31200000 0.05180000
-13.66610000 -26.74180000 4.40060000
5.40130000 8.95160000 -8.85480000
-12.97280000 -26.63850000 5.05010000
-13.04430000 -26.75480000 6.02650000
-14.25920000 -26.61550000 5.39360000
-14.31850000 -26.76050000 6.46030000
-10.42280000 -26.71500000 6.49610000
-20.12010000 3.41900000 7.25580000
3.51870000 -26.57410000 -11.51050000
-11.30850000 -26.69420000 5.32590000
-11.97640000 -26.74790000 4.69280000
4.07080000 -26.43300000 -11.29090000
3.73510000 -26.11890000 -11.14380000
5.68140000 9.85060000 -9.44350000
-19.11540000 3.54950000 8.30960000
17.15300000 18.30390000 -0.30370000
7.08770000 8.90990000 -9.02370000
-19.57830000 4.26240000 7.60970000
-12.80710000 -26.62650000 3.83800000
7.62690000 9.84990000 -9.26730000
17.16020000 18.59880000 1.17590000
-11.34910000 -26.56870000 3.40670000
10.59000000 -7.00830000 -12.40090000
-10.63770000 -26.67580000 3.97730000
4.48230000 10.66780000 -9.78770000
-9.18560000 -26.63270000 8.96850000
-10.33960000 -26.49020000 9.01320000
3.55770000 -24.46160000 -12.94020000
16.17030000 19.41800000 0.23780000
15.90150000 19.73210000 0.74840000
-11.51180000 -26.72940000 7.82830000
9.53150000 -2.45890000 -12.52090000
11.90810000 -3.20630000 -12.12710000
16.70570000 19.92250000 2.06730000
-10.60840000 -26.61060000 8.13830000
-17.58210000 3.95800000 9.41220000
-18.51690000 4.06160000 8.53590000
11.08920000 -15.42730000 11.82870000
4.04900000 11.41860000 -9.92240000
-9.26590000 -26.43750000 8.24840000
-10.03800000 -26.40780000 8.21550000
15.92330000 19.37050000 -0.92500000
-9.79300000 -26.49560000 7.30840000
15.55020000 20.64740000 0.67490000
1.04280000 13.29110000 -9.94720000
-19.09260000 4.54390000 7.61040000
-8.63050000 -26.53950000 9.23800000
3.60200000 12.18510000 -9.86400000
-17.86640000 4.45220000 8.47530000
-18.04350000 4.76070000 8.18710000
-7.93740000 -26.23870000 9.78730000
-8.17950000 -26.16000000 9.38900000
2.56610000 12.78290000 -9.83000000
-7.95660000 -26.30250000 8.24020000
-7.45180000 -26.00260000 9.27050000
15.39840000 20.87950000 4.03570000
2.24710000 13.47380000 -9.99720000
4.25050000 12.75070000 -9.63410000
-7.77080000 -26.60580000 7.42440000
-8.64310000 -26.46860000 7.55130000
-8.41070000 -26.45920000 8.32590000
16.30430000 20.58480000 3.43670000
-7.12880000 -26.08240000 7.90640000
-20.50610000 4.26400000 6.25700000
-19.89500000 4.57010000 6.81170000
-7.83460000 2.50200000 -11.61080000
-7.11450000 -25.86150000 8.63040000
-20.01130000 4.69160000 6.17930000
6.52330000 10.68950000 -9.60570000
5.61990000 11.54310000 -9.58450000
16.08280000 21.06250000 2.37620000
-19.74940000 4.97610000 6.17920000
-8.89610000 2.65310000 -11.29490000
-8.01180000 -26.72150000 5.88820000
-8.88650000 -26.69590000 6.64960000
-19.58470000 5.44230000 6.61280000
-19.07430000 4.74420000 7.29710000
4.36000000 13.44610000 -9.79720000
15.77330000 21.14710000 1.12830000
4.32650000 14.42040000 -9.67990000
-18.96130000 5.15220000 7.42870000
15.07570000 22.14740000 1.10560000
4.58870000 -26.68000000 -11.71040000
-17.75280000 5.37580000 8.61920000
5.45130000 12.88580000 -9.43330000
6.08720000 12.60030000 -9.44610000
-8.90320000 -26.62740000 5.01410000
11.56420000 -9.22880000 11.65120000
5.13740000 -26.43840000 -11.73910000
5.06750000 -26.69940000 -12.23090000
5.76710000 14.02920000 -9.39570000
5.62750000 -26.35480000 -11.72730000
5.23460000 -26.06500000 -11.23870000
-4.65870000 10.21360000 -8.63450000
-3.49840000 11.35200000 -9.52380000
-3.95420000 0.24550000 -12.18580000
-5.72970000 -26.67450000 6.44940000
-6.46270000 -26.51860000 7.04680000
-6.99220000 -26.69860000 6.91320000
6.25180000 -26.68330000 -12.24930000
-4.37300000 11.38020000 -8.97270000
4.69480000 -26.00520000 -11.14150000
13.23680000 17.01990000 -4.18530000
6.62110000 -26.23130000 -12.97200000
12.28990000 -13.39420000 11.43710000
14.44710000 17.33310000 -3.84920000
13.36070000 18.23050000 -4.23990000
-5.67650000 -26.62860000 4.79130000
-7.59850000 -26.64480000 4.80400000
15.03320000 18.09690000 -2.96220000
-5.80420000 2.66470000 -11.94150000
-3.61410000 13.50150000 -9.59250000
-2.84180000 12.51890000 -9.98660000
-4.91200000 12.18580000 -8.62290000
-1.99710000 12.14720000 -10.18060000
-9.01800000 4.13020000 -9.71130000
-11.03900000 4.03330000 -9.74150000
-9.51630000 4.29840000 -9.42540000
-14.01200000 1.58580000 11.45330000
-2.69530000 14.10180000 -10.02850000
-8.50120000 -26.59100000 3.19880000
12.66200000 20.74650000 -3.21030000
13.57170000 20.85470000 -1.88000000
14.46830000 19.75010000 -2.24450000
-1.75080000 13.66910000 -10.22220000
3.03540000 -2.73680000 -12.64840000
2.38250000 -3.80220000 -12.48100000
2.10110000 -3.65250000 -11.98960000
-13.33850000 -26.70210000 2.61140000
-14.20200000 -26.72290000 2.38750000
-4.55530000 14.17050000 -9.05000000
-4.95210000 13.41660000 -8.82200000
-9.78530000 3.02130000 -10.87900000
2.46590000 -2.86500000 -12.46550000
-9.63650000 3.54590000 -10.43090000
-8.99740000 3.32780000 -10.85000000
-5.43230000 13.55400000 -9.01130000
-5.46060000 12.37350000 -8.57970000
-5.07080000 14.66020000 -9.04720000
13.23340000 -11.03160000 11.21560000
-5.45180000 14.98410000 -9.23210000
-4.90230000 15.80730000 -9.03330000
4.34180000 -0.39140000 -12.61100000
-3.98370000 15.11470000 -9.40860000
-14.56650000 -26.62370000 1.76100000
-13.19840000 -26.65710000 1.56630000
-11.93130000 4.59920000 -8.60470000
15.23620000 20.05530000 -0.72830000
-10.38290000 4.62870000 -9.06510000
-10.45810000 -26.72860000 1.88980000
-11.19170000 -26.55450000 2.01700000
-12.08540000 -26.76280000 0.33320000
-12.02070000 -26.71730000 1.68400000
-11.84050000 -26.71540000 3.42710000
-9.84340000 5.08820000 -9.34040000
-10.40380000 5.99400000 -9.40410000
14.70220000 20.45590000 -0.38890000
-12.75630000 -26.53520000 3.06720000
-12.19410000 -26.59800000 2.53320000
-0.98740000 14.59290000 -9.99850000
0.23320000 14.38560000 -9.87320000
-8.08990000 3.59660000 -11.27270000
-8.11170000 3.86030000 -10.99340000
-8.50670000 3.95640000 -10.29960000
-5.44470000 15.71620000 -9.16720000
-5.85940000 14.95410000 -9.72560000
13.49720000 18.99130000 -3.97560000
-5.77040000 16.62560000 -8.89850000
-8.36950000 4.56250000 -9.62690000
11.63650000 18.54840000 -5.08250000
11.69440000 19.84600000 -4.77870000
-7.02960000 4.08280000 -11.18840000
-6.51320000 4.32180000 -10.63460000
-13.61760000 -26.72720000 0.21500000
-6.14910000 17.46990000 -8.63160000
-4.78770000 16.95150000 -8.87290000
13.48600000 19.70070000 -3.53490000
11.92190000 20.47020000 -4.14530000
-7.16360000 4.50010000 -9.99190000
-3.87200000 15.98720000 -9.32190000
-3.66300000 16.67320000 -9.07460000
-7.86020000 5.66820000 -10.15320000
-7.64910000 4.92370000 -9.93210000
-6.02080000 18.56770000 -8.17630000
-5.22710000 17.79110000 -8.67080000
-7.14670000 18.26330000 -8.05600000
-12.26380000 -26.82900000 -0.97180000
1.87990000 -3.15700000 -10.44790000
1.58550000 -2.51000000 -8.30260000
1.67530000 -2.46910000 -10.51750000
-15.64940000 3.64810000 10.65690000
1.72090000 14.32710000 -10.00070000
-14.34600000 -26.77560000 0.80610000
11.37850000 21.77470000 -2.82390000
13.33010000 21.13180000 -1.34720000
2.91310000 15.57320000 -9.10060000
2.44230000 16.01550000 -8.90950000
3.47700000 15.99040000 -8.71810000
-11.82110000 6.30290000 -8.80310000
-9.90760000 6.93790000 -9.55270000
11.88830000 21.73580000 -2.01760000
13.36770000 21.36730000 -1.06670000
12.50230000 22.07010000 -1.45810000
1.51870000 -1.95170000 -11.24310000
1.17950000 -1.73240000 -9.87830000
9.64180000 4.24770000 -8.74990000
9.38010000 4.57780000 -8.57840000
10.62530000 4.37020000 -8.12670000
9.17820000 4.93140000 -8.69950000
11.03840000 4.86480000 -7.97650000
1.01520000 -1.48760000 -7.90450000
13.11770000 -7.98490000 11.18640000
9.59230000 5.90460000 -8.82720000
14.78340000 20.66860000 -0.05600000
13.62760000 22.43190000 -0.62750000
10.59440000 5.70660000 -8.38750000
-3.63830000 -0.96060000 -8.05570000
-3.02010000 -0.57860000 -8.36510000
-11.17350000 -26.71130000 0.16370000
-12.34460000 3.18600000 11.83710000
14.46000000 22.47100000 0.23390000
-1.87630000 -0.41320000 -7.97510000
-13.37150000 3.95430000 11.47820000
11.24780000 5.85090000 -7.91810000
12.37530000 5.43160000 -7.44420000
1.96950000 -2.70600000 -11.79170000
1.89700000 -2.03090000 -12.16180000
1.94650000 -1.56640000 -12.42570000
11.89360000 6.33210000 -7.09060000
10.24970000 6.77170000 -8.27090000
-14.45690000 4.35940000 10.94050000
14.14370000 4.87850000 -6.37140000
12.87450000 5.97210000 -6.99480000
1.24910000 -1.03720000 -11.97740000
-9.67460000 -26.77990000 0.22220000
0.91520000 -1.21160000 -11.06040000
-13.50680000 4.47840000 11.19400000
-3.49310000 -0.05660000 -11.96880000
-12.01650000 4.36790000 11.60020000
-11.78730000 4.60910000 11.23250000
2.06090000 -0.66330000 -12.54390000
11.73820000 7.13890000 -6.96590000
11.27300000 7.53780000 -7.43040000
-3.10080000 2.43290000 -12.20330000
12.87740000 8.14030000 -4.67710000
13.26020000 8.23270000 -3.57950000
13.73190000 7.63700000 -4.54450000
12.88780000 9.09850000 -2.59360000
12.86130000 8.87680000 -2.24630000
13.29100000 8.56040000 -3.00770000
-7.78260000 -26.74490000 0.55380000
-6.35730000 -26.71390000 1.93100000
-7.22620000 -26.64060000 1.45730000
13.87660000 23.41170000 0.60470000
12.97070000 8.46770000 -3.77960000
13.04150000 8.93660000 -3.39250000
-5.70800000 -26.56440000 1.03840000
-5.97570000 -26.65420000 3.13940000
12.93720000 8.68270000 -4.17610000
-5.33670000 -26.51040000 2.84880000
16.10030000 5.39020000 -5.36560000
15.48370000 7.01510000 -4.83520000
15.85980000 7.58640000 -3.82140000
15.23470000 7.75630000 -4.03420000
12.68160000 24.29190000 0.45490000
13.03730000 8.76330000 -1.81110000
14.31140000 8.49540000 -1.95950000
14.15520000 8.31580000 -2.65410000
12.60880000 23.76300000 -0.84480000
13.12050000 23.77570000 -0.17820000
-2.80760000 4.45180000 -10.11100000
-4.49480000 4.43660000 -10.39730000
-3.99000000 4.55650000 -10.05570000
-3.23720000 4.94420000 -9.90110000
-2.50930000 4.74290000 -9.10630000
-2.62070000 4.62440000 -9.59430000
-4.25650000 -26.63150000 2.04410000
-5.78510000 4.44970000 -10.20220000
14.71870000 7.99110000 -4.21770000
14.60320000 8.17670000 -3.52800000
-6.13780000 4.74710000 -10.08300000
14.05360000 8.05640000 -3.94180000
-6.31180000 5.49080000 -10.31610000
10.76300000 21.62270000 -3.98220000
-8.86930000 -26.73090000 1.60820000
-5.31860000 5.05010000 -10.00120000
-4.49590000 4.89640000 -9.80340000
15.27150000 7.97810000 -3.16020000
10.27440000 22.34390000 -2.47500000
10.23040000 22.82040000 -2.38950000
10.08570000 22.22610000 -2.92890000
-7.65860000 -26.68070000 3.08960000
-4.46400000 5.36260000 -10.04230000
9.93480000 23.65850000 -2.51340000
-3.91360000 4.84780000 -9.88980000
-3.24510000 5.79920000 -9.48000000
-3.06150000 5.96150000 -9.19320000
14.76330000 5.74880000 -6.27640000
-3.22390000 5.55370000 -9.80900000
-10.18660000 -22.39100000 -11.51920000
-8.22550000 -26.56680000 1.60820000
13.78150000 6.86110000 -5.76740000
14.47840000 7.07500000 -5.19120000
13.67950000 7.36650000 -5.22070000
12.79400000 7.02820000 -6.26670000
13.18000000 7.57050000 -5.56070000
12.60710000 7.51470000 -5.96700000
-6.04200000 3.82220000 -11.70520000
-6.78860000 -26.59530000 3.66540000
-8.47780000 -20.52700000 -11.89880000
11.08070000 25.22660000 -0.90920000
-8.56500000 6.56230000 -10.09550000
12.37440000 7.82830000 -6.06450000
12.94370000 7.87290000 -5.14390000
12.59470000 8.30180000 -5.92380000
13.07960000 9.01370000 -4.67940000
8.02980000 -1.21190000 -12.63440000
-5.84340000 -23.20750000 -12.39330000
-7.85970000 7.34420000 -10.14250000
9.93900000 24.07530000 1.62640000
-8.50040000 7.70760000 -9.67110000
12.26970000 8.52290000 -6.93120000
10.92070000 24.30490000 1.89320000
12.98490000 9.23130000 -6.30960000
-8.64830000 -26.65070000 0.11280000
13.25310000 9.32370000 -5.38110000
12.22920000 24.20200000 2.03360000
9.80660000 25.13930000 0.78880000
-5.24720000 4.32730000 -11.36480000
-10.19870000 3.06550000 12.15540000
-3.62150000 3.92440000 -11.94460000
14.66930000 7.50970000 -4.74330000
11.08720000 24.99900000 1.11520000
-3.63080000 4.21350000 -11.74020000
-4.10220000 4.44240000 -10.95540000
11.24350000 25.31850000 -0.11690000
10.60490000 25.65880000 -0.11300000
-12.10710000 -18.84950000 -10.83310000
-10.90090000 3.93180000 11.95960000
13.92320000 10.73790000 -4.75290000
-14.80330000 -26.61470000 7.77390000
-16.29940000 -26.52110000 7.64160000
-16.84030000 -26.46000000 8.62070000
13.73000000 10.55840000 -6.01390000
13.24210000 9.31920000 -1.11470000
12.74940000 9.28010000 -1.59950000
-9.75110000 4.36440000 11.77540000
2.16640000 2.84530000 -12.41070000
12.67710000 9.76620000 -1.83420000
12.83530000 9.79830000 -1.42080000
13.01970000 10.65810000 -1.72470000
13.42640000 10.86390000 -1.44280000
13.68820000 10.11660000 -1.06200000
12.95410000 9.93110000 -2.35100000
-14.57980000 -16.06920000 -9.79740000
13.45240000 10.04310000 -3.46080000
13.84000000 11.19890000 -3.47890000
13.22370000 11.24100000 -2.19920000
-2.33370000 15.33290000 -9.85950000
-13.18040000 -26.71810000 8.54670000
-0.37230000 15.52260000 -9.57970000
13.39170000 11.74260000 -1.81620000
13.74190000 11.98020000 -1.68280000
-2.51380000 16.09950000 -9.52260000
-16.40120000 4.23520000 10.09630000
-1.33940000 16.02860000 -9.55670000
-6.73750000 6.48370000 -10.47870000
-16.85040000 4.46290000 9.52040000
20.90640000 -21.74980000 5.89880000
-15.49310000 4.41060000 10.30210000
-15.78900000 4.67980000 9.81910000
-12.17460000 -26.59050000 8.62880000
-4.82970000 5.86550000 -10.31470000
-1.66120000 16.75130000 -9.01240000
13.92290000 12.11330000 -3.26590000
-16.38300000 4.90770000 9.41280000
13.46680000 12.01990000 -2.36830000
-5.62860000 6.74920000 -10.46420000
-16.45120000 6.00280000 9.48160000
-14.75040000 5.64260000 10.41400000
-6.72760000 7.21820000 -10.37110000
-7.23230000 7.71160000 -10.04000000
-14.16600000 4.85200000 10.54420000
-7.65810000 8.38470000 -9.17720000
-6.97660000 8.17730000 -9.53510000
14.36320000 12.77680000 -4.27110000
-12.45140000 4.85040000 10.99090000
14.30280000 12.13270000 -4.86880000
-4.78570000 20.10170000 -7.75310000
-6.05010000 7.65070000 -10.02630000
-12.63360000 5.24730000 11.04990000
14.22890000 13.59700000 -3.92140000
-4.97680000 6.98440000 -10.34650000
-4.63230000 7.10350000 -10.10410000
-4.22120000 18.84420000 -8.34890000
13.71570000 12.72470000 -2.36390000
13.81270000 12.96310000 -3.08610000
-13.04590000 6.20820000 11.12420000
-6.04390000 8.06050000 -9.43800000
-6.25080000 8.59140000 -9.21530000
-5.21940000 8.28280000 -9.37910000
13.73780000 13.85020000 -3.28180000
-3.77460000 6.04670000 -10.16610000
-2.85370000 17.78320000 -8.86930000
-1.70590000 17.13390000 -8.85470000
-4.53830000 6.46070000 -10.40250000
-10.96520000 5.03460000 11.32760000
-3.96600000 6.56260000 -10.11940000
-16.56240000 -22.04420000 10.52640000
-4.02610000 6.94860000 -9.49580000
-1.83810000 19.86000000 -7.90980000
-11.94940000 6.48400000 11.33150000
-10.95500000 5.87050000 11.50770000
8.45350000 7.64240000 -9.08350000
-10.54970000 -12.66310000 -11.23130000
-10.15800000 -15.60100000 -11.41670000
-1.54070000 17.70830000 -8.81630000
8.12940000 1.69910000 -12.47620000
-11.44440000 7.09140000 11.19750000
-3.48390000 7.23690000 -9.24910000
9.51110000 6.66060000 -8.84290000
-0.96570000 19.08480000 -8.32750000
10.06640000 7.92130000 -8.49420000
-5.04620000 7.52670000 -9.70320000
-5.01910000 7.82730000 -9.45310000
-4.16580000 7.43580000 -9.39530000
-4.36650000 8.00930000 -9.37160000
7.11060000 3.04030000 -12.37660000
-6.29320000 8.85840000 -8.78180000
-5.34500000 8.58240000 -9.20780000
-4.92140000 8.63280000 -8.79940000
-10.30400000 7.17190000 11.14090000
-4.39490000 21.08930000 -7.04690000
-3.61280000 21.50630000 -7.17130000
-2.77160000 20.73640000 -7.66020000
8.70070000 9.22640000 -8.94150000
-4.01990000 8.16190000 -8.98150000
-4.27770000 8.52620000 -8.38420000
9.64080000 8.75180000 -8.64020000
-14.91620000 -21.60360000 11.31100000
-5.00560000 8.98440000 -7.99330000
-4.35040000 8.98960000 -8.13610000
0.58180000 15.25120000 -9.83510000
-4.90920000 9.51880000 -8.13260000
-10.04390000 7.90880000 10.27010000
-10.60520000 7.80460000 10.75170000
2.20000000 15.05440000 -9.79950000
11.27290000 8.12090000 -7.74770000
1.47860000 16.03280000 -9.56850000
-12.13930000 6.84240000 -8.25340000
2.38470000 15.43620000 -9.52320000
-10.90710000 6.93060000 -8.93610000
0.43430000 16.38080000 -9.52840000
-0.28120000 16.42540000 -9.29650000
-12.29840000 7.25080000 -8.24980000
-9.19610000 7.86640000 9.42540000
-0.43340000 17.16450000 -8.71390000
11.38780000 9.84560000 -8.11810000
0.19070000 17.56960000 -8.96740000
-10.94100000 8.67080000 9.21060000
10.27630000 2.87900000 -12.06910000
12.28670000 9.86390000 -7.55910000
0.49870000 17.18870000 -9.25790000
-9.30720000 7.93410000 -8.59070000
1.60750000 16.66160000 -9.31040000
-10.17780000 7.91100000 -8.34860000
-11.28730000 8.81390000 8.49940000
-9.72530000 8.27210000 8.83770000
1.67050000 18.04490000 -8.88550000
10.39030000 9.91680000 -8.58240000
10.01720000 10.94430000 -8.86160000
-10.96540000 8.79570000 -8.86400000
-10.38000000 8.35040000 -8.63570000
3.57900000 15.08680000 -9.46080000
8.61960000 4.00700000 -11.79310000
-4.64840000 -21.90570000 -12.58120000
-18.53670000 5.76990000 7.95130000
-18.54510000 6.36200000 7.63420000
9.37520000 3.61190000 -11.99240000
4.90760000 15.36550000 -9.20420000
4.41780000 16.00050000 -8.80430000
-17.24690000 6.50830000 8.83850000
7.84110000 10.72970000 -9.46100000
-17.34610000 7.26820000 8.29510000
12.41890000 4.10680000 -10.10550000
2.69570000 16.62130000 -8.87450000
7.02060000 12.05520000 -9.50920000
-18.87400000 6.73910000 6.80780000
-18.74430000 7.20650000 6.06200000
3.28980000 17.59990000 -8.61500000
3.10190000 18.08740000 -8.58830000
-16.57870000 8.04930000 8.29400000
8.77780000 11.34200000 -9.27260000
-17.57970000 7.87060000 6.62990000
8.43260000 12.07450000 -9.13140000
-8.75920000 9.06610000 -8.60880000
3.91750000 17.29800000 -8.36420000
-14.24640000 12.38190000 -7.53280000
-15.91500000 6.73290000 9.52170000
-14.94760000 6.49280000 10.24850000
2.94650000 18.67590000 -8.33870000
5.93470000 13.45770000 -9.31000000
7.02200000 13.00530000 -9.19500000
6.96510000 13.71260000 -8.80440000
-14.90130000 7.33130000 10.08510000
-15.80340000 7.66300000 9.36040000
6.02380000 15.33560000 -9.00330000
-0.38740000 18.19190000 -8.43630000
0.02110000 18.03050000 -8.48820000
6.47120000 14.33470000 -8.97770000
-11.16740000 -26.50870000 9.51060000
-13.30040000 7.30720000 10.81540000
1.02040000 19.79750000 -7.65230000
8.21340000 12.77820000 -8.72110000
-13.92900000 8.19290000 10.16480000
-6.06170000 9.04980000 -8.07700000
-6.31170000 9.33440000 -7.74100000
-5.84150000 9.85790000 -7.71280000
0.64510000 18.49720000 -8.54250000
7.23830000 14.84500000 -8.15420000
-6.41600000 9.84560000 -7.76970000
7.62870000 14.40690000 -8.01000000
0.59660000 19.01180000 -8.00400000
7.20330000 16.79470000 -8.07720000
-1.66680000 21.22820000 -7.45780000
9.50340000 11.69880000 -8.99490000
-11.74340000 11.41930000 -9.17120000
0.40170000 21.21660000 -7.29630000
-0.32550000 21.58500000 -7.04790000
9.37040000 12.26950000 -8.62670000
11.05690000 11.94290000 -8.45300000
-12.27830000 -20.93680000 12.24390000
10.71690000 12.44710000 -8.38770000
-16.21590000 8.50490000 7.91900000
9.31790000 12.58670000 -8.49530000
9.75320000 13.12340000 -8.59180000
-0.33860000 22.62010000 -6.68410000
9.13190000 13.46670000 -8.47640000
10.60950000 13.43740000 -8.40590000
1.70590000 19.03370000 -8.26570000
-13.52540000 -19.38500000 11.90030000
2.13180000 19.32050000 -7.60370000
-15.04510000 8.54370000 9.24870000
8.25870000 13.34720000 -8.27070000
14.06410000 -2.57980000 -11.44100000
1.15180000 20.88300000 -7.45700000
8.50620000 13.99960000 -8.14090000
2.12800000 19.62990000 -7.29590000
8.04790000 14.68950000 -7.76920000
-8.54010000 10.70600000 -9.50940000
3.19310000 19.18060000 -7.58400000
2.87290000 19.59500000 -7.10900000
-13.55760000 8.81910000 9.70470000
2.77530000 19.05950000 -8.04600000
-14.95160000 8.89360000 8.63360000
9.16670000 14.52400000 -8.25590000
-16.03780000 8.66820000 7.50210000
-14.80780000 9.02750000 8.11550000
-10.70770000 10.57310000 -9.37870000
8.93430000 15.19410000 -7.86650000
9.86070000 14.65530000 -8.25530000
-13.38780000 9.15520000 8.91750000
-13.42820000 9.18480000 8.18900000
2.24700000 20.90050000 -7.13160000
-10.48010000 11.53380000 -9.72110000
0.45330000 21.72790000 -6.89350000
-13.08000000 8.28720000 10.40620000
12.87740000 9.91830000 -6.98240000
0.75340000 22.58900000 -6.41260000
-12.13880000 8.15810000 10.61990000
1.74070000 23.02640000 -6.12790000
-9.27970000 11.43600000 -9.89840000
1.81440000 22.12960000 -6.79300000
2.77230000 21.88540000 -6.56060000
-10.70650000 -18.98740000 12.53070000
-10.28580000 13.14290000 -9.82180000
13.30060000 11.23410000 -6.95420000
-12.14200000 8.74570000 9.82630000
5.63210000 16.50890000 -8.68830000
12.27710000 11.59800000 -7.86630000
4.88420000 17.71710000 -8.40190000
4.36650000 16.92750000 -8.44990000
7.03580000 17.89860000 -7.94600000
-12.48010000 9.12000000 8.92650000
-12.01600000 9.23200000 8.19020000
4.17540000 18.36030000 -8.14030000
-12.14960000 12.83110000 -8.87890000
13.09710000 12.86310000 -7.23870000
14.06340000 11.41440000 -5.74670000
13.75740000 12.55400000 -6.49700000
3.63440000 19.31840000 -7.60260000
14.24910000 12.63500000 -5.53510000
4.46530000 19.85790000 -7.62150000
5.42500000 19.10320000 -7.92210000
14.32930000 13.42850000 -5.03500000
5.84800000 -26.50280000 11.81920000
-0.33830000 -26.63670000 5.13200000
1.02150000 -26.61840000 6.42480000
-3.23560000 -26.63200000 6.33950000
-13.57970000 14.06510000 -7.64680000
-3.36710000 -26.63040000 8.55920000
-4.82770000 -26.63760000 8.57560000
-4.47470000 -26.47380000 7.68230000
-5.43850000 -26.43090000 8.24010000
6.66710000 -26.29170000 12.46360000
8.18690000 -26.08900000 12.42670000
6.83660000 -25.81320000 12.70210000
-4.04970000 -26.48930000 8.01560000
-5.77660000 -26.08930000 8.17340000
5.72790000 -26.39420000 12.38580000
-6.51570000 -26.36920000 9.62080000
3.13690000 -26.33100000 12.71950000
-6.60430000 -26.05300000 9.31110000
-5.58110000 -26.43940000 9.37190000
-6.13380000 -26.32870000 8.93380000
4.41510000 -26.36330000 12.71470000
5.25220000 -25.92910000 12.84120000
11.57830000 0.32630000 -12.11490000
13.93550000 13.76450000 -5.96220000
6.59350000 19.74450000 -7.48800000
-4.34580000 -26.42610000 9.52450000
4.20730000 -26.50480000 12.01910000
3.09520000 -26.33490000 12.29080000
13.47670000 0.44590000 -11.55260000
3.93900000 -26.40670000 11.79760000
-5.51730000 -26.57000000 8.61830000
8.60600000 18.84550000 -7.00420000
8.01050000 17.46340000 -7.29360000
8.83420000 18.34190000 -6.83040000
14.17560000 14.32510000 -4.63390000
14.00130000 14.51220000 -4.10590000
-6.77500000 -25.85660000 8.88520000
8.54110000 19.76460000 -6.82940000
-11.75010000 13.99130000 -8.78480000
13.53390000 15.24700000 -3.91430000
-6.21060000 -25.89800000 7.95290000
13.89180000 14.81060000 -5.22250000
7.38100000 20.52850000 -6.91530000
13.65460000 14.75570000 -5.91740000
13.61720000 15.49420000 -4.70410000
13.24630000 15.84500000 -4.43440000
4.01540000 20.51000000 -7.07990000
16.02800000 -0.91970000 -10.46680000
13.01460000 16.11490000 -5.29870000
2.84710000 20.39410000 -6.88840000
3.27240000 20.17530000 -6.96670000
3.62830000 21.41260000 -6.20260000
-3.27770000 -26.46190000 8.00320000
3.97630000 21.22170000 -6.46880000
-3.89190000 -26.27750000 7.75600000
-2.40380000 -26.43480000 8.26190000
11.91760000 12.82980000 -8.01970000
-1.90210000 -26.41860000 9.58950000
5.87730000 21.20340000 -6.84980000
11.09090000 14.65310000 -7.95130000
-1.72810000 -26.37140000 8.14170000
-1.49910000 -26.24060000 9.09460000
-10.02100000 14.48070000 -9.67600000
4.97770000 21.24420000 -6.82180000
-4.20450000 -26.11290000 10.32980000
-11.08470000 14.51030000 -8.71440000
-11.35370000 15.03690000 -8.07330000
12.34480000 13.93380000 -7.55450000
-10.71070000 14.79020000 -8.98650000
2.17150000 23.49280000 -5.60210000
2.77160000 22.89500000 -6.09790000
4.51680000 21.99020000 -5.63030000
14.69750000 2.12670000 -10.86620000
16.38930000 1.41940000 -10.13530000
5.13880000 21.92750000 -6.09370000
10.64030000 4.16460000 -8.66790000
4.25180000 22.61350000 -5.39630000
-5.68560000 -26.27800000 7.00640000
-4.66060000 -26.49430000 6.81730000
3.70260000 23.00840000 -5.58100000
-5.13590000 -26.25580000 7.30020000
9.71850000 15.82380000 -7.66070000
-7.69040000 9.12920000 -8.35100000
-3.52850000 -26.37190000 7.21500000
10.48990000 15.88820000 -7.60970000
14.21380000 4.07180000 -7.64630000
-8.02010000 9.76590000 -8.89430000
12.34260000 4.12560000 -7.49210000
12.61690000 4.38530000 -7.06820000
-4.34580000 -26.63360000 5.03220000
-5.02230000 -26.62790000 4.51020000
11.32570000 15.80740000 -7.29200000
12.29930000 15.47380000 -6.90180000
-7.15950000 9.13040000 -8.30560000
-2.93380000 -26.59720000 5.28330000
-7.21830000 9.59180000 -8.24950000
13.23640000 14.14270000 -6.78670000
-6.30330000 10.75490000 -8.29590000
-7.17710000 10.06140000 -8.60880000
7.06090000 21.81910000 -6.13140000
6.22330000 22.34890000 -5.64400000
-6.34890000 -26.01100000 7.53080000
13.00630000 15.56480000 -6.14690000
9.89140000 -26.19570000 12.14450000
5.72280000 22.49570000 -4.85530000
-6.53970000 11.68290000 -9.36650000
-2.39160000 -26.45250000 6.95140000
-7.30620000 11.22460000 -9.52840000
12.15630000 16.34550000 -6.14010000
5.68350000 22.75640000 -4.43930000
5.21910000 23.18450000 -4.46170000
3.90250000 23.46510000 -4.90560000
-0.52230000 -26.62370000 7.89880000
-0.71110000 -26.45190000 9.22040000
14.10250000 -26.19130000 6.91920000
14.44680000 -26.38100000 7.12410000
-5.80830000 10.77970000 -8.06650000
8.22680000 -26.48740000 1.97020000
8.50970000 21.23840000 -6.06330000
-5.19200000 10.87030000 -8.29080000
2.77400000 -26.34660000 8.19690000
2.46980000 -26.22820000 9.16650000
9.79370000 20.06540000 -6.06240000
7.12920000 -26.51850000 -0.56500000
5.51490000 -26.56740000 1.11880000
10.86110000 19.41290000 -5.48680000
9.94990000 21.07740000 -5.27670000
7.90290000 -26.56330000 -0.07180000
7.45760000 16.13570000 -7.80980000
-5.92610000 12.20660000 -8.94060000
8.40070000 22.20670000 -5.07350000
9.36680000 -26.51390000 1.38450000
9.94740000 -26.39620000 2.35750000
7.20640000 22.38030000 -5.38880000
8.26820000 16.17610000 -6.97880000
9.31000000 16.80510000 -6.24900000
8.99850000 16.32740000 -6.75620000
9.08900000 17.00540000 -6.25280000
1.27480000 -26.62600000 4.76560000
8.23150000 15.57180000 -7.34740000
2.15670000 -26.07900000 8.08100000
1.52880000 -26.27610000 8.45420000
1.89850000 -26.38880000 7.79560000
-9.19060000 12.83530000 -10.16390000
2.69600000 -26.31820000 7.01230000
1.37710000 -26.56820000 7.90970000
0.88950000 -26.59050000 7.45500000
-8.06470000 12.25930000 -10.17030000
-7.78590000 13.07260000 -10.27760000
9.62150000 -26.53680000 0.10530000
8.71790000 -26.42060000 0.21410000
9.05310000 15.99160000 -7.32280000
6.99940000 22.67400000 -4.75480000
2.52100000 -26.07650000 8.02700000
8.53000000 16.98400000 -6.70870000
3.26000000 -26.34410000 7.02080000
10.78650000 -26.55540000 1.00280000
8.12800000 22.62150000 -4.02660000
10.89980000 -26.48900000 2.08060000
-6.80790000 12.64780000 -9.99400000
3.33940000 -26.57610000 6.36720000
9.35190000 22.21650000 -4.27690000
-7.50210000 14.13280000 -10.24230000
12.28760000 -26.52450000 3.57200000
12.16320000 -26.37620000 5.70210000
13.19860000 -26.52350000 4.73880000
-8.93430000 15.03310000 -9.89380000
-5.70570000 21.97580000 -6.64210000
12.76580000 16.34930000 -4.35390000
12.43230000 16.52900000 -4.78390000
-6.11990000 12.99630000 -9.68160000
12.10240000 17.14220000 -4.68690000
9.95680000 16.69160000 -6.55990000
10.42940000 17.12750000 -5.48820000
17.79290000 1.56980000 -9.16540000
10.66930000 16.93880000 -5.94570000
-5.72670000 13.96380000 -9.54200000
10.92030000 17.67370000 -5.24350000
9.85950000 17.96400000 -6.00520000
-6.53980000 13.75910000 -10.13940000
12.99290000 -26.35390000 5.25190000
11.38540000 16.93400000 -5.26510000
-4.35710000 22.71970000 -6.37040000
10.25020000 16.30360000 -7.21250000
-3.56320000 22.48460000 -6.56790000
14.57900000 -26.43060000 4.62760000
13.95400000 -26.03230000 5.03700000
0.90070000 -26.51760000 9.01990000
10.94450000 16.60840000 -6.61120000
11.92610000 16.69810000 -5.70220000
14.82840000 -26.15430000 4.86560000
15.00780000 -25.87720000 5.18200000
15.30380000 -26.50210000 3.22880000
2.27770000 -26.45530000 10.24320000
1.42320000 -26.40220000 9.68870000
-5.22810000 23.91040000 -5.61290000
-3.92200000 23.77110000 -5.80200000
-10.15760000 15.51810000 -9.24940000
16.34010000 2.91640000 -9.81710000
2.10420000 -26.10580000 9.40460000
-9.51670000 16.20230000 -9.29800000
1.42270000 -26.20090000 9.10320000
15.38130000 4.24040000 -5.63360000
-2.58280000 22.42040000 -6.94420000
-2.75270000 23.33010000 -6.31980000
11.42630000 17.13350000 -4.93860000
15.08950000 4.07840000 -6.21380000
-10.93900000 15.66070000 -8.00000000
-10.92730000 16.28070000 -7.44050000
-10.69120000 15.70140000 -8.57840000
-10.56710000 16.42890000 -8.07840000
-1.39980000 22.70330000 -6.79080000
-1.74450000 23.52280000 -6.25260000
-10.27610000 17.23980000 -7.51880000
-9.78030000 17.34400000 -8.12040000
-10.11760000 16.68920000 -8.61820000
-3.17270000 24.45510000 -5.12810000
16.22560000 -26.26640000 2.46430000
-3.47860000 -26.47950000 2.80650000
-3.45250000 -26.36160000 3.61070000
-3.01740000 24.78790000 -4.76200000
-2.11030000 24.27890000 -5.47010000
-2.95980000 -26.62660000 2.41690000
-3.12330000 25.30330000 -4.50290000
-2.40310000 25.18450000 -4.70200000
-2.88400000 -26.55360000 4.04330000
-1.89030000 -26.58580000 3.33990000
-2.35030000 -26.49870000 4.55890000
16.41870000 -26.52250000 1.52640000
-2.24960000 25.63940000 -4.58460000
-0.43940000 -26.48000000 4.32950000
-1.14710000 -26.46680000 4.84930000
-2.78040000 25.64050000 -4.16070000
15.06080000 -26.35650000 1.90970000
-0.62690000 -26.52650000 2.83550000
-1.35480000 -26.65900000 1.45030000
-2.02340000 -26.52460000 2.05210000
-2.48290000 -26.41560000 3.12260000
-0.62550000 24.17650000 -5.32860000
-0.26190000 23.42560000 -6.10280000
7.27600000 22.74840000 -3.85780000
15.37530000 -26.43600000 8.66930000
-8.17510000 18.15120000 -8.02250000
17.30550000 -26.42510000 8.48440000
17.12500000 -26.22810000 9.33750000
0.99970000 23.47160000 -5.64640000
7.28590000 22.90580000 -3.57320000
1.20330000 24.05650000 -4.84370000
0.09010000 24.44420000 -4.85280000
8.65650000 22.62740000 -3.21700000
8.19160000 23.10120000 -3.21140000
15.76650000 -26.44690000 7.77890000
-20.45780000 7.77860000 3.45430000
-20.15580000 7.08500000 4.24540000
15.37850000 -26.38990000 6.86600000
-1.11000000 24.63320000 -4.88130000
7.23920000 23.97970000 -3.68190000
14.70840000 -26.21300000 6.53390000
-19.12600000 7.27810000 5.07250000
16.54480000 -26.40970000 7.17770000
-1.11150000 25.82250000 -4.29630000
15.23860000 -26.06040000 6.37290000
-1.54270000 25.55380000 -4.80630000
-18.33480000 7.56700000 5.63440000
-17.43260000 8.17000000 6.39180000
-18.82390000 8.09710000 4.89530000
-0.76790000 25.27990000 -4.93690000
-18.28860000 9.72560000 5.38140000
18.91230000 -26.43230000 6.10730000
18.74460000 -26.31960000 7.96410000
-18.95230000 7.71000000 4.61780000
-19.44630000 7.47260000 4.29420000
0.49660000 24.96910000 -4.95330000
0.96610000 24.39150000 -4.72360000
17.64090000 3.16330000 -8.82240000
-19.36180000 8.82780000 4.37800000
0.02270000 25.94700000 -4.91460000
-0.52030000 25.98430000 -4.67180000
15.89600000 3.71100000 -9.50490000
17.78610000 3.56640000 -8.41010000
18.98190000 -26.02060000 8.10680000
0.73180000 25.71590000 -5.09920000
0.38800000 -26.65820000 3.02860000
17.71640000 -26.37820000 7.20490000
-20.87180000 8.71550000 2.81370000
-3.58310000 25.60060000 -4.15860000
16.58800000 -26.33530000 6.52610000
16.83780000 -26.41710000 5.90680000
-19.72910000 7.81770000 3.72540000
-20.06100000 8.39910000 3.43980000
-20.99100000 9.57590000 2.34620000
-21.24110000 8.76720000 1.70500000
2.28570000 23.79610000 -5.01650000
2.09050000 24.26570000 -4.64190000
-21.05150000 10.09330000 1.59850000
7.81840000 24.52720000 -3.46110000
19.96070000 -26.09630000 7.15500000
-19.57970000 9.99440000 4.01150000
-20.30020000 11.52420000 2.92940000
18.47700000 -26.46950000 3.92690000
20.06600000 -26.42560000 2.62350000
3.04670000 23.86710000 -4.55040000
3.09350000 24.20560000 -4.46420000
20.22300000 -26.34070000 2.05070000
1.78960000 25.17340000 -5.01580000
-3.66160000 -26.38530000 4.57970000
3.93160000 24.92110000 -4.68680000
-7.69730000 12.02600000 8.42550000
-9.15510000 11.64830000 8.30500000
12.14780000 1.93370000 -11.82890000
3.09560000 25.72180000 -4.91490000
-9.60400000 12.54200000 8.19260000
-8.38300000 13.24050000 8.42860000
-9.06290000 13.37650000 7.97700000
15.70310000 -26.38480000 4.86490000
0.63850000 26.23410000 -4.43650000
2.22740000 26.61640000 -3.73600000
-7.59190000 13.38940000 8.55720000
-19.49170000 11.05310000 4.02880000
