-3.34280000 7.49627100 0.49523900
-2.73865900 -8.67106800 -8.45019500
3.39496400 7.21552500 1.92077600
8.71288400 -8.10885600 -7.94830300
-2.38919800 -8.55765700 5.69329800
7.03262700 -8.14396300 7.54309100
-3.37902700 7.40398500 0.80291700
-1.37225400 8.57448000 0.50762900
2.68395000 2.00556700 4.25360100
6.09592600 1.08675400 5.81549100
6.48140300 -8.17857800 7.48199500
-4.30352800 -3.60386100 8.74707000
-2.26548400 -3.41402000 -9.32904100
-0.39719300 -6.88757900 9.39892600
2.71322800 2.05930200 4.66320800
3.30248400 2.82496900 -4.83349600
1.60469500 -7.12269600 -9.16455100
-2.98712000 -2.96055900 -9.34204100
-8.86071900 -6.19403200 -3.19744900
-5.95328300 -5.12089000 -9.28784200
5.63422000 -8.25973600 -9.19854700
-2.25666300 5.31151800 5.35192900
-8.81409800 -6.49234800 -2.01574700
-1.89490700 -4.56099000 -9.11584500
8.57176700 -1.50967200 -6.26391600
-0.79854700 -7.56357800 -9.20971700
-3.09314000 1.32719500 -5.24401900
5.61888000 2.68155200 -4.24212600
8.57186800 -1.05440800 -5.80517600
-0.97567400 -6.34862200 -9.04638700
7.35405000 1.05064600 -5.60461400
1.08231200 -8.48216700 7.89196800
2.35792700 1.38563500 1.30859400
5.30040800 -8.19605800 -1.66168200
-5.97617300 0.08975800 -8.82403600
-0.27155300 6.27059200 -5.33660900
-3.93238500 3.79371100 -5.55395500
7.01403400 -8.18827700 7.93292200
3.36015900 2.28982300 6.11193800
-0.50959000 6.43021500 -5.38952600
1.68500300 -8.08764300 -5.55419900
-3.71218000 3.71298300 -5.35754400
-2.52183800 5.21750500 1.60479700
5.93600300 -8.46344000 0.68682900
-8.59125700 -0.00386300 -6.91894500
1.12113800 -8.15413100 -5.96661400
-8.24861200 -8.65498900 -1.23053000
7.50937900 1.06107800 0.73980700
8.47446100 0.94112100 3.32794200
-8.80381100 -7.33109500 1.09545900
0.60394800 8.44267800 -3.47143600
-8.56085700 -1.39000100 8.51074200
-6.97787900 -8.59021000 1.49945100
-8.78858000 -8.16839100 -5.05578600
7.00400700 -8.07808300 1.42443800
-0.39364100 8.65893300 -2.50842300
-1.57878400 1.24026800 -5.40069600
8.96328000 -6.92780400 -7.00085400
-8.82640800 -6.71763300 4.48675500
-3.02229700 -8.56019500 -7.15423600
-3.47335600 -8.28299700 -9.25964400
-2.20757900 -8.37818200 -6.05609100
4.33267100 -6.80298700 -9.05108600
8.92586900 -6.06975700 -6.16058300
-2.51085600 -8.58002800 -7.00610400
-2.64227300 -8.14454500 3.73437500
-6.13934000 2.27340600 0.47973600
-0.82881800 1.49819600 -2.33166500
8.72062400 -5.48384800 -6.91449000
8.55012100 -5.46725500 8.16699200
-4.58248000 -8.74654700 -8.57238800
-4.72716100 -8.28955300 -1.66339100
-3.48822500 2.53624000 2.10003700
0.56697200 6.30602000 4.75659200
8.86698800 -5.92953500 -6.52398700
-1.17587400 7.58896900 5.66717500
5.97405600 1.34055800 0.05114700
6.51049500 1.11394300 2.28265400
8.74833900 -5.38141900 -6.52398700
-3.00107600 4.72145600 5.91455100
6.55217100 0.92255800 -3.90637200
-3.41228000 1.67183300 -4.82849100
8.43668000 -0.50664300 -4.65478500
6.98813600 0.89572500 -0.98754900
6.42359700 1.08540600 1.80011000
4.42608500 -8.48336900 -9.03405800
5.75247200 1.59135200 -3.72985800
8.33293200 0.05566000 -5.42132600
4.53548000 4.33943400 -5.39300500
1.67556400 -8.68556900 -7.58642600
4.88945400 -8.51431900 -8.80352800
3.02549200 3.94550400 -5.14312700
8.74539300 -5.93477600 -1.98681600
2.06180200 8.18338700 4.18701200
0.92524900 -8.59857200 -7.57617200
4.64846800 4.90619100 -5.10162400
2.93815400 -8.59223000 -8.60009800
-3.79662600 -8.47134400 4.51794400
3.93963400 -8.24843700 -5.37945600
8.30070600 -8.15163900 6.41247600
1.40910900 -8.64709000 -7.52337600
-1.58872300 5.63808300 -5.10247800
-1.36091100 8.48293500 -4.56506300
8.15192000 -8.23188800 -6.52325400
-8.02621300 -8.34593700 -3.02410900
8.70034700 -5.22680300 -5.22222900
-7.99679000 0.54211600 6.67480500
-7.71894900 -8.27367600 -3.19525100
8.41643400 -8.19521000 -5.66192600
-1.03267300 8.55464400 -4.30511500
-2.49657400 -3.32859800 8.73272700
-6.82304000 0.65867700 3.45660400
-7.78917300 0.63510500 6.95843500
-4.57491100 3.83879500 -5.55889900
-5.24784200 -8.35221900 3.92346200
1.65854400 -8.25873200 3.64782700
-5.55816000 4.47412300 -0.74493400
-3.74013200 2.15568100 -2.41137700
-7.31864500 -8.45625700 -1.03125000
1.01747400 8.20724000 -3.99090600
-3.36106200 -1.84678200 -9.32592800
0.93226900 -8.29895200 3.17150900
6.02600300 1.41594300 2.05499300
8.30451200 -8.33248300 1.41033900
3.54771000 6.96177100 4.05279500
-3.38009500 -4.59327600 -9.17871100
-6.92813200 -0.11604300 8.61895800
3.75937700 4.78870700 5.21484400
1.43859200 5.96438400 4.64416500
-7.57911900 0.42160400 4.28265400
4.17186700 5.95078900 4.42730700
4.39626400 -8.08758300 7.35137900
0.91062300 -8.14727400 8.90966800
-1.85371800 5.47224400 -4.66888400
-8.90958000 -6.08463700 -6.25897200
-6.96684200 0.56206700 4.29565400
-5.39374200 4.07081000 5.70086700
5.74449500 2.23439800 -1.31250000
6.59556900 -8.19081600 2.70190400
1.73739000 8.32804600 1.75384500
-8.21592100 0.20651600 -3.78424100
7.45007900 -8.30944300 2.75976600
0.53589300 8.58590900 0.43145800
-8.88817300 -6.76117100 -6.27410900
-4.03577100 2.44000600 -0.97760000
-4.55788600 3.69410000 6.13293500
0.45482700 -8.58675400 -2.14526400
-4.49603400 -1.92103500 -9.28753700
8.44813500 -0.45868000 2.51635700
-5.77726700 3.26230700 -4.82061800
-7.00881400 0.37412500 -2.58789100
-4.56405700 5.59647400 4.85723900
8.55486400 -0.38049400 6.42285200
-7.21610300 0.35976600 -1.97491500
8.54322000 -0.00806600 2.94744900
-8.72709100 -3.74641400 -8.80658000
1.32266200 5.89589700 1.45764200
-6.25275400 1.83231700 1.39447000
-1.83032300 0.69784700 -7.57836900
-4.14257700 6.11839200 5.11560100
6.54974000 -8.45160200 -8.89202900
-8.86849200 -3.90662100 -8.55090300
7.19883700 0.80094100 -7.84515400
-8.60753800 0.21862800 6.10357700
-2.13275000 0.68227200 -7.98608400
-8.91690600 -3.59266100 -8.32763700
-5.90832600 3.02858800 -4.55896000
-1.60227900 0.79215100 -7.70660400
2.52644600 1.24616100 -0.31427000
8.71478700 -6.54513900 5.76965300
-2.39434400 5.17964300 -1.62097200
-2.48497000 8.15461400 5.43890400
-1.24943300 0.81870000 -6.98065200
-5.43967700 -8.26760200 8.82116700
1.89034700 -8.47785900 -6.52984600
5.79350500 2.24949600 0.43444800
8.88290900 -7.49792900 5.06549100
-8.20791100 -8.51653100 -2.69689900
-1.01965300 0.88534800 -7.13501000
-5.63347600 -8.13655400 8.97790500
-4.87651100 -8.49988400 -4.04541000
1.78163600 -8.51221700 -6.83252000
-1.19625300 0.86093400 -6.63336200
8.79429200 -7.14110700 6.05737300
-8.86749700 -5.22180000 7.52819800
7.40644500 1.12753900 2.28949000
-4.52194600 1.44206600 6.60656700
3.07394200 2.04579700 6.15985100
8.31462400 -7.41790900 -9.22564700
8.82311700 -7.15530600 6.37133800
-1.64354200 1.57137800 -0.03265400
3.85501900 6.37367600 4.49951200
-0.09495700 -5.56326700 9.11291500
2.30233000 1.55979400 2.02221700
-8.88638400 -7.16598100 -4.49737500
7.40477800 1.14156700 4.52648900
4.49426700 -8.10282300 5.45819100
-0.67561800 -8.49896800 3.41571000
7.05994300 -8.27237900 5.11364700
-8.84049800 -7.24111900 7.96954300
-4.34233900 -8.12971700 3.46209700
0.04944000 8.74863000 0.54571500
-6.09043500 1.60963600 4.50598100
-8.90554500 -1.27091400 5.34930400
-3.45276500 3.56267300 -3.60168500
-4.25991600 -3.13150000 -9.28985600
0.02814800 8.84156700 2.25946000
0.55955600 -8.64306400 5.37237500
4.65353100 1.91934600 -5.76361100
-7.03053100 -7.85344200 9.04815700
-2.40931200 8.14984100 1.44348100
-1.75116100 -8.16545300 -9.21801800
-2.24716400 -6.46893400 -9.09472700
-4.03090600 6.25465300 -4.84417700
-5.53615900 3.95513200 4.27136200
8.44846400 -8.18305800 -8.46344000
3.14216800 3.62341000 2.29132100
-8.52278400 0.20523500 3.74346900
6.44319500 1.19144800 -2.85803200
-4.26494400 1.58492100 -5.71929900
-6.65893800 -8.55715300 3.90234400
-1.64308000 5.77546600 5.09851100
-8.64581800 0.10672200 4.16650400
-6.83508300 0.57994600 0.46051000
4.35203000 -0.27520300 -9.07605000
-3.93557100 1.56557600 -5.60638400
6.67203700 1.03683700 -2.87963900
3.01957000 3.94954000 -0.94665500
8.46322800 0.09130100 1.53320300
-7.34360700 0.43625900 -0.10974100
-8.97659300 -7.84876000 -2.75079300
-8.08203700 -7.80739100 8.87750200
-5.36272700 2.23293900 5.81909200
3.11886200 3.55370900 -1.54876700
-8.33679400 0.28069800 -0.17346200
-8.37720500 -8.72902300 -0.38470500
4.37510100 5.72930100 -3.46710200
1.30379000 -0.38624200 8.78698700
8.20631500 0.66685700 5.18438700
-6.81410300 -8.66699200 -0.57922400
-8.64244900 -8.56008100 -0.42034900
-0.92820900 -8.74090700 -7.48089600
6.01475900 1.62752600 4.14770500
-4.71985300 0.42716600 8.49353000
-6.96918300 -8.73109700 -0.03576700
-8.39573300 -7.47153100 8.77557400
-5.94431000 3.49465900 -0.81335400
0.71205400 -2.41208800 -9.12780800
8.57966400 -1.97810000 -7.00354000
-5.64078300 0.38142200 8.38531500
7.48371900 1.01559600 -1.59747300
-5.88892900 3.55465600 -0.36651600
-5.35670800 3.07667000 -5.52581800
-6.39704500 0.92837800 -3.28356900
-1.94367000 1.69268000 -0.23040800
3.28009800 -8.27636500 -4.16387900
-3.23981600 -8.45515300 0.35376000
2.94632900 4.05247000 -1.46484400
-5.35122300 3.66432500 -5.32769800
-4.31767700 0.03135900 8.67840600
-4.00232600 4.13317700 6.03326400
3.82852100 -8.27240700 -3.63385000
1.32042700 -8.52936300 -7.42468300
2.53643900 4.76506600 -0.63330100
-3.17176200 4.89860200 5.98309300
3.65208000 -7.88460400 -9.30084200
-1.50566000 -8.78637100 -8.60961900
-6.95384200 0.44503600 -4.86505100
1.51345200 -8.49604900 -6.97808800
-8.94822300 -1.29429500 1.89086900
-2.27956300 6.97677000 5.82287600
4.97189600 2.81703200 -5.85699500
-0.98553200 -8.82853400 -8.66241500
-6.84092800 0.48497500 -3.91430700
-8.87297200 -0.47078500 2.76568600
-2.32796300 -0.36068200 -9.02948000
-6.48138000 0.83911000 3.96118200
-1.84963100 -8.61485500 -0.79162600
8.59083300 -3.27913200 2.91687000
2.53682900 -8.43201900 8.12542700
7.10695600 -8.13754000 8.25860600
-6.17358600 1.97354900 -1.81720000
6.16390300 1.38787500 4.33740200
-1.54044500 -8.59278100 -0.55761700
5.98851800 1.16687200 -4.74487300
-8.75561300 -8.12726300 -5.97570800
-6.18089100 -8.43920300 5.33624300
-1.13721000 1.34071800 1.27618400
-0.63150000 -8.63186900 -0.20922900
-7.13748300 0.28941200 8.34838900
3.82713800 5.23564600 -5.56329300
-4.12564500 -8.61398600 -7.15856900
-9.01086500 -2.57184500 -2.85308800
3.00187200 4.03568300 4.72674600
-4.35760000 4.66929300 -5.43176300
-6.91506100 0.38013100 8.21069300
-8.95864100 -3.30934400 -3.02551300
-1.59888600 0.95923800 7.43786600
-4.06393100 -8.67275600 -7.53607200
1.69326100 1.44925800 5.80224600
-4.90990800 4.30578600 -5.31366000
0.24501000 -1.32323300 8.84008800
-4.75576400 -8.60077600 -7.84576400
-8.26872700 -8.53879400 -3.86505100
-4.92083900 5.24781400 1.81292700
5.73838300 1.71636500 -4.57641600
8.95521900 -7.46164600 -4.88519300
7.45464400 -8.30624400 2.34698500
-4.59093900 -8.58577200 -7.35510300
8.85626600 -6.34856600 -1.36657700
8.93982500 -7.19641300 -4.74047900
0.48811600 -8.58232600 4.72692900
5.75145200 -8.07682800 -1.12268100
-0.55637800 -0.34654000 -9.19439700
-2.78976100 4.18345500 4.45074500
8.93120700 -7.37221400 -4.28900100
5.24744500 4.16251100 -2.00640900
-5.70307600 3.34413100 -2.60199000
5.77782200 0.96274800 8.02600100
-6.23920800 2.37791000 -0.56549100
8.54909800 -4.54381000 -8.35717800
8.87123700 -7.22504100 -3.98730500
3.78016100 -8.14179500 2.76886000
0.47055500 6.13464600 -2.93573000
-2.08748500 8.25851100 -1.46612500
3.75111200 -4.91073700 8.92504900
8.61169600 -3.33247700 -6.96722400
0.44842200 7.40431600 5.18969700
2.52099000 1.41984100 -2.59704600
8.45776700 -4.49832800 -8.61816400
7.03747900 -8.03488300 -2.88238500
-1.16015500 0.04681300 -8.88989300
-8.74009100 -4.84767500 8.22662400
-6.01938800 -8.69254300 -4.86395300
-6.26826100 1.00144600 2.68298300
0.79583400 -0.01073300 8.68756100
-8.42639000 -8.48257700 4.52935800
-8.58934600 -5.33021400 8.44781500
2.50331500 -7.16600100 -9.05419900
-4.96766200 -8.64718400 -4.92498800
2.62933900 1.70045400 -3.70990000
-6.17687100 1.23082700 2.43884300
-8.28859700 -5.67377800 8.75787400
-8.57682800 -8.45089600 3.86413600
1.97894200 7.84866100 -4.02911400
1.33096000 8.32112600 -1.56384300
-2.98701000 -8.23260000 2.56024200
-6.18889000 1.62974500 2.72174100
3.30092700 2.14959300 -2.43225100
1.97127100 7.77015000 -3.79486100
-2.88609800 -8.32361000 1.98761000
-8.60734700 -6.15773800 -8.90844700
1.22002200 6.07900000 -0.89263900
-6.27403300 1.81652200 2.20642100
3.31748500 2.58820100 -1.89245600
-6.21378300 1.55501700 1.72857700
9.00987200 -7.56066800 3.11438000
-2.79354000 0.16236200 -8.86273200
-3.83265600 2.96573600 -0.55340600
-2.28311800 8.23031600 2.23236100
-3.26843400 2.31634900 5.51745600
8.52387300 0.31177400 1.86529500
8.87090400 -7.69387100 -2.53344700
0.43258400 7.81473200 5.14416500
-8.65319400 -8.34830100 -5.95483400
-1.06832400 1.48461500 -3.16564900
-4.64085000 0.41334300 -8.11743200
-2.56563700 5.11261900 2.25842300
4.86642600 3.80190300 -5.32055700
-8.50212300 -8.50672500 -5.82891800
-3.31590200 7.09272000 5.67944300
1.11661200 -8.25576800 3.71435500
8.86538300 -7.90509100 -1.38568100
-2.72817200 1.86134100 -0.46618700
-3.26561300 3.48680900 5.74133300
-0.70928900 8.74266300 0.28057900
-3.49457500 6.43376900 5.87939500
-6.47615900 -8.32461100 8.76538100
8.03076300 0.94508500 -2.09753400
-3.66600700 3.17933300 5.92218000
-4.22863300 -8.60676300 5.76037600
1.64942900 -8.29571000 -2.10882600
-8.38695700 -4.28175900 -9.01092500
6.28197200 0.93443900 -5.30145300
-4.93067200 2.58384900 6.30755600
-3.86234900 6.20888000 -5.30487100
1.26269500 -8.31780800 -1.98840300
-3.67567400 -8.57758100 5.42572000
-6.49768800 0.68430200 0.40521200
8.60550400 -5.28592800 7.18707300
-1.84961200 -8.31400800 6.47699000
2.18466000 -1.46933700 8.87200900
-2.91530300 -8.45332800 4.28601100
8.91030500 -6.79597700 -2.41961700
6.03390200 -8.40519800 6.61077900
8.64359500 -4.53281400 5.13024900
-0.34319900 6.52738100 0.73217800
1.62006500 -1.68531800 8.83502200
-8.93601200 -2.59484300 3.25622600
-4.58715600 1.48131900 -5.80255100
5.66638700 -8.09246600 8.67419400
-1.74725400 -6.61000500 9.10534700
7.75303500 0.83045100 -3.52575700
2.36904500 5.15030500 -5.30090300
-0.44665200 6.48247200 1.39233400
1.75560400 -8.09793900 -2.77795400
5.65898000 -8.19948600 8.45385700
-0.40156100 1.17791300 -1.10968000
-6.31704100 1.02132800 4.23931900
-2.45476200 5.74527900 -5.45037800
-0.26658000 8.70550600 -3.26910400
-6.11116000 0.57332500 -6.12805200
-0.87547300 1.40077200 -0.90338100
-3.55515100 -8.43955800 8.36743200
-0.92337900 8.32414200 -5.28210400
-0.05247600 8.59775700 -3.19158900
-8.91050700 -6.52814600 -7.16589400
5.34247400 -8.28547700 -8.04303000
-1.06822300 -7.28761200 9.39306600
0.30369900 -6.57402500 9.22094700
-4.96631900 -6.15211600 -9.20080600
2.86402600 -8.35263300 -6.77020300
-8.76530500 -6.30221700 -1.33374000
-1.62949800 -7.61040400 9.29199200
-0.34136700 8.62602800 -2.24145500
2.75040500 -8.44343200 -5.24060100
-7.03585700 -8.45921200 8.53973400
5.81241800 -8.10992400 -3.10070800
-1.00449000 -1.04275100 -9.09686300
-2.68669600 4.81517400 -1.81903100
3.56934000 3.40089100 -5.71350100
2.15481300 7.65147900 -4.26214600
-8.83021500 0.14834600 7.92627000
0.47658100 1.23985900 -3.57135000
2.95638200 -8.36467600 -1.64654500
3.34050900 2.42799000 -1.62567100
7.83010800 -6.66933500 -9.27545200
3.62617500 2.53424500 -5.66900600
-8.44364700 0.21973000 0.41412400
5.98402100 1.50549900 1.81481900
7.70583000 -6.02602000 -9.07928500
5.15754400 -8.50230000 -0.58361800
-6.97779000 0.16269900 8.47210700
-8.93745800 -0.80500400 4.72308300
3.41951500 -8.28611000 2.25433300
-8.69250100 -0.00713300 -0.08874500
-6.25937000 1.55571000 1.97448700
8.62735400 0.48562000 3.16961700
2.12502800 1.69434100 3.39892600
2.25698800 -8.42890400 1.74993900
-6.32240200 1.13376200 -4.75189200
-7.94965500 0.38601700 3.46569800
-8.35734900 0.28339800 0.86297600
-5.35756000 4.48333100 1.60681200
8.68250600 -8.01776200 3.83764600
-6.42399500 0.92195700 -4.56536900
2.19922600 -8.40601100 2.01745600
0.05522400 -8.50097800 -6.24566700
-4.73140200 5.15162600 5.00482200
5.86752000 -2.18904300 8.61035200
5.07196100 -8.20369500 -6.75305200
2.41545500 0.35360100 -8.85595700
3.73338700 -3.96661900 -9.16760300
4.17730400 -8.24618300 -7.23236100
3.75844600 6.53218500 -0.22576900
-5.47655900 3.73071800 -5.08404500
-4.79822600 -8.20690900 -2.25622600
-1.94251400 1.63611700 5.44458000
4.27173000 -8.29747000 -6.89544700
-8.59865700 0.07838500 -1.86389200
2.21987200 6.26658100 5.12268100
-8.79045900 -8.12749800 -7.84362800
-0.40163500 -8.44508400 3.06237800
-7.27732300 -8.41082200 -1.94000200
-1.58424400 1.70592100 3.95275900
-5.21239900 3.59063800 6.24975600
6.24974000 -8.00791200 -1.04370100
-4.10405300 -8.52460500 0.88824500
7.96892100 1.15090800 3.46276900
-8.31640100 -7.72153300 -8.99597200
-4.04945600 -8.62124000 6.16491700
8.98929300 -7.79153900 0.17712400
-3.61114200 -0.21624700 -9.06854200
-0.79282200 1.62001900 3.38324000
8.26352700 1.08842300 3.23095700
5.99764400 1.39658200 0.37762500
-6.74501600 0.58437300 0.79205300
8.37217700 0.23328800 4.99560500
-4.23086300 -0.18168100 -9.04919400
3.39617200 -7.54845200 9.01007100
7.21133000 -8.17236200 -5.52514600
8.39247200 0.15225700 4.26605200
-5.29959700 0.76872800 7.66564900
-3.70028300 2.41411800 -4.43725600
-2.12297600 -8.63489900 -1.16076700
2.53578500 4.75411400 1.72906500
-5.43482500 -8.49371100 -9.14282200
-9.01906400 -8.18352000 -1.26293900
3.27883500 -8.35817300 4.63891600
-6.63053400 0.52526000 -2.91082800
-6.28539600 -8.46780800 -6.90185500
5.85761900 -8.38495800 -0.36468500
-0.73753200 -8.26455200 8.48004200
-2.80372500 -8.29683800 -6.42565900
-8.89039100 -2.14168000 8.01080300
-8.32467800 0.15953700 -3.01593000
-0.19598600 -8.25192400 8.72259500
3.95619800 5.91088500 -5.27996800
3.77856900 2.62669800 6.00341800
-7.30264200 -0.30645200 -8.96875000
-2.86235000 -8.33311400 -6.73687700
-8.39905900 0.11512500 -3.44305400
-7.36892600 0.22720800 -8.78338600
-1.41429600 6.37117000 -5.46783400
8.21671500 0.74819300 4.84668000
1.51889800 -8.39083900 1.71722400
0.16714600 8.17980500 5.09027100
-1.37819800 7.49068800 -5.52258300
-8.84028600 -0.23483800 4.68231200
-8.26798600 -8.61456400 -2.39837600
8.29278700 0.89275100 4.36010700
-8.73806400 -7.78063800 1.54437300
1.68916500 -8.43951400 2.05310100
-8.36163700 -8.65682300 -1.95501700
-8.74300200 -0.01186400 4.37518300
1.45636800 -8.13045300 8.90319800
4.56338700 5.62865400 2.76672400
-8.73056500 -7.70191500 2.03857400
4.68935300 5.21332900 -1.96783400
-8.04649400 -8.54726600 -1.77606200
8.60692900 -5.46212400 5.24499500
-7.76432500 0.29682400 -3.59063700
-2.46921400 4.85478500 4.97937000
-8.63158600 -8.32990300 4.59027100
-2.39294800 1.69188800 0.20196500
-7.49526000 0.26981500 -3.33990500
-5.84119800 2.74827100 4.76599100
-7.90561700 -6.16451000 -9.05896000
-3.66858200 -8.38139200 -2.96508800
8.00659500 -2.88488100 -9.00244100
1.42574300 -8.62394500 6.22943100
-3.68778500 -8.45472700 -3.10168500
-0.66825500 -8.55338700 -1.82830800
-5.91044600 2.68532800 3.98046900
-7.26372500 0.34750600 -3.32824700
-3.50845100 -8.42027100 -2.73510700
-3.07861400 1.89268300 -0.20910600
1.01422100 5.91639800 -4.74658200
-3.37261500 5.97405100 6.04534900
-2.00735800 -7.44771500 9.22711200
3.30230000 -8.52951700 -5.36151100
-4.76244200 5.45268800 3.42804000
-9.04042500 -0.69007100 -6.29193100
-8.47934900 0.17226300 0.01971400
-8.86750500 -4.86887500 6.92974900
4.19621600 0.75043500 -7.03533900
-8.56038100 -0.14474500 -8.44842500
-8.63813800 -8.62535300 -0.83313000
-8.25715500 0.31740600 0.25897200
-8.80498500 -4.92503200 6.05438200
8.73907900 -7.97470000 5.10656700
-2.89401000 2.38958200 4.09228500
-8.33349300 0.10041900 -8.08044400
6.46860000 0.85946500 -5.95019500
-8.74472900 -8.57125900 -1.52630600
-5.91641900 -8.62293000 -4.17144800
-7.69961600 0.28101800 -6.49450700
-6.03401500 1.77063300 -5.37127700
6.20205600 0.88256100 -6.06720000
5.06351000 3.76794700 5.05267300
-8.67104100 -3.50145000 -8.83252000
-3.24364700 1.84011100 1.48254400
-6.00987900 -7.96095800 9.07806400
-8.87632600 -3.12738500 -8.45288100
-7.53906000 0.35302400 -6.18194600
5.97866100 1.32223700 0.48284900
-2.08102300 7.82627900 5.78234900
8.67634800 -4.93327300 3.27563500
-7.21277600 -8.42803200 -7.57519500
5.52691900 3.00097600 -4.05780000
2.55908200 -8.30655600 -5.93560800
-7.05263700 0.40489800 -5.68432600
-0.35734800 1.28743800 6.32000700
5.46492100 3.11203400 -3.68414300
-6.13963600 -8.50933600 -1.95526100
0.22666500 6.16333600 -3.58905000
-2.80404200 -8.29653700 -5.58020000
4.51303200 -8.16083200 -3.74438500
8.44545900 -7.45144100 8.76379400
-0.98918200 -8.45585000 3.95349100
-8.72980300 -8.27420600 -7.47857700
5.72979500 2.76601600 2.29547100
8.67301200 -8.14607000 0.12432900
3.63422100 6.66712700 -4.19366500
-5.01771400 4.82489900 4.95904500
-4.74977800 -8.47781400 4.42773400
8.19679700 -8.25560400 -0.84582500
8.32195400 0.13972200 -3.26501500
-5.30082400 4.40628300 5.41638200
2.67482700 -8.41747200 4.79223600
8.68385400 -5.36779300 -2.17376700
5.91733700 2.09990000 1.49877900
-3.28115800 -8.49489400 -4.77136200
8.37842400 -8.25605200 -0.59362800
-5.77704400 1.47613700 5.41131600
6.73541100 -8.14848900 -4.16668700
3.19607700 3.79415500 1.49316400
5.94244500 2.03918100 1.85766600
-0.69701600 6.40815400 5.03289800
7.91690400 -8.32934100 2.24243200
-7.69307600 -8.33216200 -6.81378200
-3.37104300 1.23495500 -5.61004600
-8.11077700 -0.00677400 -8.61798100
-0.32240800 6.38010500 4.84899900
8.64233800 -2.50005700 -5.51208500
8.41160000 -8.19159900 -1.89917000
1.86596600 -8.66326000 -7.26867700
-5.14753000 -8.52977600 1.56994600
-8.68570300 -8.43497300 -5.18505900
4.53487200 -5.14134300 -9.10418700
1.59978600 -8.11926100 -3.20159900
3.87140300 0.63512200 8.31500200
-7.94003200 -8.67658400 7.42199700
-5.35322000 -8.60517200 1.32891800
8.68909500 -7.83622100 7.30590800
-5.45022600 1.93518200 5.64862100
-2.02254100 7.34243300 -5.56329300
-8.42118800 -8.46530600 7.49133300
5.03864400 4.66250600 -0.99823000
5.84693400 -8.44164800 0.89587400
-8.30971100 0.44991900 6.93304400
-9.04855200 -3.81387400 7.51037600
-8.89771800 -3.90627100 -5.54126000
4.95919800 4.85009600 -0.31189000
-8.15592100 -8.49503400 7.62439000
-9.03496700 -3.29707600 7.12371800
0.58958700 -8.58091200 -0.78710900
-5.10211400 -4.25725000 -9.32092300
-2.62290100 4.78020400 5.55682400
-8.47965000 0.03229000 -7.08801300
-9.08506600 -3.41074700 7.21826200
-8.23318100 -8.53551600 7.82543900
-6.44102000 0.80515900 6.52935800
3.46006500 1.85140600 -5.36938500
8.71384400 -5.99673300 1.52307100
-8.98865400 -3.59130100 6.93225100
8.24312100 0.81795300 -1.77563500
6.89278100 -8.37592300 0.87310800
-3.71354800 0.83660700 -6.77496300
-8.43322500 0.23302900 2.92590300
8.24657800 -4.12352500 8.53363000
-4.16206600 2.06777800 6.35290500
3.27689300 2.17978600 -4.63836700
-3.82204300 0.58205600 -7.53131100
-8.89329900 -3.33917100 2.94812000
-0.16807500 7.46454000 -5.41571000
-9.01002700 -0.43271800 -6.30145300
8.73986800 -1.86781800 7.43499800
1.94090300 -8.40994700 3.09436000
-5.41490800 -8.27599500 2.51550300
1.54171100 1.39246600 6.97711200
-1.98439000 0.21636000 8.44598400
-3.26647100 7.42809200 -1.18335000
2.50843200 -8.25591800 2.96423300
-0.65267500 6.31674000 1.97821000
-8.45904100 -8.41894700 4.89709500
6.47401900 -8.33151800 6.50842300
8.07300200 -0.31389600 -8.68792700
2.59842000 -8.32895100 2.55078100
-8.94134400 -3.12490800 -7.17584200
2.41847100 -3.47998000 9.00982700
-1.96833800 -8.41740000 7.52185100
8.90126200 -7.03432500 -3.33984400
-5.51762600 0.22883200 -8.62622100
-8.92186500 -3.93859900 -8.21112100
6.79948800 -8.47860100 -0.00183100
2.86981000 -2.71655800 8.88354500
6.55291000 1.23715200 -2.53277600
-8.88487100 -2.57045500 -8.26055900
-1.10290800 -8.63817600 0.51599100
-0.02709700 0.27901200 -8.92016600
-7.06442400 0.44751400 -1.11834700
2.14589000 1.20442100 0.20977800
-8.89271400 -1.95445800 -8.17681900
-2.01926500 -8.43978200 0.94445800
-0.15491500 0.37905400 -8.66693100
-4.72983600 5.08665300 -4.91912800
-2.74940700 7.83363200 -2.92730700
-1.92317100 -8.41994900 1.52777100
-6.59803600 0.71604800 3.75006100
-5.66117700 -5.87565900 8.92541500
1.49105800 -8.67896700 -7.92981000
-3.91653000 2.69692900 -5.40277100
8.70994500 -6.68296100 8.39050300
0.60858300 -3.48380300 9.02758800
3.81246200 3.24261300 5.57135000
8.55771400 -4.05082300 8.18182400
-5.57484200 -0.65577900 -9.22100800
-0.42830500 1.39986700 1.99951200
0.46491900 6.35770100 -5.26641800
8.46239800 0.50783900 1.92840600
-8.86855200 -8.13102000 3.11547900
1.36760500 8.45112500 2.45947300
8.30458200 0.76353900 2.15588400
-3.96014900 2.56658500 -1.19580100
-4.71635600 5.86210300 -1.07519500
7.56592500 -7.99780500 -3.41241500
-2.21229200 -8.49931400 -3.56732200
-8.94178400 -8.27157600 -2.15966800
-3.89166500 2.34598000 -1.56543000
-6.27791500 2.54513700 -0.49060100
0.84152000 -7.05284800 9.16540500
8.32663200 -8.13385400 -4.32055700
0.60228900 1.66457500 3.03253200
-6.71831800 -8.84428100 7.35394300
4.35931000 -8.25961900 3.85095200
1.71979900 -7.43682600 9.08300800
-8.92052200 -7.17178400 -1.70001200
5.44945100 1.96853900 5.26049800
3.13775800 2.52255200 5.76501500
-5.79803600 2.50576700 -5.31384300
-2.61137200 -3.63648900 -9.31732200
-8.99213200 -7.86282800 -1.14190700
2.61047100 5.10102700 -5.39245600
-4.46187400 -8.58596700 -9.03033400
-6.64315400 -8.51872200 -4.32812500
2.55626700 -8.34629000 -4.44000200
1.69405300 5.71252400 3.87109400
4.91405400 2.58083700 -5.91699200
-2.59276400 1.53343800 1.04681400
5.43855600 3.05335000 -3.09863300
-4.68526300 -8.50539900 -9.07782000
1.74899300 5.67025300 3.47454800
-3.50394300 1.79798400 -3.35870400
8.08038700 0.79744600 5.60058600
-0.17603800 -6.19785800 9.24456800
-1.89806700 6.28247600 5.64294400
-4.79176300 -8.69343600 -8.97644000
4.35038200 -7.94457900 2.49090600
-3.26375100 1.70406300 -3.51178000
4.70955400 -8.12441500 6.94110100
-4.63004900 -8.36634600 2.40344200
-6.82767600 -8.60531400 -4.87774700
8.58884000 -3.36888600 7.97985800
3.53256300 -8.24166500 -9.29925500
5.38411100 3.17003900 -1.52111800
4.30682200 -8.15344300 6.51886000
7.39146700 -8.29547200 4.13452100
1.45363300 1.34236200 1.48736600
-0.87605900 -7.99367500 -9.24060100
2.72142200 4.30313000 -4.56097400
2.79822000 4.31837000 -1.62268100
8.96824100 -7.47559500 -7.36663800
8.66529400 -5.18281400 -7.83630400
2.33609300 6.69649400 -5.43170200
-0.15348000 -8.09223900 -9.27307100
3.60333100 -8.26753300 5.40399200
-0.70232700 0.95680800 7.64764400
8.93448800 -7.75608800 -7.39569100
5.41168300 3.06803100 -0.86377000
8.69725800 -5.02441700 -7.05249000
-6.87574300 0.63982700 3.09173600
3.39166900 -8.31951300 5.34271200
8.78455400 -1.96603600 6.64025900
5.26381700 3.84195700 0.03179900
-1.74443900 0.28156700 8.41961700
-3.11785800 2.75402300 5.20532200
3.41062600 -1.32504600 -9.16033900
-8.74828900 -6.88831000 -8.82446300
-4.56902500 0.23988000 8.60681200
-0.74882100 1.43735600 -1.81207300
-0.93413600 0.52126300 8.38916000
3.42690600 -8.44846900 -9.18164100
7.01356500 1.01148100 0.09314000
1.06346200 5.97424300 -3.80346700
8.01723200 -1.11053200 8.39569100
3.55448400 -8.57387800 -8.91735800
2.60349100 1.42672500 1.07373000
-3.62324400 5.00978000 5.84167500
7.15389900 0.95810300 -0.06292700
-5.27835400 4.69533300 -1.97485400
6.94248300 0.94821200 -0.20752000
5.19947700 3.99079500 4.25543200
2.83481600 1.66465700 1.54254200
0.27583000 -8.52138700 1.68750000
8.07193800 -8.23862400 5.27111800
4.82008600 2.19708300 5.72406000
5.56235200 -8.17937900 -6.28717000
-8.79551700 -8.32930800 3.19500700
3.19060200 1.91243100 1.04516600
-0.14040900 8.73258700 4.45123300
7.34188900 -8.20201400 5.81378200
1.16022100 -8.59442500 -7.51580800
4.56096200 2.75017400 5.62970000
5.85360700 2.27926300 3.40362500
2.74170000 1.66412500 6.40893600
5.62843600 2.55407000 -0.44989000
1.27723900 6.46770000 5.04595900
-8.94211900 -0.97553300 -4.10699500
-7.53974400 -8.45911300 4.14843800
3.59492300 6.72013900 -4.77142300
7.84535200 0.73894400 8.01855500
0.68299600 -6.24971200 -9.02948000
-2.10350600 -8.39008300 7.78094500
-6.42917900 -8.59017800 -8.09002700
-7.00443100 0.50553900 1.55859400
-2.92328200 0.85919200 7.94964600
2.14291800 0.45196000 -8.60229500
-2.60259600 -8.49493500 7.79980500
5.35362700 2.55275700 -5.48419200
-3.56960800 3.27605700 -4.64721700
7.69061700 -2.99720600 8.63110400
8.81212200 -7.96736000 -7.25939900
8.71460200 -4.22205200 6.64111300
-2.32973600 -8.47065400 7.54748500
5.59442600 2.02672300 -5.23736600
-8.58129700 -8.44713000 1.59173600
6.00510200 0.97749800 -5.48645000
-8.93196000 -8.43688000 -1.68048100
8.74844700 -3.93724200 6.54919400
-4.84408700 -8.66094000 0.68353300
-8.70501600 -8.25993500 1.51470900
-8.62936200 -8.62967100 -1.82727100
-7.35748400 -1.12193500 8.77661100
3.45813200 2.42106100 -0.57208300
-5.04842200 2.35675700 -5.67248500
8.31315800 0.01188700 -4.64959700
-8.39577100 -8.49478400 2.60888700
6.86792900 -8.34273100 4.72314500
-0.89440400 0.77156100 -7.87170400
-6.64329400 -1.53779400 8.75335700
3.16747100 -8.27831200 2.25891100
8.75085400 -6.09469200 -4.65374800
-3.19869400 -8.47975200 8.44958500
8.39902200 -8.10802600 -5.04443400
-2.19196600 0.60238600 -8.33618200
0.45774300 8.53642800 -2.66235400
3.72060800 -8.28162600 4.83184800
4.33621700 3.31185000 -5.93676800
8.94328300 -7.45057600 2.45996100
8.18201700 -8.17426000 -4.73291000
-2.08913000 0.36604700 -8.68902600
-3.16062200 4.32193000 1.86322000
4.56432300 3.27676700 -5.93780500
6.85995700 1.05016700 1.10247800
4.34025300 -8.27592300 4.14984100
2.93184600 -4.08318300 8.94207800
-3.96927100 2.23170400 -1.27349900
5.52040700 2.82882200 4.15722700
3.29208000 -8.52653300 -0.69653300
2.80348100 7.05794700 5.07885700
3.18897800 3.35439200 3.07525600
-3.38106000 5.02731400 5.98425300
-5.40201900 -8.36425600 -1.73584000
9.08229300 -7.12995100 -6.22637900
-1.94924400 0.77504800 -6.30151400
-1.92167200 6.62327500 5.71325700
-8.92443300 -7.40291800 4.16882300
-4.85734100 -8.21874000 -1.91210900
1.74384900 7.96783300 -4.09033200
3.02387400 4.10846800 1.70355200
3.79988400 3.87143600 -5.77386500
-8.97674400 -3.49299200 7.93933100
-4.65199800 -8.69713000 0.54998800
3.66339900 3.62685600 -5.76886000
5.59254900 -8.03127000 -4.70324700
-5.72850200 -8.45764500 1.56231700
4.59351300 1.88512100 5.96447800
-6.72800200 -8.58979300 -8.69598400
-2.86942400 1.86472700 -1.17694100
-8.82728600 -4.69464400 -1.23895300
-4.60528500 -8.59239900 1.20886200
3.54768800 4.20506700 -5.64056400
-8.58247900 -8.65302500 0.23541300
2.94393500 -1.23058300 8.88922100
6.37320500 1.27331900 2.65234400
-8.20225000 -8.77125600 0.29675300
-6.21885400 -1.51060000 -9.23651100
-0.66331700 1.28623500 -4.50195300
-8.44075400 -8.72823900 0.96240200
6.18761800 1.29967300 2.28033400
6.46663000 -8.05831300 1.57836900
-6.10767300 -2.82775900 -9.38739000
2.30707500 -1.72409800 -9.19085700
-8.41242900 -8.77059000 0.59314000
0.13871100 1.25097700 -4.28131100
1.00563800 -8.34501600 3.89685100
6.68758100 -8.10366600 1.64953600
8.84512900 -6.24249700 -5.10784900
3.29538300 2.43405700 2.04956100
1.63442900 -1.79801300 -9.17303500
5.65582100 -8.15269500 -6.60455300
3.69604300 -8.06064200 8.84722900
-1.20986100 -8.31208200 4.36926300
-6.32663100 0.84540700 0.35577400
3.32873100 2.78961800 2.07598900
3.83229000 -7.13533300 -9.08813500
2.24019500 -0.48204400 -9.04772900
2.27453200 4.91329600 -3.49365200
-8.62554600 -8.54094100 -2.79962200
-5.81006100 3.13514900 1.97906500
5.76768000 2.28344200 -2.73156700
-0.66548800 -8.69316400 6.63751200
2.06972700 5.43888800 4.44482400
-5.33699200 -8.34304000 2.05975300
-0.89711600 -8.39408100 -4.44494600
-5.76864100 3.38498900 2.37414600
1.50475000 1.40832700 6.21148700
-6.81047300 0.59371700 1.40997300
-0.73730800 -8.69886800 7.06146200
5.67691100 -2.09721400 -9.13958700
8.96054600 -7.25282800 3.39752200
-5.91295000 2.72029800 2.96325700
4.39263000 -8.21760300 -7.39074700
-0.01660700 8.70122900 0.12469500
-2.56955600 0.55927000 -7.28295900
-1.07752200 6.76800900 5.65704300
4.70240400 -8.15893100 -7.19451900
0.61212500 6.34897000 1.14459200
-8.89692900 -6.60146500 0.62530500
2.05305200 8.15257300 1.70019500
-3.02306700 0.52294400 -7.51538100
-1.00058100 6.33187900 5.19757100
-5.33094700 3.27247200 6.14343300
-2.05916400 -8.15247600 3.21197500
2.46374500 1.79806000 5.40441900
-5.41326700 0.39697500 -7.62207000
2.19031900 -5.78147800 -9.05950900
-6.79579600 0.76713000 6.88470500
8.87898300 -8.05826100 0.55749500
-2.15544000 -8.05878800 3.46917700
7.09020400 -8.21984600 -0.59332300
5.79255200 2.58262700 1.83221400
6.26555400 -8.09102400 1.60235600
-8.70126000 -1.88451400 -8.54412800
-2.82936000 -8.07014700 3.29327400
6.49905600 0.96573800 -1.01886000
2.03424500 1.42093000 -4.65747100
2.15319700 -8.27312900 -6.14672900
2.57484600 -8.40649300 -8.99829100
-2.78689200 7.44088000 5.80322300
-8.55530700 -1.33896300 -8.67596400
6.46588400 1.06069300 -1.35638400
-8.46370200 -3.37873500 8.51013200
-8.88995600 -7.15639900 7.04321300
4.10863400 5.39776600 5.02343800
3.62183200 2.75548900 0.35455300
-8.60669300 -3.07057200 8.40692100
4.74595800 -0.17817700 8.55041500
6.67164900 0.95072800 -1.44097900
-8.77278300 -6.78336500 2.62976100
4.35312300 5.45127200 4.79614300
8.66062700 -3.10552700 -1.69824200
4.97395300 -1.10762300 8.59454300
-0.21341100 -0.38828600 -9.18158000
-8.77057300 -7.12756100 2.81604000
0.79307100 -8.35680200 8.66870100
-0.84064900 8.74459400 0.70483400
7.05509800 0.49223900 8.31488000
-4.15441900 0.92197600 -6.35809300
2.04047400 -8.45789600 5.51019300
-6.32540500 1.17059500 -3.55798300
-1.35294200 1.34156100 0.70477300
1.59808600 -8.39630800 7.15161100
7.92087400 0.45394900 8.19274900
-3.58486700 3.48874500 -0.41424600
-6.23734100 1.60864100 -2.82238800
2.71757700 -8.22384600 5.58038300
7.23605100 -0.09495800 -8.91186500
-5.43495400 4.05005300 -3.26751700
-8.89157300 0.03721200 7.16845700
-2.62793300 -8.62768800 -7.74816900
-4.75969500 1.55953000 6.43347200
7.01394900 0.36196300 -8.70056200
-5.92207200 2.94870000 -3.75463900
-4.20474500 6.34568300 1.06189000
0.13858700 -8.22582600 8.84185800
5.82753500 -8.27227000 -7.73504600
-2.12156800 1.94534100 -1.11853000
-4.40231800 6.15481900 0.93890400
0.78938500 -7.95888600 9.02172900
-1.69555700 -3.21461600 -9.16564900
-5.95460500 2.88627000 -4.02764900
-8.58047900 -6.12414500 8.60253900
3.33410800 -8.14513700 6.77838100
4.51711000 -8.50156500 0.13507100
-8.32263600 -6.23310900 8.81268300
-5.75203100 3.40092000 -4.02752700
-6.50470800 -6.94606800 -9.17578100
-3.54161200 2.43369400 5.80487100
-4.25579400 6.46612800 0.44873000
4.30318700 -7.81059300 8.98419200
-6.25369300 -8.41631600 4.38757300
6.07990300 -8.22345400 5.56219500
8.67027700 -4.04157500 4.63409400
8.78389100 -6.95536300 5.48358200
-0.58812500 0.50096700 -8.32580600
-5.48239400 -8.59699600 -0.55120800
6.96372200 1.13703100 4.20141600
5.87866200 -8.40697600 -8.14971900
8.82631100 -6.27400200 -7.10601800
-4.20354100 3.49731400 6.10937500
8.85199400 -7.02759000 2.54333500
-7.49862100 -8.49777900 2.95007300
6.72473400 1.13311000 4.80365000
-7.35603600 -1.55558400 -8.92981000
-7.10756400 -8.66205600 -5.09509300
8.82847700 -6.52125400 2.88061500
-1.88733100 7.81186500 -5.47876000
2.42696400 4.68744800 -4.23028600
-3.19827100 -8.49484500 -4.05535900
-7.77656900 0.29182500 -3.13897700
-6.86542800 -8.41840000 -3.43273900
-3.28820200 -8.40377100 -5.78564500
0.66639600 1.14056300 -2.42248500
5.64706700 2.36116000 -4.73425300
-4.46962900 5.24299900 -5.22418200
-7.13601200 -8.38371800 -3.51678500
-2.85425900 -8.23180300 -6.02191200
-4.04747500 0.81180600 8.00091600
3.15555200 2.03141000 -3.26214600
-5.28152700 -8.44123800 -3.58551000
5.59441900 2.49016400 -4.41308600
0.12942900 6.80087300 5.13555900
0.71016300 -8.40981000 -5.30242900
-9.00980200 -2.02108400 6.81762700
-2.27705900 -8.34895900 -5.72821000
-4.84167200 -8.34867100 -3.09130900
5.57766200 2.64203700 -4.53155500
-6.41720200 0.77104800 -1.32324200
-7.45557100 -3.51275200 8.72729500
-5.22076800 -8.31544400 -3.09350600
-5.34938100 -8.67829900 -8.98242200
-3.46784100 -8.44059900 -6.27575700
-6.31382900 0.91293000 -0.59588600
0.54921800 -8.65160600 -8.65582300
-3.62115100 3.27878200 -2.77166700
-2.68477200 -8.47194500 -2.27710000
8.44775600 -0.41939400 -1.86785900
-0.87916100 6.29193600 0.35894800
8.16575700 -2.32367000 8.46283000
-3.57040400 -6.60128700 -9.11962900
2.47067800 4.77967400 3.30090300
3.08968900 2.66612100 4.65179400
8.43993900 -0.34644000 -1.56781000
-1.03897500 6.12852600 -0.93090800
-8.91155100 -8.11712200 -3.78277600
8.33501100 0.52189100 -1.91888400
3.17084400 2.54158800 4.13702400
3.53148900 -7.88688300 8.94574000
-3.36491200 7.32889600 -3.49273700
8.40395100 0.29626800 -1.62939500
4.40446800 -8.20791600 5.95312500
5.70127700 0.82938000 -6.69232200
-5.51714300 -0.61835500 8.57086200
6.12233300 1.04678800 -5.15167200
8.37809700 0.07096800 -1.69555700
5.65328300 0.80652000 -7.04162600
4.12392600 -8.01999600 2.40856900
-2.89756600 2.42693300 4.46447800
-5.39094100 0.20826100 8.47204600
1.28445000 5.87977400 -2.63110400
6.00903000 0.83969500 -6.99066200
-6.12814100 1.57886300 3.82794200
-3.72572400 2.78202400 0.34246800
1.66325500 0.46935000 -8.57550000
3.76410200 3.15332600 -5.83026100
1.51179600 -8.49698600 0.08630400
-7.09160100 -8.61953300 5.09216300
-3.57284700 -8.57942000 6.23461900
5.03860200 4.78174000 -3.31768800
-3.57976200 3.17542100 1.33075000
7.64063500 -1.49658900 8.53338600
-6.73010700 -8.70537200 0.41333000
5.10599600 4.41756000 -3.34429900
8.04046700 0.02348600 -8.56707800
-8.87663400 -0.69167500 4.60882600
-6.15782000 1.63760400 -5.13501000
2.64106000 -4.83558200 8.99182100
1.59249800 -8.41775500 1.13922100
-2.06109600 -8.46834200 4.98199500
-8.89848200 -3.43651500 -3.50805700
-3.80137100 -8.21420800 -2.16497800
5.93008800 -8.26076500 7.14697300
-8.87406700 -7.01383700 7.59857200
-6.04830300 -6.24579100 -9.32965100
2.47781500 -8.33793100 1.86212200
5.90574100 -8.18535900 7.42932100
5.92902600 1.79542100 2.06164600
-1.24921900 -2.88245100 -9.09503200
-3.20670000 1.89563700 5.82019000
-6.15073100 0.29547900 -8.25531000
6.03031400 1.63224600 2.31207300
4.85537500 0.54772700 -8.57885700
-6.40042600 -8.59049700 7.86547900
-1.23649800 -8.42103900 -9.11840800
-7.86829200 -8.42281200 -3.88299600
-3.64098900 5.74445100 -5.51898200
5.31432700 -8.43331200 6.49859600
6.35977900 -8.25177400 -6.24005100
-5.96754800 -8.51854500 7.80065900
-3.87076000 6.00652900 -5.40356400
-8.53524400 -0.06228200 -6.00921600
-7.43987000 -8.57423300 -4.52099600
-8.87833200 -7.20270200 -7.51757800
3.25714800 5.37258300 -5.58789100
7.82200000 -6.10479900 8.75537100
-8.36910800 0.08104100 -6.38653600
-8.36521200 -8.49524100 4.14807100
-8.92265100 -6.99829600 -7.83270300
8.14007600 0.90963700 0.48584000
6.36560400 -8.51024300 -8.65460200
-5.46508200 4.20736400 1.64868200
7.96870900 -5.34888400 8.65765400
3.10347900 3.01363300 4.84606900
8.61105300 -3.74742200 -7.64398200
-3.02807500 -8.38513200 8.75891100
-5.56673500 -8.45088400 -6.49762000
-4.12402100 3.58079800 -5.59295700
8.49265900 -3.05457400 -7.95367400
-5.58493400 -8.26899200 -2.34594700
3.10035700 3.05928500 5.17199700
-2.99196400 -8.44835900 8.41174300
3.09241100 2.80216600 5.39379900
1.33034500 -8.11401700 -4.75720200
-5.46083300 -8.24252900 -2.68817100
8.94517100 -8.01194600 2.46460000
2.99264100 4.15082600 0.34533700
-3.03604400 1.63733100 -4.01306200
8.03559600 0.71542200 -3.08874500
-1.91382700 -8.49978600 5.34271200
-3.03605300 7.70541100 3.07379200
8.04980700 0.72060700 -2.73114000
-2.76972300 1.56616900 -3.91229200
3.34208600 3.64467300 0.57696500
-6.49035100 -8.48649200 1.75189200
-1.75434500 -8.42624200 5.10186800
-9.02020600 -1.93895100 1.31036400
-6.63118000 0.30188300 -8.70623800
8.68146200 -4.44346000 7.51361100
-4.52731300 -0.52605400 8.65838600
4.53334700 0.80540600 -6.34558100
-4.87485300 5.06036400 -4.03533900
8.68604900 -4.59618600 -0.08355700
-2.32468200 5.30115600 -0.03778100
-6.55754300 0.11944900 -8.86846900
-5.93958800 -8.53379800 -1.34863300
-7.68390500 0.58806000 7.54870600
8.85730200 -7.81168700 3.81085200
-3.61756600 7.15439900 -1.29950000
1.50214300 1.64937800 3.07824700
8.23643100 -8.18126000 7.10644500
-8.39678800 0.44320900 8.12097200
5.83051100 1.95549800 -0.05139200
1.13161600 5.92707900 -5.01135300
-3.21634100 7.49239400 -1.37036100
8.68528300 -5.55058500 -3.69976800
7.41318100 0.09020500 -8.83508300
-8.53913400 0.45654900 7.52887000
-8.90034300 -1.39378100 5.71887200
5.13338200 3.05493200 5.25152600
0.66127500 -8.53748100 0.60668900
-3.33520500 -0.92605100 -9.25402800
2.67770800 4.78330200 4.77496300
4.19346400 -8.14333500 -5.06805400
7.52702000 0.92993000 -3.17712400
-2.29124000 -7.64067500 9.20288100
1.03844500 -8.42914200 1.11022900
1.26372000 8.17214000 -3.88739000
5.49067100 2.67104900 4.76367200
-7.68808200 0.44029400 4.80664100
-2.01834500 8.36804600 4.01898200
1.74963900 -8.31742700 3.18255600
-6.03639600 2.15433300 4.11993400
5.72235800 2.10874900 4.48303200
1.84752800 -5.11265900 9.09149200
-8.29654500 0.34739300 4.97601300
-6.04621400 1.86313700 4.13995400
1.56338400 -8.35438800 2.79241900
8.20799400 0.58984000 1.57824700
-6.09778700 1.83468000 3.95361300
-7.48987100 0.32036500 -3.74169900
-3.44411300 2.65497300 2.88055400
3.15115500 -8.36311300 -3.16113300
3.52408400 6.68097600 -5.08776900
-2.24316300 -8.49369000 -5.15741000
-7.95721800 -8.36005300 8.62609900
-7.84957300 -8.48703900 -8.22637900
-6.20192700 -8.53299700 -5.18713400
-2.84185700 3.63348600 5.03656000
7.13152100 -0.30052000 8.47637900
8.28315100 -8.20908000 -3.00512700
2.66782000 -8.39659900 -4.86102300
6.22005300 0.22958800 8.40911900
-3.94056400 2.70948900 -0.41833500
5.21560200 -8.21536000 1.89819300
-4.21277900 -8.19396000 -2.20843500
-1.71895700 8.37647800 -0.37286400
5.90232200 1.32879500 -3.54138200
-1.50888500 1.86835600 -1.24804700
5.32594300 -8.10484100 2.23895300
2.50086800 1.61747000 6.41644300
-0.51862900 -8.73528000 -8.92596400
-6.85046900 -8.53903600 -7.95971700
-6.50988900 -8.41703400 -9.00866700
7.42147500 -8.36826900 0.71331800
0.68762800 8.66790000 3.96087600
-6.21805700 1.16239300 3.57165500
-1.62337000 -8.39244200 6.31903100
-0.41465700 -8.57997500 -9.10754400
-6.20367100 -8.29667000 -9.13720700
3.49168200 2.52903400 -5.53881800
-4.69645000 -8.51328800 -7.62408400
-0.98425700 6.11491500 4.62396200
-1.43679900 -8.67838100 -6.65142800
0.13796200 -8.53217700 -9.11059600
-5.11129800 -8.53757000 -7.37292500
-5.87969700 -8.20887900 -9.19049100
8.57978700 -2.57301200 2.11517300
5.33759000 3.64065000 1.47607400
0.47078400 -7.69959100 -9.25561500
-6.59840200 -8.46525000 2.28112800
-5.05400600 -8.52904400 -7.59179700
2.77630600 1.68567400 -4.41571000
-1.86400100 -8.15489900 3.69323700
-4.08368400 2.54500400 -5.49877900
6.38301400 1.26283000 4.13647500
-6.39679500 0.81655700 6.17382800
-7.44577600 -8.49434900 -6.57788100
-5.99236700 2.69327100 -4.64312700
-1.90647800 5.86183600 -5.41693100
-5.72285800 -8.30905400 8.76123000
3.60777700 -8.51133300 -6.80926500
-1.40213100 8.46705500 -3.63128700
-0.51155000 6.14026400 -3.33941700
3.67556600 1.85334200 6.31366000
-7.51637100 -8.57267600 -6.15728800
-7.07654200 -0.10292900 -8.99163800
0.45015300 6.06266500 -4.89721700
-7.90991100 0.30676400 -2.42041000
-1.08919100 8.53091700 -3.96460000
2.95728000 1.63122700 -1.66699200
7.60973600 -8.31724000 0.99945100
-8.18602200 -8.58992200 7.46978800
3.27819000 3.05104700 2.61102300
7.01068200 -8.12699500 1.21466100
8.43397900 -0.58444500 4.17034900
-6.99325000 -8.52192100 -7.43145800
0.80047200 -3.02088100 8.95575000
-6.19668000 0.82460300 -5.63964800
-4.61195900 -8.46875200 1.91418500
-7.56030600 0.35576800 -0.89215100
2.36818000 5.75956900 5.03198200
1.94172100 -8.71959000 -7.65045200
1.46692200 -8.37782300 -6.55560300
-6.03334900 0.94169800 -5.69757100
8.60207400 -2.51934700 5.58972200
-8.76988200 -5.85586900 8.22027600
-3.03711000 7.59113700 -1.75518800
3.10098100 7.13409900 -1.45013400
-8.86002900 -0.24211000 -5.33343500
5.55657400 2.66503600 -2.06292700
8.59398700 -2.05898700 5.56280500
-8.83990600 -5.18840000 7.84985400
4.19035000 -8.05574600 1.86529500
2.70081500 7.52826500 -0.40838600
0.68274100 0.19372600 8.58966100
8.88848200 -7.27415900 1.65564000
-8.65217600 0.03158900 -1.10607900
8.55245300 -2.39413900 5.29437300
-4.47490400 1.06767600 -6.08111600
0.95676700 -8.56420400 7.26355000
-5.55034800 4.22012500 0.22210700
-8.75579900 -0.17536000 -8.13134800
-3.40925400 6.36704700 -5.52227800
4.63232000 -7.89704100 8.93969700
8.72755600 -7.73051200 8.05773900
8.60767200 -2.77398700 5.37768600
8.59615500 -7.91844500 7.98858600
2.77313300 0.56453900 -8.38592500
-0.34221200 6.23765900 4.13159200
7.19525400 1.19376900 3.46057100
7.10018700 -8.12047600 -1.97326700
0.21541400 6.34527000 -0.65350300
8.56350000 -2.68919000 4.95324700
2.77859600 -8.31491100 1.60345500
-5.29571100 0.67201500 -6.30841100
-4.33482300 6.12418700 3.13208000
2.25878800 -8.29548100 7.02673300
-1.51855800 5.87420300 2.27398700
8.56852000 -2.08464700 4.79998800
-6.40181600 0.90465400 5.11212200
8.91469400 -7.47801000 -4.50695800
-3.70208100 2.49218900 0.66943400
-1.19610600 5.98114500 2.75805700
-1.53284200 7.93969200 5.70788600
6.96616700 -5.66555100 8.78314200
3.39580600 1.85049600 -0.37323000
8.52847100 -1.30639600 5.29687500
8.54073900 -2.32981600 -7.78356900
-8.96491700 -0.40307600 8.05694600
1.93621900 -8.39728400 4.18524200
2.70628600 1.40982700 -2.00915500
8.56096900 -4.98132300 -8.44769300
0.85692900 -4.26156100 9.21521000
5.00371700 4.00742200 -4.67718500
-0.00818300 -1.73320800 -9.09069800
8.13569300 -6.38631800 8.72564700
-3.14242500 0.32202300 8.59008800
2.68186800 4.65528700 -5.13726800
-3.77012300 4.78545700 5.78320300
-0.40733800 -1.32705100 -9.06622300
7.97634900 0.69455300 -3.97924800
8.35266900 -6.56527900 8.68817100
3.43211800 -8.14303600 8.76275600
-8.35380400 0.26672600 3.34674100
7.73093400 -8.24520300 4.39862100
4.30514800 -8.26239300 -9.25262500
8.55907100 -6.65606000 8.58807400
2.95423000 -5.76767400 -9.09875500
-7.35588300 -1.68429900 8.78772000
8.64487900 -2.90564600 -6.23193400
7.85601500 0.74759900 -4.62707500
-2.50733400 7.11332200 5.88177500
5.64735300 1.19325000 6.01953100
-9.03296000 -1.94599300 2.86053500
6.04011500 1.51123200 -3.02856400
8.29135900 0.38761200 -2.68847700
-0.68611900 8.63992300 -0.30481000
-7.33189300 0.38339400 -6.76324500
-9.00592200 -1.44230900 2.79626500
6.22182800 1.11254000 7.76959200
-8.39378900 -8.50489200 -7.12451200
-7.25619200 0.39005600 -6.45196500
-6.11442300 2.53224600 1.48461900
1.91891400 1.64522100 3.94592300
6.62449400 1.10225300 7.71710200
-2.21870700 1.67210000 -3.06726100
-3.82092000 -8.35970500 -0.89752200
-8.50338400 0.23359500 0.21307400
5.07598700 -8.30868600 -9.20111100
1.69061000 -8.19505500 -2.44049100
6.96150100 0.99719500 7.91070600
-4.40040900 -8.11611600 9.03149400
-8.51536400 -7.88394400 -8.89471400
-3.36169600 -8.40241600 -1.30127000
8.02310800 -8.14782600 -4.33166500
-3.07403300 -1.41720800 8.75195300
8.76024200 -6.08307600 -2.99499500
-3.16888500 4.01041600 -4.71606400
-5.84988500 3.71140900 -0.99865700
8.01487000 0.56092700 -7.00982700
-3.64061200 2.00285100 -3.25415000
6.05851400 0.84185300 -6.63629200
-8.74954000 -8.01565000 -8.50830100
9.06571100 -6.62131300 -5.93920900
-3.71539400 7.03665700 1.03418000
-3.45872100 2.74209600 5.70495600
2.39058000 -8.10243100 3.62139900
3.15329000 1.16813900 7.34033200
8.57655000 -0.05023400 7.13183600
4.06780400 -8.34030200 -7.38446000
-1.58845800 1.69934600 3.53424100
-7.22839100 -4.17875500 -9.17169200
-5.82388900 3.31035500 2.53723100
-8.90476600 -1.89331700 -4.55249000
4.51180500 -8.18386000 -7.72998000
-6.03947600 3.27711200 -0.59747300
-6.69944500 -3.80222500 -9.28082300
-1.63414500 5.73658300 -4.07904100
-8.91755300 -2.57418400 -4.61022900
-6.74609600 -8.49523400 -8.91131600
-4.11490800 -8.55503700 -5.93689000
7.58169100 -3.27313200 -9.08813500
-8.94280800 -6.81903000 7.61523400
8.73035900 -5.78899200 -5.00799600
0.70243900 -8.47927300 8.35907000
-3.36504100 1.96132600 0.84777800
6.30185300 1.01470500 -0.00451700
-8.86962700 -6.77151300 7.45037800
2.08258600 1.48110600 -4.31335400
8.74342300 -5.54883700 -5.25085400
-0.64976200 8.78167400 1.60760500
-3.33618200 1.44063100 -5.25109900
9.04489100 -7.39827100 -6.22460900
8.80283500 -5.97036000 -5.38220200
7.55736800 1.05713200 5.37512200
8.54686200 -1.82319100 -0.49084500
