3.79560000 -56.90590000 11.65700000
3.32540000 -57.49330000 9.73280000
-9.10620000 -35.33220000 -10.86100000
-28.30700000 -56.64040000 25.83090000
5.72930000 -36.15150000 14.02350000
10.55310000 -36.15360000 10.63920000
8.52890000 -36.04080000 11.62570000
-10.81800000 -57.77470000 -10.09300000
26.96660000 -36.28720000 -34.59140000
26.01090000 -36.63490000 -35.18270000
23.58800000 -36.39980000 -34.91740000
17.83070000 -36.66550000 -35.16410000
14.62130000 -36.84880000 -35.25460000
28.26320000 -57.09570000 -3.71470000
28.11890000 -57.00410000 -7.16710000
27.48170000 -57.08520000 -4.04070000
10.15440000 35.15210000 -8.47300000
8.86680000 47.47340000 -9.91400000
-26.02130000 -56.63280000 3.10820000
-4.90200000 -57.63780000 20.81590000
-5.52770000 -57.30970000 19.63440000
10.16640000 -57.62990000 13.26040000
10.02560000 -57.89910000 14.30530000
19.67640000 -57.81590000 -3.29440000
11.70740000 29.78450000 -6.17370000
11.75980000 22.61170000 -6.03770000
11.44130000 23.80970000 -6.64920000
10.68170000 29.35270000 -7.82530000
34.71810000 -57.47500000 -5.92620000
34.05690000 -57.79050000 -4.16440000
34.66790000 -57.60490000 -9.24070000
32.73070000 -57.88750000 -1.28610000
1.72130000 -33.89560000 12.62360000
1.56190000 -34.65210000 12.86000000
0.15060000 -33.57500000 12.75160000
-25.73520000 -56.37720000 -0.68580000
-25.16890000 -56.58020000 -1.17760000
-24.03090000 -57.52670000 -1.63710000
-23.59190000 -56.72550000 -1.17940000
9.96350000 -57.31130000 6.71880000
11.00250000 33.60310000 -7.31680000
10.02640000 32.76450000 -8.71450000
9.82040000 27.23850000 -8.93020000
27.17150000 -57.25690000 -8.57120000
26.19160000 -57.76650000 -9.20430000
4.17570000 -57.09560000 10.81110000
4.48900000 -56.74760000 12.43010000
-0.46970000 58.04060000 -11.05830000
-3.94200000 58.05210000 -8.80870000
-9.26670000 57.86950000 -7.82220000
17.32770000 -57.81590000 -25.56170000
18.40820000 -57.83300000 -25.40550000
20.41950000 -57.85940000 -24.83630000
-29.80630000 -57.96810000 2.55840000
-30.16980000 -57.93380000 1.40550000
11.65260000 -56.81460000 -0.59410000
11.91650000 -57.66120000 -1.36670000
10.76850000 -56.47130000 -0.07800000
-21.48410000 -56.34020000 27.10250000
8.91300000 -56.96410000 -22.17060000
7.99440000 -57.71670000 -22.87620000
-3.49210000 10.41140000 -12.84610000
-3.23530000 17.31900000 -12.91840000
27.64740000 -56.54480000 22.96080000
27.63100000 -56.73830000 24.98190000
-23.24840000 -56.60900000 -19.64570000
-24.70600000 -57.65670000 -21.35400000
-23.70050000 -56.76260000 -19.73040000
-13.92050000 -56.49820000 -24.31460000
-1.63080000 12.75730000 -13.21820000
0.58080000 6.78180000 -13.35660000
-0.49950000 11.78810000 -13.35770000
-31.21420000 -55.82280000 35.42770000
-31.79870000 -54.27740000 35.06640000
-34.11120000 -46.12100000 34.94670000
-33.85440000 -54.57360000 34.91800000
-29.97460000 -49.41410000 34.92490000
-29.55520000 -57.84530000 -1.04920000
-28.43590000 -57.14170000 0.21370000
-23.55910000 -56.79800000 -18.45550000
-24.64890000 -57.60290000 -19.48510000
25.39910000 -57.88240000 18.89550000
-25.36760000 -57.66990000 -21.18400000
12.75940000 20.76510000 2.22100000
13.03320000 20.31580000 -0.46740000
13.01090000 21.85600000 0.48950000
12.85760000 23.96630000 1.71580000
12.42520000 25.11760000 3.53880000
-8.95610000 7.21090000 -9.75940000
-9.83190000 6.38380000 -8.83360000
-10.86770000 56.78920000 6.34270000
-3.61890000 -57.76510000 9.26410000
11.54410000 0.64870000 5.69450000
11.96390000 -1.82280000 4.74900000
12.53750000 -0.71570000 3.19050000
10.78170000 -6.39520000 6.97840000
11.83390000 -5.50930000 5.01450000
11.22200000 -1.07020000 6.22150000
20.24260000 -56.87310000 0.91890000
18.60950000 -57.04420000 1.97980000
19.99090000 -57.08670000 1.52940000
29.20520000 -57.39230000 -35.16510000
-34.94740000 -36.60530000 -15.74790000
-35.04360000 -37.35670000 -13.20820000
-34.98850000 -36.61310000 -21.02730000
-34.91950000 -36.51720000 -18.32710000
-34.64440000 -36.21290000 -19.22440000
-15.90370000 -37.55100000 34.87740000
-13.01810000 -37.33230000 34.87010000
27.88610000 -56.90490000 -9.87290000
-1.24940000 8.42380000 12.51490000
-0.01650000 8.84950000 12.58380000
-2.19710000 15.26140000 12.38110000
-3.35260000 9.71770000 12.14440000
-29.17390000 -57.45160000 -27.89860000
-30.03760000 -57.80490000 -27.83110000
-8.15220000 -56.96720000 -8.35450000
-9.82910000 -56.91110000 -9.12980000
-34.59560000 -36.22530000 -13.31140000
-33.70450000 -35.99860000 -13.95730000
-34.42480000 -36.12760000 -15.14970000
-30.50440000 -36.03550000 -8.39640000
-32.86300000 -36.02150000 -3.92820000
-26.88470000 -36.13410000 1.23270000
-22.54630000 -57.77060000 34.06130000
-19.27460000 -57.95610000 32.59560000
2.86520000 58.01620000 -10.62960000
-24.99890000 -36.13870000 24.84630000
-30.08350000 -36.07250000 0.60580000
-25.81400000 -57.59550000 9.07890000
-24.61540000 -57.68570000 10.78250000
-25.51230000 -57.85700000 8.52740000
-25.38190000 -57.93910000 7.75360000
-21.69960000 -57.94520000 29.11940000
-23.02150000 -57.97360000 30.97620000
-24.89050000 -57.93370000 29.03340000
-22.46240000 -57.71740000 28.69970000
11.83470000 -57.99860000 11.69350000
10.32370000 -58.01480000 9.02950000
-11.71610000 0.53830000 5.15210000
-12.00540000 6.67060000 4.52720000
-12.39240000 1.31830000 3.39320000
-12.24820000 12.27520000 3.88490000
-15.08700000 -56.86860000 -19.94360000
-16.10380000 -57.65530000 -20.29370000
-13.49130000 -57.09290000 -20.10210000
9.84970000 57.89430000 4.57370000
-8.02210000 -57.82140000 12.81950000
2.19010000 -57.33970000 -17.14600000
3.56750000 -57.75140000 -16.32010000
0.88070000 -57.44380000 -16.40650000
-11.36070000 -7.77510000 6.01240000
-11.35050000 25.95360000 5.75900000
-11.75100000 24.71430000 4.98380000
-11.46860000 17.32030000 5.62370000
4.32260000 -2.07460000 -12.58450000
-21.36580000 -56.46520000 -0.84340000
-22.30200000 -57.06090000 -1.41330000
-19.89810000 -56.30350000 -0.07060000
-19.19410000 -56.34910000 -0.81600000
-13.21460000 -36.12620000 -10.38770000
1.40700000 -57.04260000 25.98850000
2.07620000 -57.68700000 25.65290000
2.63170000 -56.98470000 26.49110000
2.40350000 -56.78850000 27.18570000
35.15640000 -56.83700000 9.36080000
35.19600000 -56.37100000 11.13860000
35.01480000 -57.25060000 11.24290000
35.17050000 -45.96250000 11.76540000
30.17700000 -57.82830000 -25.29130000
10.45040000 32.21380000 7.30810000
9.56080000 41.67200000 8.41600000
10.12620000 37.62310000 7.69010000
10.99440000 39.99000000 6.54860000
-25.02260000 -57.65970000 -13.89880000
-26.16190000 -57.91200000 -13.55730000
-0.08740000 -56.81910000 23.92140000
-0.48190000 -56.66870000 21.07360000
-21.03130000 -56.50140000 21.13910000
-19.55280000 -56.60970000 21.71210000
34.77990000 -57.56720000 8.64910000
34.39360000 -57.72630000 10.99420000
-25.23060000 -56.38470000 27.74210000
-23.74620000 -57.10690000 28.08560000
-3.62130000 57.03470000 11.84470000
-2.96450000 57.46570000 11.74720000
34.16070000 -57.72100000 -1.97810000
34.93950000 -57.32310000 -1.84740000
34.48910000 -57.66330000 -0.02460000
34.97900000 -56.69690000 1.52220000
-14.92110000 -56.57600000 21.68130000
17.67740000 -57.63200000 -14.45160000
16.62340000 -57.45580000 -15.89930000
13.66440000 -35.98440000 -5.14490000
-12.91540000 -57.86260000 21.05860000
19.48190000 -36.16410000 -34.24890000
23.99450000 -36.13860000 -32.16270000
12.28520000 -30.34850000 -4.57180000
11.80650000 -30.46560000 -5.83770000
11.20100000 -26.48030000 -6.98380000
12.14910000 -25.75410000 -4.94740000
-17.53730000 -56.29820000 9.51270000
-16.20020000 -56.32210000 9.08430000
-19.25540000 -56.39140000 9.30300000
21.04760000 -57.73530000 -15.72600000
-1.58970000 21.54250000 -13.18780000
-1.84370000 25.14620000 -13.18550000
-3.31490000 23.84450000 -12.85830000
19.84240000 -36.52530000 34.18090000
18.27840000 -36.73700000 34.44690000
20.56310000 -36.97080000 34.67160000
10.73290000 -37.48280000 34.78930000
10.05570000 -41.83180000 34.80580000
14.96520000 -37.39350000 34.79190000
0.87440000 -56.60500000 -1.98830000
14.89420000 -56.89070000 1.88000000
15.07690000 -57.28630000 2.35620000
-0.64340000 44.95960000 -13.24050000
0.81940000 42.63840000 -13.24120000
0.40810000 53.65700000 -13.24040000
2.62070000 53.77650000 -13.00690000
1.33550000 50.25980000 -13.20050000
28.98040000 -57.73320000 27.53070000
29.10500000 -57.94400000 29.24960000
28.47850000 -57.73910000 28.45210000
28.16570000 -56.88490000 26.65380000
0.17250000 -57.00420000 1.57680000
0.89920000 -57.02970000 0.97310000
-20.39860000 -57.83920000 -15.59880000
-19.35940000 -57.70320000 -16.96280000
-19.99250000 -57.49630000 -18.53770000
-18.75080000 -57.19900000 -17.33160000
-3.08960000 18.79750000 12.17420000
-4.00520000 21.80820000 11.91340000
20.71460000 -36.34500000 32.68730000
18.29200000 -36.43320000 33.62930000
-22.66260000 -57.87320000 -6.22460000
17.96700000 -56.91110000 13.52030000
17.28320000 -57.57650000 13.83870000
17.08510000 -58.01250000 15.59220000
6.05260000 -57.81630000 -8.63910000
20.58480000 -56.46440000 -28.02110000
21.46140000 -56.43070000 -27.63730000
19.19890000 -56.42120000 -27.26490000
19.67760000 -56.71850000 -26.29890000
20.98730000 -56.72510000 -26.66170000
21.44360000 -57.29970000 -25.98780000
15.76070000 -57.00520000 -0.49390000
16.27380000 -57.68830000 -1.13540000
-28.44190000 -56.79490000 10.76430000
-28.40110000 -56.93380000 12.38340000
-29.16050000 -57.73150000 11.66340000
-28.16060000 -56.79750000 14.41580000
34.44800000 -57.56680000 30.92530000
34.07150000 -57.48320000 33.90760000
32.67300000 -57.76160000 32.17720000
34.85240000 -57.26840000 32.83140000
5.82500000 -57.60720000 -14.59380000
4.58130000 -57.58060000 -16.11120000
4.79340000 -57.82670000 -15.02550000
-2.67440000 -57.92280000 4.26300000
-4.21180000 -57.53570000 5.13050000
9.94580000 -57.02320000 18.62450000
10.64000000 -57.01590000 20.50270000
-10.05880000 -56.69670000 -15.01040000
26.49140000 -57.74550000 -25.30530000
27.71490000 -56.95340000 -25.35290000
-34.97820000 -36.63810000 -24.61660000
-35.07240000 -37.08380000 -23.89170000
-35.02760000 -38.08560000 -28.79900000
11.05070000 -34.58970000 -7.63440000
7.33970000 -57.92540000 -11.57220000
8.14470000 -57.90760000 -12.54640000
33.61800000 -42.79300000 -35.46530000
26.40220000 -37.32240000 -35.38950000
34.12740000 -55.53380000 -35.49190000
33.87580000 -45.70370000 -35.48460000
-7.47400000 56.41840000 10.05410000
9.76620000 -57.77420000 8.22300000
-34.26170000 -42.76740000 34.82320000
-32.04060000 -40.70560000 34.79310000
-25.28090000 -57.72160000 -15.30520000
6.02880000 -57.83150000 -11.20090000
5.10800000 -18.48550000 11.63360000
5.99100000 -24.51280000 11.14940000
6.96030000 -20.90120000 10.61090000
4.00440000 -23.11360000 12.00450000
3.85640000 51.39210000 -12.71750000
5.06390000 54.61440000 -12.24100000
5.60270000 50.35510000 -12.09550000
12.69440000 27.09490000 2.54590000
-5.43600000 -57.78840000 -15.79080000
-5.01890000 -57.72100000 -14.73540000
-7.42780000 -57.13820000 -15.38050000
-6.20970000 -57.89100000 -16.47190000
2.92860000 -57.86180000 -10.81460000
-27.15890000 -36.91340000 -35.05210000
-26.65980000 -37.33440000 -35.17170000
-31.30950000 -40.32430000 -35.18020000
-10.32810000 42.49520000 -7.90720000
-11.37140000 43.28580000 -6.18230000
-11.17190000 46.08280000 -6.57650000
-12.04710000 44.97100000 -4.61120000
-11.69930000 40.70810000 -5.55110000
11.34920000 14.02510000 5.99570000
11.61670000 9.27150000 5.51940000
12.10700000 13.72940000 4.46560000
-28.15270000 -56.63340000 8.02750000
-28.39720000 -56.73210000 8.80210000
1.83890000 -58.01270000 -5.08620000
1.10210000 -57.91850000 -3.92430000
-10.74160000 -1.59580000 -7.55810000
-9.96430000 -4.58290000 -8.66180000
-8.77530000 -13.53070000 -9.97870000
-10.14240000 -13.80640000 -8.55450000
-9.48040000 -9.00880000 -9.25720000
12.08120000 16.90440000 4.18270000
-27.81840000 -57.13210000 0.66180000
-28.86340000 -57.34450000 -0.59140000
29.26400000 -38.68350000 34.72960000
25.44770000 -43.08030000 34.75130000
30.68070000 -44.30580000 34.75470000
26.33550000 -49.53880000 34.77200000
1.85940000 -36.08430000 14.75750000
12.98910000 -33.80410000 -0.82310000
19.86660000 -57.64080000 -25.60400000
18.24940000 -57.46140000 -25.97580000
-29.61340000 -57.86890000 27.20930000
-29.66040000 -57.90300000 28.58500000
-28.99820000 -57.75100000 28.24150000
12.78780000 -16.32380000 2.10600000
12.95310000 -16.24450000 -0.22050000
12.97140000 -13.89390000 0.79270000
12.82200000 -7.03740000 1.79620000
22.38530000 -56.78060000 -26.31580000
11.45480000 56.91500000 -6.43170000
-11.63000000 3.82570000 -5.99150000
-12.10980000 3.92050000 -4.85580000
-12.63490000 3.87860000 -2.93330000
-20.51200000 -57.86690000 -17.23750000
-20.68300000 -57.69390000 -19.02500000
2.59360000 -56.96420000 27.79520000
3.24130000 -56.81380000 26.79130000
4.09670000 -56.81020000 27.18640000
3.10950000 -57.65570000 28.54460000
4.80650000 -57.10190000 27.93330000
25.27550000 -37.53210000 34.71240000
24.91110000 -36.87320000 34.53840000
-7.14730000 -57.80800000 -16.26550000
9.04540000 -12.24990000 9.01500000
10.36530000 -11.58590000 7.56040000
26.60490000 -57.64450000 -21.52360000
22.32220000 -37.30060000 34.73700000
21.83640000 -40.55070000 34.74110000
23.86710000 -37.58250000 34.62240000
23.67190000 -36.94390000 34.48160000
22.31430000 -36.63490000 34.39180000
11.95310000 -56.88740000 27.02320000
-4.82830000 57.12700000 -12.08790000
-4.72040000 51.17230000 -12.29900000
-2.88200000 50.82700000 -12.91150000
-5.23780000 48.85320000 -12.04370000
-34.48750000 -57.65670000 -0.66290000
-34.94010000 -57.06710000 4.30370000
-34.73740000 -57.42590000 2.30200000
-34.27780000 -57.75160000 4.40370000
-12.82890000 -57.74440000 25.33550000
-13.93720000 -56.85430000 25.49210000
-14.53460000 -56.55890000 25.96050000
-3.74760000 56.47900000 -12.55970000
-2.24910000 57.19920000 -12.88180000
-1.85710000 57.74850000 -12.38530000
-3.79960000 57.49150000 -12.26500000
13.67250000 -56.85630000 19.81960000
-32.61710000 -57.79690000 -15.10110000
-34.15530000 -57.71870000 -17.52420000
-34.36140000 -57.60890000 -14.94240000
-34.71340000 -57.51560000 -17.03360000
22.61660000 -56.87170000 27.79110000
22.27980000 -57.78170000 28.76390000
22.74800000 -56.68170000 26.27130000
24.22500000 -57.79430000 3.44360000
-3.81790000 54.69190000 -12.62350000
-2.34720000 54.09080000 -12.98800000
-0.56490000 54.83950000 -13.20010000
-32.63980000 -57.84350000 -11.26630000
-30.22530000 -57.94590000 -15.99200000
-30.28860000 -57.89140000 -12.25470000
-29.54840000 -57.77180000 -16.07060000
6.97860000 -35.58780000 -12.45400000
-7.29790000 38.52070000 -10.90870000
-8.82670000 38.71430000 -9.65580000
-7.87870000 42.22640000 -10.44760000
-6.19640000 42.21130000 -11.57710000
5.37970000 -30.57690000 11.47320000
4.31920000 -33.88230000 12.00270000
22.77780000 -57.88600000 -11.11220000
23.45500000 -57.60920000 -10.11930000
24.10730000 -57.79770000 7.69760000
23.94540000 -57.80630000 8.65450000
-7.67450000 -57.92910000 -20.15300000
-28.70100000 -57.27200000 -28.42180000
-28.06240000 -56.67680000 -28.29860000
-28.41460000 -56.51970000 -27.50410000
-27.07550000 -56.29800000 -27.91380000
9.11290000 -57.98170000 8.50810000
4.91450000 44.24160000 11.53410000
4.65310000 56.53680000 11.61560000
3.05110000 56.79050000 12.11630000
-18.35340000 -56.78510000 16.55530000
-17.11950000 -56.75930000 16.31880000
-12.30290000 -33.61830000 4.46910000
-12.70320000 -33.93340000 3.35730000
27.37700000 -56.69390000 9.57120000
-18.75940000 -57.56970000 16.22370000
28.40660000 -57.29620000 -24.59360000
29.04390000 -57.52370000 -25.97350000
29.66580000 -38.09190000 34.54850000
27.66850000 -37.42820000 34.63060000
2.66020000 48.55260000 -12.98980000
2.82130000 56.36870000 -12.94300000
12.97890000 -24.67350000 -0.73830000
12.85750000 -25.34150000 -2.21050000
13.00630000 -20.28230000 -1.13680000
12.92230000 -20.47770000 1.27320000
12.98490000 -22.72160000 0.09490000
-22.16230000 -57.83200000 -1.96180000
-34.97500000 -57.06510000 -29.44750000
-35.07170000 -56.43950000 -32.23180000
-34.56780000 -57.21140000 -32.03240000
-35.17710000 -56.58850000 -17.02890000
-0.47440000 -56.64100000 -16.78020000
0.27070000 -57.17360000 -16.52310000
-1.28970000 -33.41970000 -13.40860000
12.34100000 34.18470000 -4.62270000
12.45710000 41.85820000 -4.31410000
-17.73700000 -57.88060000 -2.07950000
30.36590000 -57.96170000 6.01630000
29.68180000 -57.94110000 8.77930000
30.20240000 -57.94800000 12.52750000
29.32820000 -57.77150000 13.16470000
-35.15200000 -52.29040000 -31.52900000
-35.15540000 -56.28450000 -30.79280000
-35.18740000 -56.40530000 -27.97100000
-35.09520000 -57.00570000 -25.49230000
25.36090000 -57.83090000 11.91400000
25.71340000 -57.82940000 13.97900000
24.91870000 -57.57300000 9.60300000
12.87950000 -28.16830000 1.47010000
-8.47880000 44.66780000 -9.91740000
-9.14100000 55.79180000 -9.25890000
-7.31720000 48.58140000 -10.84060000
23.84020000 -57.90520000 14.98900000
25.38270000 -57.94190000 14.97840000
-2.27810000 -57.86540000 -21.00800000
-0.61840000 -56.70470000 -21.29090000
12.95760000 -18.85160000 0.76490000
12.09550000 -22.89690000 4.35320000
12.54050000 -25.26840000 3.08080000
12.40900000 -21.53820000 3.48600000
-6.35400000 -2.72790000 11.01350000
-7.03360000 7.00520000 10.53410000
35.02430000 -39.05680000 -30.06670000
-35.18810000 -52.40770000 -33.32250000
-35.26060000 -54.61120000 -33.39560000
-10.07610000 47.99680000 -8.20190000
-9.02010000 46.64620000 -9.40130000
-9.90760000 41.62190000 -8.45460000
-5.56900000 36.61010000 -11.93290000
8.49120000 -34.59470000 9.82110000
8.65990000 -33.83930000 9.39920000
10.19260000 -34.54100000 8.06300000
-14.12920000 -56.89520000 -28.68840000
-16.64810000 -56.37590000 -27.91470000
-14.54240000 -56.65220000 -28.42680000
-34.50880000 -48.11600000 -35.00350000
-35.11130000 -45.98630000 -34.29390000
-34.89530000 -47.76390000 -34.33420000
2.29130000 -57.78030000 7.00880000
-10.87220000 7.54990000 -7.45620000
-10.72440000 4.12440000 -7.55520000
-17.55190000 -56.45340000 -28.10710000
-18.31970000 -56.48090000 -27.47340000
-6.32930000 26.56000000 -11.61030000
-4.34980000 26.78020000 -12.49650000
-5.40370000 24.36140000 -12.07850000
7.87200000 39.35170000 -10.69740000
8.07520000 45.11980000 -10.55160000
8.88790000 40.83490000 -9.86430000
6.50140000 43.59680000 -11.63190000
25.72430000 -56.59010000 -28.37180000
26.26000000 -57.57730000 -29.20490000
27.14820000 -56.77820000 -28.41720000
-10.91260000 23.23610000 6.53710000
-11.33180000 8.13380000 5.96280000
-13.74710000 -56.59740000 -10.00460000
-13.88210000 -56.68810000 -8.87650000
-13.75810000 -56.64140000 -11.82460000
20.65850000 -57.54010000 -19.43920000
21.37530000 -57.16540000 -19.71460000
6.66310000 41.66910000 -11.50200000
7.22590000 38.65630000 -11.16550000
5.18990000 39.90210000 -12.26500000
5.59090000 48.20080000 -12.02470000
5.22430000 45.83360000 -12.21720000
3.68020000 46.90180000 -12.75960000
-3.26000000 -4.32910000 -12.90390000
-1.35980000 -9.30070000 -13.26960000
-2.78120000 -12.27120000 -13.06500000
-2.53710000 -6.64880000 -13.08980000
-12.64390000 49.40740000 1.58650000
-12.71660000 54.98080000 0.78480000
-12.59170000 43.60420000 2.07870000
-2.29050000 -57.92490000 -25.14640000
-5.99940000 -36.38530000 34.02480000
-4.28280000 -36.32270000 33.42920000
-3.78360000 -36.44640000 34.11920000
-1.43290000 -36.54660000 34.19550000
6.48600000 26.34420000 -11.67100000
7.88210000 35.31430000 -10.72840000
7.15910000 28.86980000 -11.20570000
-12.79630000 31.84990000 0.66980000
-12.79490000 31.38010000 -1.20530000
-12.89730000 10.10020000 -1.65400000
12.64930000 -5.15780000 -3.36880000
12.93850000 -5.64800000 -1.60240000
12.77560000 -14.14380000 -2.98530000
-7.68200000 -29.74190000 10.28600000
-8.78730000 -33.32110000 9.47250000
-7.12050000 -33.66990000 10.75350000
-8.47300000 -25.80610000 9.61710000
-9.73940000 -27.15310000 8.45750000
-0.16370000 -56.67540000 7.04260000
-12.73760000 40.88750000 -1.68420000
-12.71520000 55.88830000 -0.96630000
-12.57620000 57.00520000 1.01080000
20.42250000 -57.94880000 29.45090000
-5.92370000 -33.97560000 11.43020000
0.96520000 27.10100000 12.48460000
2.17300000 27.35110000 12.33120000
2.85130000 31.54540000 12.17580000
-0.34740000 23.34740000 12.49790000
1.67130000 25.04500000 12.37390000
12.34330000 4.19080000 -4.67660000
12.63520000 1.39970000 -3.47830000
7.96900000 -17.77370000 9.92560000
8.12640000 -22.36160000 9.75270000
9.21150000 -20.58320000 8.84660000
7.44500000 -24.87530000 10.25240000
-12.76830000 48.60840000 -0.42730000
-1.62170000 -35.98140000 14.37090000
-2.56670000 -35.54530000 13.32930000
21.54310000 -57.55870000 -8.57990000
21.38010000 -57.43280000 -9.71660000
13.25540000 -57.45770000 -7.21890000
0.05100000 -10.35740000 -13.35330000
1.17280000 -8.65760000 -13.28670000
2.50810000 -11.32230000 -13.09560000
1.76300000 -5.71480000 -13.16240000
3.72760000 -5.28300000 -12.75180000
3.08010000 -7.90270000 -12.96930000
-12.82420000 33.68820000 -0.22930000
-12.70060000 40.23290000 1.46940000
-12.78160000 39.82480000 -0.81510000
-12.78940000 38.02910000 0.51610000
-25.29100000 -57.35550000 -14.52710000
22.89050000 -56.59100000 20.99990000
-1.93150000 -15.43780000 -13.23250000
0.26160000 -14.29580000 -13.36840000
0.47410000 -16.79210000 -13.32810000
-0.99060000 -15.20620000 -13.33290000
15.77090000 -56.96940000 26.62560000
-4.76950000 -56.88960000 -11.86200000
-0.12900000 -56.57580000 -7.78920000
-11.01770000 -37.06390000 34.80640000
-7.18490000 -36.61880000 34.54640000
-12.08540000 -36.69720000 34.66880000
-10.50450000 -36.47220000 34.31470000
-11.53060000 -36.34140000 33.93040000
-5.38530000 -57.64470000 -13.48170000
-5.45510000 -57.68560000 -14.03150000
19.52250000 -57.58630000 -4.37520000
3.27410000 -16.73850000 -12.93260000
1.71310000 -15.69460000 -13.27990000
2.64250000 -14.20360000 -13.09060000
9.26190000 -57.24060000 -13.31580000
9.03410000 -35.16640000 -10.47600000
5.82410000 -56.66160000 -2.72730000
4.94310000 -57.05610000 -2.84770000
4.99800000 -57.47870000 -3.43700000
12.17230000 53.46860000 -5.15750000
12.50270000 50.90680000 -4.21880000
12.80820000 53.12410000 -3.04900000
-6.85430000 -35.60410000 -12.74060000
-8.86260000 58.07150000 -6.85260000
28.40720000 -56.96280000 24.63930000
29.11610000 -57.66530000 25.53450000
-2.41690000 -58.00230000 22.81470000
-5.60530000 -33.73830000 -12.26420000
-5.95740000 -28.54670000 -12.02980000
-27.13400000 -56.41040000 25.98380000
-27.92420000 -56.85600000 25.19100000
-25.63730000 -56.30710000 26.98900000
16.84070000 -42.91970000 34.78050000
17.53480000 -39.58990000 34.76920000
1.76770000 -57.49960000 18.53670000
30.07890000 -36.43900000 -33.56110000
-9.77810000 -33.38960000 8.47960000
-10.68480000 -25.78370000 7.20220000
-11.52470000 -33.34730000 6.08870000
-10.61230000 -33.59480000 7.47360000
12.38650000 -57.77410000 10.20120000
11.73390000 -57.87880000 12.89080000
3.68820000 -31.12100000 12.19430000
5.37490000 -27.77650000 11.48760000
3.75270000 -26.85510000 12.10120000
1.16870000 -30.94210000 12.69910000
2.43710000 -29.67150000 12.45880000
11.50220000 -34.62460000 6.12800000
-5.81990000 28.09100000 -11.83420000
-5.28000000 32.64140000 -12.11850000
-7.69760000 35.06230000 -10.67370000
-6.80050000 31.99510000 -11.29060000
-24.81680000 -36.04230000 -17.00130000
-20.89680000 -36.02450000 -23.08920000
-28.51390000 -35.97880000 -32.19280000
-18.31510000 -36.00410000 -31.57780000
-20.45950000 -36.07360000 -34.15300000
5.56970000 11.02040000 11.34110000
-0.00650000 -20.97100000 -13.38600000
-1.63300000 -26.25590000 -13.36300000
7.74520000 -56.75280000 26.92970000
-26.97570000 -39.91500000 -35.17150000
-14.79700000 -36.50930000 -35.02300000
-14.24540000 -37.05720000 -35.21270000
-17.36050000 -36.82810000 -35.17570000
1.91520000 -18.70670000 -13.26490000
2.69960000 -21.62410000 -13.09880000
22.84490000 -57.57390000 -19.91010000
23.49990000 -57.51860000 -19.90990000
-34.76020000 -36.74190000 26.04380000
-34.45750000 -36.39950000 24.79930000
-17.32700000 -36.08760000 -33.97630000
-16.64550000 -36.18420000 -34.54110000
-18.17880000 -36.42460000 -34.97560000
-13.80540000 -36.13680000 -34.28550000
1.46870000 -57.82290000 22.46880000
2.24900000 -58.03480000 21.47740000
27.00880000 -56.87580000 7.56850000
-28.25390000 -56.61400000 -7.00020000
-9.46390000 -56.77280000 1.94690000
-12.93770000 -36.19800000 -34.57170000
-10.92740000 -36.83680000 -35.16400000
-11.71130000 -36.48820000 -34.98370000
-10.14820000 -36.22220000 -34.58990000
28.17590000 -56.96620000 4.68330000
27.77620000 -56.90280000 6.62280000
-32.77060000 -36.38780000 29.88620000
-31.32800000 -36.43480000 31.52020000
2.26850000 -57.98180000 24.87120000
-29.19960000 -57.71460000 -8.02090000
-28.50810000 -57.04050000 -8.65770000
-28.65060000 -56.85260000 -9.77670000
-28.31100000 -56.73040000 -10.31750000
-0.80620000 -36.32630000 -34.72700000
-9.15840000 -36.56110000 -35.06590000
-13.07030000 -25.58400000 -1.79150000
-13.16190000 -28.73770000 -0.38420000
-13.06610000 -29.41490000 1.10310000
12.56970000 -34.57250000 -4.27300000
12.96070000 -35.33350000 -4.27140000
12.14430000 -33.70160000 -5.04550000
-33.79750000 -41.62270000 34.58240000
-15.25340000 -57.85880000 -32.33400000
-3.43170000 -57.83620000 -31.79390000
-5.52520000 -57.86270000 -29.98510000
-6.10890000 -57.84680000 -32.62960000
-12.72000000 -34.10300000 -4.17970000
-12.05180000 -33.63430000 -5.82490000
0.87080000 -56.71780000 10.78940000
-15.45780000 -57.85330000 -29.79000000
-21.94740000 -56.68980000 22.16900000
-21.51920000 -56.37930000 23.27510000
1.93660000 -57.94660000 33.85510000
3.71400000 -57.97150000 32.58170000
-5.84680000 -57.27910000 -19.98200000
25.03490000 -57.90190000 19.97930000
-30.60030000 -37.57400000 -34.32780000
-29.25280000 -37.38490000 -34.87640000
18.94740000 -36.46920000 -34.99750000
22.52080000 -36.95940000 -35.35650000
24.43430000 -41.19800000 -35.41280000
-19.96680000 -57.78400000 28.66410000
-21.87150000 -57.44200000 28.48780000
-20.29200000 -56.72490000 28.04030000
18.92510000 -57.11970000 24.15130000
17.69500000 -57.63020000 23.13130000
17.87360000 -57.70750000 25.92460000
-12.18910000 56.83500000 -3.88130000
-11.67860000 55.88540000 -5.39900000
-12.00310000 49.61100000 -4.69620000
-12.41470000 49.11260000 -3.26610000
-4.34710000 2.17780000 -12.51860000
-5.70270000 1.06010000 -11.93520000
16.00350000 -36.30620000 8.27400000
18.16720000 -36.25350000 0.30880000
16.77750000 -56.80150000 -28.15440000
16.91680000 -57.63310000 -27.40780000
-2.72500000 -57.77750000 -18.73250000
-11.72020000 -29.80670000 5.63340000
-25.58240000 -57.63950000 -28.99690000
-23.35550000 -57.81260000 -29.34400000
-27.98930000 -57.59910000 -28.98250000
13.00040000 -7.40350000 -1.06070000
12.94020000 -14.65670000 -1.43980000
13.02060000 -14.15860000 -0.24170000
3.61060000 -57.89920000 -20.57470000
-24.56740000 -36.07980000 -34.08300000
-12.90730000 -57.25500000 34.76590000
-15.29170000 -57.25960000 34.93810000
-14.66350000 -57.73090000 34.52280000
-4.15740000 -56.17550000 34.86710000
-6.26950000 -45.10780000 34.87200000
-25.05140000 -57.66990000 -2.05270000
-24.39670000 -57.90270000 -2.32200000
20.73750000 -57.86710000 15.08790000
17.79090000 -57.55460000 14.36000000
16.39020000 -57.75270000 13.61070000
-8.70410000 -57.64260000 34.61870000
-6.87140000 -57.54630000 34.80850000
-8.90300000 -56.93520000 34.98420000
-5.10120000 -57.25480000 34.92140000
-4.50710000 -19.43100000 11.91010000
-4.33050000 -27.64790000 12.02020000
-3.57490000 -19.83170000 12.21470000
-3.28690000 -29.51700000 12.34510000
-2.70400000 -33.53460000 12.50170000
-2.31340000 -27.88870000 12.54750000
-23.96900000 -57.43980000 -7.77980000
-24.75730000 -57.62320000 -7.83070000
-9.74740000 2.99420000 -8.80010000
3.86750000 -57.63690000 20.33520000
3.91900000 -57.78250000 19.35740000
5.42830000 -57.96510000 20.56920000
-4.06340000 -12.35110000 12.04060000
-5.90230000 -8.27870000 11.28360000
-7.04510000 -5.51630000 10.62230000
-21.33760000 -57.97690000 15.94680000
-8.89930000 -56.77420000 28.12720000
-7.76350000 -57.24570000 28.41410000
-27.89310000 -37.89400000 34.75790000
-26.25360000 -36.80670000 34.64130000
12.36930000 8.65420000 3.74190000
12.01510000 2.34090000 4.70560000
29.55130000 -57.68620000 -28.02730000
29.22180000 -57.65970000 -23.99870000
-9.69250000 -57.69990000 -34.64140000
-5.56300000 -57.75390000 -33.97360000
2.13660000 -57.69360000 -34.55360000
0.69140000 -57.57700000 -35.03700000
2.03540000 -57.31370000 -35.32560000
35.17240000 -56.38890000 5.29230000
35.15340000 -50.25240000 5.73750000
35.11080000 -56.80580000 2.85760000
34.72670000 -57.30150000 1.80810000
4.86440000 -57.96580000 6.41980000
12.97140000 -5.44760000 0.49240000
12.91240000 -1.60030000 1.14860000
0.66150000 58.03260000 -10.47260000
-10.66330000 4.26100000 6.96980000
-13.32930000 -56.51030000 -20.90460000
-14.51780000 -56.77090000 -20.04030000
13.04080000 3.43620000 0.09150000
5.45600000 -35.67600000 -13.29740000
-12.24820000 22.67450000 3.75660000
-12.01980000 29.12180000 4.26710000
34.48020000 -43.20900000 -35.33840000
-34.99120000 -37.02290000 -26.72670000
-2.79410000 -56.96290000 9.74520000
-2.39690000 -56.83040000 10.04320000
-12.71940000 49.94770000 -1.28110000
-12.55120000 55.82940000 -2.36400000
10.28000000 -33.25450000 -8.33110000
9.97570000 -29.50330000 -8.77290000
11.40480000 -33.19670000 -6.62010000
15.13990000 -57.65620000 3.26370000
27.73180000 -56.80580000 -14.34110000
-4.29120000 -56.90590000 -8.43480000
-4.31890000 -56.72600000 -9.84930000
-11.90010000 -14.37390000 -5.74570000
-12.49430000 -33.48480000 -4.68780000
-12.14930000 -24.38660000 -5.30580000
17.42850000 -57.06780000 -28.78810000
-0.38980000 0.94250000 12.64280000
-1.18270000 3.28000000 12.57410000
-1.84940000 0.26480000 12.52070000
-3.59100000 6.55430000 12.12900000
-12.72490000 -23.84570000 -3.58050000
-13.06790000 -33.29650000 -2.20730000
11.65830000 -57.89090000 -15.72340000
12.33710000 -57.74950000 -14.78300000
32.91810000 -57.22370000 -35.11490000
33.42540000 -56.90000000 -35.35050000
22.11800000 -57.83570000 -4.15740000
-34.30720000 -42.05040000 -34.96040000
-12.58190000 -21.99840000 -4.13240000
-7.94220000 -57.84760000 8.90350000
8.76780000 32.91590000 9.15150000
9.43720000 29.09350000 8.51180000
8.86720000 17.07170000 9.12320000
-2.33930000 -57.66010000 28.63280000
-5.16290000 -57.09370000 28.16260000
14.70730000 -56.71840000 -0.42050000
-24.83030000 -50.56780000 -35.26690000
-24.60390000 -56.57890000 -35.27850000
5.27470000 4.86520000 -12.28560000
4.50400000 5.73460000 -12.58690000
3.03210000 7.93400000 -13.04190000
-7.03300000 -57.96990000 7.50620000
6.65660000 6.79370000 10.79500000
7.34360000 8.95040000 10.34790000
7.89420000 12.73940000 9.95000000
8.52270000 11.06550000 9.44300000
9.49330000 13.50410000 8.52780000
-9.05070000 -57.56910000 -28.98830000
-7.66750000 -57.86790000 -29.56600000
-5.45020000 -57.64190000 -29.14880000
-6.22410000 -56.78490000 -28.44550000
7.11640000 47.86740000 -11.21540000
6.78890000 51.19430000 -11.46090000
7.82250000 51.93480000 -10.72570000
6.38150000 53.06440000 -11.64020000
-17.19310000 -40.42440000 -35.23680000
-10.29550000 -37.19320000 -35.23720000
-14.48700000 -42.58200000 -35.25720000
-20.00190000 -36.94320000 -35.23660000
-29.54960000 -57.71470000 -11.99610000
-29.18200000 -57.55750000 -9.16900000
-2.14520000 27.21790000 -13.10170000
-12.14420000 -56.73590000 -2.78910000
18.82940000 -56.79830000 8.04970000
18.35370000 -56.78250000 10.79660000
-23.12610000 -40.69020000 -35.21390000
-21.43410000 -36.43080000 -35.01180000
-28.06420000 -57.78470000 -29.43750000
12.77610000 -57.86170000 25.88770000
10.00960000 -57.89910000 -6.33280000
-19.16140000 -36.15690000 -34.62400000
-29.04880000 -57.78550000 -29.02430000
-31.37330000 -57.78200000 -28.96910000
4.53990000 -56.51210000 -27.25850000
6.00600000 -56.63210000 -26.70250000
35.12320000 -55.03770000 1.40600000
35.08450000 -46.79090000 -16.19730000
2.11240000 45.36490000 -13.13590000
3.52610000 44.91410000 -12.84970000
1.29930000 46.63570000 -13.17550000
2.60210000 18.64340000 12.28360000
-29.44300000 -57.74850000 -14.42900000
-29.92090000 -57.86570000 -13.29150000
-28.77790000 -56.83620000 -11.08380000
11.97010000 32.05980000 -5.56680000
-0.56760000 50.60000000 -13.25860000
35.12570000 -56.73020000 -1.23050000
4.44430000 38.67020000 11.71190000
2.74780000 37.68130000 12.21170000
3.70420000 36.23330000 11.96430000
1.99840000 34.90030000 12.34120000
-11.83470000 -20.74450000 5.29440000
12.52070000 29.52810000 -4.06430000
12.27710000 24.33810000 -4.82400000
12.79520000 24.90910000 -2.91180000
-28.21220000 -56.35250000 -15.42780000
-28.25540000 -56.71540000 -13.32040000
-5.65900000 44.84820000 -11.83070000
29.54740000 -57.79400000 -11.96660000
-0.84750000 -57.03160000 23.83530000
-12.24820000 -30.60860000 4.41710000
-12.79650000 -29.95750000 2.63690000
-13.05090000 -33.57820000 1.72120000
34.11120000 -57.77160000 -10.07920000
30.33470000 -57.89640000 -14.64840000
34.23170000 -57.71990000 -15.97240000
33.69940000 -57.80660000 -13.81290000
-30.00340000 -57.94510000 24.52570000
10.97990000 49.12950000 -7.44010000
9.60000000 46.63630000 -9.18510000
-3.35920000 -57.94190000 -29.69790000
9.44890000 34.86600000 -9.31950000
8.59550000 31.91210000 -10.10900000
8.68400000 37.30550000 -10.03670000
-26.82650000 -57.84350000 -13.04640000
-25.92240000 -57.92580000 -9.76150000
13.81280000 -56.48710000 -27.92190000
13.48760000 -56.72710000 -26.68430000
12.43640000 -56.87650000 -28.57100000
12.58690000 -57.44250000 -29.01240000
18.32800000 -57.05930000 -6.21860000
-2.83240000 -57.99830000 -3.65880000
-12.34680000 -57.98310000 25.02850000
-23.20520000 -57.33700000 28.29150000
-21.57780000 -56.53190000 27.95740000
12.97920000 20.55040000 -1.66000000
13.04540000 12.85820000 -0.72910000
13.05000000 8.42030000 0.07500000
0.04380000 -57.50120000 -15.58350000
18.10950000 -36.28160000 31.54080000
27.78470000 -57.07980000 -24.48700000
18.02180000 -57.50860000 19.96480000
-14.73800000 -56.39060000 17.54270000
-34.43080000 -57.63870000 -4.05510000
-34.08460000 -57.68630000 -8.05710000
-33.08850000 -57.82940000 -6.23190000
-34.13680000 -57.74010000 -13.78820000
-5.88740000 -36.25840000 22.62690000
12.83180000 -36.27480000 25.86040000
7.47490000 -36.25240000 27.83780000
13.32070000 -36.27380000 31.39720000
-10.83540000 -56.44780000 1.66810000
16.62300000 -57.80750000 21.60960000
17.07400000 -57.83660000 20.20880000
-34.68340000 -57.36820000 -6.39250000
-34.79830000 -57.38410000 -2.37260000
-33.38420000 -37.94450000 -32.05270000
-9.50000000 -15.91200000 8.62610000
-8.84160000 -20.82270000 9.28000000
-9.81550000 -8.68520000 8.21100000
9.21330000 -36.31000000 24.91020000
6.74360000 -36.29510000 20.32900000
12.92980000 -56.97870000 -3.79420000
-2.94310000 -57.74870000 16.41320000
-2.18660000 -57.18850000 16.77760000
-1.36840000 -57.97270000 15.18230000
-34.71850000 -57.42890000 -13.32200000
-35.04390000 -57.09140000 -15.61630000
-35.09200000 -56.49680000 -12.20560000
-10.22190000 -8.47600000 7.71130000
-8.86770000 -56.77040000 1.39200000
3.07500000 -57.88920000 -25.39070000
1.05060000 -57.77720000 -25.90010000
-7.86440000 -56.81690000 -9.25740000
-3.06630000 -58.02040000 4.91630000
-10.76930000 -1.01760000 6.87170000
-10.04470000 1.06750000 7.84200000
-18.74960000 -57.87480000 -25.76330000
-22.52350000 -57.92480000 19.57660000
-17.02640000 -57.12590000 -14.42550000
9.78280000 -57.19820000 -15.57770000
-33.91230000 -36.17530000 13.03420000
-24.65940000 -56.43170000 -27.24120000
-23.04180000 -57.44660000 -26.65030000
-24.48580000 -57.67560000 -26.45200000
-23.54770000 -57.84400000 -26.00870000
-20.40430000 -57.83390000 -26.12490000
34.21250000 -36.35010000 -23.78560000
34.94810000 -36.86920000 -23.40650000
34.66650000 -36.54260000 -25.04880000
11.57110000 -57.78660000 -16.63150000
-26.82220000 -56.50330000 -27.25860000
-24.87530000 -56.78420000 -27.00030000
-25.68290000 -57.50370000 -26.68990000
-26.35250000 -56.34090000 -27.65800000
-24.95620000 -56.33090000 -27.58240000
34.75130000 -36.54390000 19.88860000
34.42170000 -36.36920000 16.68520000
-7.16220000 6.17630000 -11.19900000
4.76700000 -36.18990000 -24.36720000
0.55730000 -57.42760000 5.04790000
20.99420000 -36.28980000 16.50500000
29.97030000 -36.29570000 19.33630000
33.12870000 -36.28710000 18.87070000
22.33460000 -57.70270000 3.12240000
-28.09580000 -56.62590000 -25.27760000
-28.08880000 -56.55110000 -24.24120000
26.52660000 -57.65600000 24.63400000
-0.86820000 -56.53960000 3.73940000
-0.32310000 -56.72140000 4.33170000
13.43370000 -56.48790000 -23.13480000
13.30420000 -56.53580000 -21.18590000
-27.70780000 -56.45620000 -16.58970000
-34.82040000 -36.62220000 6.34040000
-35.00110000 -37.14130000 -2.22710000
-34.87660000 -36.63020000 1.09810000
-34.64960000 -36.36820000 -0.85260000
-28.33600000 -56.53820000 -16.91560000
-29.24140000 -57.55570000 -17.08120000
21.52230000 -56.72170000 9.34410000
18.71400000 -56.79850000 11.13030000
19.69420000 -56.71450000 8.66000000
21.34190000 -56.73910000 10.07330000
-34.56060000 -48.87330000 -35.12270000
-12.81070000 -32.88980000 -3.50050000
24.26470000 -57.30490000 -9.89050000
24.74550000 -57.20880000 -10.34080000
-35.08240000 -56.69840000 6.25210000
-34.85980000 -36.55930000 -7.65280000
-35.03210000 -37.54220000 -8.28370000
-34.92600000 -36.87050000 -3.73800000
-28.56860000 -56.69570000 -18.25140000
-28.24350000 -56.43560000 -18.63770000
-27.72140000 -56.39730000 -18.02060000
-29.41190000 -57.62240000 -19.78770000
23.14790000 -56.67360000 10.59750000
13.32680000 -36.94620000 34.68520000
10.83770000 -36.83950000 34.57900000
5.73650000 -37.10740000 34.79390000
8.36140000 -36.72940000 34.48520000
6.48110000 36.56570000 10.79700000
5.32790000 33.50170000 11.36360000
7.11500000 33.11320000 10.36830000
6.69780000 42.07490000 10.68510000
7.33640000 39.74810000 10.23700000
-19.04550000 -56.62040000 -20.31400000
-18.61140000 -56.75620000 -18.27410000
9.59770000 -17.90580000 8.37700000
9.09050000 -15.45900000 8.99250000
-34.52410000 -36.25780000 -3.67340000
-34.24690000 -36.12600000 -7.63530000
7.44630000 -37.47200000 34.75940000
-11.63030000 -33.27850000 -6.63590000
-10.70400000 -33.76710000 -8.14200000
7.01850000 -4.85950000 10.59200000
8.06790000 -8.93360000 9.86830000
6.29910000 -8.00290000 11.02320000
0.79750000 -57.77220000 -4.89150000
0.13360000 -57.38030000 -4.41010000
-6.68890000 -57.84100000 -3.20430000
-18.16100000 -56.81400000 -18.89070000
-18.08950000 -57.18550000 -17.21910000
-5.75150000 -56.93080000 -26.19110000
-8.42210000 -57.71860000 -25.73810000
-12.03270000 -56.76120000 -12.31870000
-34.49790000 -57.45730000 -29.23930000
-33.74940000 -57.45530000 -32.31010000
-7.37120000 -57.86220000 14.27470000
-8.87870000 -57.83820000 16.45190000
24.15200000 -56.43660000 -28.07950000
31.76820000 -57.89490000 29.94290000
-32.34620000 -57.67590000 -30.19830000
-27.49980000 -56.52030000 18.28370000
-25.52330000 -56.80690000 16.60530000
-27.90550000 -56.64590000 18.82830000
-0.68440000 -56.56150000 -18.03700000
0.54300000 -56.42820000 -19.52950000
1.50030000 -56.89450000 -19.20690000
-13.94820000 -56.91890000 10.65500000
-14.00130000 -56.65940000 9.87540000
-14.06730000 -56.47380000 9.09640000
-2.06630000 -57.77210000 -8.73490000
0.11450000 -56.78120000 -23.39160000
-24.34980000 -52.61130000 34.94870000
-21.60360000 -53.82560000 34.88410000
-26.32650000 -49.10260000 34.92150000
-34.83590000 -57.11990000 12.89100000
-34.81720000 -57.30700000 8.89380000
-35.01800000 -56.90010000 14.33710000
27.73250000 -56.38620000 18.00640000
27.32750000 -56.41240000 16.25720000
28.39990000 -56.86350000 17.36570000
-11.61550000 -57.36360000 34.73480000
-10.76870000 -56.95300000 34.97940000
12.79470000 -22.50450000 1.95980000
4.12310000 -56.83280000 13.54160000
-34.78400000 -57.42870000 5.47450000
-34.24960000 -57.62520000 13.31440000
-11.55170000 -57.77010000 34.04930000
-10.00680000 -57.54410000 34.78650000
-9.99680000 52.88880000 7.68050000
-10.57050000 47.37990000 6.92200000
-11.87040000 57.43850000 -4.25810000
-11.14240000 56.92430000 -6.46190000
-10.86070000 56.42150000 -7.08800000
28.20680000 -36.37430000 32.48900000
14.92630000 -57.39920000 -23.70180000
13.68000000 -56.63900000 -24.35580000
13.74810000 -56.93340000 -25.98390000
13.01700000 -56.76000000 -26.20640000
-34.09230000 -57.72580000 9.54430000
-10.99800000 31.71540000 6.34720000
34.50580000 -57.41050000 -29.55270000
34.78080000 -57.13230000 -31.67950000
35.04040000 -56.59880000 -29.20650000
0.70670000 -33.74390000 -13.42600000
0.56450000 -34.47100000 -13.58060000
0.66940000 -56.73700000 -28.32740000
0.65250000 -57.71500000 -29.17120000
-0.03110000 -56.52350000 -27.55650000
1.70760000 11.80610000 -13.25020000
1.22000000 9.59660000 -13.34120000
21.54200000 -57.94600000 15.47020000
4.21300000 -10.77620000 11.97010000
5.44950000 -12.00650000 11.47600000
4.80010000 -5.04670000 11.72940000
5.35130000 -3.04020000 11.48520000
24.09460000 -57.88870000 -24.82470000
26.10240000 -57.87820000 -24.20910000
12.76100000 -56.92000000 26.80550000
12.80070000 -19.34410000 -2.69370000
12.66060000 -28.15130000 -3.34780000
-29.46710000 -57.91830000 22.09230000
-7.13390000 58.03220000 -5.80760000
-6.45550000 57.92340000 -9.43850000
-14.98540000 -57.78150000 -16.75800000
12.90380000 -25.15010000 1.07840000
12.94740000 -26.86630000 0.92110000
-13.47520000 -57.05070000 -15.64980000
12.84540000 -17.10180000 -2.15310000
12.53040000 -17.40150000 -3.85590000
12.08710000 -15.79230000 -5.16380000
-9.52050000 -57.57490000 -20.14200000
-13.09580000 -16.65440000 -1.02190000
-12.95090000 -24.53180000 -2.64090000
11.57620000 -19.83490000 -6.31670000
11.97000000 -23.10940000 -5.45730000
11.08830000 -23.69410000 -7.19290000
12.28940000 -18.95300000 -4.63290000
3.10590000 -33.88010000 12.38570000
0.73240000 -28.39400000 12.67850000
-0.88260000 -26.89240000 12.69870000
-12.83990000 -0.20570000 1.31080000
34.58330000 -45.77090000 34.73160000
-34.79490000 -56.99840000 27.20270000
-34.75990000 -57.11320000 28.99830000
-34.91870000 -55.81360000 31.16920000
-34.90320000 -56.61520000 28.71570000
-12.86080000 -4.79560000 1.33720000
-24.40940000 -56.41640000 4.27950000
-24.60270000 -56.43780000 5.13940000
-10.68550000 -36.20950000 30.51520000
5.81650000 38.82880000 11.13380000
-21.80400000 -56.63560000 4.37030000
-19.33960000 -56.74630000 -21.28470000
-21.32900000 -56.77320000 8.52450000
-21.62470000 -56.36250000 7.67090000
-12.92550000 -57.82020000 -26.20810000
-34.87460000 -47.08870000 30.99380000
-34.83870000 -42.68650000 32.49150000
-13.88640000 -56.63240000 -3.67460000
-14.79220000 -57.34290000 -5.52340000
27.04310000 -56.45000000 20.93840000
26.49110000 -56.66390000 19.13760000
-15.58890000 -57.90310000 -10.31190000
14.46180000 -36.19000000 -26.56540000
14.45340000 -36.22660000 -15.92590000
-34.83160000 -39.91750000 30.66930000
-34.69640000 -38.14810000 29.39710000
-33.68240000 -35.98160000 -18.86540000
-34.30880000 -36.10400000 -17.62320000
-13.19010000 -33.77650000 0.21030000
26.85100000 -56.49940000 17.12400000
13.21690000 -56.81870000 3.10890000
12.53180000 -57.60830000 1.17650000
2.90370000 -57.92950000 -19.75670000
8.71230000 -29.56170000 -10.08030000
8.44290000 -57.89610000 18.32980000
-29.49220000 -57.72260000 -23.47810000
-3.33030000 -56.53350000 -27.02250000
-2.66700000 -56.65870000 -28.22420000
4.63730000 56.87930000 -12.42620000
5.97430000 57.07400000 -11.72610000
6.92540000 55.07900000 -11.37200000
-4.22650000 -56.99790000 -20.33340000
26.48810000 -44.74380000 -35.44360000
-1.03550000 -2.10510000 12.63680000
0.56760000 -0.58700000 12.63340000
0.66760000 -7.81420000 12.64660000
-16.66880000 -57.94560000 -2.56360000
1.28320000 -57.82960000 -32.87360000
-0.16670000 -57.65210000 -34.77010000
9.45760000 -57.76230000 -33.79780000
5.71410000 -57.89600000 -31.45440000
-27.11100000 -52.42720000 34.95490000
-24.93980000 -57.47180000 -8.27980000
-15.01190000 -57.85110000 15.65370000
15.76140000 -50.34710000 -35.41840000
20.68560000 -46.12150000 -35.42010000
19.41810000 -51.85430000 -35.44080000
19.25560000 -57.31060000 -35.35690000
-9.06360000 29.17910000 8.77060000
29.82000000 -57.94670000 2.08160000
30.07830000 -57.87960000 -0.84330000
29.09460000 -57.65640000 -0.31760000
-35.18040000 -53.14750000 -17.73040000
-35.16870000 -55.46940000 -12.67770000
13.55680000 -56.99560000 -35.42690000
17.22240000 -56.92990000 -35.46340000
16.37650000 -57.38010000 -35.31010000
7.17160000 -57.02930000 -35.39900000
9.20970000 -57.42900000 -35.26850000
7.42600000 -57.66730000 -34.80610000
-34.66520000 -57.49380000 -11.26800000
-34.98260000 -57.13820000 -10.24580000
-34.20470000 -57.70030000 -9.97560000
-12.11380000 57.60950000 -2.84820000
29.72370000 -57.94290000 -3.07120000
6.59290000 -30.19060000 -11.62490000
8.12940000 -27.49870000 -10.52660000
11.81890000 -56.74430000 -27.71230000
9.65610000 42.22740000 -9.12010000
11.66830000 4.13100000 -6.24280000
11.82780000 11.65210000 -5.89140000
11.24930000 11.70070000 -7.01190000
10.93000000 3.83830000 -7.50840000
12.06950000 -56.63790000 -28.23630000
10.65620000 -56.69970000 -28.45830000
12.54930000 -5.99670000 3.08060000
6.06680000 -25.56500000 -11.92420000
5.88150000 -29.22640000 -11.99610000
7.05710000 -26.12700000 -11.31860000
12.51140000 10.43960000 -4.11500000
-1.38550000 -32.03320000 12.65600000
11.13420000 -57.92300000 -7.27580000
-21.97370000 -55.85040000 34.90900000
12.21870000 18.38870000 -4.99780000
12.79180000 12.91400000 -3.01570000
12.57340000 14.64730000 -3.84450000
-12.09940000 -57.79710000 -19.79360000
35.16790000 -56.74350000 20.82190000
35.15000000 -56.87140000 17.03430000
27.00200000 -56.69020000 -2.00630000
12.59330000 57.60630000 -0.42660000
13.14250000 -35.01430000 1.82690000
13.67080000 -35.79830000 2.39080000
-4.64820000 -57.18690000 6.50020000
27.94650000 -56.93750000 -0.26890000
27.92970000 -56.85110000 -2.51770000
-12.47220000 37.79020000 2.68270000
-12.28970000 40.70620000 3.37380000
10.41340000 18.04720000 7.41540000
11.23430000 20.34650000 6.22310000
10.57890000 25.89870000 7.16640000
-26.01630000 -57.81890000 -23.63350000
-3.20840000 -57.58100000 3.04290000
14.81350000 -56.76140000 18.36600000
14.10570000 -56.71670000 16.92680000
15.00440000 -56.87430000 15.33790000
15.37040000 -56.99680000 17.53140000
15.41770000 -56.87340000 -16.93310000
-7.25370000 -32.69400000 -11.33020000
14.03820000 -56.74450000 18.82840000
13.66240000 -56.78270000 17.47840000
20.13870000 -57.93740000 6.12690000
15.55650000 -56.68300000 -15.54950000
-23.97120000 -57.92770000 10.74720000
-4.14080000 -57.95310000 -14.85650000
-9.44770000 -33.86290000 -9.60110000
14.28870000 -56.67390000 21.03170000
14.58900000 -56.86650000 19.62090000
-29.28670000 -36.03740000 -14.54480000
3.11310000 -19.66900000 12.29930000
4.17080000 -20.60210000 11.99290000
2.30280000 -22.24450000 12.46330000
14.40370000 -56.78150000 -10.89140000
13.95800000 -56.61190000 -11.91730000
-18.52410000 -36.06690000 -23.76640000
-22.17220000 -56.52330000 24.04060000
-22.20780000 -56.85080000 22.89270000
-22.90040000 -57.59870000 23.89000000
8.54470000 -57.71870000 -15.54320000
-9.35480000 -57.25880000 34.94430000
28.84470000 -37.33760000 34.37790000
28.27530000 -36.58470000 33.65720000
-28.41160000 -57.35830000 3.73370000
-28.19390000 -57.36530000 2.75220000
-7.88150000 -36.07930000 12.77100000
-22.27080000 -37.25370000 34.88930000
30.80170000 -57.79550000 -27.74570000
-11.85950000 23.13700000 -5.40640000
-12.37150000 34.24750000 -3.67440000
-11.59520000 35.26690000 -5.76180000
-12.01700000 32.57100000 -4.90260000
4.56160000 -9.89740000 -12.51550000
3.64370000 -12.73920000 -12.82210000
7.22360000 56.20270000 10.33380000
5.90800000 56.41770000 11.06380000
-22.32600000 -36.25040000 33.99540000
-21.92640000 -36.69320000 34.69890000
-26.21470000 -36.27160000 33.79480000
-24.29110000 -36.14140000 32.24810000
5.23120000 -5.35700000 -12.19270000
6.36220000 -4.97920000 -11.64070000
8.36110000 50.22110000 9.48340000
9.15480000 48.40110000 8.82150000
-19.86720000 -36.17110000 31.80730000
-20.11770000 -36.21700000 33.51680000
6.15000000 -57.50260000 -35.17210000
2.90520000 -56.90430000 -35.38620000
34.97840000 -57.08280000 -5.26050000
35.06460000 -57.01430000 -6.81740000
2.68950000 -57.91890000 -29.63680000
7.48070000 -57.87790000 -30.03890000
-7.15200000 -36.13560000 -33.99700000
-7.62040000 -36.30850000 -34.66900000
