7.87260000 -0.99320000 -12.24290000
11.65460000 5.38950000 -8.60310000
6.30200000 -20.78840000 16.28550000
2.69030000 -19.14560000 19.85550000
6.52430000 -28.38120000 16.14350000
6.16010000 -30.32040000 12.64590000
7.57090000 -30.25700000 12.39570000
5.28210000 -30.26120000 14.50440000
-12.42100000 -30.80790000 4.93260000
-10.28100000 -30.74590000 7.08380000
-11.22400000 -30.60030000 7.29690000
-6.45410000 -4.91900000 13.94970000
-8.87340000 4.16200000 11.55500000
-11.84360000 -1.37280000 8.66370000
-8.94520000 7.65930000 -13.50760000
-8.08640000 13.71900000 -14.32170000
-7.25510000 6.12430000 -15.20830000
15.82000000 1.14660000 -4.39510000
19.81450000 0.82570000 -0.34610000
16.03260000 -5.26020000 -4.13660000
-20.48020000 20.70360000 -1.52720000
-16.23140000 24.85770000 -5.84210000
-17.39430000 16.97000000 -4.78040000
-1.65020000 30.78490000 -13.62420000
-1.90010000 30.77680000 -7.98810000
3.74040000 30.80670000 -12.07920000
-17.74470000 9.10560000 2.95620000
-14.97890000 8.50850000 5.67190000
-17.63300000 16.33610000 3.07810000
9.34170000 -1.21440000 13.02020000
17.61260000 -11.50130000 4.85470000
17.89190000 4.53460000 4.38570000
10.43540000 30.82640000 4.11920000
1.63890000 30.78080000 0.13770000
1.89230000 30.75630000 7.32080000
6.71320000 29.99990000 11.43700000
3.67810000 28.75540000 14.41120000
6.65480000 29.24570000 12.63900000
-13.38060000 23.19080000 7.29940000
-9.48570000 18.08440000 11.07170000
-8.99660000 24.80090000 11.55520000
-4.24990000 4.47170000 -18.25740000
-4.48130000 9.30130000 -18.00380000
-2.20020000 7.07240000 -20.26260000
6.72950000 29.48290000 -13.44600000
2.48090000 29.23170000 -17.63030000
3.12030000 30.04490000 -16.50340000
-12.40210000 -30.07360000 -10.16260000
-10.02660000 -30.45290000 -12.08620000
-13.10690000 -30.60820000 -8.79270000
-1.47670000 -28.08770000 -20.22540000
-2.23420000 -29.70710000 -20.09180000
-1.72080000 -20.88170000 -20.59090000
-14.64360000 -30.20270000 -7.56600000
-14.75100000 -29.75490000 -7.75590000
-20.82600000 14.12400000 -1.11630000
-20.89880000 4.81590000 -0.63320000
-20.89540000 17.88380000 -0.62020000
20.56470000 -16.18960000 0.93000000
20.48060000 -19.58550000 1.54510000
20.56310000 -29.31340000 1.07620000
4.12230000 -30.24370000 1.27060000
7.10350000 -30.52160000 4.66270000
4.47560000 -30.51420000 2.35910000
4.06620000 -30.48060000 13.92240000
0.30670000 -24.84950000 20.52140000
0.84360000 -19.07380000 20.77430000
0.86970000 -9.38970000 20.73260000
7.28870000 -29.91940000 15.14470000
11.01280000 -29.17450000 11.58810000
4.79110000 -29.56300000 17.75950000
16.35480000 -29.85100000 5.97110000
18.25840000 -30.20220000 3.39940000
18.45180000 -29.69670000 3.85090000
-20.07450000 -30.35690000 -1.70630000
-20.59620000 -29.90840000 -0.87870000
-20.40750000 -29.56990000 -1.86720000
-19.48430000 -30.74080000 -0.34830000
-18.95480000 -30.57540000 1.25490000
-20.14530000 -30.46440000 0.17220000
3.71200000 -30.56370000 -2.81210000
3.71330000 -30.46300000 -5.22550000
5.10400000 -30.54860000 -4.59400000
-14.31800000 -30.37880000 -1.88370000
-14.00040000 -30.68120000 -0.44890000
-16.41340000 -30.70830000 0.16050000
-10.43960000 30.16730000 7.49250000
-7.52570000 29.84290000 10.87320000
-6.46430000 30.27510000 11.05940000
-3.42050000 28.61600000 14.56780000
0.39850000 27.23120000 16.74120000
-1.83860000 28.95900000 14.66260000
-3.24070000 -30.20240000 -18.96710000
-3.77790000 -30.54910000 -17.69870000
-5.68110000 -30.35160000 -16.52560000
2.18350000 -30.40910000 -7.62330000
0.61580000 -30.57170000 -8.58730000
3.83680000 -30.32930000 -10.98560000
-7.11200000 -30.58320000 -6.25350000
-3.93460000 -30.72980000 -4.21380000
-5.91220000 -30.39790000 -4.47690000
6.30360000 -30.55200000 4.93730000
9.46210000 -30.51490000 8.02280000
6.07490000 -30.46170000 6.33790000
-19.57530000 29.56570000 -1.30630000
-17.91890000 30.11610000 -3.18530000
-19.70820000 29.01660000 -1.86300000
-11.09590000 27.61160000 9.15770000
-7.87760000 27.70830000 12.46050000
-10.62560000 28.28300000 9.25730000
-2.52610000 -30.63760000 6.64380000
-2.22660000 -30.35930000 5.79620000
-0.51320000 -30.54420000 8.63600000
-2.37860000 -30.49360000 2.77330000
-0.62660000 -30.55480000 0.91010000
-1.66920000 -30.24190000 3.79110000
11.97550000 27.16890000 10.04840000
11.46330000 20.29900000 10.67140000
14.64010000 26.89750000 7.41820000
14.44200000 30.31550000 5.87750000
14.39390000 29.91480000 6.61220000
17.28320000 30.46600000 3.03600000
3.08330000 -30.51870000 5.04920000
-0.26330000 -30.27550000 2.60170000
1.53750000 -30.64610000 2.53850000
0.32700000 -30.10950000 7.68640000
17.49530000 29.58800000 4.00700000
16.79810000 30.16490000 4.10550000
2.82980000 30.52430000 -15.92780000
5.72640000 30.73550000 -12.33960000
6.59170000 30.49890000 -12.35050000
1.03730000 -30.17380000 7.76740000
2.80320000 -30.29440000 6.46200000
1.66930000 -30.48100000 9.24780000
-0.23400000 -30.52320000 14.84510000
3.39900000 -30.26860000 12.82890000
0.87700000 -30.33110000 15.34440000
20.15520000 3.35690000 2.01880000
20.54890000 -4.14200000 1.41930000
20.47350000 6.14150000 1.47890000
19.26400000 29.46790000 1.63270000
18.72670000 29.40570000 2.69550000
19.93790000 28.26430000 1.60440000
-11.83520000 -30.77780000 -9.42320000
-2.72070000 -30.63990000 -18.09510000
-2.56490000 -30.63930000 -15.96170000
-4.29450000 -30.69180000 -16.22830000
19.69550000 29.15790000 0.09040000
19.26070000 29.75110000 0.93790000
19.94530000 28.76200000 0.86220000
20.45270000 11.73700000 0.34070000
20.57240000 6.13390000 0.90170000
20.40850000 -0.37870000 0.40480000
-4.14880000 -30.51180000 14.73610000
-8.89030000 -30.57690000 9.62170000
-3.68010000 -30.59790000 14.10170000
-0.12700000 -30.51140000 11.06890000
-2.13870000 -30.33860000 14.74740000
-2.56940000 -30.49050000 13.45980000
11.09940000 -29.90700000 -8.68240000
7.15010000 -29.79560000 -12.66830000
11.85730000 -29.35380000 -7.96930000
1.78070000 -30.54600000 -12.91790000
-0.48150000 -30.59910000 -15.10670000
0.19000000 -30.43070000 -15.31430000
-2.13610000 -30.18100000 11.20310000
-1.22000000 -30.46940000 12.08980000
-2.36090000 -30.34020000 12.09170000
-7.40690000 -30.58680000 7.61940000
-5.25370000 -30.55630000 5.13750000
-5.71160000 -30.29590000 7.70640000
-20.79280000 26.12650000 -0.69850000
-20.60590000 25.75120000 -1.29070000
-20.22480000 28.73320000 -0.76800000
-20.48800000 27.81590000 -1.12050000
-20.60900000 27.55860000 -0.30570000
13.97870000 -30.23570000 6.17550000
15.50730000 -30.29710000 5.48140000
12.32940000 -30.34990000 8.76030000
14.66610000 -30.45640000 -3.62540000
15.92060000 -30.38990000 -2.25740000
13.96710000 -30.31920000 -2.37880000
-6.84070000 -30.62960000 10.46390000
-4.07400000 -30.55610000 13.16580000
-7.21670000 -30.61830000 10.89200000
-5.44460000 -30.44990000 10.99330000
-6.21810000 30.69400000 -13.26000000
-8.51370000 30.52190000 -12.00750000
-8.30460000 30.74830000 -9.82860000
-14.64940000 29.02130000 -7.40130000
-19.07030000 28.63070000 -2.82760000
-17.58180000 29.54370000 -4.17100000
-6.28170000 -30.58980000 -7.40210000
-4.21670000 -30.57930000 -6.33940000
-7.17140000 -30.32220000 -10.32600000
-5.44930000 -30.54120000 -10.41400000
-5.59480000 -30.37440000 -9.49050000
-5.03820000 25.79120000 15.06010000
-2.65730000 27.53820000 15.43460000
-5.08610000 27.83150000 14.38670000
3.66130000 24.53510000 17.60010000
6.14260000 26.33720000 15.36380000
4.77290000 26.55120000 16.05230000
-3.81440000 -30.56550000 0.79260000
-1.57950000 -30.55540000 0.10030000
-3.03230000 -30.42110000 1.75270000
-7.08840000 -30.57110000 4.83420000
-7.82470000 -30.67810000 6.25430000
-1.61940000 29.73220000 -19.44940000
-0.54660000 29.73310000 -19.32690000
-0.96700000 28.68390000 -20.11280000
-8.23130000 30.30010000 -13.35190000
-5.35960000 30.56310000 -15.31260000
-7.81950000 5.80370000 12.61560000
-4.41680000 8.53210000 15.95330000
-3.27480000 24.67050000 16.60240000
-0.86110000 25.06270000 17.88330000
-1.80300000 25.87390000 16.35880000
-8.62520000 -30.70690000 -11.64330000
-7.75320000 -30.27600000 -9.88450000
-9.93800000 -30.78870000 -10.14200000
-7.09170000 -30.31250000 -9.04940000
-5.71540000 -30.60950000 -8.01750000
-1.91720000 30.35140000 -18.72300000
-1.11920000 30.65240000 -17.96880000
-0.93340000 30.15890000 -18.93740000
2.24490000 30.69770000 -15.59710000
4.07330000 7.77560000 18.18560000
2.02220000 7.93370000 20.07130000
2.51750000 -3.26810000 19.81140000
4.27010000 23.52450000 17.51950000
-14.01960000 -30.77890000 -6.99670000
-14.49720000 -30.77680000 -5.61600000
-16.72590000 -30.84900000 -4.27140000
-12.65340000 -30.42060000 -4.52170000
-10.54980000 -30.64650000 -4.95870000
-11.27060000 -30.70890000 -3.20710000
-17.02950000 29.86330000 2.75420000
-19.01240000 29.83930000 0.33460000
-19.42150000 28.84920000 0.90110000
-14.16120000 30.55710000 3.71280000
-9.98440000 30.36490000 7.53220000
-10.91020000 -30.77670000 -9.52950000
-9.86760000 -30.53440000 -8.34490000
-10.93990000 -30.51800000 -7.60580000
-9.13110000 -30.72770000 -9.16450000
-7.01650000 -30.69060000 -7.09190000
-1.10240000 -8.00890000 19.20060000
-0.08360000 -9.56280000 20.11250000
-0.02350000 -4.59450000 20.15460000
1.77940000 24.57930000 18.63110000
-3.40650000 -30.59370000 -1.15240000
-7.60960000 -30.66080000 -4.97930000
-6.98350000 -30.42990000 -3.05550000
-9.55040000 -30.67880000 -0.98150000
-0.94550000 4.53230000 -20.70530000
-0.47470000 3.34320000 -20.51460000
-0.49810000 -6.90290000 -20.50050000
-0.62850000 27.47390000 -20.35240000
-1.12550000 22.51820000 -20.54380000
-1.63860000 28.21200000 -20.16460000
20.14520000 -7.70920000 2.20190000
19.24910000 -0.32470000 3.05170000
16.72470000 -29.12500000 5.83440000
1.54920000 -19.94240000 20.72440000
1.17360000 -14.70200000 20.76970000
6.48810000 -30.28210000 15.61910000
-4.33970000 -30.50940000 3.39680000
-11.67280000 -30.71350000 4.76100000
-10.04920000 -30.31140000 5.11910000
-10.47070000 -30.65840000 6.15420000
16.81440000 30.19530000 -2.45870000
15.50570000 30.45420000 -3.65150000
15.66040000 30.75140000 -2.61380000
14.30680000 28.06710000 -6.10440000
19.50350000 28.11820000 -0.83620000
15.77440000 24.74560000 -4.64860000
-17.42010000 24.39170000 3.29540000
-20.20230000 25.88530000 0.45860000
-18.81250000 22.67350000 1.94360000
-19.31850000 12.26950000 1.38370000
0.45470000 15.99440000 20.48550000
0.99650000 15.57200000 20.59900000
1.22410000 20.31730000 20.32070000
2.35740000 17.35890000 19.66770000
1.47640000 16.08370000 20.37940000
1.91960000 11.72660000 20.14030000
-1.14810000 -21.45210000 -20.57600000
-0.59710000 -21.61760000 -20.37740000
-0.68910000 -27.19090000 -20.17230000
10.38540000 -30.26890000 -9.19160000
4.03010000 -30.36270000 -15.37740000
0.88690000 21.69370000 20.17300000
1.29880000 22.85190000 19.66790000
0.47110000 23.32230000 19.50480000
-1.84380000 23.48110000 18.27540000
-1.13400000 24.29740000 18.29410000
-14.56630000 30.38570000 4.07420000
-11.99780000 28.45880000 7.82160000
-13.49180000 28.71020000 6.47630000
-13.13220000 27.64440000 7.20780000
-9.84180000 -30.61940000 2.14790000
-9.30660000 -30.09630000 3.78330000
-11.00150000 -30.55170000 3.56140000
-8.26340000 -30.61170000 0.29290000
20.31190000 -18.44810000 0.34300000
15.41720000 -30.09380000 -4.33990000
19.27310000 -29.95230000 -0.44950000
18.20310000 -30.34110000 -0.91520000
-0.94000000 -4.28260000 -20.72330000
-2.13110000 -10.37760000 -20.47010000
-2.02280000 -6.84150000 -20.52040000
-1.60550000 -10.97180000 -20.76410000
5.53550000 -30.44290000 -1.28680000
7.75040000 -30.40590000 0.69390000
6.20130000 -30.54530000 0.70040000
6.92040000 -30.35300000 -2.50690000
-9.85660000 -30.72530000 10.08460000
-6.56370000 -30.59710000 13.21910000
-12.20700000 -30.18280000 8.36580000
-18.34580000 -30.12980000 2.31140000
-18.22370000 -30.61240000 2.09610000
9.07820000 30.48620000 9.77010000
8.91200000 30.08700000 10.68760000
10.93100000 30.75190000 7.26000000
7.12990000 30.77010000 8.54210000
-1.92760000 29.21840000 -19.73520000
-9.33860000 29.72440000 -12.48740000
-8.13360000 29.84630000 -13.89870000
-10.79440000 29.07220000 -11.19300000
3.25550000 -30.53640000 -2.00760000
5.04740000 -30.54150000 -0.39830000
2.79560000 -30.32350000 -1.38040000
1.95740000 -30.50650000 -2.16320000
1.05460000 -30.53220000 -1.19930000
-8.19620000 -30.24410000 12.23800000
-0.61390000 -30.49780000 18.82960000
0.61360000 -30.41260000 20.04240000
-1.40130000 -30.26560000 18.81160000
-9.08910000 28.93430000 -13.09980000
-5.82690000 28.40960000 -16.41260000
-7.10520000 24.62400000 -15.18160000
-11.08500000 18.50110000 -11.20740000
-0.33540000 30.42610000 12.15040000
3.78830000 30.34660000 11.57310000
2.14680000 30.61400000 10.93750000
0.76100000 29.99900000 13.07550000
-0.78730000 29.32180000 14.33720000
1.30570000 29.11380000 14.44930000
-5.97720000 13.69220000 14.42870000
-2.57050000 13.00730000 17.74270000
-2.73490000 16.54390000 17.57740000
-0.12540000 10.13670000 20.06400000
-0.10390000 17.41470000 20.09660000
4.90930000 21.37630000 -15.44930000
8.14660000 18.04970000 -12.19280000
4.27390000 15.28080000 -16.04820000
7.80490000 24.16760000 -12.53540000
-0.57880000 5.85850000 19.56560000
0.38130000 4.70210000 20.45480000
0.60610000 6.94160000 20.15390000
1.37760000 4.14740000 20.54390000
1.37900000 -2.68570000 20.63960000
-0.80760000 30.65370000 10.88510000
-10.35510000 30.68160000 5.54660000
-7.93200000 30.50880000 8.78880000
-6.53710000 30.70170000 8.63460000
-19.24810000 -27.10770000 1.39840000
-20.81210000 -18.64760000 -1.13910000
-20.77380000 -23.34120000 -0.77830000
-20.91020000 -13.08990000 -0.62780000
-15.61150000 30.26040000 -5.52610000
-15.62580000 30.48120000 -4.65620000
-12.16920000 30.56790000 -8.15410000
-10.45360000 30.16570000 -10.71910000
-10.70150000 29.65580000 -10.98150000
-12.27660000 29.95810000 -9.55350000
13.54170000 28.79680000 8.29450000
14.07820000 29.48750000 7.34520000
7.97570000 28.19790000 13.24110000
8.98900000 29.35710000 11.67550000
4.70780000 27.91710000 15.01830000
2.61810000 -30.57590000 0.59240000
-1.20910000 -30.58060000 -5.93420000
-0.99070000 -30.45600000 -3.81820000
-2.50930000 -30.57050000 -4.57040000
-12.13060000 -13.65360000 8.33660000
-14.21420000 -19.62000000 6.35270000
-9.99730000 -23.97220000 10.50610000
-14.80530000 0.72290000 5.79180000
16.83650000 30.81430000 1.11510000
13.65200000 30.66600000 5.43490000
17.28350000 30.71320000 2.04320000
17.79460000 30.63830000 -0.62460000
18.46360000 30.44480000 0.89140000
18.96530000 30.07170000 0.17830000
-16.84250000 -2.59850000 3.74450000
-17.18430000 2.03030000 3.44830000
-18.39820000 -5.14760000 2.29870000
-20.41500000 7.33110000 0.33290000
-18.61820000 6.13350000 2.06980000
-19.74900000 8.96240000 0.94720000
0.98520000 10.57250000 20.65920000
1.44220000 9.54650000 20.50020000
-0.88650000 7.31900000 19.24390000
0.44570000 9.07270000 20.42730000
-20.67250000 -28.51270000 -0.95850000
-20.67280000 -23.32990000 -1.46990000
-15.56480000 -7.65160000 -6.96620000
-10.37580000 -15.93450000 -12.21730000
-15.62430000 -14.80540000 -6.94100000
3.86520000 -30.61020000 4.82600000
4.29830000 -30.60650000 2.96070000
1.47780000 -30.60520000 0.65500000
-6.25650000 17.34990000 14.12540000
-6.66920000 18.70780000 13.84510000
-12.32640000 12.87950000 8.19440000
-19.60920000 -8.83760000 -2.80240000
-20.49910000 12.81540000 -1.60210000
-19.41610000 5.69840000 -2.82650000
-20.51700000 -3.05900000 -1.74510000
8.78420000 -25.14290000 -11.02170000
10.95800000 -27.33220000 -8.84740000
-1.01570000 -15.87780000 -20.67670000
-0.53300000 -16.32150000 -20.43470000
-9.66190000 -3.05140000 -12.86210000
-10.34560000 -6.44570000 -12.15790000
-10.90810000 -2.20950000 -11.56050000
-3.65600000 -29.64810000 -18.97160000
-13.74000000 30.68500000 -4.74250000
-18.94110000 30.17480000 -0.20770000
-16.56440000 30.30140000 2.59060000
-17.73140000 30.51820000 0.22660000
-4.07130000 -30.67370000 -9.91140000
-5.75600000 -30.66510000 -11.55710000
-4.33160000 -30.17850000 -11.66490000
-0.55190000 -30.61680000 -6.70730000
1.69330000 -30.50200000 -6.59050000
0.84770000 -30.45300000 -5.87740000
-19.36560000 -30.07040000 1.20960000
20.52270000 16.05960000 0.96110000
20.62860000 11.64490000 0.85860000
-7.41850000 28.33330000 12.53900000
-8.59190000 29.07020000 10.71900000
-6.39220000 27.54500000 13.78080000
0.24660000 30.29800000 -18.17060000
0.33220000 29.79370000 -18.86190000
0.65730000 29.14180000 -19.18440000
-15.35940000 29.62070000 4.54810000
-12.25840000 29.40590000 6.92200000
-16.58200000 28.79940000 3.92420000
-16.64000000 29.42010000 3.54620000
5.05490000 -30.54030000 5.71820000
4.11020000 -30.48850000 6.87780000
4.51590000 -30.33920000 8.36390000
10.85120000 29.27490000 -9.30230000
12.10930000 29.34200000 -7.70380000
12.43730000 28.01250000 -7.86940000
6.61880000 30.12700000 -13.03410000
16.18040000 28.52730000 5.76300000
19.25250000 27.83780000 2.65180000
18.84050000 28.78580000 2.92290000
-10.74500000 28.94630000 8.58980000
-9.85800000 29.83900000 8.51510000
-16.71210000 -30.75220000 -3.40280000
-15.29200000 -30.38820000 -2.44280000
-17.96140000 -30.65600000 -1.18420000
-18.19550000 -30.69860000 1.12300000
-18.13670000 -30.58140000 -0.25530000
-1.60890000 -4.45660000 -20.72940000
-1.59530000 2.35650000 -20.67320000
-1.77010000 20.64900000 -20.43170000
14.95520000 -30.40550000 -4.13050000
5.50550000 -30.44420000 -11.21200000
6.09720000 -30.32780000 -10.06780000
3.50380000 -30.44190000 -8.51100000
13.24850000 30.44580000 -5.86350000
12.71080000 30.71670000 -5.58270000
13.68640000 28.94380000 -6.50170000
1.27870000 -30.12260000 5.32210000
0.39640000 -30.17860000 5.56210000
15.22570000 -30.27920000 6.47040000
10.86540000 -30.35040000 11.09020000
11.23070000 -30.36820000 7.59470000
10.95530000 -30.33210000 9.24140000
10.12610000 -30.48420000 9.93280000
8.71440000 -30.46460000 9.48550000
-11.35180000 -30.61150000 3.01640000
-11.49850000 -30.60840000 1.32780000
-10.45020000 -30.60970000 0.80380000
-12.34900000 -30.49200000 2.45400000
-14.79170000 -30.71120000 -4.26320000
-12.17070000 -30.79240000 -1.88660000
-13.78800000 -30.45880000 -2.36710000
-2.17540000 -30.46360000 -14.65890000
-4.98720000 -30.64590000 -15.05200000
-1.69300000 -30.49430000 -13.87180000
-1.19270000 -30.65820000 -11.94790000
-2.11630000 -30.54150000 -11.60840000
14.83430000 29.03850000 -5.52550000
18.33220000 29.28060000 -1.81860000
20.00810000 28.30470000 -0.05850000
1.65410000 26.70720000 17.28360000
2.79020000 26.32980000 17.14270000
-0.25670000 -30.62500000 -13.86180000
11.26760000 -30.49720000 3.27970000
14.27990000 -30.19170000 5.09630000
13.13370000 -30.44190000 5.30110000
12.95990000 -30.11960000 -3.17340000
13.70500000 -30.36500000 -3.75140000
-20.51630000 -11.77380000 -1.87010000
-17.98100000 -17.09890000 -4.55760000
-20.18710000 -19.60780000 -2.25260000
-16.10870000 -27.06410000 -6.54140000
-13.03720000 -26.11210000 -9.62770000
-15.17340000 -28.98050000 -7.42140000
-0.53610000 -30.55260000 15.82220000
0.54760000 -30.56540000 17.03880000
-1.09710000 -30.29780000 16.91570000
-2.83230000 -30.26140000 15.43040000
-0.06490000 2.94130000 -20.21130000
0.49470000 22.53270000 -19.88370000
0.53190000 3.01040000 -19.64550000
0.00070000 -7.00360000 -20.08610000
1.06800000 -10.30680000 -19.00180000
0.56240000 -14.48340000 -19.46670000
11.82030000 -30.13180000 -3.76990000
12.55760000 -30.29840000 -1.88660000
10.92180000 -30.55480000 -3.19550000
-20.75480000 16.07010000 -0.11160000
7.34470000 30.68690000 -10.52540000
10.77020000 30.40120000 -8.15130000
5.68100000 30.76930000 -6.24080000
-14.11350000 -30.68740000 -4.49560000
-12.22040000 -30.70240000 -2.97590000
-13.27070000 -30.75860000 -7.22330000
-13.12080000 -30.43800000 -5.19580000
7.25720000 -10.52360000 -12.78860000
11.97470000 -8.02960000 -8.13680000
9.57140000 -12.45800000 -10.43510000
20.28100000 -26.90510000 0.36220000
-4.38950000 -30.59220000 15.25980000
-4.57940000 -30.27270000 15.76150000
-4.62140000 29.40420000 -17.30690000
-3.26070000 29.57300000 -18.74500000
-3.21490000 28.90700000 -19.02480000
-4.40920000 29.97700000 -17.07450000
-4.21250000 30.44120000 -16.52940000
-2.83280000 30.00500000 -18.84320000
7.74440000 30.33430000 -11.02860000
10.13610000 30.00710000 -9.34910000
11.95650000 30.10060000 -7.38180000
11.29620000 -30.40070000 -7.56340000
13.60090000 -30.24930000 -5.29400000
13.11060000 -30.40340000 -5.04490000
9.63560000 -30.48080000 -8.68430000
10.31580000 -30.25100000 -6.83940000
12.52120000 29.47440000 9.00270000
10.81130000 28.89300000 10.87860000
9.60650000 25.59410000 12.46200000
8.04890000 26.65910000 13.80060000
6.17400000 24.05840000 15.79340000
1.54200000 16.45530000 -18.69930000
6.54790000 -16.58330000 -13.44320000
7.29890000 -19.35520000 -12.63980000
5.56120000 -18.92120000 -14.35290000
-5.73590000 -12.72400000 -16.91900000
-3.96740000 -8.68600000 -18.61250000
5.79550000 -30.55660000 9.29280000
4.12130000 -30.46420000 10.20870000
8.22550000 -30.46490000 8.32780000
6.53350000 21.80040000 15.56410000
4.67760000 -0.42580000 17.67370000
0.23640000 30.75000000 -3.22740000
6.18480000 30.78220000 -10.61540000
-17.81070000 30.56040000 -1.46000000
-16.96290000 30.64780000 -0.08480000
-15.21060000 30.70840000 -1.53840000
9.14130000 -30.18230000 -7.08330000
8.70890000 -30.19930000 -6.80410000
11.99810000 25.20300000 -8.39110000
9.23060000 27.15560000 -11.19560000
10.97450000 28.55130000 -9.38050000
8.21510000 28.84600000 -11.74970000
7.92430000 29.82850000 -11.47630000
-5.68980000 -30.50600000 -12.28490000
-9.30700000 -30.67770000 -12.02340000
1.48980000 -30.27370000 18.28700000
7.49240000 -30.43570000 13.89390000
-9.20340000 -30.67590000 7.05750000
-9.39770000 -30.35160000 5.66940000
-8.41300000 -30.21010000 4.51190000
-7.68970000 -30.36070000 4.16800000
-8.78590000 -30.22020000 3.31970000
-7.98630000 -30.60110000 3.04000000
11.40640000 -30.46890000 -1.54370000
8.33030000 -30.47040000 -4.74810000
1.43010000 28.21950000 15.76360000
0.18380000 28.03210000 15.99160000
2.71520000 27.51710000 16.23260000
9.60290000 -30.51780000 -9.34190000
6.61890000 -30.46820000 -12.19900000
0.64970000 -30.33650000 12.05990000
1.50070000 -30.50490000 13.08090000
2.51780000 -30.41450000 10.58990000
-20.74680000 -2.71450000 -0.12760000
-20.71120000 11.28960000 -0.06510000
-20.63930000 -20.98960000 -0.17200000
-20.72520000 -13.03730000 -0.11890000
-5.69560000 28.61660000 13.61740000
-6.74030000 29.23740000 12.30850000
-5.05910000 29.92610000 12.54290000
-0.73920000 -30.53750000 -17.47510000
2.01850000 -30.55390000 -15.88520000
1.95920000 -30.18360000 -14.03360000
3.71450000 25.60760000 -16.69080000
5.19090000 28.75800000 -15.14640000
6.55630000 25.98300000 -13.85990000
16.56140000 -30.08290000 2.97380000
18.25830000 -30.18500000 2.74880000
16.10440000 -30.19640000 3.96070000
14.99410000 -30.37130000 3.14270000
-18.48560000 30.42270000 -0.86910000
-18.01120000 30.45060000 -2.06420000
20.12180000 -23.68160000 2.28710000
19.51980000 -25.10060000 3.00670000
20.08310000 -29.10540000 2.33120000
20.47780000 -28.49500000 1.69040000
20.45470000 -24.01920000 1.74210000
7.98850000 -30.35630000 -3.30420000
10.78240000 -30.42080000 -0.31810000
9.45450000 -30.43590000 -0.40920000
10.44010000 -30.22220000 1.24790000
9.20710000 -30.43560000 0.76720000
0.03400000 26.83660000 -20.23670000
-0.48560000 22.39370000 -20.51370000
0.43290000 27.17940000 -19.93320000
0.52570000 28.54920000 -19.57550000
1.91280000 27.81640000 -18.41250000
3.23520000 -30.49770000 -15.50910000
0.50230000 -30.55880000 -17.95470000
0.37490000 -30.39370000 -18.91770000
-1.20060000 -30.15200000 -20.10660000
-2.45340000 -30.44150000 -19.28720000
11.23580000 -30.14940000 1.15390000
14.15510000 -30.44770000 2.91530000
13.63470000 -30.20430000 3.45120000
12.08290000 -30.43960000 0.30540000
13.62720000 -30.44960000 1.65270000
-7.13000000 -30.29720000 9.04980000
-3.16150000 -30.45960000 7.59250000
-0.15290000 -30.57450000 9.54500000
-0.92480000 -30.33900000 10.01490000
5.34100000 -30.37300000 12.45790000
5.43350000 -30.26650000 10.95140000
20.40540000 16.95980000 1.54200000
20.26790000 25.67350000 1.57750000
-0.34980000 23.40140000 19.18550000
0.09680000 21.72530000 20.01510000
-0.09740000 24.90440000 18.40230000
0.93630000 24.32500000 18.97130000
0.85230000 25.99310000 17.82420000
7.06650000 -30.53010000 10.83740000
5.64940000 -30.26570000 7.81100000
7.95670000 -30.44710000 10.33560000
14.52370000 -29.28170000 -5.27820000
16.90550000 -29.40950000 -2.96690000
17.96290000 -21.62340000 -2.02910000
-9.25760000 -30.60640000 -4.82220000
-17.35360000 -30.77300000 -4.40660000
-19.59930000 -30.58280000 -2.07360000
-19.62870000 -30.16000000 -2.71290000
0.43880000 -6.83630000 20.54170000
0.92450000 4.20160000 20.66250000
1.26220000 7.20500000 20.34800000
8.01690000 -30.33820000 -6.27580000
9.17080000 -30.53220000 -5.00140000
6.23990000 -30.56980000 -5.62900000
7.42360000 -30.50710000 -4.52590000
-4.36120000 30.67280000 -15.31200000
-2.90250000 30.76600000 -15.90310000
-2.71030000 30.49050000 -18.09860000
-4.87750000 30.79410000 -10.97650000
11.26450000 30.60020000 8.31090000
10.54860000 30.13740000 9.94470000
0.20930000 -30.44680000 -1.69680000
0.01140000 -30.65210000 -0.12170000
1.11980000 -30.43420000 -2.69840000
-20.25200000 27.34440000 0.43780000
-16.66210000 27.78200000 4.02660000
-19.85680000 28.27940000 0.71130000
-19.84720000 29.25930000 -0.19870000
-20.20630000 28.29820000 0.11150000
20.14510000 12.36180000 -0.09670000
16.52050000 9.51610000 -3.76050000
16.29740000 15.01140000 -4.07700000
20.39770000 27.06160000 0.37940000
-12.32950000 -30.68530000 -1.10540000
-4.45320000 28.46200000 -17.73200000
-5.62250000 29.89870000 -16.33730000
-5.48870000 30.34390000 -16.00230000
-2.92390000 30.70410000 10.14380000
-4.78710000 30.59660000 10.86500000
-2.34020000 30.52080000 11.90580000
-4.20440000 29.35690000 13.57740000
4.89260000 -30.31850000 -8.44520000
5.83760000 -30.47700000 -7.27430000
3.80690000 -30.41620000 -7.24970000
7.46240000 -30.41320000 -10.42710000
14.58630000 29.59520000 -5.56810000
17.20950000 29.39970000 -2.89650000
14.12840000 29.96710000 -5.69010000
1.82880000 7.01740000 20.20850000
1.01200000 8.95470000 20.57020000
-0.16160000 28.67850000 -19.95260000
-13.70500000 26.72490000 6.90130000
1.58330000 -29.75460000 20.59360000
2.46960000 -29.38440000 20.01810000
1.95500000 -27.80590000 20.60490000
3.09860000 -27.91190000 19.54860000
12.45700000 26.55470000 -7.96900000
8.15610000 -30.42560000 -8.22840000
-14.50730000 -30.56210000 -7.25400000
-17.13550000 -30.41170000 -5.23740000
-9.37790000 30.68540000 1.16540000
-6.25430000 30.74120000 6.89800000
-5.30040000 30.73040000 2.63330000
-11.13600000 30.74060000 -5.63410000
-4.70420000 30.74260000 -2.70370000
-4.14390000 20.54110000 16.20930000
-4.50760000 16.95900000 15.84640000
-0.85720000 22.74290000 19.16090000
15.76150000 -29.98480000 1.41250000
14.51580000 -30.23720000 0.62270000
15.77080000 -30.25420000 -0.49400000
15.05160000 -30.05980000 1.88810000
-14.50870000 -30.72080000 2.11500000
-14.27750000 -30.55690000 0.76520000
-11.57540000 -30.57210000 -0.10700000
-15.45610000 -30.56610000 3.17140000
-17.48240000 -30.62250000 1.05850000
13.15290000 8.30690000 -7.12490000
13.79300000 22.57940000 -6.61230000
-2.30180000 30.74860000 6.45310000
-2.94100000 -30.65740000 -7.67310000
-4.27660000 -30.54470000 -8.45450000
-0.63370000 -30.45500000 -8.18150000
0.76130000 -30.61340000 -7.42040000
-6.85170000 21.72280000 13.67340000
-20.25690000 -30.50890000 -0.63910000
12.19410000 -29.98850000 -7.24720000
1.50320000 -27.61330000 20.83660000
0.85580000 -27.64640000 20.84050000
1.00270000 -29.93250000 20.71650000
0.34370000 -29.69500000 20.52660000
-1.68140000 -30.50540000 -0.61330000
-3.11880000 -30.51810000 -1.93000000
-2.32470000 -30.66110000 -2.56350000
-0.86050000 -30.49120000 -2.57660000
0.58510000 19.72430000 20.39870000
-0.54310000 21.40920000 19.69960000
0.03900000 19.66980000 20.19440000
-19.65080000 -29.57830000 -2.88300000
-17.26950000 -29.95100000 -5.31660000
-17.73790000 -26.72700000 -4.84960000
11.33030000 6.30910000 10.96760000
20.30840000 -4.41090000 1.91380000
13.89530000 -29.91300000 -5.56190000
-5.58770000 -14.87290000 14.81380000
-0.31840000 -16.98130000 19.94760000
-2.33230000 -9.75250000 17.98110000
0.38680000 -30.20040000 20.33510000
-2.34700000 -16.29760000 -20.30290000
-1.64680000 -16.34610000 -20.66100000
-0.37580000 -30.42870000 -4.60660000
0.53370000 -30.57910000 -3.83790000
2.05280000 -30.58160000 -3.23980000
-4.11960000 26.67730000 -18.16920000
-2.70830000 27.92020000 -19.55830000
-2.10260000 18.31190000 -20.24230000
-1.22680000 30.16430000 12.94920000
-3.16140000 30.13230000 12.82430000
-2.77940000 -30.42770000 -6.00890000
4.17860000 -11.30050000 -15.84310000
2.91900000 -12.03650000 -17.19620000
2.84210000 -10.49090000 -17.09440000
1.52630000 -14.41520000 -18.36440000
-1.05280000 -30.52070000 -19.28540000
-3.93560000 -19.39720000 16.42750000
-7.14030000 -20.28400000 13.20440000
20.27460000 -29.69710000 0.57100000
20.32150000 -29.97590000 1.32420000
20.23770000 -29.53090000 1.98950000
1.77640000 -10.91600000 -18.15290000
2.22200000 -13.45690000 -17.68020000
5.27330000 -14.29640000 -14.81860000
4.32130000 -16.71340000 -15.65240000
3.48320000 -15.49530000 -16.56840000
-11.52480000 -26.74300000 -11.10970000
-11.99030000 -24.73980000 -10.61760000
-9.54330000 -24.74290000 -13.02490000
-7.48550000 -27.15940000 -15.14110000
-6.32690000 -26.34740000 -16.40770000
-6.21100000 -29.82150000 -16.45080000
3.05260000 -16.70940000 -16.73140000
2.21380000 -16.44380000 -17.61100000
2.93190000 -20.76000000 -16.93910000
5.61360000 -21.38150000 -14.24760000
5.70920000 -24.06480000 -14.20630000
-3.71430000 -24.98380000 16.68000000
-6.68870000 -25.27550000 13.69330000
-7.25890000 -27.19850000 13.20340000
18.14130000 30.01660000 2.83610000
17.73460000 30.70060000 0.47340000
12.26490000 -30.33690000 6.37090000
12.11160000 -30.42440000 4.78610000
10.62150000 -30.38830000 4.55050000
-7.19330000 -23.17610000 13.20190000
-9.63090000 -19.93740000 10.79320000
-7.97640000 -17.56510000 12.44180000
-2.77420000 -28.66660000 -19.89060000
-2.66170000 -25.83450000 -19.98840000
-4.70830000 -28.77620000 -17.99310000
-10.22140000 -30.76070000 -0.08920000
-5.00560000 30.40280000 11.60890000
9.38100000 -30.36600000 5.45170000
11.36730000 -30.21390000 5.33150000
10.34900000 -30.07630000 6.50630000
-6.87370000 -30.64090000 -11.66010000
-8.57350000 -30.77080000 -12.69150000
-13.53670000 -6.60520000 -8.96980000
-11.31030000 10.73900000 -11.08420000
-0.95540000 -7.19000000 -20.76950000
19.79060000 24.95010000 2.21140000
15.69690000 20.09640000 6.45010000
13.37270000 15.63890000 8.85010000
14.74450000 10.67780000 7.50340000
8.79530000 -30.50990000 6.54830000
2.40990000 -30.26630000 5.34240000
-2.54260000 -30.39460000 4.37740000
-7.15980000 -11.41680000 -15.39960000
-6.18600000 -7.88030000 -16.40430000
-11.13430000 -8.64640000 -11.35530000
0.33890000 -29.76450000 -19.49430000
10.23180000 -30.44660000 7.78530000
11.77730000 29.85160000 9.39070000
10.15900000 29.17760000 11.21830000
12.06690000 30.30130000 8.42720000
-7.75260000 -24.66110000 -14.85760000
-7.51920000 -22.45130000 -15.14400000
-3.96400000 -24.58290000 -18.69690000
-9.80620000 -19.77540000 -12.81060000
-2.49110000 -30.68660000 -8.44990000
-3.11940000 -30.52220000 -10.50870000
1.86030000 22.31070000 19.69670000
1.78880000 20.44050000 20.02790000
2.49870000 21.69040000 19.35930000
9.36860000 -30.32690000 10.73590000
9.96970000 -30.42910000 11.25600000
-1.81530000 -30.64750000 -16.55330000
3.01430000 26.49500000 -17.31500000
1.55080000 22.40840000 -18.69800000
3.88040000 23.72210000 -16.53560000
1.46030000 20.33480000 -18.83520000
-4.39870000 -26.25690000 -18.29520000
1.58320000 -4.35950000 20.54070000
12.77340000 30.82780000 -3.65090000
10.02190000 30.79500000 -0.18430000
9.48290000 -21.81190000 -10.41730000
11.10520000 -25.33820000 -8.78780000
16.22810000 -18.44330000 -3.77040000
15.62500000 -21.71210000 -4.27040000
0.43390000 -30.46650000 17.99770000
7.76520000 -13.94950000 -12.36230000
8.01580000 -21.93320000 -11.86410000
6.74860000 -20.81210000 -13.19910000
-20.79720000 3.35630000 -1.26260000
-20.58170000 -19.22470000 -1.70160000
-7.47140000 -30.29850000 -14.69900000
-7.42620000 -30.63940000 -14.00110000
-8.75300000 -30.56960000 -13.28380000
-2.48610000 28.96250000 -19.60210000
-2.21920000 27.95910000 -19.92510000
3.98900000 15.07800000 18.17380000
11.69080000 -16.29940000 -8.27450000
15.29910000 -16.40950000 -4.66530000
12.40890000 -18.83490000 -7.53830000
9.49330000 -18.03050000 -10.48610000
7.95620000 -16.57690000 -12.19320000
10.10670000 -17.19740000 -9.95090000
-20.26560000 -26.34590000 -2.22060000
17.49700000 -30.35230000 -0.13300000
19.00610000 -30.23660000 0.61300000
17.85220000 -30.10470000 2.28580000
8.32200000 -30.33240000 4.70360000
9.76010000 -30.27480000 3.46870000
16.02640000 30.04020000 -3.71630000
19.34470000 29.13430000 -0.66880000
-17.52060000 27.26770000 -4.51740000
5.93000000 11.21770000 16.31230000
7.19380000 5.61500000 15.08230000
7.04520000 -15.68470000 -13.10090000
8.27010000 -18.59670000 -11.87390000
16.86120000 -30.09600000 1.85050000
5.73080000 -30.27950000 2.01790000
6.93360000 -30.35610000 1.66370000
7.46910000 -30.42610000 3.89730000
-4.59350000 -30.32690000 8.37630000
-3.44840000 -30.14210000 9.77740000
-5.39640000 -30.27940000 10.06650000
-4.01370000 -30.26810000 11.12590000
17.56900000 27.26190000 4.47620000
-14.79090000 30.14890000 4.36770000
-11.42540000 29.83240000 7.12900000
-15.40040000 9.42780000 -6.92720000
-14.65210000 14.15630000 -7.62610000
-12.74930000 8.25230000 -9.61580000
0.59650000 -30.54910000 1.15060000
8.56270000 -30.51860000 2.38190000
-15.81910000 29.70140000 -5.93770000
-12.07940000 30.39070000 -9.10490000
0.99070000 -22.27970000 -18.73640000
0.20800000 -24.38240000 -19.66490000
0.02520000 -18.06540000 -19.95990000
-0.19070000 -22.12770000 -20.08950000
-0.21400000 -28.96430000 -19.97590000
-8.96010000 -30.78140000 1.29070000
-6.82610000 -30.54760000 3.45350000
0.45150000 11.29080000 20.51000000
-6.41260000 30.55710000 10.19370000
-4.70810000 22.97540000 15.78290000
-4.00430000 21.75540000 16.43480000
-1.71530000 22.81710000 18.53730000
-20.69720000 25.64800000 -0.12160000
-20.42040000 24.32270000 0.30940000
18.47240000 30.26970000 1.70310000
-9.19750000 30.15980000 -12.10490000
-10.43090000 30.54500000 -9.91010000
3.49920000 -30.15980000 -0.06180000
20.60200000 -4.34680000 0.90820000
-13.65160000 -30.58640000 4.84600000
-12.15200000 -30.72080000 7.64320000
-5.04780000 -29.74650000 -17.50740000
19.16840000 -20.48920000 3.33330000
19.22530000 -28.14390000 3.30670000
15.26280000 -30.17590000 4.72810000
-8.48650000 -30.56920000 8.41100000
-10.19330000 -30.47730000 8.22910000
-4.96880000 -30.38200000 -13.81670000
-6.83120000 -30.69500000 -13.76780000
6.61430000 -30.49030000 -6.63370000
10.39470000 -27.75840000 12.29250000
14.40340000 -22.02400000 8.20400000
16.62780000 -27.35330000 6.02990000
-0.42200000 26.29100000 17.06050000
-1.07810000 27.26240000 16.15900000
1.59330000 -8.82820000 -18.38590000
0.57290000 -30.33530000 -12.11430000
2.32310000 -30.53130000 -11.12280000
1.33120000 -30.55180000 -10.45120000
0.05550000 -30.58400000 -11.01280000
-1.45940000 -30.47710000 -10.68900000
-17.96760000 -30.72510000 2.06080000
-14.84850000 -30.75620000 5.02630000
-13.31680000 -30.65000000 6.91410000
-4.80950000 24.16800000 15.62690000
14.95160000 -30.17970000 -1.34880000
13.51790000 -30.16230000 -0.04520000
7.67360000 -30.25050000 8.89720000
-19.87950000 27.75940000 -2.07480000
16.71590000 30.84940000 -0.50240000
4.43770000 27.10800000 15.86130000
1.44190000 -30.52010000 -12.44840000
-0.77140000 -30.60650000 -12.71910000
18.23830000 12.33400000 4.00560000
19.96180000 15.90420000 2.17570000
17.82740000 20.30660000 4.30180000
18.11680000 6.74750000 4.16490000
20.06030000 7.51580000 2.12140000
-19.20670000 29.97440000 -1.05190000
-8.96420000 -30.68210000 2.16060000
1.02520000 -30.59330000 9.97380000
2.59240000 -30.06360000 19.63950000
1.59780000 -30.33880000 20.05400000
-19.45900000 -30.76280000 -1.31450000
-6.14870000 29.25880000 -16.00250000
-6.50770000 30.27730000 -14.89570000
1.27310000 -30.68100000 -4.30490000
2.77310000 -30.38620000 -4.37690000
0.93750000 -30.65370000 10.66090000
2.28770000 -30.61740000 11.82570000
12.36990000 -29.46040000 10.25260000
1.87210000 -30.49140000 -5.25210000
2.50720000 -30.53770000 -5.88510000
-20.87470000 -1.07900000 -1.16560000
-20.91880000 -11.25700000 -1.05370000
-20.94680000 -3.01860000 -0.58470000
-20.72270000 -8.26800000 -1.56550000
-17.45100000 -30.58520000 -0.50300000
-4.38740000 -30.51950000 -3.40830000
-5.28390000 -30.57930000 -2.76730000
-20.20440000 -19.73320000 0.43640000
-18.71140000 -22.07060000 1.93080000
-15.97140000 -30.62730000 1.25350000
-7.43360000 -30.47210000 1.13500000
-6.66210000 -30.60510000 2.14200000
-7.69060000 -30.71460000 2.40440000
-4.66290000 -30.50810000 -0.79350000
3.73120000 -30.48230000 -12.69770000
5.16050000 -30.42320000 -12.67560000
11.40530000 27.99470000 10.53950000
-2.53630000 19.81450000 17.76540000
-0.85810000 20.28390000 19.48340000
20.05690000 5.53660000 -0.14780000
13.06080000 -30.31130000 -1.41540000
-13.80360000 -30.48760000 3.66810000
8.56980000 30.74200000 -8.43080000
-2.10370000 -2.59520000 -20.42570000
-14.70480000 27.93600000 5.83900000
-8.27810000 30.78630000 -6.28610000
4.77770000 -13.11540000 -15.26760000
6.32780000 -14.32870000 -13.70670000
6.72800000 -12.74060000 -13.23890000
-7.12760000 26.89110000 13.35120000
-11.26190000 26.67060000 9.23480000
-9.00010000 26.87610000 11.52330000
-3.67300000 -30.19460000 -11.91160000
13.00950000 -25.93070000 -6.87020000
10.88410000 -21.38990000 -9.00520000
15.44340000 -25.43760000 -4.47550000
17.13870000 -26.43280000 -2.75280000
14.28250000 30.82400000 2.86660000
-6.44180000 -30.35140000 8.37320000
-3.97090000 -30.52030000 5.53320000
-2.58550000 -30.66690000 7.23630000
-4.50900000 -30.33630000 6.41290000
19.51200000 -15.92060000 -0.51060000
19.00720000 -13.46750000 -1.05220000
20.46950000 -14.49480000 0.34730000
11.06860000 -30.12210000 -5.31800000
-2.41320000 -26.35520000 17.92850000
-1.69670000 -29.04430000 18.66720000
-7.53760000 -29.59900000 12.94900000
20.10760000 -4.18250000 -0.05280000
19.97330000 -14.04330000 -0.21190000
-4.96930000 -18.81420000 -17.70340000
-2.88660000 -23.04820000 -19.82970000
-2.14850000 -20.03230000 -20.45360000
20.37460000 -11.87850000 0.30320000
20.67530000 -14.02610000 0.80260000
-7.76030000 16.48970000 12.62300000
-8.31280000 11.90180000 12.10580000
9.28830000 30.68680000 8.88770000
20.36650000 -11.18020000 1.87550000
20.04230000 -17.56040000 2.35530000
20.44550000 -16.34230000 1.74880000
20.61530000 -13.75700000 1.36220000
-8.47350000 -30.08520000 -14.05360000
-7.64890000 -29.56780000 -14.94190000
0.33710000 -27.50760000 20.55920000
-1.48700000 -29.80230000 18.94700000
3.23600000 -30.46220000 11.41920000
5.95510000 30.58960000 10.28170000
-12.27030000 29.29070000 -9.80270000
-12.65080000 21.54990000 -9.58390000
-20.32850000 -15.33610000 0.29950000
-20.25990000 -2.24590000 0.41920000
7.26600000 -30.25210000 9.18070000
5.72140000 -30.28840000 6.95430000
-16.96540000 -11.64600000 3.63230000
-13.35030000 -13.18800000 7.17040000
-13.24260000 -10.64820000 7.32500000
-11.65620000 -8.26410000 8.80800000
-10.88740000 28.24640000 -11.27020000
-3.52060000 -30.22290000 -13.37400000
8.44550000 27.82030000 13.16160000
0.00480000 17.50800000 -20.28130000
19.58730000 -30.24830000 1.21580000
19.09120000 -29.96710000 2.95430000
19.86530000 -30.15400000 1.68110000
-10.53110000 -29.15000000 -12.11290000
-9.07650000 -26.88590000 -13.58480000
-8.29010000 -29.21140000 -14.34840000
-16.20260000 30.64720000 1.48370000
-10.99040000 30.68820000 2.77420000
-3.79550000 -30.48450000 -2.55140000
1.24390000 24.42510000 -19.12770000
-10.52840000 -29.81480000 -12.06080000
2.87380000 11.63150000 19.29540000
-14.13080000 30.67910000 1.68990000
-9.60030000 -30.03390000 -13.16980000
2.17590000 -14.81020000 20.26960000
5.47820000 -13.77830000 17.03780000
3.80370000 27.99320000 -16.58130000
2.66270000 28.72520000 -17.64960000
-3.17620000 -30.53860000 3.78460000
0.96170000 -20.70810000 -18.80510000
3.63380000 -18.71320000 -16.22890000
0.65330000 -17.16810000 -19.31450000
-2.11900000 6.78530000 18.18420000
-0.04810000 3.97100000 20.14840000
1.21800000 -29.87600000 -18.51910000
3.13330000 -29.86270000 -16.67350000
6.62980000 7.12820000 -13.59640000
6.12770000 9.66440000 -14.13860000
7.86820000 7.51260000 -12.33570000
10.28590000 16.00510000 -10.04200000
10.86840000 16.96940000 -9.44500000
1.35840000 -28.18650000 -18.40560000
4.64460000 -25.69260000 -15.21250000
0.66570000 30.78460000 -15.70830000
1.50570000 -4.43550000 -18.47230000
4.59380000 -8.40720000 -15.47030000
-2.53800000 26.38680000 15.78340000
-8.23860000 -15.38820000 -14.31680000
-6.88760000 -15.70940000 -15.75680000
1.09560000 -23.90660000 -18.67390000
0.96940000 -25.74910000 -18.70650000
4.09580000 -27.43640000 -15.83310000
-1.00510000 -30.54280000 -9.55240000
0.73560000 -30.62670000 -9.83770000
1.67940000 -27.46850000 -18.16980000
2.88030000 -26.67150000 -16.90130000
3.88690000 -2.45570000 -16.16860000
-1.76560000 -30.39910000 -3.42070000
5.30090000 -27.21410000 -14.50420000
0.48870000 30.70480000 9.85560000
-1.54780000 30.73930000 4.00190000
5.44060000 -3.86060000 -14.63760000
7.00170000 -3.19230000 -13.11100000
-4.82400000 24.88930000 15.46600000
-4.12380000 25.38620000 15.60980000
-15.46180000 20.32510000 5.22060000
-13.64850000 17.32300000 7.00560000
14.56350000 -27.54310000 -5.24630000
3.76730000 -30.44170000 -14.09480000
-18.43410000 -13.58630000 2.23570000
20.49100000 21.76510000 1.00080000
20.24100000 22.12000000 1.66540000
20.02120000 18.85420000 2.03920000
15.92770000 -14.97160000 -4.14040000
-14.55120000 -5.02160000 6.03160000
-17.93600000 -10.54040000 2.72610000
-16.26750000 -7.41660000 4.32690000
2.86200000 -30.56920000 -12.16540000
13.83920000 -18.88840000 -6.16240000
5.13560000 20.96150000 16.93560000
4.26380000 11.31250000 17.92080000
9.46840000 28.08540000 -10.85470000
6.81140000 28.51530000 -13.57610000
8.08920000 28.10000000 -12.19660000
7.53030000 27.43170000 -12.86880000
10.21270000 -18.81350000 -9.76510000
10.93010000 -19.74250000 -9.10180000
-2.29900000 2.68060000 -20.23140000
20.46050000 8.12790000 1.56900000
1.22370000 6.82310000 -18.91760000
0.67640000 -2.83080000 -19.48550000
9.62990000 -20.33260000 -10.23070000
8.90890000 -19.38490000 -11.16530000
9.66540000 -30.52890000 1.87430000
5.19310000 -0.13410000 -14.96370000
1.75320000 2.30510000 -18.30560000
20.56420000 -6.49000000 1.63250000
20.70740000 -5.78010000 0.80760000
-4.09380000 -30.50450000 4.59690000
-2.94640000 -30.34710000 4.99970000
-17.27600000 -3.28060000 -5.13050000
3.32280000 10.50070000 -16.88580000
-6.75920000 29.89700000 -15.09860000
-8.70990000 -15.04690000 11.70800000
3.99890000 5.02910000 -16.15380000
20.20640000 28.18150000 0.64850000
-0.15150000 -1.53650000 20.07220000
13.64840000 -10.91920000 -6.41770000
18.11020000 -10.41490000 -2.03090000
20.41790000 26.92020000 1.04230000
2.38640000 -22.46430000 -17.40890000
4.92100000 11.66370000 -15.32670000
-5.78280000 -9.45160000 14.61380000
-8.21700000 -12.74280000 12.18860000
1.50060000 -21.48980000 -18.06640000
18.71650000 29.99370000 -0.63460000
12.06240000 -14.27890000 -7.96840000
0.88770000 -4.65530000 20.73200000
19.94760000 -30.16250000 0.84470000
13.06310000 19.48120000 -7.33520000
-2.19580000 -5.39900000 18.11520000
-10.32140000 30.70550000 -8.03730000
3.70790000 29.82340000 12.68410000
-5.75910000 -30.62990000 -15.72380000
14.86330000 16.83920000 -5.53330000
19.75760000 22.41000000 -0.55260000
17.44700000 20.93920000 -2.92780000
3.48370000 -14.38900000 -16.51610000
-0.75640000 -29.53590000 -20.18400000
-1.50010000 -29.60140000 -20.26480000
2.11200000 -15.50930000 -17.79160000
19.82780000 24.04340000 -0.52030000
20.17310000 27.09900000 -0.09470000
-1.00680000 18.42820000 -20.65090000
-0.40990000 16.75220000 -20.54040000
-0.91410000 14.15240000 -20.72200000
-1.45700000 16.30450000 -20.64800000
13.09460000 -30.31780000 8.78360000
10.69870000 -30.49010000 10.44640000
12.38320000 -11.39240000 10.09240000
18.15530000 -17.55300000 4.35220000
19.63980000 -11.30880000 2.73880000
7.42080000 1.62410000 -12.75760000
9.77090000 10.20600000 -10.52290000
2.45680000 -30.35450000 19.03350000
11.56790000 6.84390000 -8.66830000
18.15900000 5.19260000 -2.05800000
15.83370000 4.10260000 -4.43920000
11.20270000 -29.93930000 11.20420000
3.08110000 -0.08080000 -17.01830000
17.78960000 30.21070000 -1.52450000
-1.73790000 5.86870000 -20.59300000
-1.80930000 12.72550000 -20.55270000
-2.31000000 14.84170000 -20.10710000
17.48530000 -28.19890000 -2.42130000
19.67670000 -29.41180000 -0.19490000
-0.35610000 -30.41820000 -16.51010000
-1.44150000 8.67740000 -20.71670000
4.52710000 -30.42480000 16.95660000
4.28360000 -30.21530000 15.40980000
2.07420000 -30.29480000 14.46430000
9.02240000 -15.60430000 -10.93220000
10.29620000 -16.01120000 -9.70370000
3.06130000 -30.42910000 14.93370000
1.52480000 -30.46670000 16.44240000
8.14160000 -14.81830000 -11.85620000
-9.86420000 -30.70010000 -6.70330000
-8.37770000 -30.53610000 -6.96350000
-14.05130000 -16.49980000 -8.56130000
-12.41830000 -18.32830000 -10.14920000
-13.14870000 -21.93220000 -9.47390000
-19.34080000 -24.23010000 -3.19210000
-16.02930000 -23.48740000 -6.58970000
-5.08330000 22.33370000 -17.24350000
2.72670000 24.84060000 -17.56480000
-11.53140000 -30.43610000 -5.85220000
-0.33500000 -23.02290000 19.95240000
-7.91620000 -30.54700000 9.43060000
-15.08450000 28.78830000 5.25830000
3.20290000 20.49380000 18.81990000
-20.48010000 16.84980000 0.23920000
-16.62900000 20.36820000 4.11470000
-3.79280000 -30.38150000 12.60090000
0.29240000 -26.86300000 -19.61570000
-7.44090000 -3.52280000 -15.09350000
-8.70170000 1.80700000 -13.83280000
-3.70900000 -7.32080000 -18.91260000
7.78980000 -20.82250000 -12.28220000
19.04580000 -4.66220000 -1.09050000
19.07770000 -9.97430000 -0.99650000
20.39520000 -7.17160000 0.31050000
20.62080000 -7.55940000 0.86460000
-6.99470000 -15.30920000 13.36740000
-18.32090000 26.75220000 2.40420000
-9.87390000 -10.04030000 10.55320000
-9.57110000 -13.03320000 10.91860000
20.09350000 2.79610000 -0.03290000
20.39700000 -5.41310000 0.18540000
-7.38950000 -30.72870000 -13.17780000
1.70120000 -30.49110000 -0.77750000
-8.77060000 -7.79820000 -13.63460000
-8.29440000 -5.76850000 -14.20110000
-7.61720000 -7.82880000 -14.95920000
-9.10230000 -11.27040000 -13.46040000
-9.04970000 -13.98790000 -13.52470000
5.01520000 24.93900000 -15.34780000
-20.80520000 -12.54750000 -1.40370000
3.49170000 -6.77820000 18.92130000
-10.59850000 -30.66780000 9.36340000
-7.84430000 -12.26700000 -14.68360000
-9.91650000 -7.88370000 -12.65640000
-3.70250000 -0.92700000 -18.86130000
-20.59960000 -28.69080000 -0.26860000
-20.64780000 -25.17280000 -0.15970000
-20.29440000 -28.96070000 0.26990000
-20.33190000 -25.06050000 0.34020000
-2.77050000 -21.57770000 17.56230000
0.98870000 1.23060000 -19.05940000
1.71890000 -2.20020000 -18.31080000
13.25690000 -15.12660000 -6.75310000
-15.61330000 30.67590000 -2.89120000
-14.07810000 30.68690000 -3.11270000
-11.17930000 30.73040000 -3.29050000
-15.31180000 -24.89550000 -7.29410000
-11.78090000 14.52000000 8.79720000
-9.42900000 15.96020000 11.01900000
8.06760000 15.14090000 -12.23690000
8.48190000 10.20460000 -11.80800000
8.97510000 14.43230000 13.26330000
11.92200000 13.22180000 10.30100000
-2.08380000 10.75020000 18.20510000
20.63060000 -8.92180000 1.36470000
-10.31170000 13.15670000 10.19190000
-10.22720000 9.75550000 10.21690000
-9.90500000 7.22590000 10.54830000
-9.17020000 7.85710000 11.30740000
-11.47730000 3.85940000 -10.99050000
-7.67590000 2.40660000 -14.83680000
-9.41440000 -1.40900000 -13.05650000
20.63020000 -7.09760000 1.29430000
-1.43030000 18.47150000 18.76670000
-0.01870000 18.60810000 20.11430000
0.34200000 -30.56220000 -5.18430000
2.43970000 -14.34320000 -17.37410000
-15.15760000 -2.97170000 -7.33040000
19.10660000 -17.43390000 -0.91340000
20.09630000 -16.71700000 -0.05010000
1.20680000 -15.92440000 -18.62460000
-20.73730000 -6.51750000 -0.05610000
-20.35690000 -8.00150000 0.39640000
-20.32090000 -9.33020000 0.35310000
-19.53340000 -7.07810000 1.16670000
