8.54600000 -9.22960000 -14.77730000
16.46860000 -8.95610000 14.57790000
-2.78670000 -9.33110000 11.94090000
-0.06850000 -2.76530000 11.95320000
1.94590000 -1.93230000 10.19820000
17.30260000 -8.03170000 14.33370000
17.32200000 -7.16570000 14.12590000
17.25960000 -6.46510000 15.60060000
-3.34960000 -9.21370000 11.40830000
-3.66510000 -9.28370000 10.81670000
-3.63310000 -9.28940000 11.94920000
-3.88290000 -9.13030000 11.54490000
17.24810000 -6.69520000 16.41220000
-4.25640000 -9.31820000 11.78650000
5.65120000 -9.26680000 -11.53060000
6.61520000 -9.28050000 -11.36410000
6.25020000 -9.27930000 -11.04670000
5.72050000 -9.09970000 -11.13420000
17.13970000 -6.56900000 16.79580000
-1.14740000 -0.90570000 8.40740000
-4.92790000 -9.18620000 10.29360000
-3.94530000 -9.11160000 10.30760000
-4.34420000 -9.30460000 10.69460000
17.21600000 -6.01260000 16.38700000
-5.07970000 -9.22340000 9.33700000
4.93000000 -9.07830000 -11.42780000
-5.32140000 -9.06780000 10.02250000
-5.32460000 -9.30740000 10.31800000
-4.92210000 -8.88400000 9.91740000
-4.77680000 -8.95830000 9.64000000
-5.25060000 -9.12010000 9.56090000
17.34570000 -6.23040000 13.94920000
-6.59460000 -9.39240000 11.61320000
-5.89590000 -9.35370000 11.48750000
-2.50520000 -9.27040000 2.74020000
-2.68130000 -9.26890000 3.53970000
6.27420000 -9.27380000 -12.86220000
17.22750000 -5.51630000 15.05710000
-6.27070000 -9.27370000 11.33260000
-5.91570000 -9.25080000 10.83230000
-5.32100000 -9.35310000 10.88130000
-4.55410000 -9.25890000 11.04360000
-4.25870000 -9.19390000 11.32200000
17.13740000 -5.47720000 15.94830000
17.08060000 -5.21000000 15.16420000
17.37430000 -7.26100000 13.06750000
17.32660000 -5.69500000 13.39890000
6.08170000 -9.15350000 -13.39590000
7.29510000 -9.19640000 -13.30160000
-2.64410000 -9.04770000 1.75220000
-6.74090000 -9.32750000 10.39570000
-6.35430000 -9.27690000 10.87790000
-2.93830000 -8.85410000 1.88940000
-6.37960000 -9.21690000 10.28950000
-6.11460000 -9.08160000 10.22500000
7.19400000 -8.96680000 -13.82770000
6.75890000 -9.03050000 -13.59820000
7.82190000 -9.07030000 -13.53020000
8.66320000 -9.17650000 -13.07900000
-3.21810000 -9.22160000 2.58150000
17.22670000 -5.40350000 13.94800000
17.20150000 -5.25760000 12.92530000
-2.06120000 -9.08730000 2.24190000
8.41620000 -8.95610000 -13.49350000
-2.77920000 -8.97480000 2.21300000
17.31170000 -5.43690000 12.19850000
-3.44050000 -9.05480000 2.23650000
7.99470000 -8.91190000 -13.97680000
-3.73550000 -9.08330000 1.77380000
-3.43490000 -8.84920000 1.97130000
8.57310000 -8.94830000 -14.14160000
8.68890000 -8.80690000 -13.82230000
3.86050000 2.37980000 -3.90320000
2.60210000 1.79330000 -4.53490000
16.90610000 -5.00190000 13.02160000
16.64320000 -4.75230000 11.60700000
-5.07840000 -0.44580000 7.40600000
5.03190000 1.89590000 -4.19200000
-1.99130000 -8.91220000 1.90880000
-2.75260000 -0.68570000 8.01920000
16.24050000 -4.66800000 13.20770000
-5.72950000 -9.23500000 10.34150000
-2.23170000 -8.95130000 1.78360000
17.09810000 -5.18230000 14.08300000
16.86060000 -4.99390000 14.59260000
5.53700000 2.59180000 -2.93310000
5.18450000 2.44070000 -3.54410000
4.97450000 2.90430000 -3.04310000
-2.99690000 -9.13520000 3.92100000
5.35320000 2.91440000 -2.67600000
-3.54040000 -8.83110000 9.93900000
-4.23950000 -8.98220000 10.06270000
1.03430000 2.43210000 -3.88380000
-2.98090000 -9.17550000 9.55600000
-2.72010000 -8.89380000 9.79270000
-3.39980000 -8.96990000 9.65940000
-2.29260000 -8.74040000 9.75910000
3.14970000 2.68780000 -3.54190000
4.32950000 2.75330000 -3.36940000
3.83280000 3.12040000 -3.01670000
-2.93480000 -8.95770000 4.39160000
-1.97200000 -8.78560000 10.29940000
15.13180000 -4.23130000 13.81340000
14.44370000 -3.88920000 11.88160000
-2.63010000 -8.82120000 10.22500000
4.48780000 3.18950000 -2.95140000
-2.24920000 -8.62990000 10.12930000
-3.03120000 -8.86690000 10.05110000
-4.06010000 -0.18940000 7.20760000
16.20560000 -6.39550000 17.44170000
-2.47770000 0.03150000 7.05680000
-4.51900000 -9.15920000 9.46640000
-4.02550000 -9.29090000 9.29680000
-4.04540000 -9.14320000 9.59730000
-3.54690000 -9.16920000 9.35080000
15.70240000 -5.70540000 17.30010000
5.10250000 -9.24680000 -13.21590000
5.44190000 -9.08000000 -13.48240000
5.99150000 -8.90520000 -13.67820000
4.82110000 -8.89050000 -13.60770000
5.51070000 -8.98400000 -14.31890000
5.74730000 -8.79390000 -13.91360000
5.39270000 -8.77600000 -14.12980000
5.43450000 -8.83010000 -13.71130000
-4.04310000 -8.94930000 9.87160000
5.19540000 -8.68730000 -13.87950000
16.54200000 -6.12180000 17.26800000
4.48470000 -9.16520000 -14.50150000
2.60420000 -9.27640000 -14.76610000
16.91010000 -5.92380000 16.89670000
16.98950000 -5.60240000 16.58440000
2.67320000 -9.13150000 -14.44260000
4.26830000 -8.83560000 -14.22020000
16.19070000 -5.76400000 17.25330000
16.50610000 -5.46580000 16.93190000
15.88000000 -5.26290000 16.99450000
5.80030000 -9.15730000 -14.50940000
-3.83150000 -9.17730000 11.11080000
16.63020000 -5.15020000 16.44740000
15.93440000 -5.04350000 16.71110000
-8.86390000 -1.55560000 6.98270000
16.23280000 -4.89020000 16.24690000
16.49220000 -4.89480000 15.65140000
14.09030000 -3.86080000 13.69570000
15.39910000 -4.71460000 16.07200000
-8.52120000 -9.19410000 1.43980000
-7.71070000 -9.28710000 1.02190000
-7.41410000 -9.06670000 1.48030000
-4.67010000 -9.33830000 13.54790000
-4.21390000 -9.17320000 13.70520000
-3.65080000 -8.91570000 14.35770000
-4.14840000 -9.17670000 14.48280000
4.79640000 -8.66510000 -13.96460000
-5.17920000 -9.09100000 13.77600000
-4.97530000 -8.85310000 13.92010000
-4.40630000 -8.83300000 13.92940000
-7.10120000 -9.21670000 1.26920000
15.10970000 -5.00950000 16.79450000
-4.07920000 -8.70790000 13.93010000
-3.65250000 -9.01550000 13.73130000
4.40070000 -9.15510000 -13.34080000
-5.54470000 -9.36290000 13.28640000
2.84820000 2.83710000 -3.22190000
1.54940000 2.65970000 -3.44240000
-8.18520000 -9.31410000 2.52590000
-8.27400000 -1.47230000 8.15700000
-5.80990000 -9.01100000 13.67570000
-6.70820000 -9.29260000 2.71510000
-7.04310000 -9.23610000 2.56420000
-6.67060000 -9.09590000 2.24740000
-7.30380000 -8.94110000 2.21050000
16.86840000 -5.10550000 15.67870000
-7.55020000 -9.17520000 2.69180000
-8.10190000 -8.85120000 1.97320000
-7.86230000 -9.10560000 2.31890000
-8.75130000 -9.19250000 2.25560000
-7.92420000 -8.89170000 1.66690000
4.11840000 -8.64590000 -13.84490000
-9.09810000 -8.85540000 1.61530000
-2.88210000 -0.25780000 -6.71050000
-5.36450000 -9.36790000 14.79070000
-5.25960000 -9.18410000 14.46700000
-8.85990000 -8.94190000 1.99770000
-5.72800000 -8.91530000 14.31270000
-6.23520000 -8.89750000 14.37540000
13.76560000 -3.90970000 14.10250000
-5.03630000 -8.95780000 14.25520000
-5.26130000 -8.80220000 14.12330000
-7.25580000 -8.78610000 1.77070000
-6.72550000 -8.78680000 1.84520000
6.51790000 -8.89370000 -13.96730000
7.13570000 -8.99100000 -14.17820000
-7.74610000 -8.80660000 2.05240000
6.16600000 -8.88580000 -14.14190000
-4.51530000 -9.21710000 14.46500000
-4.08480000 -8.80820000 14.24850000
-4.47500000 -8.79240000 14.08270000
-5.77210000 -9.00300000 1.53950000
-5.28960000 -9.19140000 1.42450000
-5.44390000 -9.01200000 1.70620000
-5.98450000 -8.73460000 14.25540000
-5.58940000 -8.72820000 14.02220000
-5.98640000 -8.73630000 13.76180000
-5.64410000 -9.08650000 2.07140000
-5.92600000 -8.90200000 1.75650000
-6.99570000 -0.72940000 7.19580000
-2.07130000 -0.16800000 -6.42780000
-6.25510000 -8.64850000 14.02540000
-5.78010000 -9.29140000 0.92100000
-2.88810000 0.26660000 -6.04920000
-4.27240000 -0.32810000 -6.74920000
-4.07690000 0.22780000 -5.95440000
-6.15050000 -0.76040000 7.61720000
-7.52600000 -0.85980000 6.98920000
0.89470000 -9.28640000 -16.27580000
2.61480000 -9.23950000 -16.52270000
0.78940000 -9.28210000 -15.51150000
-3.28750000 -9.31740000 13.50330000
-3.11350000 -9.11510000 13.80480000
-2.80630000 -9.21810000 13.77810000
2.05140000 -9.07210000 -16.91400000
1.32960000 -9.21100000 -16.65460000
-6.26250000 -9.26310000 1.17110000
-4.43260000 -0.12880000 -6.33870000
-3.35160000 -8.84900000 13.87940000
0.34010000 -9.10550000 -16.91510000
1.15520000 -9.04390000 -16.98470000
0.75740000 -8.85240000 -17.17710000
-3.17230000 -8.86190000 14.09530000
-3.66000000 -8.65550000 14.07360000
1.96430000 -8.85230000 -17.14050000
-1.01870000 -0.55650000 -7.00140000
-1.39080000 -0.71960000 -7.36280000
1.52080000 -8.60630000 -17.23470000
-6.30590000 -9.10940000 1.47670000
-6.35850000 -8.87580000 1.65810000
-6.05030000 -9.12270000 2.27670000
6.35310000 -9.19620000 13.92250000
6.58290000 -8.94260000 14.19530000
5.55130000 -9.07190000 14.04840000
7.71390000 -9.22350000 13.71550000
7.28850000 -9.03570000 14.09090000
-1.57820000 -9.25700000 -13.49750000
-0.59080000 -9.18510000 -13.51770000
6.60210000 -9.28220000 13.41480000
-1.31840000 -9.00800000 -13.78430000
6.91570000 -8.89160000 14.35260000
0.18090000 -8.94570000 -13.65950000
-6.31940000 -8.89450000 1.98310000
5.26730000 -9.27630000 12.47000000
-0.39490000 -8.74660000 -13.93620000
0.28310000 -8.68350000 -14.14530000
0.54980000 -8.71230000 -13.85210000
-0.55810000 -9.17160000 -14.58860000
-3.01230000 -9.32950000 -15.02220000
-1.17990000 -9.29660000 -14.91560000
-9.29600000 -9.14140000 1.18310000
-8.67790000 -9.32560000 0.87270000
-8.93330000 -9.17320000 1.32460000
-1.04770000 -9.10650000 11.36940000
-0.40960000 -9.30410000 11.33210000
-0.78440000 -9.16300000 11.06730000
-2.53670000 -9.12180000 -14.62840000
-1.03950000 -8.90510000 -14.31710000
-2.17000000 -8.88040000 -14.24320000
-1.42450000 -8.86300000 -14.07130000
-2.56690000 -8.84130000 -14.38160000
6.59840000 -9.24870000 12.56090000
5.76050000 -9.17020000 12.23090000
0.69200000 -9.29030000 -14.92930000
-6.75710000 -0.05600000 5.77420000
5.80870000 -8.89490000 14.32960000
6.18650000 -8.97040000 14.59230000
-3.54500000 0.82480000 -5.28590000
-0.35240000 -9.17510000 10.51890000
-5.74180000 0.01120000 -6.06710000
-0.87190000 -8.90900000 10.49010000
0.34830000 -8.91010000 -14.33060000
-1.18110000 -9.25960000 11.88300000
-1.36130000 -8.88520000 10.48440000
-5.97070000 -0.18480000 6.70340000
-6.57160000 -0.19740000 6.31550000
-1.04930000 -8.71440000 10.16800000
-4.93060000 0.19720000 6.56410000
-0.52500000 -8.84940000 10.03640000
1.26000000 -9.21300000 -14.60750000
-5.40170000 0.73650000 5.73790000
7.89710000 -8.88510000 14.10040000
-2.87880000 1.33760000 -4.81620000
7.60270000 -8.84360000 14.37400000
-1.92100000 -8.68410000 9.91670000
-1.52380000 -8.76580000 10.06550000
9.87380000 -1.78480000 -9.59510000
8.71440000 -1.77290000 -9.69290000
8.14690000 -1.18760000 -8.25490000
-1.24220000 -8.75380000 9.82880000
-0.93830000 -8.73910000 9.76090000
7.60570000 -1.65200000 -9.34660000
-3.22440000 0.90680000 6.14970000
1.21390000 -9.01320000 -14.37790000
1.31820000 -8.74620000 -14.18060000
4.58030000 -9.26650000 11.69060000
-2.55240000 -9.01020000 17.29170000
12.21030000 -2.49750000 -10.47600000
11.25500000 -2.17550000 -10.19500000
10.28310000 -1.63350000 -8.45100000
1.29450000 -8.68740000 -13.85950000
-2.29970000 -8.73230000 17.53190000
-11.56510000 -9.28170000 -1.58250000
-10.93950000 -9.03470000 -1.84230000
-10.69570000 -9.21090000 -1.49490000
-4.16880000 1.32780000 5.60320000
-10.65410000 -9.05340000 -2.11090000
-10.06250000 -9.02580000 -1.73670000
-0.64500000 -8.67980000 17.58680000
1.89590000 -8.65720000 -14.00390000
10.47200000 -3.87090000 14.30410000
-12.20690000 -9.38590000 -1.53450000
-11.66980000 -9.25030000 -2.19000000
-0.79060000 0.37100000 6.73340000
-0.92140000 -8.37690000 17.66920000
-12.82470000 -9.37870000 -2.19170000
-11.16830000 -9.32720000 -2.67200000
-2.71330000 -8.52910000 17.58150000
5.20140000 -4.03870000 14.65070000
7.90300000 -4.45450000 15.55670000
-12.94380000 -9.37230000 -3.70170000
-1.00960000 -7.61270000 17.70460000
-3.16590000 -8.09590000 17.60760000
10.64460000 -2.35370000 -11.17590000
8.13300000 -2.27490000 -11.11920000
-10.12400000 -9.29680000 -3.63960000
-12.22490000 -9.33460000 -4.25110000
-1.82850000 -9.29310000 -16.29520000
-0.97260000 -9.22770000 -16.67970000
-10.66850000 -9.24320000 -2.35900000
-4.67090000 -9.10620000 17.35890000
-6.16670000 0.35480000 5.75440000
-6.46870000 0.37280000 5.03450000
-1.28840000 -9.13830000 -17.03520000
-0.34240000 -8.96580000 -17.17900000
-14.14040000 -9.02470000 -4.59990000
-13.92430000 -9.10250000 -5.13940000
-13.92600000 -9.10020000 -4.16310000
8.91250000 -1.08820000 -7.79940000
-3.61730000 -9.24240000 17.14340000
-3.45600000 -9.00930000 17.43650000
-14.62580000 -9.31340000 -2.05730000
-15.00560000 -9.40480000 -2.40990000
-14.63010000 -9.32570000 -3.54490000
-13.44880000 -9.36410000 -2.23210000
-13.89380000 -9.21750000 -2.41240000
-13.68410000 -9.26070000 -3.59240000
-5.46400000 1.56060000 4.53650000
-14.27210000 -9.12920000 -2.55800000
-14.12200000 -9.07560000 -3.31740000
-2.21720000 -9.17630000 -17.05550000
-5.88650000 1.35100000 3.91650000
-1.39050000 -8.90800000 -17.32600000
-3.11020000 -9.24270000 -16.99850000
-2.64510000 -9.10900000 -17.26180000
-15.60770000 -9.39710000 -3.45250000
-14.85720000 -9.35690000 -3.99120000
-3.33260000 -9.11920000 -17.28390000
-2.79630000 -8.88840000 -17.44520000
-2.11050000 -8.87900000 -17.41310000
-2.23290000 -8.66360000 -17.47930000
-4.53630000 -7.43970000 17.55670000
-14.99180000 -9.37090000 -5.46500000
-14.47230000 -9.22250000 -5.55240000
-14.29120000 -9.10040000 -4.12070000
-0.51950000 -8.65350000 -17.38740000
-0.76860000 -8.36610000 -17.41410000
7.90700000 -2.00230000 -10.09020000
-2.88640000 -8.36190000 -17.46920000
-1.92730000 -7.20950000 -17.35930000
-4.64120000 2.39420000 4.20270000
5.18000000 -3.34490000 13.15970000
-2.81320000 -9.33390000 -15.56130000
-4.64890000 1.71920000 4.99700000
-11.05740000 -9.33210000 -5.04250000
-3.41310000 2.15660000 4.98200000
7.04270000 -3.05370000 12.37230000
-4.30360000 2.20690000 4.67500000
0.49690000 -8.48330000 -17.27180000
-13.50340000 -9.29820000 -4.82930000
-13.02990000 -9.31890000 -5.59970000
-3.74290000 2.70070000 4.28510000
-4.56100000 2.82090000 3.63940000
-3.59590000 3.26840000 3.81710000
2.17850000 -7.54430000 -17.27410000
-4.07260000 3.33350000 3.64600000
1.33170000 -7.58020000 -17.28600000
-17.17420000 -8.24890000 2.80950000
-17.25190000 -8.80440000 2.31170000
-13.82210000 -9.18680000 -6.06790000
-17.19180000 -7.65290000 2.49100000
0.44620000 -7.62300000 -17.41900000
10.20890000 -2.70260000 -12.22100000
-12.08140000 -9.31100000 -6.03340000
8.62250000 -0.74880000 -6.88770000
11.08080000 -3.28430000 12.71290000
11.22710000 -2.74180000 11.39700000
9.36280000 -2.64220000 11.40570000
-1.40530000 -6.49750000 -17.33690000
7.62600000 -0.50100000 -6.82400000
-17.20770000 -7.22390000 1.14310000
-3.17140000 -6.21030000 17.41600000
-4.69730000 -6.56450000 17.43390000
1.49120000 -6.77160000 -17.35230000
-1.62700000 -6.86020000 17.59480000
-17.01200000 -6.08210000 2.51090000
0.42450000 -6.16570000 -17.33580000
-0.10980000 -6.07180000 17.36740000
9.68810000 -2.07610000 10.15940000
-17.07700000 -9.18450000 -6.20530000
-16.94710000 -9.28550000 -6.72690000
-16.76300000 -9.33510000 -5.78780000
-17.18300000 -8.99680000 -6.30750000
-17.05590000 -9.23440000 -5.35850000
-16.42660000 -9.37300000 -5.93360000
-16.58690000 -9.37990000 -3.54620000
-17.14820000 -9.06450000 -4.79940000
-16.89050000 -9.36360000 -4.98510000
-16.93930000 -9.28600000 -3.98170000
-17.09530000 -8.99440000 -3.82880000
-17.19230000 -8.63770000 -4.52590000
3.90890000 -9.20090000 -16.51170000
7.39810000 0.01380000 -5.89350000
4.63500000 -9.09230000 -16.39850000
5.20030000 -9.03770000 -16.73170000
7.70400000 -0.05690000 -5.67870000
4.57480000 -8.99480000 -16.89940000
-2.41780000 -5.79270000 17.26020000
5.33210000 -8.86330000 -17.03840000
-16.85190000 -5.59490000 2.18530000
-16.88470000 -5.76840000 4.24540000
-17.07790000 -6.28030000 -0.24100000
6.62620000 -0.03890000 -6.22000000
-17.21260000 -8.61150000 -7.03370000
-17.19040000 -7.43390000 -4.58180000
-4.19500000 -5.69100000 17.15240000
1.90910000 -2.59140000 11.48480000
-16.91460000 -5.78030000 -0.08330000
3.55490000 -9.08830000 -16.86810000
3.07110000 -8.89860000 -17.07970000
-2.16850000 -5.39460000 16.92460000
6.39670000 -2.41120000 11.01200000
2.82210000 -8.58090000 -17.19630000
3.25700000 -8.07830000 -17.20050000
-13.65360000 -9.25320000 -7.88640000
-13.77210000 -9.16490000 -8.55830000
-13.25550000 -9.36260000 -9.85290000
-13.25260000 -9.33980000 -6.76940000
4.43630000 -8.81150000 -17.09790000
4.37820000 -8.60750000 -17.17610000
-12.29880000 -9.29530000 -8.93610000
-12.62190000 -9.38510000 -10.16240000
-12.30480000 -9.32420000 -9.50520000
-16.79100000 -5.50440000 4.72920000
5.62220000 -1.68590000 9.75340000
-11.89340000 -9.31820000 -7.52370000
-12.12260000 -9.23170000 -7.94130000
-11.97890000 -9.28660000 -8.74200000
-12.53530000 -9.33510000 -7.66170000
0.60230000 -6.95350000 17.53350000
0.64370000 -7.77600000 17.60000000
4.04140000 -7.10660000 -17.19810000
6.70640000 -8.86080000 -17.01260000
7.32480000 -8.68090000 -17.09600000
-16.65020000 -5.32790000 2.31550000
2.44280000 -0.80580000 8.35470000
-13.70790000 -9.25160000 -7.26570000
6.07400000 -8.68550000 -17.14650000
6.79030000 0.87200000 -4.58920000
-16.37270000 -5.09170000 1.32470000
-16.09260000 -4.92140000 3.67520000
-15.52750000 -4.58370000 1.31520000
5.38620000 -8.47000000 -17.17000000
6.45520000 -8.25650000 -17.16000000
-11.23340000 -9.35000000 -7.30240000
5.65680000 -7.63850000 -17.14910000
6.57230000 0.93330000 -4.79320000
6.26800000 0.88580000 -4.98670000
7.85420000 -8.19480000 -17.10240000
10.19640000 -1.94650000 9.22380000
11.95020000 -2.72220000 9.55760000
9.36350000 -1.38010000 7.97720000
6.96330000 -6.72670000 -17.08930000
-14.12130000 -9.09550000 -7.64220000
-14.34600000 -9.17060000 -8.07560000
-14.59520000 -9.26620000 -7.11560000
-14.02490000 -9.03680000 -8.26790000
-14.29400000 -9.11180000 -6.74090000
-14.01180000 -9.08570000 -7.08570000
-16.68780000 -5.40980000 0.09640000
8.63160000 -0.69270000 6.00540000
6.02310000 2.08330000 -3.18080000
5.92260000 1.94840000 -3.83030000
-16.86970000 -9.32390000 -9.14110000
-16.54380000 -9.36060000 -10.50350000
-16.00220000 -9.37900000 -9.58630000
-17.02580000 -9.22170000 -9.82370000
4.27390000 -6.16190000 17.40580000
-16.26070000 -4.99750000 -1.44190000
5.57880000 2.96810000 -1.99230000
1.46360000 -5.74380000 17.26450000
5.81020000 -6.81680000 -17.06980000
5.76940000 -6.08560000 -17.10890000
3.05340000 -5.64970000 17.21810000
-15.84590000 -9.37570000 -7.46510000
-16.73190000 -9.36700000 -7.93900000
4.51340000 -5.75970000 17.28030000
4.71970000 -0.61790000 7.98940000
1.97070000 -5.46560000 17.09810000
8.22900000 -1.40970000 8.97120000
-17.11430000 -9.11080000 -7.52270000
-17.00870000 -9.26320000 -8.27580000
3.41600000 -5.23480000 16.84540000
1.73000000 -5.20570000 16.78810000
-14.79470000 -9.35660000 -8.57630000
-15.36330000 -9.39510000 -10.30000000
11.62630000 -2.68320000 10.89910000
9.87120000 -1.89760000 9.67970000
3.26220000 -0.30080000 7.48890000
5.02710000 -0.02820000 7.16380000
2.68610000 0.10630000 7.07000000
-17.11890000 -9.09770000 -8.99710000
-13.98350000 -3.88370000 1.73270000
-14.39250000 -3.98870000 -1.44810000
0.50140000 -0.20370000 7.42170000
2.29710000 -6.32730000 -17.21300000
-17.14660000 -8.96740000 -9.65170000
-17.19540000 -8.54970000 -8.87170000
2.83590000 0.79350000 6.41400000
-17.15840000 -8.92580000 -8.30380000
3.85460000 -6.18610000 -17.14130000
-0.19800000 -5.60080000 17.14350000
-12.71120000 -3.23590000 -0.22050000
0.53690000 -5.32020000 16.88900000
-13.72740000 -9.25090000 -9.22010000
-13.93430000 -9.16390000 -9.54880000
-13.64860000 -9.27540000 -10.90260000
-14.13770000 -9.14790000 -8.93870000
-14.56080000 -9.31560000 -10.30130000
-14.39740000 -9.28190000 -8.87040000
-14.31670000 -9.20840000 -9.80380000
-2.57290000 -4.97230000 16.30970000
0.22520000 -4.65160000 15.84020000
4.91330000 -5.57570000 -17.12070000
2.61320000 -5.39050000 -17.07170000
1.48830000 -5.92730000 -17.28710000
-0.69410000 -5.57600000 -17.23480000
-14.24660000 -9.12140000 -10.77120000
-13.89860000 -9.11120000 -10.72200000
-14.03700000 -9.06700000 -10.02090000
1.16000000 -5.29360000 -17.12850000
7.35550000 0.53190000 5.06900000
8.70170000 -0.62350000 4.59530000
-14.80360000 -9.37820000 -12.11750000
-0.62470000 -4.02240000 14.53630000
7.92490000 0.02230000 4.01950000
-12.84500000 -3.30270000 1.94880000
-12.03620000 -2.98200000 1.06150000
6.74180000 -0.63750000 7.88090000
-14.30870000 -9.09010000 -5.27560000
-14.09680000 -9.07390000 -5.88140000
7.08740000 0.90340000 2.26860000
6.58570000 1.58070000 3.11570000
3.39870000 -5.20960000 -17.01350000
4.76400000 -5.20330000 -17.01700000
3.26110000 -4.97630000 -16.85790000
-5.81530000 -5.90100000 17.23440000
8.41970000 -0.86740000 7.87590000
6.78490000 -5.22070000 -16.97610000
7.14690000 -5.45280000 -17.02570000
6.24910000 -5.07490000 -16.90400000
-6.53470000 -5.64220000 17.06980000
-5.02450000 -5.46740000 16.93690000
5.90960000 -4.79120000 -16.59720000
6.35760000 0.19180000 6.72760000
-0.64300000 -9.26020000 -9.23740000
-0.10240000 -9.30850000 -9.68810000
0.26790000 -9.33490000 -8.62850000
-0.72050000 -9.18010000 -9.49800000
7.79290000 -0.48970000 7.43620000
0.98940000 -9.28920000 -9.32530000
1.10280000 -9.16550000 -8.94440000
1.00850000 -9.32320000 -10.16270000
1.82580000 -9.28630000 -8.99400000
5.64030000 0.71250000 6.37440000
1.72540000 -9.09650000 -8.75030000
8.55190000 -0.79060000 7.37440000
7.74990000 -0.16890000 6.63000000
2.92070000 -9.30440000 -10.54430000
2.14590000 -9.28940000 -11.43470000
2.45360000 -9.21210000 -11.24290000
6.97770000 0.54580000 6.14520000
3.31090000 -8.84900000 -11.35980000
3.61600000 -8.91890000 -11.56780000
3.68550000 -8.87920000 -11.20380000
3.40470000 -9.20300000 -10.82980000
3.61300000 -9.23870000 -10.25570000
3.36280000 -9.34100000 -9.77990000
-17.21040000 -7.70060000 -7.71230000
7.17760000 0.57290000 5.81000000
-17.16140000 -7.92420000 -8.73790000
3.85900000 -9.02830000 -10.71750000
3.99990000 -9.00280000 -10.08200000
3.21140000 -9.08880000 -11.04250000
2.86380000 -9.02500000 -11.28840000
6.25070000 -5.44480000 17.14460000
4.72320000 -5.36880000 17.01820000
6.73260000 -5.22430000 16.93080000
6.40610000 0.65130000 6.17490000
6.11170000 -4.96340000 16.50990000
6.10040000 1.21460000 5.82280000
-17.14480000 -7.19160000 -5.41560000
2.66030000 -9.20640000 -8.76400000
2.95830000 -8.86150000 -8.43600000
2.51370000 -9.00880000 -8.57250000
2.75600000 -9.32280000 -9.12030000
-11.40130000 -2.66190000 1.87630000
-17.17200000 -6.81740000 -7.62590000
3.53780000 -9.19450000 -8.94860000
3.49040000 -9.30560000 -9.33930000
3.87110000 -9.11580000 -9.42910000
4.17320000 -9.06120000 -9.68490000
4.41110000 -9.22100000 -9.36140000
4.38860000 -9.12050000 -8.97320000
3.91420000 -8.91120000 -8.90480000
-11.19530000 -2.53700000 -0.41250000
-9.89890000 -1.91180000 0.30780000
4.60590000 1.66300000 5.61920000
3.46950000 -8.99760000 -8.72680000
3.33510000 -8.74840000 -8.50720000
4.61180000 -8.73950000 -8.62930000
3.95060000 -8.61160000 -8.42020000
-8.51850000 -1.03600000 -1.23900000
-9.35670000 -1.53930000 1.16310000
-8.04240000 -0.62500000 -0.03290000
2.49230000 1.59090000 5.72830000
4.82650000 -4.45450000 15.54830000
-1.35090000 -9.34490000 -12.48710000
-1.60740000 -9.33850000 -11.39830000
2.19880000 2.25430000 5.15200000
-2.16540000 -9.25930000 -12.10890000
-3.23010000 -9.30750000 -11.54870000
-16.23060000 -9.41470000 0.14880000
-16.64340000 -9.40050000 0.74360000
-16.86870000 -9.33410000 -0.16300000
6.22700000 1.60140000 5.31640000
-16.59550000 -9.35410000 -1.53080000
-15.33910000 -9.39940000 -0.31050000
6.30820000 1.80590000 4.58170000
-17.06070000 -9.17660000 -1.59600000
-16.91090000 -9.28820000 -2.33120000
-17.05290000 -9.11460000 -3.00420000
-16.80100000 -9.34230000 -3.09670000
-0.94980000 -9.32640000 -10.14930000
-17.13010000 -9.05720000 -2.13090000
-17.16540000 -8.85250000 -2.75780000
-17.20030000 -8.51330000 -2.94140000
-17.12450000 -9.17940000 -0.33220000
-16.95950000 -9.28310000 -1.15600000
-17.22640000 -8.94110000 -0.91150000
-17.26300000 -8.66070000 -1.29720000
-1.30590000 -9.13100000 -9.72800000
-17.28380000 -8.80820000 -0.18400000
-1.76420000 -9.30010000 -10.04380000
5.24960000 2.34740000 4.82120000
5.64190000 2.47990000 4.44650000
-17.30920000 -8.13160000 -1.61730000
3.90010000 2.58810000 4.76800000
-17.22240000 -7.51920000 -3.37030000
1.16060000 3.08980000 3.24000000
1.05310000 3.19430000 1.96190000
0.37260000 3.14120000 2.29480000
-17.18390000 -6.83790000 -2.11850000
-9.36420000 -1.59980000 -2.18840000
-10.60940000 -2.28310000 -1.75630000
-0.74530000 3.33480000 2.75070000
-0.16530000 3.20270000 2.67470000
-0.53880000 3.38010000 1.66940000
-16.97610000 -9.34590000 1.56690000
0.17560000 3.14920000 0.74180000
0.77130000 3.14390000 0.65570000
-17.23250000 -9.08710000 1.38900000
2.93040000 -9.13920000 -11.66190000
6.87640000 1.12880000 0.88580000
6.25090000 2.12640000 1.39150000
-17.10320000 -9.25680000 0.91360000
-17.24770000 -8.99940000 0.54800000
-17.28000000 -8.49970000 1.59250000
-17.31750000 -8.35230000 0.06340000
-11.05380000 -2.46250000 2.43820000
-1.33970000 -9.32070000 -7.35540000
0.67180000 -9.33170000 -6.85520000
0.57330000 -9.31780000 -7.91700000
0.84940000 -9.15520000 -8.53970000
0.90850000 -9.12810000 -7.87440000
1.56110000 -3.62010000 13.76070000
1.24320000 -8.78790000 -8.30000000
1.54630000 -8.67460000 -8.33040000
1.33750000 -8.86140000 -8.69150000
1.17210000 -9.21540000 -6.63370000
1.15530000 -8.95890000 -7.59660000
1.33310000 -8.99660000 -6.93690000
-9.88760000 -1.89850000 2.78320000
1.98260000 -9.27590000 -7.50420000
1.66090000 -9.13200000 -7.24440000
1.41930000 -8.90380000 -7.73280000
1.78070000 -9.01190000 -7.87760000
1.84740000 -8.82160000 -8.11860000
-0.11200000 -3.39950000 13.38500000
-1.03010000 -9.32720000 -8.85990000
5.47940000 3.51850000 -0.87900000
5.79440000 2.77290000 -0.70840000
5.61180000 3.23020000 0.63970000
5.09600000 4.99720000 -0.04010000
5.19590000 4.54710000 -1.07630000
2.24220000 -8.94300000 -8.02420000
2.56310000 -9.20110000 -7.77930000
2.07490000 -8.83780000 -8.44000000
2.66170000 -8.83910000 -8.23540000
3.12590000 -8.99860000 -7.96440000
3.30450000 3.36230000 3.98900000
4.00430000 3.03760000 4.24190000
4.33230000 3.60510000 3.95780000
5.84000000 2.75110000 2.33310000
5.69220000 2.85630000 3.17980000
3.45870000 -8.69640000 -8.15280000
5.46190000 3.70820000 1.96350000
4.99840000 -9.32150000 -10.22450000
5.36040000 -9.21600000 -10.55430000
5.68230000 -9.26750000 -9.65270000
4.48010000 -9.24250000 -10.27230000
4.97910000 -9.23010000 -10.74460000
4.56490000 -9.13310000 -10.84400000
4.96250000 -9.06470000 -11.02040000
5.49540000 2.96380000 3.76420000
4.95920000 -9.29500000 -9.46940000
5.15610000 3.16050000 3.96180000
4.82480000 3.07340000 4.14040000
4.13920000 -9.02600000 -10.62560000
5.06320000 3.80080000 3.63150000
6.11690000 -9.18860000 -10.36850000
6.19510000 -9.10480000 -9.77700000
5.82950000 -9.18970000 -9.97520000
5.61300000 -9.05120000 -10.58900000
4.68570000 4.01580000 3.78000000
5.87370000 -9.03080000 -10.72940000
6.72520000 -9.27080000 -9.82500000
5.21710000 3.81420000 3.33910000
-8.69180000 -1.29560000 -2.93780000
-8.19930000 -0.92160000 -3.02970000
-14.81130000 -9.38730000 -0.86230000
-14.36700000 -9.17080000 -0.00810000
5.46720000 -8.95920000 -11.00440000
-14.40930000 -9.17680000 -1.61710000
-14.16020000 -9.18720000 -0.60650000
5.09900000 4.65510000 2.59480000
4.20980000 -8.93920000 -11.34800000
-7.49950000 -0.17000000 -2.33910000
-14.11290000 -9.14160000 -1.53280000
-13.87380000 -9.26370000 -1.21690000
4.84650000 5.31520000 2.94380000
-13.69500000 -9.27080000 -0.00910000
1.51470000 3.20820000 3.17350000
-7.19690000 0.19090000 -0.03560000
1.52810000 3.42410000 1.62710000
1.95950000 3.66360000 2.49300000
1.92420000 3.55510000 3.12150000
-13.93690000 -9.11390000 0.49920000
1.96670000 3.82790000 1.31510000
-2.29120000 -9.36600000 -13.03150000
1.14140000 3.28580000 1.07740000
-14.60720000 -9.23640000 0.42090000
1.71920000 3.60210000 0.65590000
-2.46010000 -9.33110000 -13.37710000
2.26520000 4.40020000 1.07140000
2.18820000 4.20480000 1.82070000
-2.22110000 -8.99530000 -13.86110000
2.26520000 4.98180000 1.21250000
2.23710000 4.94050000 1.73310000
2.37760000 4.59040000 2.52080000
-2.65330000 -8.88050000 -13.93900000
-6.39730000 1.12740000 -0.74300000
16.88470000 -9.04590000 -0.04920000
16.85600000 -9.07730000 1.06830000
0.42220000 -3.89850000 -14.93970000
0.50850000 -4.53210000 -16.13320000
-0.90840000 -4.17240000 -15.43500000
-0.22190000 -4.65890000 -16.14920000
17.12710000 -8.97180000 0.39680000
-6.58800000 0.76550000 -2.69330000
5.12030000 5.01390000 0.71720000
-2.69270000 -3.69040000 -14.40750000
4.88410000 5.54850000 1.61960000
14.28710000 -8.84900000 -1.13100000
15.05640000 -9.15040000 -0.71350000
-5.51210000 2.09480000 -2.11300000
-5.07190000 2.45130000 -2.51750000
-5.58160000 1.83060000 -3.47580000
16.08780000 -4.51620000 11.59730000
16.39220000 -4.51270000 10.82400000
17.20210000 -9.01120000 -1.49910000
15.70420000 -4.32020000 10.92020000
2.35020000 -4.27850000 -15.64200000
6.71000000 -4.39870000 -16.01490000
4.10530000 -4.67470000 -16.42610000
7.38880000 -4.01170000 -15.17380000
-16.99810000 -5.92160000 -1.88410000
-16.68270000 -5.37750000 -2.15410000
14.57160000 -9.00520000 -1.32570000
5.06130000 -3.47430000 -13.88490000
17.34840000 -8.83690000 -1.17350000
17.48560000 -8.75480000 -1.85000000
-0.30690000 1.36790000 5.84990000
17.39340000 -8.88130000 -2.56790000
-5.63600000 2.01070000 1.29160000
17.55120000 -8.58590000 -2.54670000
12.46620000 -2.89380000 8.14700000
1.04250000 -4.96140000 -16.81350000
-5.21610000 2.37540000 2.42900000
-4.73350000 3.07820000 1.64980000
-16.99850000 -6.30720000 -4.82430000
-1.58110000 1.83070000 5.43950000
-17.07420000 -6.21060000 -3.74260000
-16.92930000 -5.85440000 -4.12900000
1.16450000 -4.28330000 -15.78370000
-2.06550000 2.36130000 4.87730000
-0.53030000 2.25160000 4.99820000
-0.39260000 2.62990000 4.49850000
10.66310000 -9.19860000 13.27720000
14.31850000 -9.14160000 11.91790000
-17.08930000 -6.46350000 -5.41090000
-16.95930000 -5.88620000 -6.25580000
13.87540000 -9.00710000 14.39380000
14.40820000 -9.09070000 13.51720000
15.07090000 -9.07460000 13.75730000
-17.04780000 -6.34520000 -8.25130000
-16.87730000 -5.86430000 -8.57320000
-5.46290000 2.23170000 -0.43640000
1.27460000 2.62560000 4.64200000
-16.79910000 -5.59070000 -5.86570000
-5.02310000 2.65610000 -0.74020000
-16.45660000 -5.19920000 -7.10960000
1.00990000 2.98290000 3.92840000
12.46310000 -9.05600000 14.03620000
11.55780000 -9.14340000 13.68380000
12.37790000 -9.20280000 13.64080000
-4.64660000 3.23530000 -0.56070000
-7.31810000 -0.17370000 -4.11680000
-16.64130000 -5.39060000 -4.77580000
-2.26960000 2.81760000 4.28420000
-0.51580000 2.86580000 4.09450000
-1.34170000 3.08290000 3.98730000
-1.86840000 3.18040000 3.99600000
-16.19710000 -4.98450000 -5.23380000
-6.44460000 0.73320000 -4.25190000
-2.85580000 3.11060000 4.01270000
-1.58560000 3.62550000 3.64660000
12.21540000 -9.25410000 12.90240000
12.78740000 -9.19280000 12.59350000
-15.65870000 -4.65640000 -7.91720000
-15.53520000 -4.55120000 -5.87280000
-14.38300000 -4.03430000 -6.80860000
11.94220000 -9.20420000 11.78030000
11.32720000 -9.21730000 11.85840000
-5.97580000 1.10780000 -4.51650000
-2.62910000 3.75560000 3.69870000
-5.48180000 1.52580000 -4.34000000
-3.26800000 3.97970000 3.58060000
-15.76260000 -4.77900000 -4.50930000
-1.98280000 3.89300000 3.63070000
-5.08850000 2.20250000 -3.54630000
14.03470000 -8.99660000 13.23140000
13.65240000 -8.93810000 13.08320000
13.91530000 -8.96010000 12.51900000
-14.85500000 -4.20790000 -4.08600000
-2.26170000 4.31130000 3.43440000
0.42920000 3.08500000 3.53210000
-0.78210000 3.12520000 3.82860000
-0.67650000 3.22200000 3.54060000
13.38570000 -9.07820000 11.97430000
13.22120000 -9.06710000 13.08820000
12.41560000 -9.20910000 9.67980000
13.08150000 -9.18670000 10.85280000
-0.97230000 3.38580000 3.19060000
-1.18720000 3.66490000 2.03770000
-4.73980000 2.81620000 3.15350000
-1.25810000 3.63700000 2.75280000
-1.27280000 3.51500000 3.47370000
13.94870000 -9.00560000 11.67330000
13.62530000 -8.96090000 11.27570000
-1.46830000 3.99780000 3.00770000
-1.63610000 4.12520000 3.29450000
12.92250000 -9.09280000 13.92500000
13.20560000 -8.95560000 13.96020000
-4.74910000 3.02380000 2.56710000
13.42330000 -8.90410000 13.54950000
-16.86460000 -5.62150000 -2.42350000
13.79340000 -8.87330000 13.77670000
-4.38450000 3.68650000 2.66550000
2.89500000 3.00330000 4.30620000
2.10420000 3.00380000 4.13330000
-16.30010000 -5.07190000 -3.67440000
-15.67900000 -4.64260000 -3.08390000
-4.16970000 3.60960000 3.37920000
1.81210000 3.22070000 3.72160000
2.39530000 3.42840000 3.72640000
-17.14400000 -8.97900000 -10.54720000
-17.06680000 -9.13270000 -11.73200000
-16.88320000 -9.29950000 -11.04120000
16.71610000 -9.04930000 10.49370000
17.12840000 -8.96380000 10.34200000
3.81590000 3.80950000 3.87120000
2.85650000 3.79090000 3.68710000
-17.14930000 -8.09160000 -10.25440000
-17.15070000 -8.80570000 -11.64250000
17.03820000 -8.80700000 13.15520000
16.70850000 -8.99950000 12.23970000
17.10500000 -8.83590000 11.92440000
3.54700000 4.64420000 3.69540000
3.03350000 4.46280000 3.58060000
16.99850000 -8.96100000 11.22740000
17.25150000 -8.64410000 11.73110000
3.14300000 4.92910000 3.58570000
17.23570000 -8.87980000 10.95800000
4.56100000 5.26220000 3.43940000
4.36070000 4.93700000 3.60890000
4.66090000 5.63210000 3.15790000
-17.12050000 -7.91890000 -12.46500000
1.95510000 3.47120000 3.40820000
2.63550000 4.07900000 3.42140000
2.38450000 4.12220000 3.03970000
2.58440000 4.49550000 3.12790000
2.65100000 5.00190000 3.22270000
2.53250000 5.37590000 3.13390000
-17.18230000 -7.37190000 -9.49150000
-1.24960000 -9.29600000 -5.91120000
17.34800000 -8.80990000 10.00210000
2.34690000 5.01680000 2.41340000
2.17600000 5.49790000 2.19700000
17.35130000 -8.33900000 11.29420000
17.42020000 -8.63500000 10.92070000
-12.06580000 -9.33740000 -10.18840000
-17.09110000 -7.01830000 -11.28790000
2.13320000 5.87050000 2.83010000
9.46270000 -9.17570000 -16.07330000
11.65820000 -9.19340000 -14.91110000
14.00670000 -9.07620000 -16.06840000
2.57110000 6.08140000 3.35970000
2.23310000 6.24480000 3.18000000
10.45500000 -9.14950000 -13.11010000
10.75380000 -8.94650000 -13.41740000
10.26170000 -8.85310000 -13.70110000
10.65980000 -8.90360000 -13.91640000
17.50450000 -7.65070000 10.92730000
10.81280000 -9.16790000 -14.38660000
11.70210000 -9.09420000 -14.19960000
11.66690000 -8.71430000 -13.87270000
1.73520000 6.28850000 2.27590000
-14.04140000 -8.98580000 -11.16680000
11.39530000 -8.73640000 -13.64290000
1.83590000 6.47360000 2.84660000
1.70260000 6.94710000 3.03690000
-13.40890000 -9.35370000 -11.96980000
-12.38350000 -9.38470000 -12.16610000
9.66590000 -9.02840000 -14.21340000
9.42590000 -8.89630000 -13.87380000
17.02600000 -8.79230000 14.52130000
-13.82540000 -9.09560000 -11.64440000
4.14120000 5.95180000 3.35180000
-5.16740000 -9.32870000 -14.99790000
-6.00850000 -9.30640000 -15.37140000
-5.42820000 -9.32460000 -16.02120000
17.24010000 -8.46200000 13.26650000
17.42880000 -7.67350000 12.43250000
-4.20540000 -9.26430000 -16.79420000
-12.52880000 -3.13600000 -3.19200000
-16.95900000 -6.32710000 -12.08610000
-17.01170000 -6.95260000 -14.37070000
-16.79080000 -6.04170000 -15.39150000
2.62550000 6.55190000 3.35340000
-16.83570000 -5.92000000 -12.57040000
3.27390000 6.18220000 3.42610000
3.30780000 7.04380000 3.11210000
-3.90860000 -9.33130000 -14.92190000
-3.50250000 -9.05110000 -14.57780000
-4.52600000 -9.27740000 -14.72040000
4.18020000 6.87890000 3.01700000
4.36460000 6.85630000 2.72030000
-5.93070000 -9.28730000 -5.49740000
-6.84070000 -9.31580000 -6.03550000
-6.30380000 -9.28920000 -6.23640000
-5.25110000 -9.29920000 -5.91530000
-16.51130000 -5.36050000 -12.35590000
-16.73180000 -5.66830000 -11.93840000
-16.66730000 -5.63990000 -14.07380000
-16.45010000 -5.34890000 -13.58280000
-7.44090000 -9.29970000 -3.73480000
-6.71680000 -9.34180000 -4.94010000
-16.09170000 -5.00340000 -12.43010000
4.67130000 6.04410000 1.09820000
4.21580000 7.29840000 2.00870000
4.55310000 6.55130000 0.22990000
-5.40370000 -9.27100000 -4.84890000
-15.32550000 -4.56070000 -13.33940000
-15.11000000 -4.57020000 -14.45990000
-15.95990000 -5.01460000 -13.70360000
3.68970000 7.66480000 2.86290000
10.67050000 -9.11120000 -16.30860000
12.83590000 -9.01880000 -16.53410000
-15.42930000 -4.60050000 -12.02290000
3.89190000 7.86370000 2.14760000
3.56700000 8.07780000 2.64970000
1.95580000 7.17910000 3.19470000
2.25070000 8.07300000 2.96360000
-8.57490000 -9.32410000 -4.53450000
11.85000000 -8.82760000 -13.36450000
12.59350000 -8.58000000 -13.71160000
12.39290000 -8.62560000 -13.53870000
-9.04180000 -9.24710000 -5.43860000
-8.62350000 -9.33630000 -5.76510000
2.84250000 8.32240000 2.82500000
12.85760000 -8.77100000 -13.86860000
-6.55360000 -9.08900000 -7.92960000
-7.20080000 -9.18480000 -7.99800000
-6.66290000 -9.23100000 -8.32670000
-16.70520000 -5.63440000 -10.23190000
-7.73890000 -9.32040000 -7.67210000
-7.17060000 -9.34020000 -8.60400000
-7.92230000 -9.35490000 -8.80100000
-8.16200000 -9.32320000 -6.43160000
-9.47330000 -9.32940000 -6.93170000
-8.77230000 -9.27990000 -6.99580000
-6.76990000 -9.31470000 -9.23760000
-9.85670000 -9.17020000 -7.49290000
-9.47830000 -9.12890000 -7.67920000
-10.09690000 -9.11790000 -7.32330000
-9.81540000 -9.28320000 -6.62030000
-8.80640000 -9.11950000 -7.35850000
17.32260000 -8.18170000 12.06450000
-10.26850000 -9.32840000 -5.69300000
-3.00080000 -9.33240000 -10.66210000
-2.54460000 -9.25550000 -10.09790000
-3.15530000 -9.09500000 -10.26330000
-3.67320000 -9.25300000 -10.47450000
-4.05740000 -9.35030000 -10.70260000
10.34570000 -8.91070000 -16.92830000
9.71170000 -9.06630000 -16.65710000
11.33940000 -8.91490000 -16.84980000
5.37270000 3.44000000 -1.97500000
-9.44400000 -9.22190000 -5.40090000
-16.67500000 -5.48810000 -8.56970000
8.90420000 -9.02680000 -16.78570000
-16.19940000 -5.19840000 -10.02970000
-16.50230000 -5.47500000 -11.13670000
0.23170000 3.05920000 -0.89860000
0.07660000 3.02480000 -2.30650000
-0.45690000 3.24150000 -1.88750000
-10.02690000 -9.18430000 -6.20850000
-16.15620000 -5.32090000 -10.89100000
8.28690000 -8.91600000 -16.95970000
-4.24110000 -9.32430000 -7.68890000
-3.22500000 -9.34420000 -7.83340000
-2.99690000 -9.32430000 -6.81650000
-15.82980000 -5.05880000 -10.55160000
-0.57920000 3.34920000 -1.32760000
-3.68340000 -9.21170000 -6.65750000
-2.88370000 -9.31720000 -6.26110000
-15.45040000 -4.76470000 -10.33510000
-15.80100000 -5.06190000 -11.10540000
8.59140000 -8.62320000 -17.07090000
-4.39340000 -9.16560000 -6.89790000
-4.68940000 -9.29840000 -6.97690000
-4.20170000 -9.27570000 -7.23600000
-4.04350000 -9.12310000 -6.77680000
-16.14870000 -5.02630000 -8.33540000
-16.20070000 -5.19620000 -9.04820000
9.24550000 -8.80350000 -17.01280000
-15.74790000 -4.85660000 -8.83010000
-15.89970000 -5.10590000 -9.38940000
8.48860000 -7.32600000 -17.09520000
9.66240000 -8.92250000 -16.94700000
-10.44910000 -9.25050000 -6.67110000
-10.30300000 -9.11650000 -7.17090000
-1.01650000 2.69350000 -3.55640000
9.96580000 -8.65180000 -17.08630000
-1.39790000 3.25220000 -2.97640000
-16.49980000 -5.34190000 -9.52180000
0.07250000 2.76670000 -3.30650000
9.36580000 -8.21270000 -17.07830000
10.41500000 -8.32330000 -17.15390000
-15.69880000 -4.93640000 -9.71610000
-0.89980000 3.08850000 -3.07510000
-0.49820000 3.08840000 -2.80350000
9.44860000 -7.89900000 -17.15760000
9.89030000 -7.61520000 -17.21620000
-15.42580000 -4.59860000 -9.57900000
-1.00010000 3.46910000 -2.43180000
-2.41950000 -9.29320000 -8.59510000
-0.90800000 3.51920000 -1.97800000
-15.09200000 -4.39610000 -10.24020000
-1.18050000 3.82610000 -2.02020000
-14.90660000 -4.27490000 -9.20360000
-2.16060000 3.10870000 -3.19800000
-3.07830000 2.99830000 -3.26890000
-2.84730000 3.35590000 -3.01940000
-14.72480000 -4.20470000 -10.28570000
-6.94750000 -9.29070000 -6.69500000
-1.64490000 3.54250000 -2.81290000
-2.07540000 3.64600000 -2.91190000
-2.70510000 4.00080000 -2.74720000
13.20030000 -9.16720000 8.43430000
12.67600000 -9.20000000 7.01430000
13.28210000 -9.16660000 6.03150000
-6.45430000 -9.21710000 -6.47030000
-5.41310000 -9.31160000 -7.07930000
11.75890000 -9.00910000 -16.60960000
-6.43040000 -9.15360000 -6.80300000
-6.16510000 -9.19750000 -7.22630000
-6.72710000 -9.25460000 -7.52940000
-6.54080000 -9.28460000 -7.17770000
-7.24060000 -9.27060000 -7.54310000
-16.19710000 -5.28470000 -11.69520000
11.69350000 -9.06560000 6.17540000
12.20500000 -9.20420000 5.36660000
12.13380000 -9.19510000 7.02350000
-1.34560000 3.74980000 -2.47220000
-6.21140000 -9.07120000 -7.75330000
-1.63550000 4.17230000 -2.48700000
11.75730000 -9.05990000 6.93810000
11.26510000 -8.67690000 -17.07290000
0.49870000 3.05820000 -0.50650000
-15.61830000 -4.81720000 -11.52520000
12.39710000 -8.86710000 -16.86780000
12.55310000 -8.70020000 -17.01430000
12.35200000 -8.24910000 -17.13860000
13.22740000 -8.62410000 -16.99470000
-0.08460000 3.14090000 -0.60780000
-0.22800000 3.28010000 0.39260000
12.39520000 -7.62140000 -17.14910000
10.90030000 -7.27450000 -17.15110000
-0.73820000 3.56640000 -0.33430000
-0.93810000 3.61150000 -1.30660000
-8.69970000 -9.09200000 -7.57020000
-8.76220000 -9.30050000 -8.18130000
-8.18580000 -9.25170000 -7.27910000
-0.69520000 3.56750000 0.40940000
-1.15270000 3.98650000 -1.38650000
-1.00120000 3.94150000 -0.15400000
-0.76400000 3.52520000 1.20570000
-1.24690000 3.78870000 1.45890000
-0.97410000 3.85580000 0.75480000
-1.20980000 3.97660000 1.18470000
6.94900000 -8.95830000 2.22170000
7.07090000 -9.11050000 2.82530000
6.53270000 -9.10250000 2.22180000
6.52950000 -9.14890000 2.70450000
-4.62640000 -9.30610000 -9.11500000
-3.94180000 -9.27400000 -9.18760000
-3.64170000 -9.27180000 -8.44200000
-3.63370000 -9.30840000 -8.94110000
5.94350000 -9.20430000 4.81670000
5.04760000 -9.27410000 3.81940000
6.41840000 -9.24340000 5.05620000
7.11570000 -9.25900000 4.71740000
6.24340000 -9.20960000 3.67680000
7.38790000 -9.23260000 3.24010000
9.06960000 -9.24960000 3.51690000
-4.63060000 -9.33840000 -10.01990000
-3.82300000 -9.30250000 -10.02380000
-5.45600000 -9.34440000 -10.48570000
-4.36810000 -9.20780000 -9.71430000
-3.88750000 -9.17200000 -9.74400000
-1.07460000 4.32540000 -0.04780000
12.50470000 -6.28990000 -17.14020000
-16.48090000 -5.44180000 -15.29120000
-1.09060000 4.38050000 0.66830000
-1.24040000 4.34040000 1.21520000
-3.76350000 -9.11730000 -9.50640000
-1.04460000 4.90080000 0.11930000
-8.66770000 -9.31410000 -3.42350000
-8.81610000 -9.28450000 -2.78560000
-9.83360000 -9.28650000 -2.59220000
5.10970000 -9.21600000 3.14740000
6.06800000 -9.01710000 3.05970000
-5.00830000 -9.31740000 -8.39910000
-5.85740000 -9.35560000 -9.50970000
-7.81330000 -9.19710000 -3.32920000
5.46900000 -9.10490000 2.89630000
-16.24170000 -5.23550000 -14.87510000
-8.32710000 -9.19420000 -2.82730000
-7.45930000 -9.13610000 -2.88460000
-5.63190000 -9.23160000 -7.53470000
-5.40850000 -9.16150000 -7.92600000
-4.65780000 3.14580000 -1.86230000
-4.65650000 2.80420000 -2.52840000
-5.16380000 -9.33240000 -6.56240000
-4.32540000 3.51060000 -2.18890000
-5.59460000 -9.26190000 -8.45090000
-15.83620000 -4.98600000 -15.17140000
-16.25220000 -5.34260000 -16.29430000
-4.16350000 4.04400000 -1.45400000
6.47900000 -9.08040000 3.14750000
11.39660000 -5.48290000 -17.06670000
10.03790000 -6.04110000 -17.13270000
-4.49940000 3.61820000 1.40890000
-4.32510000 3.94270000 -0.01950000
9.58470000 -8.93230000 -13.48680000
-13.02690000 -3.39820000 -7.12920000
-6.08600000 -9.27760000 -8.74550000
-4.07690000 4.83610000 -0.21890000
-9.23450000 -9.18010000 -2.30760000
-3.84520000 5.23120000 -1.26980000
9.35450000 -9.04720000 1.73580000
9.39270000 -9.16290000 1.20640000
9.95980000 -9.08930000 1.96090000
-6.06080000 -9.03110000 -8.18920000
-9.67700000 -8.97220000 -1.86910000
-8.95100000 -8.88720000 -1.69000000
-8.87770000 -8.97150000 -2.02360000
8.88180000 -9.25500000 1.47670000
-13.72540000 -3.90650000 -13.42650000
-1.22200000 4.42140000 -1.32710000
-3.06490000 -9.20500000 -8.54770000
-2.58800000 -9.06900000 -9.14710000
-14.58940000 -4.25960000 -12.98190000
-3.14590000 -9.14190000 -9.12550000
-1.94760000 4.41420000 -2.54610000
-2.39690000 4.64240000 -2.57940000
-1.39440000 4.26930000 -2.10570000
-2.91000000 -8.91690000 -9.46060000
-1.53970000 4.61870000 -2.19190000
-1.23970000 5.04110000 -1.68910000
-1.11160000 5.02360000 -0.92320000
-1.29420000 5.31610000 -1.87510000
-1.83320000 -9.06350000 -9.58240000
-1.60010000 5.09380000 -2.22310000
-2.02300000 -9.21320000 -9.14650000
-1.82040000 5.39280000 -2.37030000
-13.09630000 -3.76520000 -13.98480000
-14.47680000 -4.42740000 -15.15110000
-2.60880000 -9.05940000 -9.92130000
-2.48550000 -8.93350000 -9.51260000
-13.82840000 -4.33320000 -15.22570000
-6.95120000 -9.19290000 -3.41270000
10.73620000 -9.04220000 1.72060000
11.03690000 -9.20460000 1.39200000
10.87590000 -9.04230000 1.93830000
10.23260000 -9.16630000 2.27380000
10.50870000 -9.24600000 2.60970000
-7.17820000 -9.06820000 -3.25890000
11.31640000 -9.17830000 2.17860000
11.58480000 -9.18600000 1.72840000
-0.89660000 5.42320000 -0.23760000
-1.04420000 5.48810000 -1.29300000
-3.47650000 -9.04190000 -9.93530000
-3.04200000 -8.86340000 -9.75130000
-1.11360000 5.82470000 -1.84300000
-7.12020000 -9.01160000 -2.98980000
-1.11570000 6.35620000 -2.10070000
2.39530000 2.98250000 -2.85580000
1.75700000 2.84400000 -2.78980000
17.50190000 -7.36600000 -16.19060000
17.26380000 -8.05760000 -16.30970000
1.49630000 3.07450000 -2.10760000
0.96940000 2.91500000 -2.60120000
2.10160000 3.11220000 -2.38260000
-11.80650000 -4.10560000 -15.08690000
2.64670000 3.27170000 -2.64090000
17.59030000 -6.74000000 -15.92560000
17.24230000 -7.46670000 -16.51410000
2.57050000 3.72490000 -2.25310000
1.70840000 3.36330000 -0.66930000
1.30030000 3.14530000 -1.37970000
1.23980000 3.16640000 -0.46000000
17.37760000 -6.57410000 -16.38610000
10.09440000 -9.26540000 1.10090000
10.27670000 -9.19500000 1.54480000
0.55840000 3.03130000 -1.79650000
9.37310000 -9.27880000 0.48890000
1.54510000 3.22170000 -1.63460000
16.53810000 -6.94210000 -16.94700000
16.80000000 -7.34800000 -16.84730000
15.86300000 -7.90430000 -16.97340000
15.56910000 -7.01850000 -17.07250000
14.64610000 -8.23890000 -17.05390000
2.06150000 3.38100000 -2.00600000
-6.06830000 -9.34980000 -13.05350000
-7.06890000 -9.34550000 -12.57020000
-7.79260000 -9.32420000 -13.52830000
-8.61080000 -9.18050000 -12.12940000
-8.66360000 -9.34710000 -12.44830000
-7.59320000 -9.27410000 -12.20970000
2.04550000 3.62360000 -1.68740000
2.33600000 3.93760000 -1.85770000
16.93070000 -7.94630000 -16.64350000
16.97620000 -6.65740000 -16.74530000
1.98420000 3.75040000 -0.79760000
-4.93540000 -9.05640000 -5.37620000
-4.67440000 -9.20440000 -5.60550000
-4.57190000 -9.13830000 -5.06210000
-9.09990000 -9.39160000 -12.80740000
-2.52430000 -9.20460000 -5.84120000
-3.68680000 -9.23810000 -6.20680000
-3.62470000 -9.13530000 -5.77860000
-3.95290000 -9.26330000 -5.91900000
-3.17440000 -9.04170000 -5.82430000
2.19700000 4.14790000 -1.24980000
-3.19670000 -8.95480000 -4.96620000
16.99690000 -5.99550000 -16.63720000
-3.93190000 -9.03820000 -5.43460000
5.14340000 3.64660000 -2.40510000
4.86210000 3.39740000 -2.71440000
-4.11640000 -9.12960000 -4.96790000
-3.52980000 -8.85850000 -5.13860000
-10.35840000 -9.35210000 -13.28710000
-9.05840000 -9.27750000 -13.65780000
-9.12190000 -9.38340000 -13.29980000
16.50510000 -6.04930000 -16.86490000
15.68270000 -5.99350000 -16.98190000
-9.89180000 -9.07240000 -13.77940000
9.81970000 -9.21040000 6.28770000
10.94070000 -9.22890000 5.92870000
10.97160000 -9.17940000 6.31640000
-3.41190000 -8.83240000 -5.55220000
-9.32470000 -8.86570000 -13.94730000
3.12920000 3.34930000 -2.79060000
10.36620000 -9.19090000 5.67460000
9.87950000 -9.17540000 5.86790000
-10.29790000 -3.44440000 -13.43800000
-11.92800000 -3.35310000 -12.81740000
-10.12990000 -2.81640000 -11.46300000
-10.11600000 -9.33460000 -12.41900000
-10.83770000 -9.37360000 -12.58380000
-4.28130000 -9.25600000 -6.32700000
9.85320000 -9.09420000 5.39520000
9.31100000 -9.19370000 5.45340000
10.19930000 -9.22780000 5.04360000
2.88670000 3.88390000 -2.44920000
17.67430000 -6.24620000 -15.42360000
3.98150000 3.64580000 -2.73130000
