209.57680000 925.03520000 -49.15330000
-246.65200000 885.66340000 -236.53680000
-256.04130000 879.37300000 -226.34910000
274.00260000 175.22230000 -173.77330000
-258.66040000 866.11720000 -226.01530000
167.01380000 932.30700000 -54.79920000
-174.49970000 300.94490000 -274.32960000
179.48850000 929.89670000 -40.34040000
274.55030000 210.78480000 -191.84700000
275.41950000 227.33970000 -180.83420000
214.18020000 923.84860000 -19.73980000
270.78290000 358.19920000 135.05490000
270.37430000 375.28320000 161.02080000
140.24390000 935.85600000 -27.47640000
175.61930000 931.45480000 -11.36050000
274.51390000 194.21480000 -162.53200000
-266.24440000 243.25350000 -257.21040000
269.88810000 366.23390000 176.59340000
-266.97400000 260.41710000 -241.54800000
-262.33800000 795.90970000 -160.29210000
271.58300000 906.51150000 -27.00490000
-265.15950000 293.67280000 -254.68290000
260.62580000 911.78820000 -16.46920000
271.04470000 466.49260000 142.96580000
274.37380000 125.51910000 -147.46510000
273.36210000 115.67220000 -134.80660000
273.05230000 121.83300000 -154.33740000
275.46120000 898.62550000 -20.56960000
272.47090000 905.06770000 -9.29500000
273.28310000 152.00980000 -131.18970000
271.02010000 549.01270000 120.68420000
268.14420000 907.95680000 5.72690000
212.59110000 925.02850000 -5.38020000
273.44580000 185.28200000 -132.08310000
244.09530000 916.93740000 0.16400000
272.38920000 535.27530000 128.42830000
222.25120000 921.25860000 27.57190000
-209.35630000 578.05630000 -274.79330000
-199.18120000 599.71750000 -274.65420000
261.92100000 911.13340000 22.00880000
272.19870000 500.59250000 142.63720000
-233.77180000 582.15500000 -270.89430000
273.12070000 137.57800000 -109.76400000
-222.85870000 627.64280000 -272.47690000
-198.43010000 615.71000000 -272.64620000
271.20870000 535.06770000 143.28530000
-233.51850000 558.90000000 -271.92730000
-250.13920000 579.71960000 -269.81320000
274.14290000 236.20620000 -161.50750000
-247.85440000 659.17650000 -269.79650000
-267.94270000 309.74600000 -203.81190000
273.96220000 223.90250000 -136.68620000
271.06230000 512.10560000 160.96530000
275.52720000 256.02510000 -140.67190000
-208.05920000 663.81040000 -273.28170000
-229.14980000 656.61190000 -271.88100000
-217.99080000 678.61430000 -274.53150000
274.47970000 268.55840000 -131.70610000
-197.44740000 658.56290000 -272.29210000
271.63950000 445.48250000 137.39970000
-230.19410000 696.92730000 -271.86320000
273.36900000 259.76390000 -109.15600000
274.57870000 219.16220000 -121.76230000
271.14610000 412.97600000 163.44110000
70.96020000 941.05340000 -63.80950000
99.54570000 939.18660000 -61.45460000
-269.00070000 230.43840000 -116.23220000
-185.13700000 204.54670000 -272.97220000
-180.86470000 189.76200000 -274.20010000
270.43530000 436.07680000 169.50860000
-193.20430000 229.71160000 -272.60240000
-176.65380000 221.30220000 -274.05800000
100.69280000 615.12710000 271.11450000
126.87880000 938.15750000 -44.20780000
107.98030000 939.18480000 -29.33090000
84.54980000 941.82210000 -23.81360000
275.54250000 384.64950000 -189.73410000
32.39620000 942.56630000 -55.07360000
-260.12650000 641.44280000 -260.28120000
-262.01970000 614.03960000 -248.52710000
-262.92530000 553.78750000 -239.16130000
-264.16990000 582.59220000 -231.06830000
-176.59650000 269.02040000 -275.52070000
-264.24730000 618.95230000 -238.08730000
-264.69520000 604.45140000 -226.50500000
42.19100000 942.67520000 -29.86590000
-265.36890000 570.17560000 -200.70390000
-264.02220000 613.08800000 -207.36550000
275.64180000 339.30060000 -162.11100000
66.62710000 942.63640000 -0.81360000
275.69770000 392.15140000 -160.59640000
-262.98770000 714.84500000 -219.54710000
-263.61430000 676.29490000 -227.82750000
275.08960000 374.39430000 -135.91110000
274.47000000 321.27910000 -177.90150000
-264.10180000 642.69890000 -221.64730000
140.72880000 935.26450000 -0.93380000
275.05760000 319.84170000 -135.92800000
115.86910000 938.98960000 2.01800000
133.61460000 936.83670000 17.71150000
168.39680000 931.70270000 8.23770000
267.31630000 171.77300000 235.36010000
-264.33010000 650.61100000 -179.04460000
275.69500000 362.45150000 -117.99610000
-263.60160000 672.01300000 -204.86160000
162.57150000 933.47990000 21.36240000
275.34690000 306.48620000 -112.82070000
273.96910000 343.41660000 -106.98000000
276.94760000 411.32440000 -168.61690000
-211.83530000 546.89400000 -274.45080000
265.02750000 380.29770000 263.76570000
-266.67970000 359.12500000 -216.47450000
-231.78010000 551.72890000 -274.31770000
187.76140000 928.84030000 30.62990000
165.96560000 931.17010000 47.17330000
-267.26100000 372.89740000 -198.05070000
99.85320000 745.06240000 270.33920000
142.05880000 736.47690000 270.53570000
121.36550000 776.95030000 270.75650000
179.38630000 927.59970000 79.14500000
176.06080000 698.93510000 270.88830000
133.42630000 704.47160000 270.63280000
197.01720000 647.23050000 271.86920000
-264.28780000 557.29170000 -193.61120000
-265.33220000 549.58780000 -169.80890000
-265.02440000 611.00120000 -150.38650000
-267.32950000 332.75160000 -179.93800000
158.43640000 722.79950000 271.77060000
128.73140000 656.64980000 270.91150000
132.33540000 673.32210000 271.74560000
93.39320000 702.82180000 270.76710000
68.42070000 671.45300000 270.14960000
177.38770000 925.48040000 104.72880000
91.98910000 726.45670000 271.76690000
138.56340000 920.44590000 193.97300000
158.58640000 916.21670000 199.22190000
-263.01020000 706.73240000 -196.58910000
-264.64430000 696.38750000 -201.98140000
150.05190000 914.66380000 218.59100000
162.74260000 909.26330000 230.31030000
-262.92900000 731.54420000 -176.21730000
106.69270000 919.97090000 213.75840000
105.96210000 915.12450000 229.18450000
156.46280000 830.64450000 -274.68450000
202.80160000 901.91930000 234.03570000
275.16880000 721.38880000 24.34510000
171.67700000 901.10220000 250.26250000
158.49700000 905.46020000 246.64600000
133.25780000 908.25750000 244.99730000
193.52790000 705.51680000 -273.57740000
251.69760000 787.27500000 -274.24550000
244.88200000 740.63040000 -273.29220000
201.91130000 745.86360000 -274.37730000
181.32370000 871.01790000 270.88240000
187.50310000 880.40120000 267.60210000
165.48120000 888.08680000 267.72950000
-199.76610000 887.23880000 -263.73880000
-266.88550000 519.33940000 -152.88190000
-265.74180000 550.47460000 -145.36440000
242.78170000 688.20400000 -273.97310000
263.84020000 694.43400000 -275.17430000
251.80350000 668.22420000 -272.95740000
-215.35700000 887.78970000 -258.78040000
-266.68250000 456.75950000 -147.62240000
274.42580000 742.33670000 51.95110000
-204.88560000 894.07950000 -251.75560000
-196.02930000 902.42130000 -233.76860000
107.80380000 913.72080000 239.70510000
265.73560000 760.21530000 -273.99600000
271.10670000 687.48340000 -274.34980000
277.22180000 701.98620000 -268.18210000
273.12570000 756.13380000 -272.64940000
-266.50770000 495.33240000 -125.20940000
277.16500000 729.58050000 -266.80620000
279.36550000 719.92250000 -255.13490000
277.93090000 680.60130000 -253.26800000
-182.38580000 910.13480000 -211.52230000
278.39830000 731.99920000 -229.39450000
-220.86560000 894.51920000 -237.42040000
71.16250000 914.81850000 240.99390000
-266.46920000 535.52890000 -127.12700000
-219.77000000 902.64330000 -205.06020000
84.95580000 901.18380000 264.03760000
105.75120000 904.61580000 257.05030000
69.64590000 909.68070000 251.97780000
220.55940000 662.93650000 -273.83850000
-267.15150000 501.60570000 -107.23380000
101.99790000 893.18610000 267.20000000
148.14850000 895.86620000 263.61980000
167.96970000 898.53220000 258.64410000
172.58470000 894.13200000 263.23210000
-163.98910000 918.94820000 -180.46710000
128.91400000 898.22670000 264.30480000
132.96300000 887.75910000 269.03070000
123.20760000 879.48720000 269.90580000
154.78050000 691.94820000 -273.30720000
157.72220000 723.66910000 -274.08210000
-265.15920000 569.19700000 -126.32000000
177.10810000 849.27990000 270.44930000
-196.16470000 915.33140000 -161.42810000
-269.71580000 213.53240000 -46.18230000
-133.97540000 926.55370000 -156.31420000
-267.46840000 377.63350000 -157.94110000
-173.51180000 922.20990000 -146.71380000
88.11200000 854.30910000 270.31520000
-268.23600000 323.74510000 -138.18440000
-268.47550000 355.11760000 -166.98190000
-264.99480000 612.13810000 -103.87520000
-249.59150000 888.39470000 -220.91510000
-253.18160000 887.64280000 -208.53610000
237.65030000 718.42550000 270.96420000
223.24850000 755.92400000 271.67640000
-266.82020000 529.47960000 -112.29750000
-264.58070000 539.45960000 -111.47030000
214.15780000 719.37950000 271.61060000
-229.64630000 908.83850000 -146.26060000
-240.48090000 900.91380000 -175.53190000
-265.73230000 550.13980000 -101.89060000
217.59230000 768.15250000 272.69950000
203.70550000 761.43940000 270.52240000
-258.20040000 879.14540000 -196.73280000
-248.82590000 894.61370000 -193.88610000
-268.42460000 361.91990000 -116.70100000
-265.94820000 507.36650000 -99.47110000
-254.61930000 890.36080000 -190.68150000
-265.47050000 538.13190000 -88.26420000
-260.09090000 877.20470000 -156.10550000
-257.55790000 887.48800000 -171.26190000
173.68770000 752.81670000 271.13420000
182.01630000 782.77720000 271.41960000
204.95270000 798.06700000 271.54260000
-252.64930000 895.30870000 -171.54290000
-248.44460000 901.60210000 -146.21770000
229.37630000 805.18490000 271.45730000
229.33420000 839.21900000 270.09400000
250.03430000 851.56350000 267.81440000
206.40720000 842.93880000 271.31820000
181.77210000 767.77340000 -272.84180000
197.68030000 808.10930000 -273.59490000
217.12460000 789.15640000 -274.09650000
-263.62470000 747.36670000 -155.89290000
-263.80450000 709.91770000 -143.70990000
-210.60590000 919.15650000 -99.53150000
143.45130000 807.71550000 271.35780000
-263.31030000 714.55200000 -125.74330000
-267.97430000 329.71480000 -82.97690000
-263.49910000 682.87170000 -92.27820000
198.66710000 871.06330000 -273.10190000
221.68140000 869.39360000 -273.51980000
201.51610000 850.26480000 -274.68510000
216.75420000 834.47160000 -273.95230000
248.59740000 850.13400000 -273.45450000
-155.66550000 928.28790000 -114.96380000
-126.92130000 936.90390000 -52.83590000
257.26580000 863.08770000 -273.45580000
272.09490000 855.84450000 -270.46760000
267.20730000 839.92060000 -273.10160000
265.11030000 867.49250000 -272.06960000
-262.89180000 746.12650000 -143.07330000
275.53120000 864.32560000 -256.99590000
268.74220000 871.95870000 -267.06620000
-264.35690000 741.79480000 -131.52440000
243.79080000 875.72060000 -272.51710000
254.88090000 881.05800000 -266.71580000
124.76970000 794.70510000 270.42460000
262.77640000 882.97940000 -258.39110000
-262.55320000 791.84220000 -125.54120000
272.12310000 876.87960000 -255.80630000
268.67850000 888.25480000 -239.06270000
274.96640000 882.22270000 -229.19690000
230.56150000 882.29980000 -268.74210000
-262.57710000 761.08070000 -114.75240000
52.10380000 780.51120000 270.52870000
-157.11620000 931.76230000 -73.86820000
209.75960000 882.62320000 -272.48210000
206.82910000 891.30930000 -264.60010000
234.23200000 890.02350000 -257.55910000
-186.74450000 926.92070000 -69.25170000
-269.10100000 259.85590000 -80.14250000
217.12850000 900.11790000 -237.99310000
249.34720000 893.60300000 -238.24530000
51.02750000 816.82850000 269.90290000
176.28670000 888.46400000 -271.15350000
179.93550000 875.77620000 -273.09110000
158.61240000 865.22330000 -273.08610000
-177.30020000 930.47920000 -34.96980000
-255.42820000 895.67190000 -146.50580000
-258.31380000 891.79470000 -117.32090000
153.95250000 884.72850000 -273.63760000
151.06880000 892.69820000 -270.88280000
175.94480000 895.25130000 -266.20620000
165.45300000 902.41890000 -254.29330000
-268.56950000 254.15460000 -50.47440000
-268.87240000 280.09400000 -32.95610000
190.43810000 825.25630000 -275.03680000
175.34680000 833.31710000 -273.61740000
-261.59850000 835.99250000 -93.82010000
-263.31800000 729.59150000 -36.70290000
-263.28630000 699.07620000 -56.90330000
-264.06950000 664.91720000 -26.65820000
-10.65340000 808.69900000 269.55290000
-237.87200000 910.32430000 -109.75440000
-249.59030000 904.82760000 -112.73300000
-34.10810000 860.26580000 269.69480000
-62.28580000 839.56880000 269.94370000
-78.57360000 820.69820000 269.00460000
194.69510000 889.42670000 -268.84280000
195.65300000 897.38990000 -256.02820000
-265.02960000 607.88380000 -45.87960000
-263.65820000 717.25920000 -73.75980000
-254.74310000 901.59020000 -104.24020000
-257.63190000 897.59860000 -70.88990000
-251.99030000 906.57620000 -75.65980000
-246.30000000 910.51430000 -63.68820000
222.34920000 906.14400000 -210.33570000
-256.21440000 902.82280000 -51.37860000
-83.66170000 778.83490000 269.81380000
-21.76000000 759.89890000 269.94480000
50.22320000 723.98380000 270.00760000
-18.34240000 728.58400000 269.91700000
252.48730000 816.93450000 -273.06110000
268.85620000 816.94310000 -274.17590000
275.32990000 828.72020000 -267.45860000
275.84410000 808.58060000 -270.56410000
278.71420000 793.51940000 -264.95840000
278.06370000 767.47730000 -253.90930000
276.24130000 769.39140000 -267.59820000
277.85400000 824.58190000 -256.18880000
242.73930000 795.98480000 -272.58490000
278.57280000 767.32690000 -203.16270000
231.39350000 810.34610000 -273.57510000
-269.40610000 229.54480000 15.18820000
-246.83740000 912.03220000 -27.77780000
-253.34810000 907.48680000 -32.61740000
-262.36450000 689.01020000 1.22330000
-263.24530000 661.76480000 -0.84500000
-263.82490000 678.51080000 13.17150000
-270.85600000 100.68130000 -62.26690000
-263.60990000 640.05800000 32.66450000
-67.90580000 939.93260000 -78.98650000
37.83380000 736.70750000 270.71500000
-34.43010000 224.61370000 -273.62780000
-269.95770000 143.25100000 -51.95810000
-9.76630000 357.41700000 -272.51260000
5.88730000 357.56760000 -273.69480000
275.22040000 847.56500000 -266.46260000
277.02980000 872.42130000 -226.49330000
-269.72120000 144.91170000 -12.96660000
-147.69330000 935.76910000 -16.65020000
277.97810000 871.43980000 -183.13900000
-262.19750000 793.80710000 -84.84490000
-7.51910000 306.03680000 -273.00880000
16.81730000 297.95860000 -273.40410000
-263.14470000 766.86710000 -39.11530000
-261.84650000 799.12720000 -25.35440000
-269.95100000 87.43640000 -13.25150000
36.76320000 912.14150000 248.97860000
1.82620000 903.47890000 264.76780000
47.24810000 906.49260000 260.32630000
19.69340000 858.84420000 270.57720000
26.12930000 885.97840000 270.28870000
-270.60840000 118.47080000 8.07260000
-271.15310000 81.79000000 22.48510000
272.48140000 890.38260000 -216.01100000
261.36530000 895.77880000 -214.67800000
237.26130000 906.71730000 -189.14440000
-262.60300000 729.86830000 -3.43430000
-264.02300000 724.65090000 -17.72360000
-271.61970000 3.13980000 27.25700000
217.00880000 913.59500000 -181.73440000
224.19780000 911.13560000 -170.96830000
-262.53590000 765.06320000 14.54590000
256.59410000 903.36930000 -178.79210000
14.53060000 337.28740000 -272.89890000
277.25810000 882.73290000 -187.24620000
275.29990000 889.92070000 -193.60750000
267.00230000 898.97190000 -192.76890000
3.94380000 311.99390000 -274.13370000
75.73420000 890.06510000 269.82540000
-269.64320000 194.21860000 25.58110000
55.32840000 895.35680000 268.68280000
47.92180000 901.75340000 265.70350000
271.98420000 897.93780000 -173.55260000
20.21810000 898.04770000 268.09090000
274.51700000 896.29120000 -159.24590000
266.39470000 903.76620000 -150.14620000
-156.61510000 277.18590000 -273.61440000
276.75890000 892.23240000 -120.96710000
275.51380000 898.33010000 -124.96830000
-127.62640000 162.52740000 -272.75000000
-9.36000000 892.87890000 269.34120000
-77.71760000 196.61660000 -272.84670000
-102.47240000 225.84520000 -273.83340000
-163.76370000 933.43910000 4.85110000
269.97750000 904.63740000 -121.27720000
166.31520000 645.66110000 270.70070000
203.13140000 570.13510000 271.85250000
-163.37740000 243.33860000 -274.35630000
-146.38060000 228.93550000 -272.99830000
-132.93170000 194.27560000 -273.79370000
-160.55800000 177.66790000 -273.57070000
-131.82050000 144.06300000 -274.03030000
263.65930000 659.53720000 -274.13420000
273.68620000 661.70480000 -270.75340000
251.97970000 633.13160000 -274.20860000
276.36990000 666.23830000 -266.64060000
272.43870000 614.59190000 -272.03060000
278.25040000 636.36620000 -258.36200000
275.64760000 597.48610000 -265.93170000
227.50300000 628.55320000 271.56090000
226.84570000 685.38640000 271.99340000
276.52540000 600.88850000 -258.49840000
279.07810000 574.79020000 -254.42600000
277.94210000 602.42490000 -244.21460000
277.11170000 555.34040000 -197.34210000
-77.77530000 411.06440000 -274.79300000
-91.19800000 394.44010000 -273.50210000
278.18410000 600.42550000 -209.11050000
277.82910000 630.21620000 -185.11330000
277.81340000 621.51690000 -201.63400000
-49.44510000 369.35270000 -274.00140000
277.54530000 592.14940000 -178.87150000
276.17100000 602.50970000 -186.17780000
246.78850000 895.40730000 218.28410000
266.78960000 889.52720000 207.39900000
276.25550000 518.27760000 -175.84610000
271.83690000 877.76720000 215.72610000
267.42450000 884.62210000 224.39380000
277.47120000 535.92140000 -172.79710000
260.05090000 886.06290000 239.64610000
276.16700000 547.66000000 -146.76130000
276.91750000 572.11000000 -159.57760000
218.85690000 899.92480000 232.29960000
224.63240000 894.66940000 240.60480000
246.81780000 887.40610000 247.49630000
271.76020000 875.97710000 234.34650000
276.06570000 498.27040000 -141.53240000
271.70700000 862.50240000 247.39640000
264.99830000 879.77680000 244.75380000
268.99570000 872.43280000 249.54670000
256.97870000 875.82400000 260.23170000
269.54780000 864.55740000 258.99050000
259.74320000 866.96300000 264.54320000
242.51540000 884.05590000 257.18570000
235.14100000 880.80490000 263.02510000
232.16740000 865.52610000 268.84930000
276.68300000 521.28950000 -115.39470000
188.41390000 896.35830000 256.81860000
214.66730000 889.48080000 259.16140000
201.97370000 886.85580000 264.94530000
205.20660000 877.46680000 268.50440000
278.72790000 693.04140000 -196.43200000
276.86450000 688.41820000 -185.27740000
92.77300000 183.50460000 272.10490000
176.23520000 135.91340000 272.48210000
152.21240000 163.89690000 272.83040000
269.79130000 -83.65280000 -10.64760000
269.08370000 -111.58100000 17.87400000
269.74230000 -122.43200000 -4.76690000
268.55250000 149.51520000 176.02300000
268.54270000 101.27100000 177.60600000
267.51670000 115.02730000 169.49720000
268.77570000 206.79950000 176.58280000
269.79610000 -59.27660000 6.03390000
269.62550000 -81.08610000 33.24540000
271.00320000 -14.41180000 -1.26090000
269.66530000 -29.20690000 21.67700000
268.72530000 -57.23830000 24.86250000
268.98900000 136.66730000 159.44300000
270.84360000 -57.99490000 38.47250000
268.53450000 -78.34290000 45.49230000
265.30810000 -320.60120000 161.75790000
266.42010000 -275.43910000 142.02350000
265.61960000 -244.79930000 179.48910000
257.91270000 -62.42410000 -272.35530000
263.93230000 -124.67640000 -269.00020000
256.57600000 -124.79590000 -271.85500000
270.54340000 -226.43720000 -104.15390000
270.33690000 -187.87390000 -76.20830000
269.88550000 -261.42030000 -78.75900000
269.20320000 -214.39770000 -71.80000000
268.30460000 -244.15840000 -54.22340000
270.38360000 -86.97590000 -255.57300000
267.56260000 97.40140000 209.67010000
115.28830000 24.02270000 272.70920000
190.95670000 94.57700000 273.05910000
267.44210000 -195.25500000 134.19980000
267.01290000 -241.11270000 113.25230000
267.67990000 -177.97190000 126.41090000
266.23460000 -226.07560000 152.61750000
265.09390000 -72.82670000 -268.28830000
269.99820000 -280.96460000 -61.84070000
253.65220000 -360.18450000 273.19930000
259.91080000 -320.82740000 269.08600000
269.41140000 -309.04750000 -48.01770000
268.34670000 -273.45960000 -49.81250000
272.22610000 -129.82400000 -235.66930000
262.12240000 -441.90340000 260.55670000
263.25260000 -373.40910000 241.40870000
262.93660000 -306.30230000 261.03460000
267.31690000 70.25510000 178.69610000
270.58220000 -255.20230000 -60.51500000
266.00140000 -188.30410000 175.36260000
266.27030000 -178.37460000 149.60660000
269.14300000 -270.04650000 -39.39350000
269.24380000 -297.43030000 -22.76580000
263.20160000 -342.54040000 221.09080000
-129.24500000 236.87650000 270.93600000
-209.31000000 48.49080000 271.60640000
264.40300000 -239.41810000 247.58870000
267.55690000 -162.59560000 168.65130000
268.66960000 -251.25750000 -26.08900000
252.57620000 -253.92910000 273.08720000
271.32240000 -147.50990000 -93.98080000
263.09910000 -236.09620000 261.42300000
268.49980000 -44.76220000 -262.75450000
269.58350000 -229.42680000 -32.97440000
269.73620000 -189.97890000 -53.64150000
270.58550000 -6.78600000 -260.86230000
271.83550000 -47.99510000 -253.06940000
259.42940000 73.88850000 268.63610000
251.52550000 147.00490000 271.27480000
250.97850000 53.98750000 272.04530000
270.27830000 -140.92590000 -81.57960000
269.16400000 -159.34590000 -48.16070000
264.58140000 -200.01120000 224.33760000
268.66290000 -123.48980000 83.40050000
268.85420000 -50.56720000 80.93330000
267.85740000 -64.95270000 91.19900000
267.89160000 -84.42040000 101.23350000
269.59720000 -185.97810000 -22.30560000
269.64250000 -152.39990000 -26.22050000
268.81650000 -69.31490000 100.68880000
267.76110000 -140.42500000 103.00450000
269.76720000 -217.18140000 -21.44510000
268.40580000 -39.75330000 103.70260000
267.81090000 -105.21450000 123.30870000
267.98770000 -215.72880000 -0.82240000
268.64480000 -83.73130000 127.90470000
267.27880000 -99.95270000 150.37110000
268.89020000 -54.32490000 117.94290000
267.23160000 -64.17890000 119.81650000
268.57860000 -26.84000000 130.27370000
267.90590000 -56.39530000 141.32100000
268.58450000 -265.39520000 5.96400000
273.09450000 -26.30310000 -200.95530000
268.83400000 -235.79170000 7.76020000
272.16330000 -137.84330000 -203.16530000
267.79370000 -62.01160000 158.61050000
266.93260000 -134.20660000 154.60070000
272.20770000 80.81210000 -83.93580000
272.13890000 71.36140000 -53.37020000
273.23990000 -71.10380000 -191.03450000
271.92730000 125.88070000 -37.89170000
271.13420000 41.57920000 -82.40720000
272.95420000 65.50560000 -97.43430000
272.39620000 55.73960000 -65.64060000
271.89030000 5.60560000 -68.86310000
271.01460000 73.14510000 -58.58780000
265.95330000 -144.39710000 181.71840000
270.99010000 21.17820000 -52.50290000
267.98300000 -246.83980000 35.38120000
267.29040000 -104.82260000 178.65920000
265.54240000 -91.17680000 169.44330000
266.74550000 -59.16390000 174.11030000
265.70320000 -106.67460000 201.94180000
271.25780000 29.12420000 -18.64180000
268.15760000 -311.28310000 -25.67270000
271.67380000 78.56790000 -25.71830000
268.28130000 -317.64230000 -9.25040000
267.13490000 -20.12880000 120.01290000
-142.13850000 -364.79450000 273.63190000
95.24530000 -184.44290000 273.53310000
270.50510000 50.26030000 -18.88290000
268.33110000 -351.96680000 -9.11470000
268.62720000 23.49700000 134.98380000
268.59820000 20.80070000 156.17780000
267.75970000 -329.38020000 5.62650000
270.85450000 96.15430000 5.53330000
271.11260000 56.15770000 8.26640000
267.60180000 11.82320000 171.11830000
268.66530000 -311.26820000 17.45590000
266.49270000 -334.06750000 22.08420000
268.26630000 -343.51690000 36.15780000
266.80840000 -15.08790000 201.93770000
266.94920000 -63.65120000 187.20260000
266.91400000 -356.11580000 57.97280000
265.59950000 -30.34860000 219.47280000
271.97480000 177.68470000 -1.37680000
272.45420000 -190.00690000 -188.46350000
267.20300000 -323.01420000 52.35710000
267.18660000 -376.09860000 79.43000000
265.59590000 -417.92860000 83.15390000
272.08260000 -139.20530000 -174.00840000
265.66520000 -58.63750000 251.93780000
271.68100000 -97.11530000 -172.19480000
271.02100000 -193.16200000 -177.58230000
265.85530000 -357.89280000 109.27440000
265.78030000 -391.24760000 115.91710000
269.56780000 72.95150000 11.03390000
267.11890000 -294.35310000 23.34400000
270.19040000 71.07790000 30.96500000
270.27370000 -230.15410000 -158.05200000
270.21710000 91.22300000 25.15140000
267.94430000 -298.00500000 42.70380000
79.97970000 239.25870000 272.08240000
272.12780000 -199.52120000 -167.83710000
271.37240000 -215.82790000 -141.12250000
266.35390000 -305.61250000 51.86980000
271.06130000 128.62280000 48.32070000
272.62010000 -159.59170000 -167.99590000
264.57830000 111.11190000 262.68200000
264.07080000 -118.54510000 262.57970000
271.01750000 -189.64950000 -143.77970000
259.42350000 -137.99630000 269.43180000
269.99540000 95.20730000 50.01640000
271.26160000 -177.28530000 -141.95160000
266.50750000 -309.30240000 70.98210000
270.54180000 -166.68370000 -153.16150000
251.00340000 -131.80200000 272.95870000
267.61580000 -278.58770000 76.98520000
268.44610000 -224.67230000 54.83860000
270.57420000 -12.96460000 -24.80330000
266.51740000 -251.35220000 86.95840000
271.05670000 -207.47200000 -120.66320000
267.43590000 -305.87850000 93.72300000
266.39670000 -273.27580000 107.33110000
267.95120000 -336.36230000 69.89700000
270.38030000 -8.41390000 35.10260000
266.51520000 -334.02380000 90.72810000
269.87490000 27.99690000 20.83810000
271.56020000 -126.12260000 -150.13070000
266.74540000 -345.11500000 108.73220000
272.15090000 -54.08460000 -177.35040000
272.47060000 -84.24740000 -153.49480000
268.47390000 -173.62340000 8.13930000
271.27100000 -84.49700000 -129.79540000
268.91200000 -190.76700000 21.90900000
270.37950000 42.80380000 41.94700000
269.04460000 5.75410000 86.97670000
269.68910000 -148.73700000 21.83600000
268.95520000 -144.73400000 8.03230000
272.26500000 -113.62630000 -116.68150000
269.96490000 -40.34760000 37.21930000
271.15820000 -158.12990000 -135.70230000
268.87500000 -30.95360000 51.20210000
268.03410000 -44.82090000 46.09490000
269.87440000 -55.64520000 56.24890000
224.89900000 -331.60730000 274.64080000
268.92170000 -181.26640000 -122.36090000
270.86930000 -174.70840000 -117.66950000
216.59130000 -217.14970000 274.15960000
268.55100000 -80.40680000 65.92360000
270.69170000 -143.69230000 -105.65280000
268.39810000 -160.62320000 51.60420000
269.47340000 -24.27060000 85.95180000
242.29940000 -376.91910000 275.25960000
246.16510000 -326.59150000 275.21000000
268.57970000 63.15310000 46.86610000
269.98710000 69.21510000 54.80390000
244.88180000 -238.13540000 274.34170000
269.97610000 43.66460000 76.27840000
269.05560000 48.59880000 68.36600000
268.05160000 -178.75960000 79.59460000
272.70030000 17.59540000 -188.54370000
273.56940000 22.88420000 -206.39300000
267.08770000 -224.65250000 73.19550000
269.89830000 124.19330000 70.72960000
269.11100000 53.81530000 94.64290000
267.91390000 -230.25230000 90.21220000
269.76410000 -101.24730000 42.54880000
273.76530000 9.26670000 -181.15190000
268.61210000 -115.91220000 55.59380000
269.26620000 -155.65290000 64.63750000
267.71510000 -136.35600000 70.74180000
273.96380000 65.11650000 -183.73950000
253.21640000 4.41300000 271.93010000
273.26670000 34.99550000 -168.62520000
272.42700000 -7.16020000 -178.84700000
273.95760000 -8.79100000 -166.67560000
270.88280000 171.01640000 23.17070000
272.93320000 -15.69130000 -146.58810000
273.61720000 26.68850000 -148.09420000
271.70620000 195.16760000 30.10390000
266.47440000 191.40190000 254.31310000
270.50940000 184.69930000 57.47050000
271.68230000 -3.68350000 -128.09990000
271.91570000 -32.79540000 -112.51090000
272.74350000 51.35160000 -180.18840000
274.17290000 57.94120000 -165.30030000
195.30620000 -123.55000000 273.31100000
199.73270000 -142.06390000 273.99310000
204.13520000 -57.25680000 273.60400000
272.75130000 42.55530000 -152.28780000
273.36440000 76.86630000 -152.10080000
265.78470000 -308.67910000 122.94640000
266.06640000 -363.71120000 134.93590000
269.89610000 151.52890000 104.45240000
272.32970000 56.98220000 -129.55820000
271.98780000 31.87700000 -111.06160000
273.05380000 9.14770000 -117.76900000
270.94820000 220.64180000 69.31130000
271.87340000 12.79340000 -104.71470000
271.71080000 3.20640000 -88.01060000
269.89840000 226.91820000 115.74730000
269.55800000 277.47790000 131.86480000
272.83330000 -70.56210000 -123.73660000
270.17510000 254.24740000 144.28170000
269.20590000 284.76750000 179.30920000
271.17400000 -69.63110000 -102.81640000
269.34200000 98.62910000 112.35310000
270.85600000 -58.63420000 -71.77640000
269.13800000 -10.22720000 110.68860000
268.51130000 16.07280000 114.87730000
270.93620000 -250.79920000 -141.07060000
269.94220000 51.10190000 112.72440000
268.78780000 65.71350000 128.50630000
242.57700000 -101.32850000 273.98570000
270.23670000 187.59060000 128.76350000
268.78810000 132.42240000 143.09820000
272.54430000 102.93890000 -108.14530000
267.65840000 74.25720000 114.28000000
258.52810000 281.88390000 268.37820000
270.97280000 -121.06340000 -55.82150000
234.77110000 31.89670000 272.91930000
244.07720000 27.29130000 273.59240000
246.50590000 284.81450000 270.94840000
250.02780000 230.96010000 271.41530000
268.09180000 69.15440000 145.12020000
269.10680000 89.78270000 155.73580000
270.66720000 -99.40180000 -55.80800000
237.21600000 91.46340000 272.76540000
270.61000000 -50.52820000 -30.46800000
258.77840000 365.99180000 268.28220000
246.34750000 314.70130000 271.73880000
248.03740000 339.60590000 271.27620000
246.15900000 360.70470000 272.06850000
269.25780000 -44.19670000 -23.78850000
266.07230000 -436.31940000 101.80740000
264.81550000 -418.06840000 101.34620000
202.01920000 218.10770000 272.19560000
119.66970000 249.58290000 271.85610000
265.11150000 -443.92250000 135.41500000
205.93230000 231.22060000 273.37130000
192.67100000 261.66580000 272.52700000
266.09230000 -404.22500000 121.93420000
266.03150000 -408.15170000 142.92810000
264.86820000 -423.84620000 152.02210000
225.79900000 248.53410000 271.90520000
229.57990000 274.13640000 272.49410000
236.74120000 220.03610000 272.53800000
265.81010000 -441.02250000 147.55310000
264.65630000 -477.86420000 161.46120000
233.08150000 331.81910000 271.66230000
263.93330000 -457.46740000 174.26100000
266.17860000 -431.29830000 161.64240000
264.89280000 -376.64290000 149.71860000
265.01860000 -370.27040000 174.74840000
263.83950000 -427.00030000 187.68660000
262.21050000 -481.62410000 233.79760000
208.30100000 182.53130000 272.90960000
240.30030000 163.85140000 272.64950000
262.76990000 -485.94290000 249.45370000
-113.02320000 -933.80810000 250.66000000
-85.72630000 -933.95240000 259.58760000
-276.49170000 -650.34040000 161.37060000
-275.86350000 -600.06770000 118.41050000
-277.37160000 -695.02470000 187.15910000
-80.84980000 -929.78100000 274.37010000
-99.56580000 -928.88560000 274.93360000
-111.65470000 -932.69110000 269.56510000
-94.39760000 -923.53700000 276.10530000
-273.77100000 -274.37720000 106.73620000
-273.80240000 -259.12550000 152.32590000
-273.19990000 -187.84120000 111.30780000
-275.54870000 -412.18110000 212.19270000
-274.65230000 -374.93650000 219.38880000
-275.28970000 -369.36480000 190.13960000
-144.62240000 -934.57650000 233.65690000
-135.45760000 -933.82740000 231.40060000
-131.25130000 -932.52780000 261.48970000
-163.61840000 -932.93800000 239.62690000
-158.86290000 -932.63430000 258.43950000
-276.72170000 -873.11050000 31.53480000
-130.89260000 -929.22470000 273.72150000
-142.78310000 -930.23430000 271.10530000
-116.78810000 -929.03340000 275.54390000
-116.52590000 -920.85680000 276.35980000
-275.62450000 -428.64590000 250.41010000
-276.23420000 -389.44650000 245.30350000
-147.92210000 -913.48220000 275.69260000
-276.70110000 -638.06790000 206.43270000
-274.64100000 -346.42480000 54.71970000
-274.54840000 -396.25770000 81.99860000
-276.05360000 -839.04710000 29.50290000
-277.11610000 -864.17490000 54.48220000
-220.35810000 -935.61800000 191.38510000
-175.17160000 -934.92410000 199.45720000
-179.72450000 -935.38880000 213.79270000
-216.53660000 -934.37540000 205.26800000
-196.82240000 -934.05520000 227.63400000
-214.69400000 -936.43950000 217.58540000
-179.00820000 -933.35250000 227.20150000
-274.87140000 -333.39510000 153.15380000
-220.93920000 -933.55690000 230.75380000
-275.05870000 -500.34920000 78.04060000
-204.66640000 -932.03940000 248.49730000
-185.80760000 -931.94410000 267.05890000
-234.25750000 -935.32470000 215.85320000
-246.21690000 -935.50180000 199.90780000
-277.28720000 -599.43980000 227.56620000
-276.21140000 -522.72090000 242.45300000
-275.93550000 -519.48540000 202.97380000
-248.22870000 -933.65310000 223.72550000
-232.88950000 -931.87850000 246.75180000
-275.86150000 -566.33890000 249.69700000
-274.16230000 -266.70630000 196.05770000
-276.38720000 -778.74190000 40.78050000
-275.70050000 -515.88940000 111.27020000
-275.71030000 -476.75430000 98.90240000
-203.99350000 -931.85960000 267.69830000
-210.74590000 -932.70120000 259.20600000
-191.93710000 -927.39170000 274.05580000
-275.87680000 -805.69060000 44.29120000
-225.10940000 -928.91190000 266.20270000
-226.73350000 -923.97110000 273.48280000
-231.39340000 -915.60980000 275.25820000
-276.98660000 -796.91020000 60.22780000
-276.30870000 -762.22390000 65.09520000
-276.70640000 -747.25570000 46.13910000
-276.54220000 -579.72160000 255.29750000
-273.44260000 -525.44440000 266.47370000
-174.78810000 -918.51670000 275.35160000
-166.59380000 -880.33150000 275.39230000
-182.99360000 -802.63240000 275.29980000
-272.95220000 -167.06340000 181.29790000
-275.71480000 -521.46100000 258.36040000
-275.74110000 -506.70030000 148.55670000
-276.95600000 -842.77250000 71.99950000
-276.64190000 -877.08010000 89.02460000
-198.84420000 -912.73690000 275.48210000
-273.66570000 -144.04000000 178.70380000
-273.04540000 -116.36540000 180.37470000
-277.54130000 -866.39420000 106.01140000
-276.68220000 -815.74740000 71.89330000
-241.63390000 -877.38500000 274.90260000
-274.03190000 -230.20950000 210.46480000
-276.05080000 -792.53170000 73.68160000
-276.00590000 -460.33180000 224.22590000
-272.93300000 -169.58640000 221.15260000
-277.78350000 -816.18390000 91.09600000
-276.03340000 -572.19270000 47.59180000
-276.79680000 -841.13430000 112.55190000
-274.80830000 -472.74960000 260.57240000
-275.60890000 -603.59880000 69.01120000
-276.75790000 -617.77180000 110.60670000
-157.76380000 -924.20560000 275.91790000
-143.87920000 -922.22220000 276.20620000
-277.89220000 -808.14950000 119.69700000
-161.57750000 -931.33210000 268.24690000
-276.30330000 -658.68630000 83.46350000
-276.18090000 -675.61540000 114.31060000
-171.84660000 -929.09810000 272.98410000
-272.92860000 -446.94630000 266.83200000
-273.75620000 -435.81990000 261.56070000
-270.78740000 -420.12610000 269.86590000
-274.03790000 -401.89720000 261.45800000
-265.20090000 -429.79820000 273.32220000
-270.80560000 -469.33430000 270.09370000
-272.74570000 -255.24910000 216.48150000
-263.71910000 -450.75210000 272.96820000
-274.23880000 -257.95860000 233.43360000
-273.82870000 -282.88020000 214.54300000
-263.10060000 -535.27150000 274.16880000
-237.95830000 -451.91430000 273.71430000
-274.64430000 -931.13800000 45.60130000
-271.15350000 -934.76840000 43.98090000
-276.57680000 -916.39040000 77.23560000
-273.49150000 -199.45810000 236.25770000
-263.32950000 -936.97830000 46.71410000
-249.96880000 -938.83140000 63.34500000
-272.49850000 -233.22250000 244.49440000
-264.80600000 -938.07700000 57.81480000
-270.20250000 -937.13650000 53.27360000
-201.08230000 -764.22080000 274.63910000
-225.75600000 -688.80460000 274.72510000
-251.21680000 -937.88060000 84.42330000
-276.01740000 -925.05540000 76.18390000
-275.65660000 -576.82200000 133.95120000
-272.91640000 -932.99870000 65.95410000
-268.94490000 -936.23250000 69.83890000
-269.83380000 -530.38410000 271.11620000
-265.78650000 -937.72180000 86.05980000
-257.11610000 -937.92880000 96.07420000
-273.93110000 -930.73930000 102.77800000
-269.87880000 -934.91850000 103.68010000
-244.61270000 -553.66370000 273.92860000
-278.03970000 -804.37880000 171.23340000
-277.89240000 -761.88480000 224.65230000
-277.31700000 -765.45370000 180.47780000
-276.81740000 -717.74480000 218.20320000
-219.08730000 -938.66280000 92.14300000
-274.67730000 -334.08750000 225.63710000
-275.46560000 -355.22440000 236.13060000
-222.95080000 -936.53310000 102.53310000
-223.64970000 -937.27710000 114.18700000
-275.35150000 -396.15180000 111.90660000
-241.24120000 -936.66740000 114.48640000
-274.07040000 -311.84030000 225.88120000
-263.14070000 -935.86790000 106.33370000
-276.25250000 -557.28650000 164.88650000
-275.11900000 -292.94910000 235.37250000
-255.22510000 -935.42220000 124.08420000
-277.54250000 -857.43210000 224.25290000
-277.97770000 -830.11210000 221.06340000
-277.81330000 -843.91830000 179.92490000
-274.24570000 -369.65740000 129.40980000
-275.19990000 -438.91450000 133.60620000
-273.73110000 -305.41580000 261.53520000
-189.60780000 -935.90480000 126.82300000
-277.66390000 -894.93370000 212.80010000
-277.53200000 -873.04070000 171.80150000
-192.38480000 -938.13210000 139.27050000
-213.19730000 -938.24620000 133.44660000
-277.53690000 -917.41360000 250.63910000
-277.58960000 -915.71370000 203.14540000
-274.52510000 -922.16350000 213.27920000
-206.44280000 -936.52050000 146.19620000
-272.95650000 -373.30410000 260.93550000
-243.73950000 -936.92820000 137.19810000
-269.27080000 -373.01310000 270.92850000
-273.45860000 -351.17080000 263.66690000
-278.90630000 -902.52570000 259.35630000
-232.42840000 -934.81450000 157.91480000
-279.36550000 -873.37620000 253.20720000
-269.10670000 -330.53520000 270.25990000
-263.24570000 -930.35350000 226.76410000
-252.14100000 -929.84550000 243.81110000
-263.30810000 -378.72740000 273.34080000
-204.44730000 -936.02210000 166.26890000
-277.23440000 -884.77350000 264.81190000
-274.04470000 -891.86490000 270.40470000
-278.24660000 -862.09800000 265.46260000
-265.48810000 -927.83040000 258.37770000
-273.30020000 -878.13440000 273.46230000
-271.05120000 -926.66210000 238.66180000
-269.26100000 -897.45150000 273.21700000
-263.52400000 -876.99730000 274.40520000
-276.57490000 -923.72080000 120.57010000
-252.66920000 -929.56130000 258.45030000
-265.99250000 -936.39590000 127.60060000
-248.25460000 -927.92510000 270.22560000
-275.71810000 -928.80100000 130.75930000
-270.51350000 -933.92390000 139.59320000
-274.59700000 -324.95110000 106.09770000
-276.97890000 -883.68770000 123.81880000
-274.00640000 -269.52780000 250.01440000
-248.92380000 -922.78360000 273.94020000
-277.27500000 -792.89500000 219.64640000
-273.11290000 -924.04770000 261.24550000
-276.61410000 -911.44950000 268.01500000
-275.09030000 -919.17270000 269.09390000
-266.58260000 -924.82190000 270.31710000
-277.78120000 -837.02460000 252.05380000
-278.17670000 -799.45870000 252.92190000
-273.04570000 -274.88910000 260.33870000
-272.16440000 -914.93930000 272.91360000
-261.98380000 -918.45540000 275.36870000
-276.36050000 -820.21770000 265.36150000
-278.98780000 -776.67850000 256.18920000
-275.75460000 -761.97440000 266.82500000
-276.79230000 -781.95820000 267.99810000
-276.81530000 -810.57370000 137.08630000
-275.97880000 -808.19410000 268.85010000
-272.46250000 -805.66390000 272.87140000
-277.12700000 -907.53640000 154.64160000
-271.99410000 -241.87690000 263.34880000
-270.71150000 -252.90690000 267.52430000
-264.77210000 -296.67020000 272.26940000
-255.22600000 -255.80020000 272.92210000
-264.12530000 -250.36010000 271.84250000
-269.75470000 -269.16160000 269.42580000
-271.47000000 -305.45500000 267.31930000
-244.91490000 -774.86170000 274.63780000
-261.02860000 -934.82750000 143.86020000
-276.33940000 -922.37270000 154.90910000
-273.94480000 -924.70280000 173.25790000
-260.36020000 -935.78160000 159.05150000
-240.49130000 -935.86910000 166.13620000
-247.02520000 -936.85300000 170.92780000
-273.17100000 -857.72520000 272.13720000
-263.74240000 -830.91780000 275.32940000
-254.14850000 -933.74790000 176.69320000
-268.62490000 -929.35300000 186.31170000
-259.00370000 -933.39480000 183.02170000
-273.86160000 -283.55760000 55.07000000
-277.60300000 -660.40260000 235.02130000
-257.45880000 -932.96730000 205.14200000
-273.11710000 -257.14710000 56.62350000
-273.10240000 -208.58780000 49.56390000
-278.14540000 -731.65850000 234.59080000
-277.03940000 -696.45730000 235.19240000
-274.11720000 -253.20280000 71.61240000
-169.45490000 -937.70360000 167.37330000
-276.42830000 -743.36650000 260.97180000
-276.37000000 -708.59140000 262.78730000
-277.17870000 -637.11670000 254.56470000
-275.61930000 -723.89120000 30.15680000
-275.77860000 -730.99370000 268.62520000
-273.14590000 -711.28700000 271.49920000
-269.03950000 -741.10310000 273.68340000
-275.56910000 -686.47290000 268.91710000
-263.61920000 -743.21160000 274.74440000
-214.75050000 -614.52820000 274.45760000
-276.27410000 -703.42160000 19.12470000
-276.03890000 -678.65150000 27.42300000
-277.37730000 -776.34280000 85.65530000
-276.00920000 -686.57290000 70.42650000
-276.79780000 -733.04520000 93.99870000
-276.95020000 -688.67430000 90.04190000
-273.85910000 -638.39510000 268.68660000
-275.60300000 -633.98470000 259.61990000
-277.11470000 -772.08800000 112.01700000
-276.43100000 -800.18500000 97.17270000
-275.55840000 -605.88570000 264.71280000
-273.82310000 -173.72230000 29.59270000
-272.30910000 -127.81190000 52.99290000
-272.06050000 -599.40950000 270.85640000
-270.63290000 -651.38580000 272.38390000
-276.79540000 -676.96380000 61.30540000
-275.60290000 -641.90030000 42.06530000
-277.07210000 -707.85500000 138.26390000
-273.26590000 -162.93740000 69.34300000
-277.04750000 -770.82940000 147.23740000
-270.41000000 -684.45030000 274.09670000
-262.86300000 -647.73460000 274.75610000
-263.71660000 -692.85910000 274.41280000
-272.15420000 -773.86800000 273.71210000
-273.44640000 -746.28490000 270.05120000
-272.84180000 -197.06930000 79.78750000
-271.92390000 -80.91090000 94.36820000
-147.42380000 -937.08070000 176.66940000
-160.61250000 -935.33760000 184.71320000
-145.92280000 -935.68760000 193.71320000
-148.44870000 -936.41110000 205.99480000
-272.46040000 -100.40480000 114.78500000
-171.06240000 -937.30650000 192.85780000
-277.16460000 -843.77000000 160.61380000
-273.48610000 -583.05270000 265.88540000
-267.78220000 -584.75400000 273.32380000
-267.03550000 451.45840000 38.93770000
-269.34530000 192.74380000 182.98600000
-269.75530000 191.36810000 212.84060000
-268.47710000 239.06650000 180.02980000
-136.37540000 599.68070000 269.64940000
-98.09760000 607.59580000 270.22920000
-128.79280000 743.72300000 269.53710000
-268.52950000 266.71590000 195.88230000
-262.08440000 776.68690000 71.72380000
-122.02020000 908.80650000 252.67340000
-143.42940000 907.84150000 245.66940000
-261.90290000 761.25360000 45.12280000
-151.24900000 900.69300000 260.07270000
-103.97220000 901.50350000 265.37260000
-98.57850000 906.31790000 257.42350000
-268.56130000 286.61800000 32.00290000
-263.50050000 678.31300000 32.72540000
-267.07020000 358.05120000 32.53730000
-260.19560000 828.29030000 106.47610000
-136.27980000 893.12380000 268.52860000
-132.14450000 866.74840000 268.53560000
-120.79860000 887.74740000 270.03350000
-94.39950000 895.09720000 268.89490000
-219.32890000 905.31570000 209.52070000
-201.63380000 907.53940000 211.75400000
-235.91640000 901.58100000 202.04180000
-267.44830000 367.01210000 102.56100000
-268.18600000 349.78380000 39.60610000
-266.97300000 407.36510000 66.99320000
-262.80900000 737.51400000 60.63150000
-268.55410000 276.99020000 64.50040000
-257.13610000 872.74270000 231.37150000
-252.38670000 892.49710000 210.28110000
-257.42930000 884.18070000 182.58070000
-258.64820000 850.23230000 222.07030000
-263.98320000 653.09180000 62.41600000
-245.72130000 899.29360000 197.45110000
-247.37750000 891.13290000 231.32130000
-254.21840000 884.06820000 228.37860000
-267.20780000 352.56710000 223.36690000
-267.92520000 323.97750000 167.82640000
-267.23170000 301.66170000 217.08330000
-229.92610000 896.08890000 235.93420000
-239.49900000 890.66170000 249.64940000
-197.49780000 901.74110000 242.38030000
-214.62960000 894.01060000 255.84500000
-270.18630000 147.74180000 40.08470000
-270.08960000 97.93470000 40.85650000
-270.42720000 81.39740000 66.00040000
-268.18210000 280.88890000 121.89250000
-270.49770000 148.90780000 172.83020000
-270.59440000 53.33090000 29.77010000
-263.28230000 654.76460000 130.24010000
-263.60390000 649.66530000 79.67270000
-264.13070000 619.06140000 109.12910000
-202.62610000 848.98690000 268.51120000
-194.02900000 872.24840000 268.63680000
-212.67000000 882.55840000 267.96960000
-269.77730000 143.22390000 198.25070000
-242.99170000 271.68120000 270.41850000
-265.92680000 444.16080000 54.02930000
-158.29400000 912.08750000 224.60230000
-173.05830000 904.29860000 248.59340000
-179.79350000 897.36000000 262.15320000
-200.31220000 894.46260000 258.75430000
-266.29960000 440.29210000 121.31470000
-191.27950000 889.17960000 266.23890000
-217.01700000 887.76420000 264.28340000
-127.47820000 845.82420000 269.28600000
-167.41330000 884.71140000 269.39650000
-165.74660000 893.35420000 266.92280000
-262.27870000 738.28080000 89.57100000
-271.55540000 5.33870000 97.60210000
-146.57020000 840.50040000 268.45040000
-220.52530000 636.26670000 269.50890000
-263.01350000 735.81580000 103.68340000
-261.69390000 734.98810000 137.34670000
-271.57330000 54.35020000 74.29990000
-230.13420000 565.04310000 269.67710000
-254.70060000 877.81700000 249.46300000
-253.94750000 867.56060000 261.02400000
-256.21330000 857.61910000 260.88740000
-257.33270000 846.87230000 260.42830000
-247.66450000 860.54140000 268.16180000
-249.76230000 883.07340000 254.62330000
-246.91680000 879.10870000 261.69290000
-233.96590000 887.08500000 261.98530000
-270.90140000 89.21310000 130.42940000
-270.83870000 42.91340000 126.95100000
-235.41740000 878.79060000 267.17600000
-235.77520000 863.87490000 268.69840000
-262.80510000 675.82630000 165.52250000
-249.64200000 869.75880000 265.47890000
-263.54550000 567.35580000 251.85950000
-263.35190000 611.90940000 247.64200000
-262.85020000 639.44020000 229.58380000
-265.06130000 562.66820000 33.30350000
-261.78290000 610.38620000 263.58540000
-263.11400000 590.99130000 260.18550000
-259.84770000 810.06170000 255.88980000
-258.31940000 797.68830000 263.47750000
-251.09230000 845.25440000 268.14150000
-222.29130000 407.62460000 270.26170000
-248.09070000 790.76870000 269.47310000
-255.46720000 791.42770000 267.79760000
-235.07480000 816.91330000 268.17300000
-261.04820000 736.06480000 209.09430000
-261.57840000 642.62380000 263.42970000
-261.94120000 669.04170000 259.01720000
-258.37780000 599.45260000 268.93910000
-247.24950000 632.38060000 270.10340000
-257.46930000 631.02460000 269.33840000
-265.32930000 547.74800000 71.26060000
-199.55730000 785.79080000 268.70800000
-237.18960000 329.69960000 270.34840000
-256.96190000 901.95390000 43.26120000
-271.71250000 -13.41450000 183.29760000
-259.32240000 884.28580000 96.35530000
-265.14250000 499.54450000 91.60010000
-258.32330000 896.99210000 81.78750000
-264.93720000 488.70180000 256.12530000
-265.15560000 514.79300000 198.69420000
-265.82650000 452.28880000 212.84460000
-255.27690000 904.25060000 65.77080000
-263.93010000 520.41160000 250.67530000
-263.57550000 592.57160000 189.49500000
-266.01200000 518.72560000 100.48840000
-265.12680000 504.04690000 122.86240000
-268.42730000 223.50310000 19.79180000
-262.80620000 534.25100000 264.26570000
-261.83060000 523.39980000 265.12220000
-261.68490000 548.97810000 266.05540000
-260.83350000 565.29660000 264.90810000
-269.77810000 189.42150000 95.53340000
-256.40890000 539.34950000 269.95040000
-264.70420000 554.01320000 139.57060000
-262.54530000 647.38450000 157.74180000
-256.99320000 447.68730000 270.03880000
-244.04710000 492.29320000 270.36690000
-255.85120000 494.81510000 270.21220000
-270.50440000 137.22040000 83.94170000
-264.03080000 595.53400000 81.96560000
-249.42400000 910.74050000 66.69950000
-252.82120000 906.90760000 87.23890000
-245.48770000 911.64370000 88.24520000
-269.75840000 144.44130000 120.95170000
-263.49430000 468.83620000 265.53910000
-232.18070000 915.95010000 102.20090000
-260.22330000 582.60820000 266.52820000
-256.05990000 900.62270000 105.54460000
-249.46780000 908.12090000 109.70380000
-244.75230000 587.63140000 270.48150000
-255.85180000 584.41140000 270.04590000
-237.43850000 911.41880000 133.58860000
