1.55182000 -0.71449100 3.45919000
1.49140000 -0.80352600 3.52790000
0.17291100 -0.80911100 0.92137200
0.56147600 -0.79745500 2.34937000
0.52658200 -0.77597800 2.35698000
0.56069600 -0.81055300 2.39032000
0.59964300 -0.80265700 2.38382000
1.92845000 -0.78161600 1.25574000
1.89036000 -0.76022200 1.25993000
1.90047000 -0.78573600 1.20562000
1.93886000 -0.77555400 1.19814000
-1.61485000 -0.78768500 -1.94258000
-1.59050000 -0.73218900 -1.89794000
-1.58703000 -0.77485000 -1.92862000
-1.56773000 -0.74456900 -1.91722000
-0.09638170 -0.72338500 1.40559000
-0.11661700 -0.75112500 1.36324000
1.86516000 -0.76374400 -3.48725000
2.01978000 -0.76883900 -3.46514000
1.97946000 -0.76350600 -3.47622000
0.71337600 -0.75519400 2.28835000
0.67356800 -0.74165700 2.28751000
0.67638900 -0.78397400 2.33565000
0.63848900 -0.80120300 2.38061000
0.63772200 -0.73769500 2.33535000
-2.13539000 -0.77261400 -3.80171000
-2.17141000 -0.76979000 -3.85153000
-2.13504000 -0.76787700 -3.84807000
0.70919300 -0.79429600 0.14805800
-2.15818000 -0.69853500 1.38318000
-2.13857000 -0.74133100 1.50203000
-2.14586000 -0.74503300 3.79203000
-2.19744000 -0.71396000 3.74821000
-1.47143000 -0.78125500 3.47615000
-1.41935000 -0.80158400 3.47352000
-1.42450000 -0.81639000 3.51119000
0.26817100 -0.78618800 1.27715000
0.24932500 -0.71910100 1.24208000
1.68893000 -0.76987600 -3.49013000
1.85453000 -0.75238300 -3.46810000
-2.21110000 -0.66423200 -3.75854000
-2.21261000 -0.68357600 -3.80003000
1.12110000 -0.66783500 -2.78480000
1.17187000 -0.66837000 -2.68025000
1.10108000 -0.72830100 -2.78882000
2.33655000 -0.69423200 1.12391000
2.31412000 -0.73267900 1.12630000
0.03436180 9.62748000 -1.42522000
-1.52750000 -0.67529200 -0.20459700
-1.59845000 -0.68430300 -0.08517130
0.39556800 -0.81179600 3.63315000
-2.03752000 -0.78032700 1.14583000
-2.06255000 -0.72028200 1.16585000
-2.06525000 -0.70970600 1.28004000
0.23797200 -0.70553500 3.74990000
0.21316100 -0.71258700 3.80743000
0.14683800 -0.81530500 3.81715000
0.25403600 -0.70982300 3.70853000
1.37516000 -0.76229200 -2.28807000
1.38488000 -0.69788700 -2.25211000
1.37826000 -0.75363600 -2.24469000
1.30869000 -0.74278600 -2.21167000
1.33991000 -0.77626600 -2.21665000
1.34552000 -0.78603500 -2.17687000
2.20026000 -0.77274600 -3.49100000
2.23060000 -0.77147800 -3.34430000
-1.01178000 -0.78741500 -1.99466000
1.70065000 -0.72493300 3.87554000
0.45160300 1.19117000 1.33035000
-0.71327900 -0.74489100 -3.89143000
-0.71860900 -0.69997300 -3.91763000
-0.67748800 -0.76492400 -3.91071000
-0.65922600 -0.77305500 -3.86537000
-0.66962800 -0.77611200 -3.88989000
-1.19470000 -0.77597800 -2.83699000
-1.18183000 -0.75184900 -3.30959000
-1.18964000 -0.77467800 -3.27209000
-1.20850000 -0.78186800 -3.30510000
0.89983500 -0.69585600 -2.96320000
0.93901100 -0.71901500 -2.99346000
0.94819200 -0.75600300 -2.96228000
1.00174000 -0.73558100 -2.89307000
0.99040600 -0.76450400 -2.92852000
1.03053000 -0.77628500 -2.92827000
1.10171000 -0.79690500 -0.87785700
1.11104000 -0.78033700 -0.83435800
-2.03750000 -0.75660800 3.02255000
-2.01801000 -0.77104300 3.02999000
-2.00639000 -0.80210800 3.09227000
-0.94303000 2.23002000 -1.09395000
-0.96598900 1.18897000 -1.10016000
-0.76551200 2.00046000 -1.29813000
-1.75586000 -0.78494900 -2.39253000
-1.71268000 -0.67626200 -2.34906000
1.26021000 -0.67083600 -3.98794000
1.40242000 -0.66360200 -3.97640000
-1.78229000 -0.69350300 -2.44732000
-1.80453000 -0.77427900 -2.41384000
1.31438000 -0.80851900 3.25807000
1.29525000 -0.76377000 3.34950000
-1.98295000 -0.81755000 3.08724000
-1.87937000 -0.72244300 3.16783000
-1.90896000 -0.80386700 3.13610000
-0.21393800 -0.72749700 -2.34668000
-0.14261400 -0.73509600 -2.35138000
-0.09641140 -0.77912900 -2.38778000
-0.12774900 -0.74747900 -2.38713000
-0.12460400 -0.78202500 -2.42747000
-1.82309000 -0.73041700 3.18565000
-1.84910000 -0.72615600 3.15045000
0.52010900 -0.68556800 -2.91011000
-0.09898590 -0.77444400 -2.34835000
-0.11858200 -0.78128600 -2.30022000
-0.07019270 -0.79649400 -2.28104000
-0.06383230 -0.78984600 -2.36532000
0.07377440 -0.70286600 3.70494000
0.10193100 -0.71033200 3.67284000
0.12660300 -0.72518700 3.59760000
0.16512900 -0.70732700 3.56550000
-0.55131200 -0.75412000 -1.99038000
-0.56538700 -0.78538500 -2.03384000
-0.12059900 -0.80674800 2.12287000
-0.10103500 -0.78070000 2.02026000
0.43496200 -0.78286800 -2.41336000
0.42625800 -0.79198200 -2.34216000
0.94501500 -0.69551200 -2.89605000
0.92211800 -0.71035400 -2.92869000
0.95328700 -0.75427000 -2.93128000
0.65738200 -0.67716600 -2.89973000
0.89143200 -0.68538600 -2.90831000
0.91138900 -0.69218500 -2.87079000
-0.34588100 -0.70716700 1.86676000
-0.31993100 -0.71018700 1.79177000
-1.36326000 -0.67131200 -2.97521000
-1.39391000 -0.68553300 -3.05433000
-1.29854000 -0.66292500 -2.98377000
-1.29573000 -0.66417100 -3.30432000
-1.30050000 -0.65927100 -3.22088000
-2.00885000 -0.81570600 2.57222000
-1.94846000 -0.80638000 2.68667000
-1.82105000 -0.73757900 3.12672000
-1.82384000 -0.77909900 3.06950000
-1.79259000 -0.80636700 3.09158000
-1.86795000 -0.78455300 -2.79088000
-1.84742000 -0.77410000 -2.78832000
-1.85884000 -0.74713600 -2.70743000
-1.84897000 -0.69337900 -2.74421000
-0.42146500 -0.78603000 1.79712000
-0.39536500 -0.79815700 1.80369000
-0.42542800 -0.71931700 1.60630000
-0.40691800 -0.77272600 1.66959000
1.89897000 -0.67698200 -2.39054000
1.86160000 -0.67784500 -2.42396000
1.89194000 -0.76706300 -2.42884000
-1.50503000 -0.75967300 -2.69158000
1.65186000 -0.81014400 2.46651000
2.19925000 -0.76486400 3.63752000
2.24360000 -0.79906700 3.67516000
2.16387000 -0.78497500 3.66020000
1.81743000 -0.77947400 1.37594000
1.72588000 -0.76930100 1.30054000
1.92206000 -0.77544400 -2.44268000
1.11980000 -0.70328700 -2.82017000
1.09812000 -0.67650100 -2.78721000
0.41252500 -0.78839600 -2.45080000
0.42849400 -0.79120100 -2.53024000
-0.17396700 -0.71530600 2.04506000
1.97082000 -0.67419300 -2.41561000
2.00519000 -0.66959000 -2.38182000
1.22111000 -0.66693200 -0.96964100
1.19712000 -0.67225200 -0.97435200
-0.75977000 -0.78438900 -2.75467000
-0.70998700 -0.67917000 -2.70503000
2.03313000 -0.70031100 -2.49460000
2.06794000 -0.68091000 -2.55903000
2.09198000 -0.69326700 -2.57626000
-0.09291560 -0.77542000 1.05126000
-0.11315000 -0.74562000 1.04602000
1.98687000 -0.76360400 -2.47519000
1.98855000 -0.75826300 -2.42574000
1.50774000 -0.68985900 0.98033200
-0.86804000 -0.71499000 1.25382000
-0.91930700 -0.72278900 1.32133000
-2.19033000 -0.79032200 -1.64426000
-2.22935000 -0.78750600 -1.62329000
-2.19862000 -0.78587600 -1.57940000
-0.39579500 -0.70880100 -0.39981000
-0.38354700 -0.72992600 -0.42260500
-0.39603600 -0.79071200 -0.46676600
-1.44648000 -0.77714200 -2.87460000
-1.45568000 -0.70655600 -2.82685000
-1.47615000 -0.68872500 -2.92204000
-1.53725000 -0.74923600 -2.90442000
-0.80668800 1.17554000 -1.31908000
-0.88065300 1.15878000 -1.23725000
-2.26931000 -0.69390600 -1.41110000
-2.26815000 -0.68029200 -1.15282000
1.40894000 -0.67263400 -2.21509000
1.37900000 -0.68331600 -2.17381000
-0.44425400 -0.78406200 -2.77425000
-0.50390100 -0.78962600 -2.70841000
-2.13818000 -0.71983100 3.40940000
-0.53739200 -0.81430300 3.70701000
-0.56756600 -0.78262600 3.71200000
-0.57755800 -0.74269600 3.68368000
-0.49357100 -0.73414500 3.74489000
-0.51701000 -0.81465700 3.73733000
-1.12662000 -0.71255400 -1.74344000
-1.05403000 -0.69832900 -1.77131000
-1.10934000 -0.78892300 -1.80257000
-1.07711000 -0.77382700 -1.80322000
1.28623000 -0.79142400 0.39770500
1.29222000 -0.80141200 0.47113900
1.43432000 -0.79348000 0.55780800
0.95249600 1.17983000 0.89261700
0.79931100 1.17105000 1.06317000
1.06100000 1.18508000 0.69976000
-0.56390100 1.33336000 -1.44498000
0.58973600 -0.68710700 -2.43924000
0.47523600 -0.73883900 -2.41488000
0.71116900 -0.70993400 -2.48710000
0.68342300 -0.76185900 -2.49559000
0.68557200 -0.78394700 -2.53259000
-1.21363000 -0.78661900 -2.11981000
-1.29323000 -0.77565300 -2.07939000
-1.38100000 -0.75159600 -2.05939000
-1.39979000 -0.77633700 -2.08444000
2.02180000 -0.69951600 1.42809000
-0.58881700 -0.78711600 1.28856000
-0.55085500 -0.79116400 1.37910000
-1.28328000 -0.81155600 2.95145000
-1.31799000 -0.80094400 2.95195000
-0.01147990 -0.67297800 -2.12499000
0.01114600 -0.67439100 -2.22088000
0.04354960 -0.69861700 -2.26442000
1.43077000 -0.76816300 3.07727000
1.47478000 -0.81144300 2.86838000
-1.10676000 -0.68069600 -1.66209000
-1.11822000 -0.72986100 -1.73544000
-1.11558000 -0.75432900 -1.73487000
-0.57423800 -0.79032500 3.86380000
-0.58879700 -0.73917500 3.87481000
-0.61350100 -0.70850200 3.77501000
-0.61630800 -0.70263600 3.88953000
-1.59688000 -0.67890500 -2.80637000
-1.64500000 -0.74651900 -2.81191000
-1.60380000 -0.77709800 -2.85765000
-1.56004000 -0.77567500 -2.87250000
-1.55895000 -0.69131400 -2.83364000
1.94547000 -0.70302000 1.39775000
1.90788000 -0.79378900 1.36460000
1.91873000 -0.73807200 1.30486000
1.61856000 -0.78351500 -0.88633800
-0.68434500 -0.80051200 0.80137600
-0.11830500 -0.69154300 -0.91031800
-0.16125600 -0.68631200 -0.74571600
1.02540000 -0.77146400 0.67191400
1.05174000 -0.73473600 0.71850600
1.00281000 -0.72514200 0.70350800
1.05501000 -0.78543900 0.76457200
2.26203000 -0.78346100 -1.78287000
2.26630000 -0.79098900 -1.73016000
-0.66856500 -0.67728900 2.37007000
-0.68141100 -0.69634000 2.33404000
-0.78583900 -0.69296100 2.33684000
-0.90425800 -0.77208000 0.12232500
-0.88764800 -0.68731900 0.07110180
-0.86513800 -0.73842400 0.11269000
-1.00280000 -0.78477500 0.13503600
-1.13018000 1.31264000 0.64869000
-1.84751000 -0.68053500 -2.34638000
-1.82810000 -0.78067000 -2.38126000
-1.81438000 -0.68731900 -2.37580000
1.38714000 -0.67384400 0.44826400
1.40713000 -0.67977400 0.37252700
1.43586000 -0.68174200 0.35760700
1.31317000 -0.79747000 0.42804900
1.35459000 -0.72093500 0.46318400
1.35200000 -0.73368200 0.49584800
2.02594000 -0.78718500 1.33347000
2.01892000 -0.78034400 1.38213000
1.98450000 -0.72042400 1.38897000
-1.22058000 -0.78984700 2.94606000
-1.20423000 -0.71532600 2.89146000
2.32655000 -0.68894100 1.42868000
2.34150000 -0.68538300 1.37512000
-0.23597300 -0.70858400 -0.39295500
-0.22462300 -0.69673300 -0.41506600
-1.21391000 -0.75006800 1.40309000
-1.34081000 -0.75711400 1.33526000
-1.19977000 -0.81549000 3.10336000
-1.11303000 -0.70899500 3.12423000
-1.15567000 -0.78809900 3.13993000
-1.16041000 -0.81765900 3.09467000
-1.35449000 -0.76297100 1.07349000
-1.39880000 -0.80854500 1.10870000
-1.41777000 -0.80429000 1.05069000
-1.43056000 -0.80349500 1.11258000
1.31050000 -0.79727900 1.28047000
1.46510000 -0.79905700 -0.13342800
-1.47516000 -0.72492700 3.12291000
-1.47359000 -0.72452300 3.17809000
-1.51238000 -0.77598600 3.17593000
-0.95093200 -0.78288900 -3.02608000
-0.93865400 -0.76926600 -3.11532000
-0.91960500 -0.70057700 -3.06961000
-0.92877000 -0.77251500 -3.07101000
0.67427700 -0.68992800 -2.42145000
0.64904600 -0.75710200 -2.47040000
0.49823900 -0.71223800 -2.44079000
1.34349000 -0.78373500 0.52203000
1.31715000 -0.78594400 0.48962100
1.33329000 -0.79608900 0.55206100
1.29067000 -0.79522900 0.54560400
1.89090000 -0.70606300 1.10682000
1.95272000 -0.71287100 1.14168000
-1.88330000 -0.79546900 1.76565000
2.02214000 -0.68405900 -0.54653300
0.31250900 -0.69234700 -2.84699000
0.29285400 -0.67801400 -2.93143000
0.31804800 -0.68357300 -2.93009000
0.31630000 -0.68176700 -2.87687000
-0.76854000 -0.76135000 0.04336610
-1.85016000 -0.81425300 1.40339000
-1.88235000 -0.80122300 1.36466000
-1.89826000 -0.75387600 1.42824000
-0.73718400 -0.80964000 1.58250000
-1.55998000 -0.68786600 -2.78384000
-1.60778000 -0.76165300 -2.82273000
-1.55686000 -0.68392200 -2.81252000
-1.54131000 -0.77618100 -2.74193000
-1.06800000 -0.66781700 0.07530880
-1.06102000 -0.67139600 0.13146000
-1.10044000 -0.66485100 0.13496700
-1.03396000 -0.67791600 0.05421310
-0.74254400 -0.79758400 -0.99570700
-0.74740400 -0.70360400 -0.95362700
-0.77157000 -0.79340300 -0.98172300
-0.74423500 -0.78570700 -1.07533000
-2.12021000 -0.80221200 -0.26534800
1.31328000 -0.78505900 0.69644200
1.28206000 -0.69566800 0.65622800
1.31861000 -0.70709900 0.64016900
1.28078000 -0.70367500 0.58901000
1.30480000 -0.76875500 0.58841700
1.31249000 -0.67740600 0.61145800
0.23412800 -0.72115200 0.86724000
0.30540900 -0.71720900 0.90000200
0.34673100 -0.71493200 0.93154000
-0.89821800 -0.71755000 -0.08052930
-0.89486000 -0.73895300 -0.04975200
0.82815800 -0.69249500 -1.66282000
0.81534100 -0.76815800 -1.60991000
0.77799100 -0.68876500 -1.64932000
0.55398200 9.95944000 -0.92101100
0.68066800 9.95902000 -0.66089900
0.75549500 -0.66914000 -4.01952000
0.46241500 -0.65772500 -4.01408000
0.24999400 -0.67203200 -4.01483000
0.42088900 -0.64546000 -4.00447000
0.24955400 -0.70957300 0.81682300
0.25510800 -0.71712000 0.79039800
0.26214500 -0.78695100 0.76353700
0.30446600 -0.74144800 0.92192900
0.33042200 -0.72400000 0.95821500
-0.47866800 -0.70997500 3.80788000
-0.45831600 -0.71387400 3.81944000
-0.43783300 -0.72854000 3.79216000
-0.39234800 -0.81426900 3.80494000
-1.60059000 -0.80652100 3.22286000
1.76109000 -0.76982100 -0.14913400
1.78494000 -0.71751500 -0.15941300
0.81292600 -0.78083800 -1.55785000
0.81313500 -0.71714200 -1.51661000
0.79110900 -0.77091600 -1.54478000
0.74942200 -0.71639100 -1.62280000
0.78424700 -0.77968000 -1.59218000
0.73653800 -0.78778400 -1.55858000
1.41131000 -0.67925100 -0.73316200
1.31515000 -0.77195500 -0.80467500
1.34589000 -0.69855300 -0.76987700
2.11813000 -0.68625200 -0.55601500
2.09544000 -0.69506000 -0.58453900
-0.99373200 -0.80698100 1.04796000
-0.96539400 -0.80696200 0.98530700
-0.99850200 -0.81482900 1.38414000
-0.91411800 -0.70390200 0.59804300
-0.90878900 -0.79742000 0.62254200
-0.96786100 -0.78212400 0.61996900
1.11575000 -0.67793100 -2.27060000
1.13957000 -0.67767100 -2.30240000
1.17152000 -0.67169100 -2.32147000
1.08961000 -0.68497500 -2.29681000
1.12742000 -0.75451300 -2.31745000
1.11804000 -0.68255900 -2.30062000
2.17819000 -0.76189600 -1.03348000
2.19557000 -0.78216200 -1.02216000
2.17797000 -0.79285100 -0.96485100
2.19935000 -0.77744100 -0.95207900
-1.12892000 -0.77261800 -4.01132000
-1.69134000 -0.77693700 -4.00469000
-0.13971400 -0.76000600 -4.03147000
1.68875000 -0.79755200 0.03991030
1.68369000 -0.78964900 0.08613960
-0.39729800 -0.77986500 -1.91579000
-0.39897800 -0.78852200 -1.94222000
-0.43972000 -0.78834400 -2.01084000
-0.41865500 -0.79065600 -2.02436000
-0.56852500 -0.79278200 0.52465800
-0.56774100 -0.77865100 0.48504100
-0.54999500 -0.70388900 0.49940400
-0.71271600 -0.79781300 0.49576600
-0.45584300 -0.78182300 1.07972000
-0.46122000 -0.72804600 1.14241000
1.13123000 -0.73016500 -2.23536000
-0.59779500 -0.80229300 0.51893700
-0.60639400 -0.78809700 0.56024700
-0.65364500 -0.72825200 0.55441500
-0.76106800 -0.77200000 0.52812100
2.34944000 -0.67549700 -1.97385000
2.07724000 -0.67796300 -1.04500000
2.06118000 -0.68948900 -0.99408400
2.06198000 -0.76435900 -1.11783000
2.04463000 -0.67917000 -1.06735000
1.10838000 -0.78747400 -2.17126000
1.52392000 -0.77556600 -2.52839000
1.15621000 -0.69204300 -0.05422560
1.13493000 -0.69180600 -0.05402700
1.10802000 -0.69368400 -0.05285370
0.84759500 -0.70827300 -1.62527000
0.83807000 -0.78411000 -1.56996000
1.94934000 -0.75589900 -1.86979000
1.90681000 -0.78021200 -1.89542000
1.86209000 -0.78655900 -1.92419000
1.89932000 -0.73124900 -1.93633000
1.44072000 -0.80371000 3.38141000
1.44001000 -0.81523100 3.34093000
1.42848000 -0.77547500 3.42126000
-1.08165000 -0.79599800 -1.10262000
-1.10201000 -0.79146600 -0.99386100
-1.07760000 -0.79547300 -1.37621000
-1.03956000 -0.79048000 -1.49724000
-0.43156500 -0.78257300 1.10733000
-2.03162000 -0.80790800 2.74225000
-1.99789000 -0.74948300 2.75820000
-2.02198000 -0.81068400 2.79368000
-2.05476000 -0.79556100 2.76764000
0.72057800 -0.70258400 1.03681000
0.69568200 -0.69409400 0.98345600
0.69730900 -0.70902700 1.05192000
0.66497500 -0.77211600 1.04905000
0.67929000 -0.71008400 1.02097000
1.38483000 -0.65792800 -3.57102000
1.33830000 -0.67696800 -3.56447000
1.25718000 -0.69647400 0.57572800
1.26866000 -0.68324200 0.62097300
-0.64202200 -0.78439500 0.51511600
1.13965000 -0.70049700 -0.00846835
1.11021000 -0.75422800 0.00156915
-2.61074000 1.05381000 -4.56340000
1.32318000 -0.80109100 1.02858000
1.32867000 -0.80183400 0.95397000
-0.01803270 -0.72194000 -1.36743000
0.00397362 -0.72025000 -1.24140000
1.87624000 -0.70873100 -0.09289000
1.87958000 -0.69696800 -0.14522600
-1.59068000 -0.79966900 1.99232000
-1.62663000 -0.77291800 1.98587000
-1.58307000 -0.80921500 1.95503000
-0.86647500 -0.79342400 0.48540100
-0.48866800 -0.78226000 -1.01065000
-0.43029100 -0.79260800 -1.01375000
0.16032300 -0.81285500 2.96228000
2.28748000 -0.68258400 -2.91447000
-0.00327731 -0.67851100 -3.95581000
-0.00062415 -0.65241200 -3.98146000
0.07479650 -0.66451500 -3.97041000
1.18768000 -0.69654000 0.81456800
-1.85134000 -0.80265900 2.83047000
-1.83799000 -0.74778900 2.88162000
-1.89470000 -0.76627400 2.85569000
0.30547700 -0.78218700 2.37986000
0.32218200 -0.72690400 2.34201000
0.33253400 -0.69826400 2.27731000
0.35436000 -0.69487400 2.30372000
-1.87756000 -0.78036600 2.81814000
-1.93090000 -0.77193500 2.83486000
-2.06194000 -0.81249200 1.93353000
-2.07108000 -0.81340300 1.97864000
0.22284700 -0.80529500 2.40775000
0.20772500 -0.76172100 2.37646000
0.23399400 -0.80076800 2.37340000
-1.63767000 -0.70893900 0.81569700
-1.63850000 -0.73970500 0.76674500
-1.61142000 -0.71602800 0.80280600
1.23876000 -0.71693900 2.44041000
-1.86896000 -0.77142100 2.77919000
0.18479700 -0.78405900 1.08148000
0.20849800 -0.74489600 1.11393000
0.17880600 -0.78432500 1.12457000
0.25227200 -0.79664500 1.15651000
0.23969600 -0.73050000 1.13277000
0.31754400 -0.72685700 1.13393000
1.83821000 -0.71988100 -0.06953800
1.81224000 -0.71880500 -0.02598060
-0.06020250 -0.80743400 3.69252000
0.01920090 -0.80290400 3.67744000
-0.76443800 -0.81392300 1.91527000
-0.81159100 -0.79721000 1.90933000
-0.89789400 -0.79856800 1.95217000
-0.86204600 -0.69436600 -1.25199000
-0.83999300 -0.70394400 -1.25686000
-0.99322100 -0.78729600 -2.61490000
-0.36328400 -0.79265100 -0.32320000
-0.31367200 -0.77516000 -0.29668200
-0.33867400 -0.72551700 -0.26824700
1.83591000 -0.77954900 -0.08241900
1.82785000 -0.70759700 -0.13089300
1.84399000 -0.72730500 -0.10726700
-0.80045000 -0.78359700 -1.26419000
-2.25014000 -0.70416800 0.90192900
-2.24103000 -0.70210100 0.72172300
1.52605000 -0.79880700 1.21655000
1.49877000 -0.71448500 1.14743000
1.52132000 -0.72137200 1.14408000
1.52626000 -0.69401400 1.10558000
0.23222000 -0.65587700 -3.90177000
0.36636200 -0.66310200 -3.91903000
0.32529800 -0.67017900 -3.72412000
0.14423800 -0.65734900 -4.00868000
0.23868400 -0.65003000 -3.98857000
-1.29155000 -0.77665300 -0.20996600
-1.29809000 -0.79673200 -0.25532000
-1.30019000 -0.75329000 -0.21396900
-1.43992000 -0.77362900 -3.37036000
-1.47444000 -0.76549100 -3.38624000
-1.41093000 -0.75482200 -3.37946000
1.09972000 -0.80056700 1.76424000
1.15731000 -0.80768300 1.88107000
0.21647900 -0.79738100 1.18704000
1.75422000 -0.78707800 -0.85323900
1.05800000 -0.74241600 1.03359000
1.02682000 -0.79629600 1.00277000
1.07406000 -0.79158900 0.98108900
2.24361000 -0.69472800 -0.91908500
2.25653000 -0.72224800 -0.85113500
2.26614000 -0.70230600 -0.84770500
2.26845000 -0.68754100 -0.91307600
2.30240000 -0.73395300 -0.90701000
-0.17463900 -0.79666200 -0.56440500
-0.19875200 -0.79501100 -0.47521700
-1.41393000 -0.69113300 -1.71152000
-1.38936000 -0.68168900 -1.64974000
-1.39632000 -0.75183600 -1.62026000
-1.35734000 -0.67126400 -1.64055000
-0.86190300 -0.70949000 -0.76097000
-0.88211400 -0.79077800 -0.79718200
-0.85910800 -0.79465500 -0.80343900
-0.86609600 -0.77353400 -0.83678900
1.03693000 -0.70765700 2.83241000
1.08365000 -0.71227700 2.91551000
1.03581000 -0.70230000 2.91368000
-1.43465000 -0.73848600 -1.72958000
-1.39770000 -0.77630900 -1.57983000
-1.42933000 -0.79664100 -1.49077000
0.09443580 -0.68042700 -1.49069000
-0.29964300 -0.79555900 0.20371000
-0.32117400 -0.79791900 0.24873100
-0.32849500 -0.78428100 0.18710800
0.98768200 -0.74139100 0.98424000
1.02357000 -0.71969500 0.95693900
1.00352000 -0.78146000 0.99062500
0.97727800 -0.73119500 1.01284000
1.00129000 -0.71728600 1.03451000
2.19617000 -0.73211700 -2.48748000
2.17785000 -0.75300300 -2.42225000
2.15938000 -0.73582200 -2.41135000
2.15577000 -0.75956000 -2.46586000
-0.81574200 8.87865000 -1.13559000
-2.01394000 -0.80633100 2.65071000
-2.00741000 -0.74367400 2.70710000
1.91670000 -0.68225700 -0.57829500
0.46815100 1.17002000 -1.51783000
-0.33758000 -0.79040200 -2.07889000
-0.36967200 -0.74795100 -2.02329000
-0.40357700 -0.79204900 -2.05152000
-0.37806700 -0.78372700 -2.05029000
0.12936900 -0.66025800 -3.98576000
0.02484530 -0.65339000 -4.00639000
2.13170000 -0.76902300 -2.45310000
2.13953000 -0.68894600 -2.50773000
-0.41345100 -0.67543700 0.06351320
-0.33970600 -0.70576900 0.12565100
1.17493000 -0.67590400 -2.16395000
1.19379000 -0.67683600 -2.14591000
1.21726000 -0.68549300 -2.16405000
1.74364000 -0.72075700 2.65956000
1.78270000 -0.76703500 2.71859000
1.74991000 -0.74009100 2.71235000
1.68521000 -0.76356300 2.65496000
1.01023000 -0.76940000 -1.36405000
1.82683000 -0.80853200 2.77885000
-1.70284000 -0.78652800 -0.14117000
-1.68158000 -0.79470800 -0.26644700
-1.68326000 -0.80012800 -0.12409500
-1.71577000 -0.71082600 0.13988600
-1.72268000 -0.79189900 0.08316280
-1.70921000 -0.76633000 0.13747200
-2.18830000 -0.70395500 0.69596400
-2.21449000 -0.70086300 0.69633600
1.34605000 -0.72836900 -0.34306200
1.35743000 -0.76836800 -0.38525400
1.32142000 -0.69445400 -0.30353700
1.09445000 -0.70505700 2.98127000
1.13200000 -0.72811500 3.04050000
-1.40049000 -0.78905400 -1.49827000
-1.46836000 -0.76852600 -1.46548000
-1.48047000 -0.72803300 -1.40601000
-1.70020000 -0.79333200 -0.33686000
-1.66767000 -0.76398700 1.32195000
0.83744200 2.58171000 0.85068600
1.99108000 -0.75171300 3.82366000
1.94232000 -0.81146500 3.80604000
2.04937000 -0.78892800 3.81846000
2.10649000 -0.79023500 3.78306000
2.04565000 -0.79550100 3.76785000
2.03465000 -0.70782100 3.73551000
1.29724000 -0.69359300 0.80697400
-1.53930000 -0.72414800 3.28709000
-0.10928200 -0.69830400 0.71057000
-1.66950000 -0.79747500 -0.80934200
-1.63828000 -0.79603100 -0.78840000
-1.68314000 -0.79771800 -0.34721400
-1.68837000 -0.79933500 -0.62952400
0.40487800 8.71148000 0.89535700
0.42191500 8.21247000 0.89004000
1.11266000 -0.78455400 -2.35495000
0.03812440 -0.69385000 -3.95386000
0.25029900 -0.79956800 1.31906000
0.23290600 -0.71236800 1.36119000
2.11463000 -0.69836000 -1.95052000
2.06195000 -0.67713100 -1.93638000
2.09018000 -0.67715600 -1.90203000
-1.31156000 -0.74214700 3.81404000
-1.31174000 -0.77635900 3.84232000
1.17352000 -0.72807000 -3.35214000
1.14729000 -0.66346100 -3.28337000
1.20966000 -0.77691100 -3.31745000
0.18741300 -0.67840200 -2.76217000
0.15916700 -0.66806900 -2.72489000
0.15849400 -0.70908300 -2.84080000
1.07106000 -0.69493100 2.04601000
1.10053000 -0.76579100 2.02196000
-2.89642000 0.93763400 2.07608000
1.09167000 -0.68369300 -2.26919000
1.08161000 -0.71341300 -2.29161000
0.96836800 -0.70342300 -1.73920000
0.96883900 -0.77612500 -1.80066000
1.05236000 -0.70638300 -1.78507000
0.96259900 -0.69276700 -1.76905000
1.31442000 -0.68052700 -3.43346000
1.22559000 -0.69426900 -3.46237000
-1.20909000 -0.72558700 3.14199000
-1.53599000 -0.81189300 2.81168000
-1.47850000 -0.80569100 2.81337000
-1.50214000 -0.80122900 2.77099000
-0.47875400 -0.78621900 -1.45707000
-0.51310500 -0.79215800 -1.65733000
1.16793000 -0.81153200 2.93057000
1.05199000 -0.80521600 2.73118000
1.12674000 -0.80868700 2.87461000
2.12912000 -0.77632600 -2.23534000
2.13602000 -0.75969500 -2.18115000
2.12552000 -0.70817200 -2.17339000
2.15417000 -0.77135100 -2.24401000
-1.56780000 -0.67808500 -3.33375000
-1.55602000 -0.69916900 -3.36092000
-1.48431000 -0.80555600 2.95930000
-0.92703000 -0.68979700 -1.05992000
-0.85099900 -0.69840000 -1.06653000
-1.01207000 -0.69329000 -1.12267000
-0.46208300 -0.78868200 0.50966100
-0.46068900 -0.79220600 0.57558600
-1.40742000 -0.76850800 2.86078000
-1.44759000 -0.75699100 2.90743000
-1.44525000 -0.75506800 2.85922000
-1.41699000 -0.78437100 2.95659000
-0.77307600 -0.80685300 2.67386000
-0.78073100 -0.77002200 2.73662000
-0.86429400 -0.75000700 2.56386000
2.23025000 -0.76993700 1.57832000
2.26115000 -0.80208300 1.61298000
-1.66238000 -0.79309500 -0.76509200
-1.64357000 -0.69441300 -0.72324500
-0.66139400 -0.77740300 -2.30379000
-0.65210300 -0.76949000 -2.42975000
-0.68297800 -0.78479700 -2.52095000
-1.09683000 -0.75842600 -1.87625000
-1.08853000 -0.78916600 -1.83517000
2.14164000 -0.71028100 2.65900000
2.10481000 -0.78377100 2.59058000
2.13466000 -0.73269100 2.60029000
-1.73037000 -0.69395800 0.19973800
-1.73353000 -0.69584200 0.14503400
-1.73338000 -0.76015200 0.08506460
-1.01640000 -0.78909500 -1.83928000
-1.05504000 -0.78113600 -1.86500000
1.27809000 -0.77531100 -3.67227000
1.21216000 -0.77041800 -3.62575000
0.90663200 -0.79116300 3.07451000
0.85153000 -0.80633400 3.10113000
0.84686700 -0.75779900 3.06980000
1.02728000 -0.74827300 3.14458000
0.99670300 -0.75401100 3.14303000
1.00415000 -0.78110400 3.10709000
-0.21177800 -0.70955300 -2.81684000
-0.23179100 -0.68117300 -2.89092000
-0.27757900 -0.67732900 -2.85154000
-0.27057400 -0.75214400 -2.89298000
-1.69319000 -0.74045800 2.75028000
-1.74414000 -0.81387100 2.78530000
0.14642300 -0.76611200 -3.47233000
0.17864600 -0.67454200 -3.43994000
0.13822500 -0.67144800 -3.41366000
-0.22387400 -0.78297800 -2.93530000
-1.24978000 -0.79062500 2.49862000
-1.24398000 -0.72323800 2.44562000
0.70907300 -0.71743400 -1.90485000
0.89099800 -0.75188600 -1.88235000
0.74644900 -0.76976900 -1.88114000
1.08524000 -0.78401000 -1.81905000
-2.19846000 -0.70925600 1.67422000
2.12729000 -0.70027500 -2.12478000
-1.14616000 -0.67989400 -3.43027000
-1.18117000 -0.71202500 -3.41874000
-1.21313000 -0.77184600 -3.44638000
-1.44539000 -0.78577000 3.83391000
-1.40224000 -0.80649300 3.86120000
-1.45024000 -0.75933900 3.84672000
2.19290000 -0.70207800 1.54537000
2.15579000 -0.70587400 1.55862000
2.14869000 -0.79996900 1.60141000
-1.40991000 -0.81446200 2.45081000
-1.30309000 -0.80859700 2.46705000
2.30516000 -0.78917400 2.66138000
2.33242000 -0.77122000 2.67330000
2.25592000 -0.72020800 2.64479000
-1.35328000 -0.81655700 3.66042000
0.30398100 -0.67105500 -3.33184000
2.17059000 -0.79862200 3.08028000
0.17527600 -0.69492000 -2.98064000
0.18772300 -0.70559500 -3.03897000
0.20905900 -0.75230900 -3.01651000
0.14730000 -0.71652500 -3.25483000
0.14540700 -0.75989600 -3.30868000
0.18067700 -0.78458200 -3.33408000
-0.33863200 -0.68297300 -2.88499000
-0.38357300 -0.73937300 -2.88706000
-0.31446900 -0.67749600 -2.84938000
1.36255000 -0.80221200 1.07543000
1.33514000 -0.79486600 1.07685000
1.34568000 -0.79852200 1.03632000
1.34783000 -0.72505000 1.12811000
0.24288100 -0.78469500 -3.31879000
0.19563100 -0.75277900 -3.26146000
0.21264700 -0.78112300 -3.30297000
0.23403200 -0.78187200 -3.22110000
2.15772000 -0.74575900 -2.35602000
2.09177000 -0.70365700 -3.33395000
2.10352000 -0.68954500 -3.36567000
2.00316000 -0.71252300 -3.25019000
2.10930000 -0.69109100 -3.27533000
1.94471000 -0.69177800 0.14288000
1.91055000 -0.70886500 0.17554400
1.91194000 -0.71440800 0.13629900
1.83903000 -0.75863800 0.19563000
1.79609000 -0.72050800 0.20886300
1.79852000 -0.78136500 0.17478600
2.23895000 -0.67274200 -3.79335000
2.21118000 -0.65891800 -3.83584000
2.23959000 -0.72294500 -3.83140000
2.31257000 -0.65068700 -3.84741000
2.26741000 -0.70392700 -3.79356000
2.26861000 -0.74411200 -3.83244000
2.19562000 -0.78020300 3.09136000
2.23058000 -0.72563000 3.11185000
2.27099000 -0.76974500 3.16436000
2.23743000 -0.73237600 3.16070000
-2.17653000 -0.74380700 -2.20532000
-2.12296000 -0.65845100 -2.24309000
2.13939000 -0.72079100 0.58466900
2.11151000 -0.76590000 0.65009100
2.11038000 -0.71639500 0.60727800
2.11054000 -0.74270900 0.56360700
2.13963000 -0.77219700 0.53337800
1.45196000 -0.80285400 1.65799000
1.43229000 -0.72700100 1.70152000
1.44667000 -0.81071900 1.60974000
1.43957000 -0.80332000 1.39367000
-0.12449400 -0.76024100 0.56971400
-0.10352800 -0.78090000 0.52047500
0.24909200 -0.78577000 -3.05344000
0.26071100 -0.77907500 -3.10623000
0.27200100 -0.70283600 -3.10369000
0.23168900 -0.78146300 -3.09485000
0.21468700 -0.76516900 -3.13339000
0.24805800 -0.78553200 -3.15502000
-1.38138000 -0.77381400 2.85534000
-1.37720000 -0.76390900 2.81086000
-1.44614000 -0.80614900 2.81215000
-1.46712000 -0.77195700 2.77281000
-1.40914000 -0.74100300 2.77330000
0.97376400 -0.78464600 -1.83519000
0.92013300 -0.78422700 -1.83243000
0.92155900 -0.70421100 -1.79183000
1.26893000 -0.70184000 -3.83550000
-1.03348000 -0.72602200 0.99316200
-1.03229000 -0.73540000 0.84978700
-1.10102000 -0.71320100 0.81078000
-1.08322000 -0.69687400 0.89099400
-1.70477000 -0.73778400 2.98849000
-1.10313000 -0.67665200 0.08778020
-1.15042000 -0.68024200 0.09806890
-1.16823000 -0.66634300 0.13595100
-1.15650000 -0.74586200 0.10926500
2.16197000 -0.68569900 0.16110000
2.18312000 -0.78323800 0.08904940
2.18651000 -0.69639300 0.12604500
2.16385000 -0.68697000 0.21185300
2.15250000 -0.79324600 1.63598000
2.16503000 -0.71446700 1.67510000
2.16853000 -0.71498800 1.71407000
2.34985000 -0.69636500 2.63308000
2.27522000 -0.70652300 2.61423000
2.00936000 -0.70006500 -3.30272000
1.95720000 -0.74970900 -3.30714000
1.49086000 -0.73642300 1.74130000
1.48181000 -0.78009200 1.66085000
1.47605000 -0.73494300 1.69960000
2.21889000 -0.78778900 0.66418100
2.23727000 -0.74754800 0.70201200
2.21527000 -0.72716400 0.71487700
2.21707000 -0.75126700 0.61832300
2.24266000 -0.78312700 0.65084600
-1.13066000 -0.67820500 0.09842110
-1.12946000 -0.66512500 0.13609400
-1.11507000 -0.72785000 0.19623900
2.31072000 -0.77030100 2.55933000
2.25054000 -0.73853300 2.58996000
-1.93780000 -0.80275900 0.49877700
0.18607600 -0.79490000 0.67106300
0.19224100 -0.80078500 0.61557800
0.20518400 -0.78186400 0.64916500
0.22541300 -0.73691900 0.66982100
2.28688000 -0.79952400 2.55067000
2.26217000 -0.71641200 2.60001000
-1.12460000 -0.79578800 0.01953800
2.20999000 -0.77169900 0.09952750
2.20367000 -0.76983900 0.05132610
2.08713000 -0.69448900 -3.30373000
2.11516000 -0.68156300 -3.33828000
2.11612000 -0.65835000 -3.41870000
2.13788000 -0.65155800 -3.41721000
2.14945000 -0.66046200 -3.38933000
2.24049000 -0.71501300 2.63717000
2.22613000 -0.77890800 2.58300000
2.18914000 -0.79554700 1.59362000
0.86671100 -0.70808800 -1.76271000
0.75681800 -0.77679300 -1.74050000
0.75668800 -0.69497200 -1.77544000
0.79415000 -0.78688400 -1.84210000
0.86601800 -0.70716900 -1.79016000
0.79291400 -0.69580600 -1.79546000
-1.31933000 -0.68336800 -3.52765000
-1.28049000 -0.73825700 -3.46310000
-1.30616000 -0.66787400 -3.44341000
-1.36931000 -0.81431900 3.33291000
-0.54320700 -0.81321400 3.85616000
-0.55479000 -0.81654600 3.83095000
2.22549000 -0.72090100 1.53442000
2.22706000 -0.80135600 1.49938000
0.33160100 -0.77829300 -2.78298000
0.28436000 -0.78251000 -2.78045000
0.38233400 -0.77405600 -2.78790000
-1.28574000 -0.75007600 -3.50765000
-1.17177000 -0.68371500 -3.45774000
-1.24856000 -0.77551900 -3.47857000
-1.20800000 -0.74471000 -3.48877000
0.95603500 -0.79803500 1.40759000
1.02082000 -0.80912300 1.33292000
1.03580000 -0.80416700 1.36579000
-0.95858800 -0.80479700 0.45041200
-0.95685500 -0.80418100 0.40579400
-0.92360800 -0.79723700 0.45068400
-0.64291300 -0.76627800 -0.71088900
-0.64558500 -0.70877600 -0.72531300
-0.63069400 -0.79949200 -0.52427600
-0.63158100 -0.79745300 -0.66041900
-0.38603100 -0.75086400 -2.80918000
1.70792000 -0.75019600 1.56588000
1.66590000 -0.77616300 1.55696000
-0.94691100 -0.78374900 -2.41857000
-0.96610400 -0.76514600 -2.42432000
-0.94904200 -0.76087400 -2.56761000
-1.55528000 -0.79862600 3.34323000
0.89055700 -0.77459200 -1.73306000
-1.24974000 -0.77704700 -3.52625000
-1.16840000 -0.67514800 -3.48794000
0.89931200 -0.78683900 -1.69981000
0.86653000 -0.69531500 -1.66564000
1.76759000 -0.73713300 3.34981000
1.75453000 -0.78397800 3.38637000
1.73554000 -0.74098500 3.34700000
1.32544000 -0.78496000 -1.60648000
1.39700000 -0.78480700 -1.62139000
1.27810000 -0.78317400 -1.55891000
1.11330000 -0.77974400 -2.65968000
-0.78053800 -0.71355500 -0.63946800
-0.74822900 -0.70259700 -0.56304500
-0.76758400 -0.69817200 -0.61599600
0.04512590 -0.69002200 -0.94749200
0.16713700 -0.72172900 -0.91519200
0.11995800 -0.78223800 -0.87612700
0.08535580 -0.71144700 -0.91053500
-0.85661900 -0.74349400 0.42756400
-0.77414000 -0.69567800 0.40044500
0.59225400 -0.79982000 2.25467000
1.97133000 -0.74956200 2.38763000
-1.35348000 -0.67256800 -3.16863000
-1.40172000 -0.74205600 -3.18288000
-1.39787000 -0.76485500 -3.20992000
1.92063000 -0.76026500 3.93387000
-1.77864000 -0.81025800 2.81656000
-1.80741000 -0.76696100 2.85195000
-0.07272220 -0.71556700 3.56910000
-0.10830600 -0.80593700 3.56707000
-0.13018500 -0.81601200 3.53913000
-0.16525300 -0.78334000 3.60978000
-0.16084200 -0.74393000 3.68889000
-1.73732000 -0.66052800 -2.99329000
-1.77758000 -0.72002900 -3.09941000
-1.69247000 -0.67738900 -3.09945000
-1.76615000 -0.77706900 -3.14170000
2.23518000 -0.71022100 0.75528700
2.13833000 -0.71142400 0.80428900
2.16009000 -0.75310000 0.78427200
2.16366000 -0.70110300 0.83944700
-1.18194000 -0.73303700 3.44644000
1.65524000 -0.77500200 0.00226197
1.62547000 -0.70023500 -0.03877220
-0.07289760 -0.80254000 2.09034000
-1.80149000 -0.79606800 3.22326000
-1.69661000 -0.77827900 3.26757000
-2.24295000 -0.69518600 1.23072000
2.06352000 -0.72689800 2.94762000
-1.76491000 -0.77054400 3.80569000
1.65669000 -0.76646400 -3.20159000
1.59319000 -0.78043900 -3.33846000
1.72731000 -0.77117200 -3.19542000
1.88761000 -0.69071600 3.94604000
-1.73507000 -0.72025300 3.61582000
-1.78007000 -0.73889400 3.63222000
-1.79521000 -0.72592700 3.59936000
1.36179000 -0.79154000 2.49351000
1.29481000 -0.72570900 2.50252000
1.90157000 -0.74835700 3.76764000
-0.42830600 -0.78212000 -1.93901000
-0.45648000 -0.77073800 -1.98972000
-0.89743900 -0.71280800 0.76131700
-0.92419500 -0.72914800 0.76190300
-0.93688200 -0.77771500 0.70476200
-0.89128000 -0.69413600 0.84103800
1.35022000 -0.71420700 2.52560000
1.31695000 -0.70711200 2.52916000
1.83853000 -0.67958500 -1.22196000
1.80334000 -0.67594100 -1.31843000
1.79862000 -0.68232100 -1.20479000
1.76389000 -0.69426700 -1.18914000
1.86863000 -0.80779600 2.57906000
1.87156000 -0.73191600 2.63533000
0.75051900 1.21666000 -1.21216000
0.56278300 1.23660000 -1.38206000
1.98812000 -0.78938900 -0.89198000
2.16615000 -0.77916900 0.69651600
2.18972000 -0.70779900 0.72908700
2.14075000 -0.70590900 0.75689200
0.13481500 -0.81285900 3.83114000
0.10026700 -0.71353100 3.80938000
2.18544000 -0.74420900 -1.52585000
2.15180000 -0.69749400 -1.52678000
-2.04608000 -0.75527100 3.87308000
-1.99926000 -0.78533900 3.90167000
0.06745840 -0.70349300 3.89991000
0.08557690 -0.70997300 3.88586000
1.07654000 -0.78921300 0.90660500
1.06108000 -0.72219800 0.92730700
2.21716000 -0.72380000 1.00662000
2.27012000 -0.78169500 0.93599600
0.45023700 -0.70376800 2.89462000
0.76786600 -0.70198600 2.86341000
0.24675700 -0.70089100 2.86995000
-1.12352000 -0.76509800 0.07869480
-1.15369000 -0.78152100 0.08431110
-2.26626000 -0.67167200 -0.99231600
-0.98893300 -0.78294300 0.02708200
0.08935730 -0.70304800 2.51871000
0.74760000 -0.78509400 -1.51398000
-1.57257000 -0.79437700 2.56469000
-1.75304000 -0.66289700 -2.93891000
-1.78894000 -0.67071900 -2.91982000
-1.79412000 -0.66502300 -3.01805000
-1.75083000 -0.70049200 -2.90125000
-1.77650000 -0.73642200 -2.88374000
1.92813000 -0.78404200 -1.12491000
2.22002000 -0.76374400 0.95258100
-1.27108000 -0.68070500 0.14700000
0.19727600 -0.80298000 1.19564000
0.17185800 -0.81000300 1.20006000
0.15949500 -0.80306400 1.12523000
0.21317800 -0.74748500 1.22367000
2.21265000 -0.74170100 0.76132500
2.18437000 -0.77688800 0.76844800
0.18454300 -0.78057500 1.38953000
0.19048500 -0.79790400 1.42633000
0.16452500 -0.80460900 1.43225000
0.20880100 -0.73293500 1.38558000
0.83232900 -0.72945400 -2.71296000
0.89267000 -0.78351800 -2.68657000
0.91712300 -0.77460200 -2.68054000
0.20886400 -0.79093400 -2.49307000
0.12060600 -0.78945400 -2.32984000
0.13054200 -0.79091700 -2.39240000
0.11133100 -0.78765700 -2.25464000
0.25001400 -0.75769000 -2.49020000
0.23306800 -0.77865900 -2.48433000
-1.43363000 -0.80533200 2.57886000
-1.41541000 -0.76217900 2.53555000
-1.20361000 -0.80519300 3.80111000
-1.15220000 -0.81040600 3.79410000
-1.16260000 -0.81804400 3.83231000
-1.13470000 -0.75671000 3.85985000
1.87412000 -0.68764200 -1.19927000
1.90405000 -0.73571500 -1.18478000
1.89583000 -0.78101800 -1.14997000
0.79037000 -0.77353500 -2.06190000
0.68324300 -0.78441800 -2.09204000
1.07838000 -0.78769300 -2.05739000
0.90025700 -0.76902600 -2.71963000
0.88846000 -0.69610300 -2.75697000
0.94165300 -0.71438100 -2.74297000
0.86572200 -0.77583300 -2.80151000
0.94078400 -0.76218000 -2.78001000
1.45829000 -0.78027800 -2.51795000
1.44012000 -0.70470600 -2.45774000
1.49065000 -0.68551200 -2.44570000
2.01201000 -0.69356600 -1.19816000
2.03857000 -0.77822000 -1.14196000
2.00902000 -0.76307800 -1.16456000
2.02131000 -0.72480300 -1.09227000
-0.47856700 -0.79697900 -0.65318500
-0.51117600 -0.76744300 -0.58810200
1.66294000 -0.76975400 -2.50317000
1.62902000 -0.75294100 -2.52723000
1.65438000 -0.71562100 -2.53254000
1.60386000 -0.78609800 -2.49606000
-0.91440100 -0.79371600 -0.82909600
-0.92797000 -0.79592100 -0.90601500
1.04616000 -0.80333300 2.10078000
1.13106000 -0.79967300 2.11636000
0.98994600 -0.80328800 2.11669000
0.96545500 -0.73281500 2.07471000
0.99111100 -0.79135200 2.08206000
1.08540000 -0.78664400 -2.66592000
1.07346000 -0.75716500 -2.72900000
1.08741000 -0.68052300 -2.75330000
1.10418000 -0.76948000 -2.70675000
-1.34113000 -0.72627100 1.68546000
-1.35220000 -0.77753400 1.76006000
-1.31265000 -0.71861600 1.72206000
1.63084000 -0.70183500 0.21282000
-0.24467300 -0.70117200 0.54554800
-0.22239400 -0.71214700 0.53901200
-0.23246300 -0.70032500 0.41216700
0.19419400 -0.71989600 3.74410000
0.17516400 -0.78741900 3.77515000
0.12583800 -0.80869700 3.77373000
0.16053100 -0.80679800 3.79815000
0.11214700 -0.75987700 3.79754000
-1.20903000 -0.74559600 1.67769000
-1.24617000 -0.71851600 1.71925000
0.23287500 -0.78594200 -2.57097000
-1.76989000 -0.68723100 -3.04680000
-1.79980000 -0.70742100 -3.05030000
-1.81716000 -0.77531500 -3.11709000
2.31265000 -0.74336000 -0.96972900
1.90827000 -0.71515900 2.64389000
-1.25994000 -0.66786600 -2.54596000
-0.23098900 -0.71379000 0.67423000
-0.20747100 -0.76987500 0.67210400
-0.21545800 -0.77464500 0.72429800
-0.17425600 -0.75203100 0.69630400
-0.83527300 -0.69545700 -0.91131400
-0.70710700 -0.77358300 -0.83436500
-0.73143100 -0.72514000 -0.85644600
-1.10398000 -0.78079200 0.31367700
-1.19601000 -0.79342700 0.22601700
-1.14315000 -0.79211100 0.22809900
-1.15245000 -0.79684900 0.26944000
2.27988000 -0.68531500 -0.84488100
1.01083000 -0.78380700 -1.32339000
1.07236000 -0.78328600 -1.14656000
-1.36909000 -0.65937800 -3.55526000
-1.32716000 -0.69739500 -3.57602000
-1.29148000 -0.76932800 -3.55715000
-1.43049000 -0.66095300 -3.72077000
1.28700000 -0.80495600 3.78776000
1.29841000 -0.78818100 3.82752000
1.31547000 -0.81636100 3.77554000
-1.99936000 -0.77113400 2.99939000
2.23004000 -0.80219400 2.09045000
2.22541000 -0.74456200 2.12403000
2.20206000 -0.77110400 2.11947000
2.25655000 -0.80406800 2.06142000
2.22974000 -0.79145000 2.05495000
-1.20177000 -0.78798200 3.77263000
-0.04160860 -0.70832500 -0.00086607
-0.03334980 -0.77634600 -0.03300580
0.25296800 -0.73927600 3.32356000
-0.16842700 -0.81017800 2.27201000
-0.50326100 -0.79859300 2.24389000
-0.76940600 -0.69329000 -0.93842500
-0.79966500 -0.69102600 -0.92378000
-0.79910700 -0.77523300 -0.96833600
-0.79858100 -0.80484200 1.15846000
-0.80910100 -0.80973700 1.33917000
-0.83622200 -0.81070300 1.33605000
-1.54614000 -0.68271600 -1.40222000
-1.55451000 -0.70077100 -1.44970000
-1.50775000 -0.73140000 -1.45092000
-1.78502000 -0.80323500 2.30558000
-1.85254000 -0.81296500 2.32756000
-0.43162400 -0.81191100 3.89130000
-0.40053900 -0.81512300 3.86054000
-0.51862900 -0.79652500 3.90740000
-0.47774900 -0.80883100 3.89787000
-0.89495200 -0.67465300 -3.09397000
-0.22406700 -0.71828200 0.61975400
-0.20173300 -0.78724100 0.48367900
-0.21788100 -0.77581800 0.61226100
-0.19455500 -0.77928100 0.71295400
-0.17892900 -0.76334200 0.67166100
-1.56959000 -0.78592000 -2.46987000
-1.53176000 -0.69419100 -2.41029000
-1.56806000 -0.68301500 -2.43201000
0.42252000 -0.80105400 2.25306000
0.47301900 -0.80116600 2.22904000
0.39060300 -0.76329900 2.22184000
2.17346000 -0.78920800 2.11378000
2.20340000 -0.69994700 2.15659000
2.17953000 -0.70031500 2.14759000
2.20453000 -0.76820700 2.19534000
-1.12449000 -0.70342700 -1.23320000
-1.13730000 -0.69047500 -1.28063000
-1.15061000 -0.68419500 -1.16318000
2.24114000 -0.71031500 2.17015000
1.46187000 -0.70669400 1.30315000
1.47821000 -0.77183000 1.30381000
0.27315300 -0.80259400 3.47593000
1.78709000 -0.78254600 -0.69911900
1.76826000 -0.68893500 -0.65391300
2.08161000 -0.69880600 -0.35204900
2.07668000 -0.77153200 -0.31054700
2.06729000 -0.74019500 -0.26904700
-1.14121000 -0.71459900 -3.88058000
-1.12274000 -0.76197900 -3.85963000
-1.52468000 -0.78514000 -2.48629000
-1.51990000 -0.77330700 -2.52696000
-1.55382000 -0.68851100 -2.54434000
-0.14293600 -0.76537200 0.56900400
-0.18106100 -0.78858800 0.63108800
-0.20268100 -0.79152000 0.63208100
0.80963400 -0.76912800 -0.67643700
-0.95517100 -0.69077200 -3.72278000
-1.01267000 -0.76806300 -3.76133000
-0.96537200 -0.77178600 -3.76370000
-1.04627000 -0.67714100 -3.78673000
-1.71257000 -0.70387400 0.38718800
-1.76306000 -0.79449500 0.44847600
-1.75848000 -0.71757500 0.40925300
-1.76223000 -0.70068800 0.36340800
2.06079000 -0.66900600 -3.07183000
2.06546000 -0.67645600 -3.00116000
1.88286000 -0.67714800 -3.00938000
2.18567000 -0.77490900 -3.07388000
2.18333000 -0.73715500 -3.10872000
-0.07054900 9.61242000 1.16696000
0.00703674 9.53913000 1.15119000
-0.07249320 9.07874000 1.17245000
-1.43847000 -0.80406100 2.01075000
-1.43709000 -0.77069400 1.97059000
-1.40898000 -0.81355200 1.98481000
1.60437000 -0.73755300 2.27518000
1.61343000 -0.77305900 2.30690000
1.58509000 -0.73823100 2.31783000
1.60132000 -0.74516000 2.22939000
0.39744100 -0.69853600 -3.43231000
-1.66198000 -0.72852100 0.48556200
-1.69823000 -0.71054300 0.51055400
-1.72067000 -0.80177700 0.46476500
-1.71393000 -0.79716800 0.60506200
-1.72335000 -0.71857500 0.56660500
-1.67794000 -0.70394900 0.53985400
-1.18986000 -0.81084400 1.80222000
0.19638600 -0.80906900 3.89756000
0.14662200 -0.81260400 3.87475000
0.44121900 -0.77670400 -3.26255000
0.51737300 -0.77490900 -3.34824000
-1.34736000 -0.65676700 -3.47920000
-1.61739000 -0.71153100 0.49448000
0.13770100 -0.79915200 -0.34051400
0.15521100 -0.76409200 -0.37070100
0.18388600 -0.77425200 -0.34388600
0.30063500 -0.78592500 -0.32724100
0.24301500 -0.72654600 3.85640000
0.17768800 -0.79672000 3.84802000
0.20215000 -0.72637100 3.82682000
2.16269000 -0.77483600 -3.04329000
2.09195000 -0.69273100 -3.05935000
2.11322000 -0.69820400 -3.11230000
2.10999000 -0.72757900 -3.09286000
2.04245000 -0.77406000 -1.77898000
0.17015200 9.46177000 1.07866000
0.23772000 9.18966000 1.03817000
-0.02374210 -0.70981400 3.49094000
2.10426000 -0.74906500 -0.31886400
2.09391000 -0.74354200 -2.95698000
2.09793000 -0.68982600 -2.98674000
2.12399000 -0.68726800 -3.01403000
2.11093000 -0.75014500 -3.04750000
-0.98725400 -0.77897700 -3.72433000
-1.65479000 -0.70601200 0.52333500
0.90900500 -0.77693800 -1.66576000
0.94188100 -0.78713300 -1.70296000
1.64773000 -0.80641900 2.29649000
1.66297000 -0.78809000 2.24748000
0.45269200 -0.79647500 3.92622000
1.94787000 -0.78160800 -1.90066000
-1.41138000 -0.80951700 1.80168000
-0.91552200 -0.66389900 -3.72401000
-0.73539200 -0.79192200 -1.47080000
-0.76860100 -0.78893900 -1.41215000
-0.75081600 -0.77622300 -1.56723000
-0.71817900 -0.77243400 -1.48729000
-0.71400100 -0.77570000 -1.61675000
-1.59611000 -0.79210900 -0.95127900
1.67617000 -0.80729600 2.11605000
1.94139000 -0.79882800 2.07649000
-0.95651900 -0.66525900 -3.64994000
-0.96988000 -0.73346300 -3.68523000
1.26682000 -0.67371100 -2.38208000
-0.89363000 -0.66626800 -3.68805000
-0.93660200 -0.66379100 -3.68623000
-1.25786000 -0.71126000 -1.68370000
-1.21523000 -0.73335400 1.90379000
-1.28341000 -0.70864900 1.87835000
1.44995000 -0.79838200 1.34627000
-1.21675000 -0.72243300 3.61483000
1.50795000 -0.79119000 -0.64265300
1.43382000 -0.77793100 -0.55492200
1.43903000 -0.78553200 -0.59310700
1.50056000 -0.77487900 1.30208000
-1.45295000 -0.73931100 -1.01846000
-1.34103000 -0.74635400 3.76808000
-1.28877000 -0.77244800 3.75583000
-1.29861000 -0.75024800 3.77489000
-1.23777000 -0.81786000 3.77087000
1.56312000 -0.71722900 -0.21681800
1.52416000 -0.79146200 -0.21983100
-1.25470000 -0.72750200 -1.04481000
-1.24420000 -0.68219300 -1.25558000
-1.25998000 -0.67004100 -1.11231000
1.31935000 -0.67531500 -2.37255000
1.31827000 -0.75931300 -2.39197000
1.29631000 -0.67438100 -2.39245000
-0.99945400 -0.67457600 -2.54419000
-1.04375000 -0.66915700 -2.31013000
-1.05240000 -0.67037800 -2.43920000
-1.34821000 -0.67799100 -1.06657000
-1.26567000 -0.68032000 -1.06841000
-0.98632400 -0.72019900 3.48270000
-0.95832100 -0.77060600 3.51609000
-1.02416000 -0.72731800 3.57526000
-0.99851800 -0.70988000 3.52456000
-0.99184000 -0.70966600 3.57139000
-1.56502000 -0.76723700 -2.51055000
-1.52743000 -0.69511900 -2.44863000
-0.16485000 -0.73697000 3.57919000
-0.17739200 -0.71553600 3.65596000
-0.20071700 -0.70059200 3.65550000
-0.23612900 -0.68303700 -1.84119000
-0.24459800 -0.67634300 -1.77728000
-0.22902500 -0.68859000 -1.75997000
0.98456600 -0.79520300 0.23973200
0.97776200 -0.78397600 0.21000900
0.78928000 -0.79151600 0.27818400
-1.64984000 -0.78834200 -1.92444000
-1.70378000 -0.78503200 -1.94675000
-1.70127000 -0.77579300 -2.02661000
-1.98977000 -0.80182500 3.13039000
-1.96153000 -0.81482100 3.12176000
-1.98745000 -0.72582100 3.16475000
-2.01074000 -0.72928300 3.47018000
-1.05082000 -0.67058500 -2.54208000
-1.08647000 -0.66879700 -2.47584000
-1.12988000 -0.66447000 -2.61312000
-1.20322000 -0.79271300 -1.35290000
-1.21259000 -0.79428600 -1.13806000
-1.22074000 -0.79117000 -1.39738000
-1.25299000 -0.79085700 -1.51507000
2.22334000 -0.74537100 2.47018000
2.19609000 -0.78651600 2.51846000
2.17692000 -0.71702000 2.45508000
0.17007400 -0.71241100 -0.40195900
0.16573600 -0.69535000 -0.52309600
0.26718600 -0.80068100 2.44496000
0.23537400 -0.81197500 2.44197000
0.27939100 -0.80841300 2.39040000
-1.12456000 -0.66356100 -2.53263000
-1.08306000 -0.66387700 -2.53747000
-1.11444000 -0.68414300 -2.46477000
-1.14298000 -0.72157100 -2.51069000
-1.68315000 -0.76753500 -1.98024000
-1.73731000 -0.77149900 -1.96626000
-1.71991000 -0.78605300 -1.99284000
-1.66738000 -0.69425400 -2.02496000
1.32540000 -0.79607500 2.62185000
1.33068000 -0.77046300 2.57490000
1.61727000 -0.74925500 -2.99430000
1.59025000 -0.78172100 -2.96978000
-0.10572500 -0.69331400 -0.65195200
-0.08723220 -0.71042300 -0.55043900
-0.11554700 -0.70099000 -0.53605100
-0.73737600 1.21051000 1.27107000
-0.62706900 1.21140000 1.34839000
-0.50239400 1.19286000 1.40475000
1.98840000 -0.76796500 -1.36823000
2.03690000 -0.68670300 -1.32193000
2.02224000 -0.68495300 -1.23883000
-1.59668000 -0.69120200 -2.52813000
1.33324000 -0.81286000 2.11667000
1.33009000 -0.81094900 1.81587000
0.96508000 -0.78211200 -2.29405000
-1.58998000 -0.67855600 -2.56486000
-1.56792000 -0.68002600 -2.66007000
-1.50956000 -0.67737400 -2.59515000
2.17835000 -0.72712900 -2.36576000
2.19886000 -0.76821600 -2.43277000
0.84198600 -0.67977100 -0.11416300
0.84622900 -0.76219500 -0.24560300
0.84315000 -0.69041200 -0.15550700
-0.50797500 -0.78028600 3.11972000
-0.53781500 -0.81332600 3.12679000
-0.49013500 -0.72818300 3.22878000
-0.52098100 -0.81167100 3.18298000
2.06632000 -0.77256300 -3.42772000
2.04671000 -0.77151400 -3.48318000
2.05014000 -0.73281100 -3.52712000
-1.83788000 -0.75774300 -3.72668000
-1.84220000 -0.77244400 -3.76875000
-1.81850000 -0.66498100 -3.76325000
-1.87664000 -0.77197900 -3.73304000
1.87972000 -0.77662700 1.31823000
-0.49910000 -0.78429200 -3.03911000
