-8.90822601 3.29276633 -0.45400175
-8.94320488 3.34088445 -0.33630538
-8.91146278 3.23335361 -0.36999550
-8.95547199 3.26871204 -0.25375685
-8.92731857 3.17574096 -0.28188124
-8.94317150 3.38026857 -0.21508199
-8.94895935 3.21234155 -0.16155489
-9.00496864 3.23536825 -0.04570357
-8.95367241 3.16240549 -0.05331824
-8.96607590 3.11922026 0.06292045
-9.08372402 3.15528893 0.05845560
-8.94798374 3.24549961 0.17796648
-8.95608711 3.11968875 0.18036199
-8.94824886 3.13829136 0.29495949
-8.96573639 3.25176263 0.28031117
-8.89758396 3.19836664 0.39888421
-9.09416866 3.20301127 0.41769153
-8.92391396 3.23318315 0.50982213
-8.85099697 3.14415336 0.52364480
-8.91431904 3.07386804 0.41684547
-8.90683556 3.19346070 0.64358383
-9.11129761 3.24924922 0.52928191
-8.85862064 3.08983302 0.66161650
-8.87492466 3.01823044 0.54505157
-8.90540695 3.16476703 0.77724349
-8.85678959 3.06264114 0.79975116
-8.83641815 2.97771716 0.67814046
-8.78287315 2.95022678 0.81714165
-8.86944771 3.15957355 0.90886450
-8.81847763 3.05375719 0.93822235
-8.80811787 2.94721007 0.96058738
-8.81421947 3.16771674 1.04658127
-8.86193180 3.06182337 1.07939470
-8.88272953 2.96050811 1.10841620
-8.87905693 3.17915249 1.19413507
-8.89538956 3.07718873 1.22556221
-8.88422298 2.97665286 1.25667334
-8.88827515 3.18957973 1.33762145
-8.88355350 3.08774877 1.37037385
-8.86293316 2.98263407 1.40155625
-8.86960506 3.19325113 1.48250437
-8.84287643 3.08932471 1.51523638
-8.84787941 2.98412561 1.55094481
-8.82220840 3.18788934 1.62284100
-8.80150509 3.07584023 1.65747929
-8.77520180 3.17080998 1.76452303
-8.75534439 3.06220126 1.79835606
-8.81268215 2.97139096 1.69670463
-8.74143410 3.14852715 1.90611351
-8.73043728 3.04054141 1.94418705
-8.77162457 2.95445561 1.84077203
-8.72427559 3.11800957 2.05201602
-8.69232750 3.01172924 2.08571625
-8.75010872 2.93062210 1.98947752
-8.69760704 3.08275962 2.19674587
-8.68436050 2.97335815 2.23656249
-8.68056107 2.90413761 2.12522697
-8.66588688 3.04189539 2.34101725
-8.65388012 2.93282175 2.38290334
-8.59501743 2.87456131 2.25696015
-8.64224720 2.99670649 2.48914194
-8.60144138 2.89085293 2.52316833
-8.55101871 2.83560419 2.40036488
-8.59626007 2.94893670 2.63307667
-8.58870506 2.84063363 2.67641020
-8.56446362 2.78599358 2.55732751
-8.53242111 2.90068293 2.77237368
-8.54925060 2.73808670 2.70966196
-8.46481609 2.80058193 2.79693031
-8.48400116 2.84874177 2.91759300
-8.42268753 2.75034070 2.94351554
-8.38822269 2.70315909 2.81860185
-8.45081139 2.79459834 3.06737900
-8.45025349 2.69177985 3.11083484
-8.38592148 2.65141892 2.97603345
-8.38070965 2.73941493 3.20594192
-8.37775517 2.59873033 3.13071251
-8.36307526 2.64080548 3.24258852
-8.29971600 2.68216634 3.33878613
-8.35064507 2.54192996 3.27955055
-8.27529335 2.58348942 3.37179327
-8.26266289 2.61551714 3.48852158
-8.26060104 2.48686838 3.40617704
-8.24983597 2.51660419 3.52172232
-8.20319080 2.54427814 3.62828708
-8.22930431 2.41985106 3.55073357
-8.18237495 2.44571519 3.65515757
-8.12151814 2.46167207 3.74919462
-8.17763805 2.34420037 3.68723726
-8.11510849 2.35771179 3.77894998
-8.00714397 2.37163544 3.84293580
-8.10536098 2.25290823 3.79654431
-8.00062847 2.26677608 3.85889888
-7.90960598 2.27902699 3.93576956
-7.96817589 2.16433048 3.85687065
-7.90060472 2.17295218 3.94490314
-7.83500290 2.18035412 4.03982687
-7.85017824 2.07223248 4.05374098
-7.91560221 2.06456232 3.96444440
-7.78073692 2.07822204 4.14829779
-7.78065825 1.97198606 4.14960289
-7.84755993 1.96551430 4.05818558
-7.71472597 1.97548783 4.24593353
-7.69961309 2.08231544 4.23731947
-7.76032591 1.87253451 4.26523018
-7.79085207 1.86542952 4.15127468
-7.71472597 1.97548783 4.24593353
-7.76032591 1.87253451 4.26523018
-7.71910906 1.87588513 4.37755394
-7.72915316 1.77219093 4.37334442
-7.76253605 1.76666486 4.25926638
-7.69572163 1.76987565 4.49273300
-7.66219902 1.66740131 4.46012306
-7.69763994 1.66667223 4.34486294
-7.62416935 1.66108108 4.57631063
-7.57400417 1.56464827 4.52962351
-7.62913036 1.56524050 4.42651463
-7.52741194 1.55704725 4.63519955
-7.49685287 1.45767260 4.59902239
-7.57478476 1.46178162 4.51762581
-7.42092752 1.44953072 4.67943001
-7.44788933 1.34550893 4.67918539
-7.50625706 1.35434449 4.59142780
-7.37183332 1.33081925 4.75364017
-7.47591209 1.23446071 4.79761600
-7.52743530 1.24514484 4.70959330
-7.41858339 1.21457124 4.87653542
-7.49083757 1.12431622 4.78472090
-7.43801546 1.10562658 4.85822773
-7.38575554 1.08330703 4.93508768
-7.44618225 0.99134755 4.85091877
-7.39741707 0.97382975 4.92320204
-7.34185696 0.95483768 4.98991013
-7.37896204 0.86383837 4.90354872
-7.32896948 0.84718621 4.96937990
-7.27505112 0.82695848 5.02547550
-7.27735233 0.73926842 4.93364048
-7.22852802 0.71813029 4.99464989
-7.17977858 0.69555581 5.06151009
-7.17909813 0.60640705 4.97497606
-7.15422201 0.58708233 5.05872726
-7.15957642 0.57171947 5.14901304
-7.18420458 0.47467148 5.07449722
-7.17993021 0.46311721 5.15612841
-7.26311636 0.45356423 5.19120455
-7.18338108 0.35041791 5.16909456
-7.26369572 0.33820498 5.20080709
-7.34172630 0.32676789 5.21871758
-7.25973892 0.22292991 5.21417093
-7.33933640 0.21095936 5.22966528
-7.42612362 0.19606560 5.24438524
-7.33115339 0.09591664 5.24385500
-7.41980076 0.07899579 5.26400805
-7.49313498 0.06497914 5.31362057
-7.41494322 -0.03670273 5.27597523
-7.48997164 -0.05034326 5.32029724
-7.54789162 -0.06208954 5.39733124
-7.48757076 -0.16492859 5.32753515
-7.53693676 -0.17488663 5.40916634
-7.54143429 -0.18017104 5.51718903
-7.51513195 -0.28339672 5.42348862
-7.51869440 -0.28827944 5.52430391
-7.51001644 -0.29349744 5.62733173
-7.50824642 -0.39683661 5.52821827
-7.52392054 -0.40295628 5.62914610
-7.47055864 -0.40818730 5.72634315
-7.53121710 -0.51227528 5.62543535
-7.46842432 -0.51929146 5.72057343
-7.43782187 -0.52659363 5.82769871
-7.45531225 -0.64285141 5.81372309
-7.47842169 -0.62980711 5.71223497
-7.38563156 -0.65247512 5.90668964
-7.39784670 -0.77197510 5.88101196
-7.45816994 -0.75961870 5.79323435
-7.31424809 -0.78915089 5.95627213
-7.33698797 -0.90833515 5.93492651
-7.41288614 -0.89048785 5.85585403
-7.25392389 -0.92280006 6.01941156
-7.27960014 -1.04023051 5.99815798
-7.35645008 -1.02314138 5.90629196
-7.18932724 -1.05927622 6.07247019
-7.21665096 -1.17942047 6.04926920
-7.30319977 -1.15726912 5.96988058
-7.09067917 -1.19470334 6.08636379
-7.12559652 -1.31709099 6.07074690
-7.23461771 -1.29682207 6.01619053
-7.01253414 -1.33831751 6.12278605
-7.04013395 -1.46082234 6.09969711
-7.14229202 -1.43454552 6.03520155
-6.96451902 -1.48967576 6.18898344
-6.97253799 -1.61188912 6.15057373
-7.05667591 -1.58127654 6.06588459
-6.89737844 -1.64178455 6.24312258
-7.02896357 -1.73402512 6.15124655
-6.96972275 -1.76592708 6.25451899
-6.90606403 -1.79518402 6.35568094
-6.91802073 -1.92222273 6.32246017
-6.99566555 -1.89215136 6.23189926
-6.82091093 -1.95152128 6.39634371
-6.89652395 -2.05080199 6.26310205
-6.83683348 -2.08903265 6.36331654
-6.81628847 -2.13103795 6.48000336
-6.86736250 -2.22106004 6.32168531
-6.84421158 -2.26978850 6.44153261
-6.74122953 -2.31317711 6.48090076
-6.87098694 -2.40886450 6.40013599
-6.76503277 -2.45593452 6.42934084
-6.67446136 -2.50071836 6.49298000
-6.79288816 -2.60250592 6.37801552
-6.70626783 -2.65279746 6.44723082
-6.60104513 -2.68988371 6.48928976
-6.74192238 -2.79881525 6.38728189
-6.64498758 -2.85102963 6.42004442
-6.79508543 -2.93682027 6.32271481
-6.71101952 -3.00085187 6.36303091
-6.86482811 -3.06258869 6.25824976
-6.79825926 -3.14322925 6.32457018
-6.87718344 -3.25521636 6.21283722
-6.93514538 -3.17159557 6.17327547
-7.02230740 -3.28187990 6.08127737
-6.96846485 -3.36089230 6.10417223
-6.83429575 -3.37200475 5.99544621
-7.05620146 -3.43160820 5.95217371
-6.94188118 -3.45546699 5.87398863
-6.90714884 -3.55408812 5.88312197
-7.05675983 -3.53156328 5.75350904
-7.02956486 -3.63036942 5.77441645
-6.89392328 -3.66056275 5.91431475
-7.01368093 -3.73050833 5.80164385
-6.88255215 -3.78053451 5.93715906
-7.00577927 -3.84245682 5.82680178
-6.87348175 -3.89731622 5.95940113
-6.97959423 -3.95470309 5.83456945
-6.86003399 -4.02502060 5.97602701
-6.97970915 -4.07376146 5.86583328
-6.86944628 -4.15570307 6.01449823
-6.96465254 -4.19867086 5.88482428
-6.74415588 -4.10879326 6.11121607
-6.73760509 -4.24207735 6.13569117
-6.85155725 -4.28246593 6.02994156
-6.62897921 -4.19892550 6.24068642
-6.62106800 -4.34372330 6.26376486
-6.72605991 -4.38188171 6.15868807
-6.51401281 -4.30473423 6.36267376
-6.51816702 -4.15672874 6.33589506
-6.41337156 -4.26877308 6.46037054
-6.41323090 -4.11247253 6.43276596
-6.31045532 -4.23447275 6.55247021
-6.30887985 -4.07830906 6.52038050
-6.20630932 -4.20504713 6.64054394
-6.21369696 -4.04605675 6.61722088
-6.11454821 -4.18083000 6.74055433
-6.09586477 -4.33571434 6.75496769
-6.20165491 -4.36176777 6.66980982
-6.00705910 -4.31139469 6.85884285
-6.08817530 -4.48439360 6.79221582
-5.98721647 -4.46065187 6.88245106
-6.06622553 -4.63320827 6.81746578
-5.97552299 -4.60596418 6.92076921
-6.03784752 -4.77708721 6.85039186
-5.94036055 -4.75071621 6.94431543
-5.84635973 -4.72664976 7.03836298
-5.91218901 -4.89356279 6.98155403
-5.80884743 -4.86881256 7.06843424
-5.70155239 -4.84764910 7.14096260
-5.76652670 -5.01054955 7.10052443
-5.67188406 -4.98769760 7.19011593
-5.56361055 -4.96600008 7.25837326
-5.61896801 -5.12929201 7.21996307
-5.52086353 -5.10612297 7.29924059
-5.43503809 -5.08081341 7.38660002
-5.46022749 -5.24932003 7.33587551
-5.39251804 -5.22575521 7.44185066
-5.40419817 -5.40832138 7.41622305
-5.49730873 -5.43452406 7.34256268
-5.56641388 -5.27701855 7.27710962
-5.58844662 -5.45988369 7.25696707
-5.66526222 -5.30256987 7.20127916
-5.56767702 -5.63845825 7.20922899
-5.67672968 -5.48287725 7.16611099
-5.77323961 -5.32540464 7.12845564
-5.77716923 -5.49671793 7.07255316
-5.66916990 -5.65542078 7.10642576
-5.77189636 -5.66766119 7.01291943
-5.54599810 -5.81749678 7.15398026
-5.66937399 -5.82883787 7.06319571
-5.79118538 -5.82698298 6.94810772
-5.57674503 -5.97439575 7.08763933
-5.70921421 -5.97100067 6.98035002
-5.62999535 -6.10273552 6.99073887
-5.49902391 -6.11659622 7.08466196
-5.58388376 -6.23464870 6.99733400
-5.42745066 -6.24883080 7.07898474
-5.38735294 -6.35662937 7.07703733
-5.52471924 -6.34409428 6.95440865
-5.48992395 -6.45489025 6.95072842
-5.35630274 -6.45532894 7.08334780
-5.13123608 -6.45844030 7.01324606
-5.30358982 -6.57284975 7.04513216
-5.09853077 -6.60259962 7.03197193
-5.15167809 -6.64536190 7.19024992
-4.99272156 -6.64523172 7.28237963
-4.82806063 -6.65413332 7.37787390
-4.86097860 -6.68852949 7.49442911
-5.04079342 -6.67869234 7.40383720
-5.10145617 -6.72091627 7.53539753
-4.90278721 -6.72653437 7.61187029
-5.05712175 -6.84599733 7.51735449
-4.89590836 -6.83858728 7.62474489
-5.06342840 -6.89143038 7.58092213
-4.92695284 -6.90361261 7.67712069
0.04060211 -6.88799858 9.10798836
0.04136285 -6.79214478 9.13712311
-0.08375502 -6.80221319 9.12637806
-0.08460635 -6.88686848 9.10916138
-0.20969586 -6.89882278 9.10235119
-0.20813300 -6.81311750 9.11977196
-0.20444238 -6.71411514 9.05886555
-0.07911396 -6.69956541 9.04449177
-0.32706213 -6.71889305 9.06371689
-0.32793564 -6.59685135 9.10687733
-0.20567322 -6.58390045 9.09912014
-0.44979954 -6.60506916 9.09883404
-0.45630121 -6.47309017 9.13228130
-0.33341545 -6.46473789 9.14308453
-0.57877588 -6.47949266 9.10901737
-0.58603156 -6.34689951 9.13912010
-0.46289244 -6.33922482 9.16155720
-0.70822310 -6.35519266 9.12090397
-0.71904331 -6.22238445 9.15363503
-0.59567648 -6.21275568 9.16262722
-0.84274387 -6.23244524 9.14474773
-0.72980422 -6.08675385 9.16755009
-0.85419226 -6.09589577 9.15445232
-0.97669411 -6.10560989 9.13387012
-0.98707020 -5.96896648 9.13765144
-0.86530769 -5.95954418 9.16224003
-1.11013544 -5.97883511 9.11930370
-0.99924874 -5.83394289 9.12702942
-1.12173998 -5.84422922 9.10223961
-1.24740648 -5.85712051 9.08016014
-1.13784814 -5.71005440 9.09350395
-1.26290047 -5.72280359 9.07795715
-1.39393926 -5.73799896 9.06958866
-1.28857195 -5.59156275 9.10289288
-1.41472578 -5.60726976 9.07116985
-1.53537333 -5.62584639 9.00801849
-1.42718911 -5.48217201 9.01294327
-1.55876040 -5.50570679 8.99568462
-1.69564903 -5.53306389 8.98631763
-1.59960139 -5.39199209 9.04111862
-1.73552120 -5.42109919 9.02041435
-1.87491107 -5.45334721 8.98956871
-1.76676273 -5.31056929 8.99568462
-1.90248585 -5.34537888 8.94684696
-2.04178452 -5.38350105 8.91022110
-1.94910765 -5.25567579 8.96563339
-2.09270930 -5.29794359 8.94410419
-2.23330879 -5.34230328 8.91477680
-2.14542437 -5.21216106 8.97299385
-2.28273726 -5.25629234 8.93324947
-2.42215919 -5.29919386 8.89635754
-2.33566833 -5.16007662 8.93090343
-2.46719861 -5.20701981 8.87858009
-2.58848858 -5.26485729 8.82550144
-2.44935894 -5.16496944 8.77674484
-2.55751610 -5.24850273 8.70645905
-2.68086720 -5.32691908 8.64961910
-2.54392791 -5.24451876 8.61251354
-2.65803933 -5.34095764 8.54588795
-2.79487920 -5.39481258 8.50009823
-2.81559682 -5.34214020 8.42840672
-2.64003706 -5.34694958 8.38440037
-2.96993184 -5.36026287 8.43831444
-2.88088202 -5.24226379 8.50224876
-3.01740503 -5.28611279 8.46761131
-3.15072584 -5.33518696 8.43881416
-3.05634475 -5.23011589 8.50525570
-3.18004084 -5.27564573 8.44518471
-3.29280901 -5.33179712 8.37288094
-3.22535634 -5.20990372 8.45688629
-3.34504771 -5.27956486 8.40620422
-3.45217729 -5.36147499 8.34197426
-3.39426398 -5.21770000 8.41070843
-3.50504255 -5.29660988 8.34467411
-3.45436311 -5.14728546 8.40873146
-3.55783987 -5.22259140 8.33177948
-3.51068664 -5.06437683 8.37332821
-3.60980439 -5.14227629 8.30051517
-3.58550906 -4.97885132 8.34822273
-3.67741823 -5.05960894 8.27947521
-3.67953277 -4.89056587 8.33671379
-3.77720714 -4.96872568 8.26583672
-3.84636712 -5.05632210 8.17979240
-3.98095846 -5.00734663 8.25293159
-3.91209006 -4.89546967 8.30938435
-4.03745747 -4.81733370 8.26432800
-4.10518265 -4.93676519 8.21289062
-4.17357874 -4.75436449 8.20050621
-4.21411324 -4.88252687 8.16272736
-4.25883389 -5.00816965 8.09688568
-4.33800936 -4.83882475 8.11091232
-4.29242134 -4.71023083 8.12670326
-4.41008043 -4.68012571 8.05397129
-4.38495159 -4.56481695 8.05133057
-4.24349689 -4.58618021 8.12692738
-4.50510073 -4.54424143 7.96313572
-4.48456764 -4.42941332 7.96551991
-4.35632753 -4.44966030 8.05190086
-4.61253309 -4.41210794 7.88333893
-4.46701765 -4.31786680 7.95530558
-4.60334158 -4.30047655 7.87644815
-4.72757244 -4.28888416 7.78590775
-4.59188461 -4.18933392 7.86604071
-4.72830439 -4.17510271 7.78777266
-4.86069202 -4.16118670 7.70468473
-4.72278690 -4.06077814 7.77838421
-4.85500526 -4.04530430 7.69666195
-4.97220707 -4.03287601 7.59839392
-4.84573650 -3.92805743 7.68461323
-4.97189522 -3.91066074 7.60036182
-4.83222628 -3.80906940 7.66939354
-4.95986652 -3.79008698 7.58886385
-5.07716751 -3.77337480 7.49724245
-4.94830656 -3.66717029 7.58381796
-5.06360292 -3.64830136 7.49412251
-5.17757988 -3.63038278 7.40400076
-5.04293633 -3.52288222 7.48576355
-5.16519642 -3.50465608 7.40557003
-5.28086710 -3.48155951 7.32078934
-5.14023781 -3.37688541 7.40171719
-5.25309992 -3.35411263 7.31947517
-5.37271166 -3.32721615 7.23946381
-5.22515202 -3.22743392 7.31900549
-5.34097481 -3.19841123 7.24044371
-5.45541477 -3.16317272 7.16383696
-5.31194258 -3.07089472 7.24862814
-5.41069078 -3.03499150 7.16152382
-5.52024794 -2.99452662 7.08522367
-5.40528679 -2.91371155 7.19512129
-5.47274399 -2.86245847 7.08582544
-5.43240213 -2.79631042 7.24352169
-5.51022530 -2.76307535 7.16161585
-5.55718040 -2.75814962 7.36964750
-5.65413475 -2.76212072 7.31237936
-5.72766876 -2.70095396 7.44494915
-5.63316441 -2.70538211 7.50802803
-5.71097755 -2.52803779 7.47165585
-5.61175776 -2.53449488 7.53018808
-5.69509363 -2.38040161 7.48600912
-5.59387255 -2.39317393 7.54652834
-5.67606735 -2.23680663 7.50421429
-5.57656193 -2.25199604 7.56668186
-5.77547312 -2.22400451 7.43835402
-5.73190165 -2.07304764 7.44201231
-5.65590525 -2.09173226 7.52721119
-5.82131386 -2.05367041 7.37661076
-5.79851103 -1.89340031 7.40242052
-5.70654154 -1.91578865 7.46000576
-5.83951473 -1.87166405 7.30616236
-5.79030037 -1.72272170 7.42239046
-5.82373953 -1.70681643 7.32714987
-5.84168863 -1.68841755 7.23231792
-5.83683300 -1.52363515 7.33782291
-5.85154057 -1.50699544 7.24621248
-5.80414867 -1.50144815 7.15888262
-5.84725189 -1.31150496 7.23725176
-5.78551483 -1.30422950 7.14945364
-5.72429705 -1.33905125 7.06640625
-5.68938351 -1.14952791 7.12906694
-5.63654852 -1.19503117 7.04098225
-5.58260727 -1.24962747 6.94455004
-5.51535988 -1.09382153 7.05106497
-5.43931389 -1.14890444 6.94695663
-5.43771124 -1.15346932 6.82390785
-5.34088135 -0.98734075 6.88150215
-5.30229712 -1.03447199 6.98166609
-5.42691851 -0.92405021 6.82787418
-5.33526421 -0.75477302 6.92500925
-5.26662683 -0.80264133 6.96574306
-5.39079332 -0.71292377 6.87569284
-5.25199556 -0.54776013 6.92022800
-5.18707895 -0.59502333 6.97531509
-5.33445644 -0.51271129 6.88121748
-5.25413275 -0.34892601 6.96526384
-5.31919241 -0.32161236 6.89110565
-5.17780542 -0.38550940 7.02254295
-5.29013920 -0.16364323 7.00272655
-5.36633444 -0.15753560 6.92413187
-5.19511938 -0.18350546 7.07755852
-5.34405899 -0.01057147 6.98488712
-5.25125456 -0.02418634 7.06548834
-5.42409801 -0.01506123 6.91579342
-5.40760469 0.11135818 6.93573236
-5.30904770 0.12071501 7.01049280
-5.48703480 0.10261659 6.85647678
-5.46050882 0.21851324 6.81062555
-5.35984135 0.22844510 6.87918758
-5.57924747 0.21412604 6.74011660
-5.57523632 0.32628539 6.75314331
-5.46176052 0.33403689 6.82377529
-5.63231707 0.32817596 6.86890316
-5.58651829 0.44603112 6.75530434
-5.64294624 0.45085675 6.85626221
-5.68180418 0.46236029 6.94687414
-5.67100286 0.57567590 6.83779144
-5.71159220 0.58903456 6.92585564
-5.75830841 0.59890091 7.01089096
-5.75534391 0.71360695 6.90262365
-5.79963923 0.72784573 6.98333788
-5.85198593 0.73811597 7.06113625
-5.85036755 0.85336536 6.95276594
-5.90419245 0.86545563 7.02848625
-5.97396612 0.87205303 7.10481596
-5.95963955 0.98230988 6.98577404
-6.02597332 0.99438334 7.06218624
-6.10455608 1.00742435 7.15823126
-6.15759230 1.11104405 7.08355141
-6.08188677 1.09734952 7.00389767
-6.26030827 1.09706986 7.11414242
-6.20211029 1.21678901 7.02204370
-6.29673195 1.20101213 7.04239941
-6.39665794 1.18094337 7.03209305
-6.32938194 1.31084251 7.00444841
-6.42402983 1.29237449 6.98761845
-6.50767517 1.26285708 6.93731260
-6.45172024 1.39430916 6.95473385
-6.53236580 1.36847103 6.90080976
-6.57776403 1.33803296 6.81275654
-6.55742979 1.47016633 6.87589645
-6.61103868 1.43955517 6.79624271
-6.58616972 1.41800809 6.64635468
-6.68272543 1.52249718 6.69242001
-6.65374851 1.54200613 6.79149246
-6.75022125 1.50238407 6.62670040
-6.72887707 1.62340736 6.70595694
-6.73781443 1.61131847 6.58675194
-6.83684015 1.59550607 6.54975939
-6.76283264 1.71034181 6.58569145
-6.84884691 1.69767749 6.54049253
-6.95702553 1.69604290 6.51625204
-6.95756292 1.79700541 6.49996281
-6.83465815 1.79126740 6.50370407
-7.04525757 1.81134689 6.44745493
-6.94666100 1.89447594 6.47300053
-7.03591728 1.91395223 6.42726135
-7.12167072 1.93555999 6.37117577
-6.99849892 1.99547470 6.38115501
-7.07748175 2.01953387 6.31586456
-7.00488949 2.01961613 6.23394823
-6.93005037 1.99361074 6.30414200
-7.07315350 2.02688074 6.14869833
-6.93927097 2.00158095 6.16325474
-7.00198841 2.00409985 6.08157301
-7.06196928 1.98640454 5.99553776
-6.93131733 1.97935927 6.01799488
-6.98843384 1.96576393 5.93511009
-7.11622047 1.95928109 5.91244936
-7.04036045 1.93807006 5.85608816
-7.18043280 1.91119647 5.83061457
-7.10017538 1.89361978 5.77971697
-7.23036289 1.82955539 5.76919746
-7.14862871 1.81948745 5.71752548
-7.25554991 1.73014152 5.73443699
-7.34757423 1.61995220 5.77692366
-7.36526728 1.49022996 5.86543608
-7.37255049 1.46009731 5.96223497
-7.34801960 1.36003232 5.94750500
-7.35061598 1.42997599 6.06076717
-7.32828426 1.33000040 6.03979874
-7.28090954 1.30176103 6.13692427
-7.31461620 1.22666836 6.01494694
-7.27349329 1.19887400 6.11244917
-7.20409298 1.17199457 6.21232700
-7.30598116 1.09479535 6.11000299
-7.22915363 1.06827617 6.21295929
-7.15150213 1.04094744 6.30607891
-7.17257833 0.93422335 6.28966713
-7.25681353 0.96043319 6.19383574
-7.08372259 0.91096121 6.39651728
-7.17246342 0.83066839 6.27489614
-7.07697916 0.80936044 6.38725090
-6.98276472 0.79002184 6.49979925
-7.07332468 0.71235025 6.36998272
-6.97127199 0.69232482 6.48771000
-6.86410952 0.69293731 6.60722065
-6.95871162 0.59977812 6.47300053
-6.84558249 0.59346622 6.59578276
-6.74169207 0.59704125 6.71391821
-6.82973814 0.49627450 6.58392811
-6.72247791 0.49783349 6.70153236
-6.60348797 0.50547880 6.80481529
-6.69868660 0.39974907 6.68258238
-6.58548450 0.40706691 6.79200172
-6.46290636 0.41819769 6.88645649
-6.45613098 0.30897033 6.86996269
-6.57134104 0.30519462 6.77950478
-6.36139011 0.30759683 6.98032045
-6.35098362 0.19551280 6.94992256
-6.45699120 0.19798976 6.86075878
-6.27071667 0.19083306 7.06446934
-6.30292702 0.06582908 7.05062628
-6.35192490 0.08223969 6.93182850
-6.19817734 0.05783801 7.11786270
-6.23745298 -0.06714502 7.10672140
-6.33114910 -0.04906950 7.02878189
-6.14842129 -0.08786145 7.18223619
-6.18551874 -0.21598171 7.13969803
-6.28187275 -0.19184479 7.08262444
-6.08392382 -0.25581872 7.23723173
-6.14524174 -0.38961431 7.17458200
-6.25509691 -0.35163167 7.11637592
-6.01528692 -0.42555070 7.18656969
-6.09642601 -0.55710495 7.12041235
-6.21776390 -0.53509223 7.14551878
-6.00905085 -0.53533965 7.02693558
-6.18717909 -0.64116561 6.98999357
-6.11679649 -0.61921674 6.92096186
-6.05349779 -0.59604341 6.84650803
-6.09722710 -0.73147047 6.81372404
-6.15474987 -0.74791342 6.87804604
-6.12718678 -0.85363853 6.77009583
-6.90751839 1.93621719 5.88760710
-6.85723352 1.94862616 5.97095060
-6.76717091 1.91568816 5.91634321
-6.71802092 1.92387593 5.99768877
-6.80098581 1.95856655 6.05450869
-6.61749315 1.92513430 5.91502810
-6.69257307 1.95489562 5.85142994
-6.62871790 2.07689190 5.89427423
-6.71409416 2.07915258 5.82753563
-6.63103914 2.18022013 5.86941147
-6.72572613 2.18345857 5.81055307
-6.63827610 2.28634596 5.86274481
-6.70221376 2.28558302 5.77568054
-6.73552608 2.38721776 5.79746437
-6.68142366 2.38291168 5.90171528
-6.77705193 2.38541222 5.68560886
-6.80579472 2.49955869 5.71565008
-6.75675869 2.50111127 5.82657766
-6.85041618 2.49791908 5.60165358
-6.85638762 2.62879705 5.62422276
-6.76629925 2.62604666 5.70916653
-6.95238972 2.62500310 5.54463005
-6.96614981 2.75647569 5.57417154
-6.86948824 2.76060486 5.66041040
-7.06168318 2.75212336 5.49102163
-7.05304575 2.88526535 5.49642420
-6.95827246 2.88985538 5.59106255
-7.14926815 2.87937498 5.40498686
-7.12779665 3.00829744 5.39527225
-7.00413370 3.01446486 5.46912575
-7.21902752 3.00399232 5.29985952
-7.15370560 3.12352610 5.25089884
-7.08951807 3.13108540 5.37063408
-7.25730276 3.11867166 5.15969610
-7.16458893 3.24219441 5.24766779
-7.22621202 3.23381591 5.12297821
-7.30423880 3.22777224 5.01335526
-7.26580811 3.35174012 5.12637281
-7.36373186 3.34300423 5.02531242
-7.45502996 3.33540702 4.92253971
-7.39542866 3.45956731 5.01488447
-7.48468637 3.45083380 4.90893078
-7.58107567 3.44189835 4.80706549
-7.51025534 3.57274485 4.88742256
-7.59707689 3.56517220 4.77895117
-7.68737173 3.55550790 4.66914463
-7.59819889 3.68816662 4.73340607
-7.68964815 3.67954206 4.62613726
-7.75148678 3.67110634 4.49980688
-7.60912991 3.80006528 4.52762556
-7.68473387 3.79201245 4.41446543
-7.77476311 3.78172183 4.30595350
-7.73712969 3.91613293 4.39024544
-7.79844713 3.90534377 4.26618814
-7.89731503 3.89165950 4.16192722
-7.88486481 4.02712059 4.25726843
-7.92288494 4.01578283 4.11925602
-7.97525311 4.00262403 3.98810410
-8.10952568 3.98674202 3.89597344
-7.98911428 4.13697386 4.09490347
-8.02403259 4.12411308 3.95400620
-8.05572319 4.10694599 3.81018353
-8.05572319 4.10694599 3.81018353
-8.05034924 4.24816847 3.90876651
-8.05842113 4.23023272 3.75294590
-8.05842113 4.23023272 3.75294590
-8.09819031 4.21154404 3.61157990
-8.09523392 4.35683537 3.71197724
-8.18272018 4.33625460 3.58924532
-8.25715351 4.31478453 3.46027493
-8.25989056 4.45738125 3.56645203
-8.32898712 4.43380976 3.42995882
-8.36751556 4.41265154 3.27923489
-8.38220596 4.55850601 3.39188528
-8.43237877 4.53327894 3.24126315
-8.45419312 4.51000595 3.08070230
-8.45473099 4.66484070 3.19070244
-8.49027061 4.63738108 3.03021288
-8.51047230 4.60544443 2.86854100
-8.46907043 4.76770544 2.96552372
-8.45520878 4.73582840 2.79125237
-8.50221443 4.69858742 2.63841820
-8.52006721 4.87304258 2.75045729
-8.58271599 4.83622694 2.59846926
-8.63597202 4.79018402 2.45513558
-8.63704777 4.98084402 2.54733777
-8.71089077 4.92931747 2.39826512
-8.73825645 4.87246609 2.23948812
-8.74923706 4.90938044 1.98464572
-8.54063129 5.01664352 2.69892812
-8.62396431 5.15267086 2.67759275
-8.59789658 5.16201496 2.87195587
-8.50800705 5.03589535 2.87684894
-8.59621334 5.30326128 2.85891795
-8.66453838 5.28878975 2.67204738
-8.62012005 5.42926264 2.66851020
-8.50802612 5.43668079 2.83147669
-8.49123573 5.57142401 2.64283228
-8.51037407 5.57477522 2.83310771
-8.57375526 5.57035255 2.47699118
-8.65512657 5.58000612 2.32079291
-8.65392303 5.72072077 2.53395343
-8.57087040 5.72080469 2.68507481
-8.72067833 5.72847891 2.38030362
-8.75418949 5.74606752 2.22034431
-8.73566246 5.59795475 2.17230153
-8.75868225 5.87806177 2.41888690
-8.68716812 5.87011909 2.56613469
-8.80460548 5.89364386 2.26658297
-8.82819557 5.91310978 2.10754108
-8.76513863 5.76720905 2.06035447
-8.78164291 6.04499054 2.28114963
-8.72670174 6.03085184 2.42713356
-8.82259846 6.06132221 2.13024211
-8.81682777 6.07774830 1.97012985
-8.84404373 5.93506002 1.95096576
-8.69250870 6.18606043 2.27211809
-8.66729927 6.19575548 2.11266828
-8.71813488 6.20731544 1.96830535
-8.78207111 6.22190523 1.82181168
-8.77669525 6.08784676 1.80787694
-8.75572109 6.33588839 2.13413620
-8.80487823 6.34313631 1.98799944
-8.82084179 6.35501671 1.83275974
-8.84312725 6.23619127 1.67223954
-8.81389046 6.36720085 1.67268825
-8.86448097 6.47014570 2.00263762
-8.88035107 6.47745705 1.84444165
-8.88601780 6.48868895 1.68439054
-8.87181950 6.37306213 1.52234137
-8.87277699 6.49841881 1.52087343
-8.91276550 6.60487986 1.85144484
-8.92226791 6.60961294 1.68986452
-8.92449284 6.61417818 1.52632713
-8.88391876 6.62102699 1.35945630
-8.87231064 6.50237703 1.36052668
-8.89562225 6.72941208 1.68193376
-8.87914753 6.73225594 1.51677561
-8.85735512 6.74140978 1.35364592
-8.83245182 6.62926626 1.19320738
-8.89691544 6.73832607 1.19938469
-8.90600967 6.90651226 1.35990489
-8.84096050 6.92248774 1.50757062
-8.96079922 6.89299774 1.21193314
-8.93400955 6.73980618 1.04944575
-8.99834633 6.89016438 1.06259561
-9.10247803 7.06663084 1.08523583
-9.08041668 7.06190443 1.23845720
-9.12026310 7.07221174 0.93129057
-9.00428867 6.90601921 0.91013873
-9.01071644 6.91688681 0.75866044
-8.93685627 6.76611853 0.74443001
-8.94687557 6.74862528 0.89744765
-8.93579865 6.63122845 0.89266670
-8.87049389 6.62963247 1.04014909
-8.93606091 6.51067448 1.04880357
-8.93595886 6.50659418 1.20849788
-8.97627831 6.38661528 1.21268761
-8.94437027 6.37822962 1.37095487
-8.94344139 6.25295448 1.36345232
-8.90217113 6.24363184 1.51996624
-8.87008572 6.11822271 1.50065935
-8.82098484 6.10659170 1.65506327
-8.75801945 5.97239685 1.62375844
-8.83195210 5.95558739 1.79133248
-8.84986210 5.82218838 1.75578713
-8.79678440 5.79474688 1.90581799
-8.89177608 5.65813208 1.87526751
-8.82012177 5.62486172 2.02609324
-8.82207680 5.49023724 1.96691895
-9.01533604 6.75929880 0.59937376
-8.99804688 6.93553877 0.60578561
-9.05542469 6.76272774 0.45026040
-8.96581554 6.96611404 0.45360395
-8.97942257 6.97162199 0.30438864
-9.06804943 6.77366304 0.29929182
-9.06155109 6.65730429 0.29175869
-9.06326389 6.78092098 0.14832321
-9.04356003 6.66817522 0.14255358
-8.99416351 6.55399561 0.13474521
-9.02271938 6.67710018 -0.00572390
-8.96918392 6.56280756 -0.01112656
-8.96994781 6.43403435 0.12458210
-9.02417660 6.43751717 -0.01860873
-8.97621536 6.31057787 0.11329768
-9.00288105 6.31437540 -0.02966889
-8.95501041 6.19158649 -0.04193188
-8.92581367 6.18680716 0.09936289
-8.93092728 6.05995512 0.08260447
-8.88401127 6.06271696 -0.05502059
-8.98638630 6.06188869 0.22308375
-9.02847481 5.94033957 0.20376670
-9.04532814 5.94155025 0.06128946
-8.98109341 5.94063663 0.34896567
-9.03781796 5.82239056 0.33383822
-9.05404091 5.81643343 0.18930186
-8.99007416 5.82702398 0.47887412
-8.98425674 5.70789385 0.46797708
-9.02559948 5.70313835 0.32624394
-8.95629883 5.70742750 0.61133093
-8.95260525 5.57524300 0.45965901
-8.90470982 5.55992222 0.58716172
-8.92000771 5.55959702 0.72448099
-8.98321629 5.42964745 0.67440957
-9.06348228 5.49704790 0.56152457
-8.98758030 5.41971159 0.79838520
-9.07402611 5.29074764 0.73627508
-9.07964039 5.32323551 0.62201399
-9.06037331 5.27325964 0.85947609
-9.22750282 5.25812244 0.85408360
-9.24490261 5.28697205 0.72106612
-9.14717293 5.17791510 0.96497059
-9.37721729 5.24362087 0.96999609
-9.37281322 5.23243093 0.81079096
-9.27665520 5.15430355 1.08489943
-9.48260880 5.16434097 1.09623480
-9.51350880 5.18544245 0.92996544
-9.39021397 5.09787130 1.22741747
-9.50105190 5.01146841 1.21644902
-9.50844193 5.04488420 1.05024087
-9.35863686 4.93220997 1.29499137
-9.50010109 4.88267565 1.14601064
-9.38310432 4.83565807 1.23772323
-9.37833691 4.74804974 1.34705067
-9.47216034 4.76346636 1.07745802
-9.38862801 4.65584993 1.01848745
-9.46578789 4.79811049 0.96626520
-9.38675976 4.69817829 0.92487878
-9.50113583 4.92110968 1.01261592
-9.48773289 4.92555571 0.87239152
-9.47337246 4.80918264 0.85526597
-9.51728916 5.05265474 0.89549029
-9.38302040 4.99574232 0.73804879
-9.46707916 4.90438795 0.73425674
-9.48000717 5.15443707 0.76437908
-9.41225529 5.10724688 0.62648898
-9.43067837 4.99188232 0.61652976
-9.30430603 5.17597055 0.65041357
-9.39769745 5.24431324 0.53432781
-9.44725609 5.11775541 0.50759989
-9.33499241 5.37103987 0.59594870
-9.29199791 5.34531307 0.45567325
-9.24164200 5.48427439 0.52041340
-9.24431705 5.50115347 0.37881282
-9.37490749 5.42727804 0.29286978
-9.04805756 5.49475098 0.43458247
-9.02147675 5.49075031 0.30298194
-9.26122761 5.53172779 0.22389926
-8.99759483 5.58938217 0.31725308
-8.99737263 5.58399487 0.16687573
-8.95911789 5.46111870 0.16000518
-9.04241657 5.69705915 0.17832325
-9.02892494 5.69603920 0.03190103
-8.97300720 5.57686281 0.02041274
-9.05657482 5.81493807 0.04491839
-9.04710007 5.81751537 -0.09787487
-8.99652195 5.69380283 -0.10980150
-9.03346062 5.94155788 -0.07947525
-8.93568993 6.07099819 -0.19419509
-9.00367260 5.94845152 -0.21255392
-9.00374413 5.82196093 -0.23326750
-8.91473675 5.95381594 -0.34466419
-8.96993256 5.83038473 -0.36504140
-8.96517467 5.69838572 -0.24651931
-8.94692230 5.71197462 -0.38359395
-9.01894093 5.59311771 -0.26371610
-9.05452538 5.60518599 -0.39827281
-8.95684242 5.57890558 -0.12415422
-9.02973461 5.47834396 -0.14703909
-9.04865074 5.47648144 -0.28395054
-8.95734024 5.46189308 0.00771141
-8.99805737 5.36535978 -0.01269638
-9.01771164 5.35847378 -0.16944483
-9.22422028 5.48246288 0.07291027
-9.02832031 5.25677633 0.12695722
-9.01230907 5.24655771 -0.03451088
-9.04509068 5.13440990 0.10491846
-9.29864693 5.40155363 0.15583597
-9.22422028 5.48246288 0.07291027
-9.02832031 5.25677633 0.12695722
-9.09376144 5.14685917 0.32199317
-9.02832031 5.25677633 0.12695722
-9.04509068 5.13440990 0.10491846
-9.29864693 5.40155363 0.15583597
-9.09376144 5.14685917 0.32199317
-9.04224491 5.11687517 -0.06681470
-9.15342236 5.10005045 0.02647799
-9.13669205 5.01272297 -0.10905737
-9.24409008 4.93356037 -0.13145290
-9.12822342 4.96334267 -0.25469467
-9.04034138 5.09329128 -0.21852742
-8.99768925 5.05085039 -0.36613211
-8.96542645 5.20469618 -0.32509232
-8.98537254 5.21784782 -0.18633577
-8.91614056 5.20068789 -0.47570413
-9.01202011 5.35626364 -0.43665209
-9.01625443 5.35313606 -0.30323705
-8.98236465 5.38314247 -0.56997544
-8.95035553 5.41740179 -0.71155566
-9.03541279 5.49431658 -0.54521495
-9.04159164 5.48254728 -0.41452157
-9.02009678 5.52669477 -0.67762083
-9.05347061 5.61782026 -0.53027093
-9.02508545 5.63661575 -0.66052604
-8.99431992 5.57365465 -0.81292176
-8.99077797 5.67704439 -0.79006743
-8.93999672 5.46200895 -0.85427749
-8.92914677 5.52773237 -0.98877311
-8.93999195 5.62925196 -0.95274854
-8.93377686 5.71978998 -0.93834496
-8.88354874 5.66163874 -1.10159695
-8.91305447 5.75701904 -1.08761120
-8.89694500 5.56962538 -1.12933397
-8.86863518 5.67373610 -1.26044524
-8.85458565 5.57003975 -1.27634740
-8.85068226 5.67725706 -1.42227018
-8.86765766 5.57297945 -1.42239249
-8.91978836 5.77730227 -1.41953826
-8.92716312 5.77643156 -1.25008845
-8.87012959 5.76537657 -1.57591963
-8.92931652 5.86534119 -1.57056797
-8.95871353 5.86398697 -1.41221917
-8.87188244 5.87387419 -1.71005857
-8.81337452 5.75703764 -1.72110832
-8.80246830 5.88171911 -1.84615457
-8.85018158 5.76687431 -1.87491083
-8.77116489 5.89423466 -1.98805058
-8.86669636 5.77229023 -2.02157784
-8.85787868 5.63335943 -2.02816296
-8.81788349 5.65211535 -2.17472792
-8.83086491 5.78664351 -2.16608357
-8.81762505 5.50226164 -2.03945756
-8.76905441 5.52521181 -2.18317842
-8.73164463 5.37187719 -2.04758191
-8.75628662 5.39535713 -2.21160841
-8.71389580 5.54407167 -2.32299519
-8.75924873 5.41373968 -2.36448336
-8.74442863 5.28524590 -2.39642024
-8.73872471 5.43138790 -2.50867343
-8.71201324 5.30779457 -2.53437161
-8.69693470 5.44721699 -2.64293432
-8.65141487 5.32459164 -2.66106892
-8.63955784 5.45989084 -2.76564598
-8.58205891 5.33686304 -2.77642059
-8.52155876 5.34630060 -2.89255762
-8.53904247 5.23391724 -2.94580936
-8.54870319 5.11990881 -3.00643110
-8.51057243 4.95766068 -2.96567678
-8.48800945 4.98519325 -3.05274105
-8.42992210 4.81272888 -3.08164024
-8.45896435 4.77782631 -2.99392343
-8.49347687 4.73076391 -2.90287352
-8.59518051 4.74920321 -2.88376045
-8.68941689 4.81408453 -2.93309784
-8.51191425 4.55711365 -3.05927539
-8.55609608 4.51115751 -2.97943854
-8.46870804 4.60221958 -3.13256788
-9.01506901 4.27769089 -3.32832789
-8.97553921 4.31950712 -3.39840961
-9.05411816 4.22266388 -3.24788928
-9.00670338 4.18083382 -3.42589164
-9.05197811 4.11652517 -3.33523893
-8.95377541 4.21559572 -3.50673771
-8.97873783 4.08831453 -3.54875612
-9.03621483 4.04335451 -3.46335363
-8.84266949 4.21611977 -3.55235481
-8.91966915 4.11445713 -3.62586141
-8.93320274 3.97651625 -3.67157984
-8.99355888 3.94839811 -3.59017324
-8.83083057 4.11086130 -3.68293571
-8.77518940 4.21537352 -3.61782885
-8.86556721 3.98876643 -3.74497461
-8.94476891 3.82801032 -3.71655440
-8.88195324 3.84990692 -3.79535174
-8.73832893 4.09323502 -3.73299694
-8.77621746 3.97940230 -3.79572892
-8.81649971 3.85572076 -3.87083602
-8.88574696 3.69400620 -3.83343530
-8.83117199 3.70683002 -3.91666698
-8.71020126 3.83486700 -3.90619802
-8.64955139 3.93956685 -3.80290532
-8.77085686 3.70453644 -3.99538279
-8.83771992 3.55147696 -3.95293617
-8.78097057 3.54806256 -4.03037786
-8.64971161 3.66208601 -4.02332354
-8.71773052 3.54104948 -4.10158062
-8.77565956 3.40220904 -4.04525042
-8.71632671 3.39498782 -4.12269163
-8.60307693 3.65101790 -4.11248779
-8.59574127 3.50603580 -4.13600445
-8.63379860 3.37726998 -4.18406773
-8.70651436 3.25462246 -4.13576984
-8.60960579 3.24128294 -4.19387388
-8.62525463 3.37436867 -4.29087782
-8.58429241 3.23538804 -4.29222298
-8.68799114 3.12328124 -4.26155043
-8.62952709 3.11536169 -4.34673929
-8.60785675 3.36529779 -4.39093876
-8.60040951 3.23488331 -4.41982794
-8.55973434 3.10523629 -4.42427206
-8.64673233 2.99322653 -4.38202953
-8.58300495 2.98246241 -4.47449636
-8.57249355 3.23031926 -4.52811527
-8.54026031 3.09945297 -4.54106140
-8.51385403 2.97525406 -4.55697346
-8.48411751 3.09347010 -4.62950182
-8.44274712 2.97493410 -4.62997103
-8.33596897 2.86740232 -4.66086817
-8.30262852 2.74559069 -4.65193796
-8.25433159 2.86874437 -4.64753437
-8.24031734 2.77656007 -4.65195847
-8.18571472 2.86771369 -4.60458851
-8.17081642 2.78064156 -4.59973621
-8.22360706 2.66408062 -4.64408922
-8.16086769 2.67035985 -4.59752417
-8.27626419 2.64423943 -4.67109203
-8.19563103 2.59960842 -4.71828890
-8.26093388 2.59545374 -4.76360989
-8.35068321 2.58425117 -4.81710672
-8.41653728 2.50791335 -4.83229494
-8.28014851 2.52998805 -4.86530209
-8.22249603 2.54520512 -4.83836031
-8.37740993 2.44397092 -4.89560843
-8.40734863 2.39385223 -4.78299809
-8.35435963 2.33786559 -4.83220339
-8.36058521 2.41835308 -4.60374212
-8.30429173 2.36300230 -4.65849257
-8.26543617 2.29805517 -4.71974659
-8.14366436 2.30570340 -4.55463934
-8.19796944 2.36513853 -4.49770737
-8.17982292 2.26248264 -4.75437450
-8.12063026 2.22027397 -4.62114286
-8.19607735 2.17977643 -4.47679996
-8.16978836 2.09456587 -4.54567909
-8.09830952 2.22169018 -4.78221369
-8.09714317 2.13047338 -4.67987871
-8.10954189 2.03146911 -4.59582186
-8.20956421 1.98533285 -4.48178482
-8.16440678 1.89590979 -4.55564880
-8.01447487 2.09095573 -4.70424223
-8.05816555 1.95599687 -4.65831947
-8.09451389 1.82051265 -4.62820721
-8.02589989 1.78660226 -4.51872683
-8.09442234 1.86330068 -4.44475126
-7.99630451 1.78118336 -4.68285561
-7.91936588 1.96896589 -4.64623976
-7.98229027 1.69371915 -4.62700415
-7.84171152 1.69347477 -4.46122456
-7.88358450 1.79072201 -4.35652447
-7.85696936 1.68611419 -4.65119410
-7.84038925 1.79811597 -4.66154051
-7.77032471 1.61614537 -4.55113268
-7.82291555 1.60776258 -4.41812515
-7.72273779 1.51803434 -4.48729992
-7.80894566 1.52292967 -4.35373211
-7.70129776 1.67975521 -4.64381361
-7.67302608 1.57604671 -4.61336517
-7.62980986 1.46698034 -4.56758547
-7.68918467 1.37277997 -4.59084749
-7.70415592 1.39008701 -4.42075539
-7.62235308 1.46427131 -4.72336531
-7.59523058 1.56175506 -4.70449686
-7.63958502 1.35869360 -4.70795250
-7.66786194 1.25348151 -4.70213175
-7.71612167 1.25080395 -4.55699396
-7.59377670 1.37047732 -4.83479261
-7.54482508 1.45859933 -4.82079649
-7.61299658 1.27082705 -4.83274364
-7.64933300 1.15298057 -4.84685183
-7.68810511 1.06044018 -4.67631102
-7.54994011 1.29883718 -4.95397711
-7.52476692 1.38446724 -4.94596481
-7.57088947 1.17074168 -4.97105169
-7.66972637 1.17864013 -5.02350855
-7.74532032 1.15017521 -4.89868689
-7.48500919 1.17745423 -5.08746386
-7.46863270 1.31762910 -5.06121492
-7.58914471 1.20025861 -5.14036894
-7.67948914 1.23337495 -5.17914581
-7.75938559 1.21192789 -5.06270313
-7.42459011 1.22558475 -5.19518042
-7.52119732 1.24978721 -5.24663830
-7.60525370 1.28634202 -5.28586340
-7.68783331 1.32330942 -5.32104206
-7.76264572 1.26826239 -5.21125603
-7.45554781 1.32554722 -5.34517050
-7.53431320 1.36310101 -5.38131714
-7.61839628 1.39405918 -5.42163324
-7.71263599 1.41957641 -5.46825933
-7.77690983 1.34610665 -5.35965586
-7.53827429 1.40040290 -5.52919722
-7.46050024 1.38597929 -5.48489523
-7.62697458 1.41788161 -5.57616997
-7.71738386 1.39274371 -5.63008404
-7.81384993 1.39517689 -5.52638388
-7.55110121 1.42844892 -5.68292809
-7.46582270 1.41348684 -5.63335657
-7.62163210 1.37622273 -5.72733212
-7.69500780 1.31352472 -5.77637386
-7.78513813 1.30860901 -5.67591524
-7.55902386 1.38967168 -5.83882046
-7.48441744 1.44053209 -5.79299974
-7.62294912 1.30466497 -5.87758684
-7.66440105 1.19168901 -5.88683271
-7.73672724 1.20394826 -5.79566002
-7.48650885 1.37127149 -5.94054317
-7.55440807 1.28640532 -5.97093105
-7.59684038 1.17283475 -5.97960567
-7.69231033 1.07890570 -5.88826990
-7.62760448 1.05237305 -5.96676159
-7.49106073 1.26385200 -6.07033920
-7.53544950 1.14435136 -6.06487608
-7.57048035 1.02608454 -6.05097151
-7.65789270 0.93472713 -5.95864725
-7.60316133 0.90506488 -6.03748512
-7.46984386 1.10509980 -6.14516115
-7.51140785 0.98866975 -6.13462067
-7.55016327 0.86895877 -6.11555910
-7.62045860 0.78457266 -5.99853516
-7.58345509 0.74509507 -6.06973839
-7.46033859 0.94707131 -6.21213388
-7.50334549 0.82564002 -6.18501854
-7.54374218 0.70124751 -6.14001369
-7.60051394 0.62070411 -6.01219463
-7.56543970 0.57867050 -6.07406044
-7.45209312 0.78234613 -6.25162411
-7.49515676 0.65937638 -6.20623207
-7.52137661 0.53762239 -6.13749552
-7.46173191 0.50028926 -6.19255161
-7.44174242 0.61433196 -6.27351999
-7.41652727 0.45519409 -6.25314283
-7.38523436 0.56839776 -6.33261347
-7.43630791 0.36955169 -6.15697575
-7.31652689 0.31834650 -6.01358128
-7.38248253 0.32934293 -6.21566105
-7.35749483 0.40956259 -6.30912685
-7.31137466 0.26524159 -6.07139969
-7.39306879 0.18098253 -5.97304058
-7.38816929 0.22755069 -5.90944242
-7.30227852 0.21090579 -6.12946320
-7.29636145 0.29255843 -6.25207281
-7.39365625 0.12727405 -6.03541613
-7.45114040 0.05322727 -5.90820885
-7.51146698 0.13756201 -5.89271450
-7.38328123 0.06844028 -6.09429455
-7.28481770 0.15388580 -6.19015598
-7.43457174 -0.01289172 -5.96161366
-7.54133368 -0.05897177 -5.86758709
-7.62055826 0.03316498 -5.85662889
-7.42567730 -0.07587978 -6.03030872
-7.33912277 0.00659210 -6.13372421
-7.50696898 -0.14122348 -5.92152166
-7.62305784 -0.18548952 -5.84915686
-7.65165138 -0.09852614 -5.78443718
-7.49439478 -0.21956845 -6.00039053
-7.42289972 -0.14655051 -6.12120581
-7.58468056 -0.28085080 -5.90911579
-7.63019896 -0.35096651 -5.79755640
-7.65829706 -0.26604065 -5.73620081
-7.54546642 -0.37322924 -5.96071672
-7.45621490 -0.29923573 -6.05328560
-7.57341385 -0.44301867 -5.82278585
-7.71796894 -0.44060493 -5.72291803
-7.66750145 -0.53422934 -5.74615955
-7.44788313 -0.45502123 -5.95357084
-7.55021763 -0.53613788 -5.87191916
-7.65751314 -0.62930042 -5.79504871
-7.77341700 -0.64186257 -5.65127659
-7.76058865 -0.73362881 -5.69189882
-7.50512505 -0.62757862 -5.89505911
-7.61939716 -0.71794868 -5.81237793
-7.66950846 -0.80775303 -5.66084862
-7.86545897 -0.84807026 -5.56779051
-7.84957981 -0.93440467 -5.59979868
-7.53500700 -0.80858481 -5.78683281
-7.64099646 -0.90169883 -5.68388653
-7.73648262 -0.99878818 -5.56693411
-7.84813166 -1.10548544 -5.44433451
-7.95082521 -1.04552436 -5.46217346
-7.63329792 -0.99825919 -5.71734238
-7.70537615 -1.09012818 -5.58746433
-7.80254412 -1.18364036 -5.46159267
-7.81547689 -1.16821432 -5.23243809
-7.76181746 -1.24719250 -5.25557804
-7.75437546 -1.19677401 -5.64225578
-7.74656868 -1.26842952 -5.47279549
-7.71965885 -1.33677769 -5.28027725
-7.83471918 -1.34648967 -5.09837055
-7.85364532 -1.43582737 -5.15929890
-7.68183517 -1.37309897 -5.47197962
-7.72492933 -1.43925023 -5.31914616
-7.83478260 -1.52127564 -5.19101143
-7.92473984 -1.53325975 -5.01397705
-7.78985786 -1.63342023 -4.99185705
-7.68621302 -1.55614948 -5.33165359
-7.76764536 -1.63071752 -5.20489502
-7.79196882 -1.73837411 -5.06719875
-8.02083015 -1.70422351 -4.97396708
-7.76299000 -1.75101066 -5.24539471
-7.83576584 -1.83259058 -5.13934946
-7.97079849 -1.80598629 -5.39308071
-8.04212093 -1.87501061 -5.28246880
-7.93191051 -1.94053662 -5.45384550
-8.01008797 -2.02378654 -5.36074638
-8.06452370 -2.11647224 -5.26309109
-8.11913490 -2.22292852 -5.20457888
-7.96347761 -2.16390538 -5.43339682
-8.01807499 -2.25954485 -5.35471153
-8.05627155 -2.36293292 -5.28448725
-8.14999199 -2.32986999 -5.14624023
-8.05127621 -2.47606444 -5.26413059
-8.15168571 -2.44416976 -5.12834024
-7.93688679 -2.38644075 -5.40765762
-7.97725439 -2.48107409 -5.34642458
-7.99939203 -2.57675838 -5.29185724
-8.05952549 -2.57450891 -5.22004271
-8.00940037 -2.67377543 -5.24564934
-7.88418961 -2.58396244 -5.39355993
-7.91433764 -2.67367601 -5.33549690
-7.96725845 -2.76542997 -5.26505804
-8.04141808 -2.76377201 -5.18120480
-8.01707745 -2.85478067 -5.18412018
-7.91977787 -2.85387444 -5.29402876
-7.85128498 -2.75718164 -5.37301970
-7.97881508 -2.94219780 -5.18062353
-8.10184765 -2.93023849 -5.06576157
-8.11190891 -2.84339356 -5.07812643
-8.09149075 -3.01697612 -5.05342674
-7.87151432 -2.94119000 -5.32624054
-7.93226433 -3.03060555 -5.19719887
-8.05504036 -3.11587262 -5.09659719
-8.09729862 -3.14921951 -4.96781015
-8.13366604 -3.03093362 -4.91819763
-7.99574089 -3.21347404 -5.15561867
-7.89156532 -3.12316251 -5.24739265
-8.05193710 -3.27027249 -5.03007317
-8.11496544 -3.33073449 -4.89132690
-8.17450714 -3.19660926 -4.81518984
-7.94547892 -3.36933684 -5.10950279
-7.90315723 -3.29779887 -5.20642424
-8.03164196 -3.45273304 -5.00956345
-7.97189188 -3.45411897 -4.88655615
-8.07307529 -3.33438945 -4.74485350
-7.93612623 -3.57120180 -5.11084795
-7.85916328 -3.46526718 -5.19168377
-7.89216423 -3.59938216 -5.00017500
-7.80700207 -3.57351017 -4.91482353
-7.87391758 -3.44724011 -4.80704546
-7.81124735 -3.72844505 -5.10313177
-7.82952929 -3.66583371 -5.21347809
-7.72841454 -3.69173551 -5.02060318
-7.64627981 -3.64417696 -4.96195889
-7.71931839 -3.52399874 -4.85768747
-7.63681746 -3.78228331 -5.12767792
-7.70584965 -3.80104423 -5.21198988
-7.57114935 -3.75001621 -5.06739235
-7.51379395 -3.71565747 -5.01737213
-7.56289816 -3.59586525 -4.91543484
-7.45971012 -3.78898478 -5.18197966
-7.52851057 -3.82371569 -5.23981857
-7.40710926 -3.76829648 -5.12784100
-7.30844498 -3.82536364 -5.23428345
-7.37360764 -3.83979774 -5.28539467
-7.35062981 -3.77785349 -5.07643414
-7.26036167 -3.84289002 -5.18474197
-7.42681885 -3.69927835 -4.96591377
-7.40682936 -3.85470629 -5.04581213
-7.48137569 -3.77618980 -4.92615843
-7.49633884 -3.60078549 -4.85637283
-7.54906034 -3.68123603 -4.80565882
-7.53639126 -3.48280239 -4.74174452
-7.60767365 -3.58923364 -4.67816639
-7.60521603 -3.47207212 -4.80880880
-7.66723537 -3.48678541 -4.55468988
-7.65357685 -3.67793918 -4.62200928
-7.71414423 -3.61044192 -4.49184608
-7.71911144 -3.42424226 -4.42561769
-7.78159761 -3.56598973 -4.37197828
-7.76479292 -3.37720156 -4.28210068
-7.82891321 -3.52615929 -4.24488354
-7.81562901 -3.36980152 -4.16236544
-7.86102629 -3.51313162 -4.11668777
-7.83942175 -3.25477314 -4.22336483
-7.81447506 -3.15166402 -4.25929737
-7.84933090 -3.25818920 -4.07978630
-7.86882877 -3.37042618 -4.04422092
-7.84169817 -3.16000962 -4.11019421
-7.85692692 -3.07016897 -4.15712595
-7.76597214 -3.05949712 -4.28199863
-7.86214972 -2.97955465 -4.20536232
-7.93948221 -3.16823816 -3.97738051
-7.94699717 -3.07342410 -4.03101969
-7.90602160 -3.26734734 -3.93265057
-7.93174458 -2.97557044 -4.08382320
-8.00886440 -3.06009269 -3.89830804
-7.99866867 -3.16144753 -3.84307861
-7.97490168 -2.95510149 -3.95013285
-7.90387774 -2.87690663 -4.14259005
-7.84975147 -2.88751340 -4.26311016
-7.75555658 -2.97123480 -4.31989908
-7.75496197 -2.87320781 -4.37026596
-7.79830217 -2.77593517 -4.31396627
-7.68242550 -2.96067095 -4.44136715
-7.67195606 -2.85586262 -4.50729990
-7.75398016 -2.95153451 -4.54296780
-7.80952501 -2.86489725 -4.56141806
-7.89263725 -2.98563051 -4.56741190
-7.94332027 -2.87792301 -4.57095957
-8.02473831 -3.01266336 -4.58469009
-8.07102871 -2.90100503 -4.58955288
-8.00191307 -3.16979194 -4.58700418
-8.16393566 -3.04790187 -4.62793207
-8.15535545 -3.20457888 -4.64596462
-7.93343306 -3.33505583 -4.67592382
-8.20891190 -3.06226969 -4.77355909
-8.20581627 -2.93236494 -4.64591360
-8.22566986 -2.93433356 -4.78279448
-8.15462399 -2.91766691 -4.91294765
-8.18589497 -2.80587244 -4.91152048
-8.24308395 -2.80784392 -4.78814650
-8.25914001 -2.66896033 -4.79396677
-8.30352783 -2.51998973 -4.71565866
-8.27027321 -2.52660394 -4.81890059
-8.29439259 -2.67525887 -4.66660690
-8.26481247 -2.81387877 -4.65631151
-8.23486996 -2.67508173 -4.57554674
-8.15142345 -2.79755139 -4.58730984
-8.20225143 -2.54239774 -4.56039858
-8.29795170 -2.52467489 -4.60932875
-8.13395119 -2.67059875 -4.53165245
-8.09551907 -2.54663038 -4.53032732
-8.03021622 -2.77376461 -4.56056166
-8.00748920 -2.65588546 -4.52107143
-7.90827322 -2.75759697 -4.55344677
-7.87917089 -2.64356995 -4.52248812
-7.76810360 -2.75197172 -4.53639269
-7.99379873 -2.54647398 -4.52288580
-7.85543251 -2.52204800 -4.50845194
-7.76835728 -2.63409996 -4.49642324
-7.67044163 -2.75303912 -4.44614744
-7.72413206 -2.64069128 -4.38533211
-7.77051306 -2.64664364 -4.27653503
-7.76716089 -2.51092172 -4.46167278
-7.78377533 -2.51301837 -4.36044931
-7.76056623 -2.37678576 -4.46183586
-7.82177067 -2.50938010 -4.27736044
-7.81582689 -2.37466168 -4.36097956
-7.83713531 -2.35590887 -4.29970503
-7.71669960 -2.22761798 -4.49185658
-7.83381367 -2.27751422 -4.52844143
-7.77163458 -2.20147943 -4.37784004
-7.76183605 -2.13456535 -4.57929802
-7.88748407 -2.18749404 -4.58549547
-7.82757473 -2.06487870 -4.65284538
-7.92654181 -2.13353419 -4.65201950
-8.03856182 -2.18247938 -4.62336540
-8.06597805 -2.13441086 -4.68777943
-7.96780348 -2.08266568 -4.71342659
