-4.50469351 3.32070708 -0.04107098
-4.46985292 3.26481509 -0.28157762
-3.95500445 2.52700162 2.34768009
-4.11487198 2.33767653 2.06483912
-4.05560637 2.28681016 2.19659233
-4.05287170 3.19929790 2.15212226
-3.91942096 3.19302559 2.26741028
-3.91401052 3.25827956 2.29353952
-4.40960789 2.67868352 1.30056036
-4.35303974 2.44431782 1.47004616
-4.33028936 2.64170504 1.46221256
-4.16716337 3.19788504 1.56397402
-4.27050686 3.14293146 1.60293186
-4.18796682 3.21881437 1.65870321
-4.27663612 3.26152492 0.99936265
-4.31478310 3.11415315 0.87927699
-4.41336918 3.12830019 0.95270038
-4.51647186 3.21720934 0.02831466
-4.35179949 3.25091720 1.00303960
-3.92036486 3.39929199 2.36519647
-4.02017164 3.34973431 2.17901373
-4.31462097 2.72227263 1.39011598
-3.94558215 3.13694549 2.26730967
-4.46814871 3.87336969 0.53888261
-4.47704697 3.86508441 0.79620916
-4.45543671 4.11710358 0.68072951
-4.04030514 2.77403545 1.83532166
-4.13127851 2.73115945 1.97682738
-3.95917487 2.79574108 2.00818992
-4.45140600 1.42823577 0.89250153
-4.49629641 2.33580661 0.56060255
-4.47972441 2.18088555 0.65629178
-4.39793158 2.27901793 0.58660150
-4.43441534 3.17663574 1.02108133
-4.43410063 3.35740948 1.10538459
-3.59327364 1.62965751 2.67729378
-4.05918264 3.03255248 1.77912748
-3.96764088 3.11037898 1.99290085
-4.50901985 3.03659344 -0.09762076
-4.52791595 3.05938077 0.11906967
-4.54024744 2.20078492 0.57023841
-4.13782549 2.70264506 1.88973582
-4.06086493 2.68317270 1.77548933
-4.08063030 2.57109761 2.09353352
-4.43736887 4.17108440 0.84227639
-4.39431000 4.20282555 0.74830651
-4.52908659 1.99240959 0.76522899
-4.26978731 3.33128333 0.88592404
-4.27322292 3.18580890 0.87021023
-4.02127361 3.14062643 2.13070226
-3.91956973 2.66008067 2.28923130
-3.76585579 2.75485754 2.36643314
-3.85889363 2.68714428 2.25674343
-4.56631279 2.17852545 0.49160045
-4.14452076 3.21452188 1.94476604
-4.13824797 3.18254375 1.94834805
-4.32741880 3.34707308 0.98022336
-4.35290337 3.39438581 0.89400208
-4.36044598 3.50202703 1.25853872
-4.35514450 3.66659379 1.43569183
-4.41525221 3.57483649 1.22058213
-4.06761122 3.28236222 1.95622146
-4.29010725 3.27494287 0.68615729
-4.33952475 3.07196236 1.50070739
-4.45500422 2.77429271 1.07564771
-3.90577364 2.69878602 2.17012525
-4.37838650 2.31918454 1.43094480
-4.12340832 3.29286575 1.88108635
-4.20834923 3.28048897 1.74272728
-3.79461789 2.78888535 2.27640796
-4.47444105 2.96021366 -0.19085212
-4.50928402 2.89829683 -0.28218609
-4.52053022 2.81831241 -0.11398198
-4.22825241 3.07599258 1.69064283
-4.08835506 3.11326408 1.81078243
-4.15793228 2.53535485 1.78288305
-4.10509586 2.53769350 1.71142256
-4.31610584 3.03139138 1.53167272
-4.46906614 1.94943416 0.87450492
-4.49113226 1.80345654 0.81627440
-3.68891883 1.71840453 2.70511150
-4.23024082 3.18051219 1.74397480
-4.49561644 3.01556492 -0.27242157
-4.43747854 3.45981359 0.98144507
-4.38247442 3.51374197 0.45494911
-4.37440205 3.37859511 0.65063775
-4.42031860 3.46561766 0.65926653
-4.43327045 3.64412260 0.44990486
-4.03914165 3.51050115 2.15892315
-4.59705400 1.31856763 0.53838247
-4.45951366 1.64311063 1.03596961
-4.43876600 1.47129095 1.05835581
-4.33057404 2.88060737 0.80799949
-4.30047083 2.89710784 0.76596099
-4.29068279 2.78559661 0.81709236
-4.47566509 1.60547662 0.85223407
-3.90171432 3.57504845 2.40953350
-4.03139782 3.63198256 2.18403912
-3.71370029 1.90896630 2.68196201
-4.33044052 2.77819324 0.64673102
-4.27133942 2.65029645 0.87501860
-4.44765854 3.75287390 1.09326375
-4.48315096 3.12263727 -0.43371481
-4.58322859 1.80871844 0.59039676
-4.57318497 1.63406932 0.45696867
-4.44642735 1.78450131 1.14178467
-4.40746880 1.48817146 1.18151712
-4.41582537 1.66896427 1.26113081
-4.27942657 3.10781002 0.75201875
-4.29663467 3.15538764 0.61402494
-4.20120525 3.27989626 1.53224587
-4.14831066 3.23708892 1.56174183
-4.56821108 1.90556276 0.66635484
-3.86778569 2.93150425 2.15274978
-4.46536732 1.74739325 0.36299449
-4.41944408 1.84261298 0.37518403
-4.41842604 1.77059269 0.31539130
-4.54267979 1.87952268 0.38126537
-4.39413071 3.59593320 0.36211154
-4.37234306 3.36591458 -0.38515383
-4.35280848 3.37936854 -0.47053719
-4.42904568 3.32582664 -0.40190420
-4.11450958 3.57737827 2.02203584
-4.58301544 1.48552930 0.66691387
-4.35482025 3.40492129 -0.39719710
-4.57040453 2.16332626 0.36825690
-4.00874805 2.66338944 2.16520000
-4.01614809 2.72400570 2.10236192
-4.27615023 4.00644684 1.60798275
-4.43938351 3.33486032 -0.51024371
-4.36087465 3.45464468 -0.58619064
-4.39271450 1.94406116 1.15357268
-4.28336811 1.96112013 1.12417102
-4.41193485 1.91595995 0.97218597
-4.11326361 3.36347747 1.94360495
-4.34176731 3.46231365 0.40756389
-4.37260294 3.53987002 -0.50796026
-4.34288549 3.57996154 -0.62435514
-4.46043015 1.86706281 0.94251460
-4.25348425 3.31781363 1.57035029
-3.77253819 2.71828842 2.54325700
-4.14909554 3.49438858 1.91557503
-4.30301714 4.24461555 1.47582090
-4.31467295 3.40360236 1.49285388
-4.53477859 2.13065767 0.26276723
-4.56003380 1.91645169 0.45057499
-4.37352371 4.15961742 1.32851875
-4.00874805 2.66338944 2.16520000
-3.77253819 2.71828842 2.54325700
-3.91956973 2.66008067 2.28923130
-4.14742374 2.49032950 1.97830892
-4.20315456 2.40829611 1.77044129
-4.34691763 2.65007949 0.39568260
-4.36612225 2.55641198 0.45704180
-4.34281778 2.77042460 0.49597660
-4.34617281 2.76544642 0.41001275
-3.81487036 1.72485280 2.58337164
-4.13237667 3.69726515 2.00974655
-4.37866354 3.70651126 -0.52463102
-4.42899752 3.61834383 0.24076419
-4.43576813 3.74499655 0.31477907
-4.22899151 2.26433063 1.60376048
-4.19321680 2.09328389 1.62998474
-4.18579674 2.21556115 1.83569729
-4.35354710 4.27508259 1.29811490
-4.32376719 3.07402873 0.51964748
-4.42865753 1.89939809 1.22821558
-4.39160109 2.42665553 0.50380707
-4.33315372 2.37762547 0.60209608
-3.91502881 1.57346392 2.19750810
-4.21026707 3.39618492 1.79139817
-4.19633627 2.42306972 1.60161614
-4.31472254 2.48403215 0.58116007
-3.77584481 2.17908669 2.61559987
-4.24986029 2.32991457 1.60337317
-4.50599241 1.20733202 0.10574479
-4.48131657 1.09813881 -0.06173588
-4.26802444 2.71471596 0.90429145
-4.40405369 2.76204634 0.86009508
-4.47071314 3.64343190 0.56691134
-4.36264181 2.64261317 0.31369388
-4.19779778 2.17282081 1.48278689
-4.22498131 2.08045864 1.52086759
-4.53227043 1.22372210 0.24530730
-4.46709108 2.88016415 0.82097745
-4.22801781 3.63949418 1.75512195
-4.41975641 4.10632086 1.14446890
-4.39594936 2.73635125 0.95721936
-4.46365404 4.00356722 0.94752228
-4.50746155 1.28389013 0.12887295
-4.46624041 2.78613973 0.90794647
-4.39591312 3.92190552 -0.57973093
-4.31701994 3.93360543 -0.72962910
-4.34806919 3.78393984 -0.62690908
-3.92255306 3.90596199 2.39954162
-4.48382711 2.57868052 0.46722355
-4.26692533 2.04598188 1.48937511
-3.91108584 1.96808958 2.44109058
-4.43085814 3.54285026 0.88324654
-4.46006870 3.56396079 0.71356827
-3.99329901 3.76616669 2.27848792
-4.44340515 2.97597170 0.85645461
-4.31632519 2.13738537 1.50476730
-4.11425066 1.53761709 1.88897836
-3.99220204 1.66448951 2.16596746
-4.57680941 2.36223102 0.35816395
-4.55932426 2.28212667 0.15293159
-4.53042078 1.45218027 0.17523094
-4.51197577 1.40115595 0.07977210
-4.29055834 2.21233797 1.22040176
-4.27132177 2.34420276 1.24218178
-4.23468828 2.31066346 1.17293584
-4.26450729 3.48569727 1.67241561
-4.27365732 2.52477360 1.50086844
-3.92728996 1.58436978 2.36314440
-4.02600145 1.71699655 2.23826575
-4.57603121 1.31347978 0.22705622
-4.46153879 3.79661226 -0.34393674
-4.10523081 1.91418970 2.03123236
-4.02643967 3.90785623 2.20927405
-4.46209049 3.64847875 0.79921991
-3.85485911 2.36138177 2.51865745
-4.54001427 2.56547928 0.21851021
-4.55762529 2.43012023 0.15082741
-4.55932951 2.51516104 0.38225621
-4.18327856 2.10142231 1.86712146
-4.03277731 1.78665149 2.25016928
-4.59566402 1.40664208 0.27274844
-4.25654984 2.14924264 1.16430187
-4.17230463 2.89364076 1.52381682
-4.12864208 2.89647222 1.58498025
-4.19110298 2.96190214 1.46800411
-4.25465059 2.00270677 1.04210603
-4.42279196 4.18964434 1.03422225
-4.07693911 1.76627624 1.99980700
-4.62339258 1.28956687 0.42907164
-3.89085031 1.62699497 2.47785282
-4.46482229 1.16447616 -0.09485442
-4.45745087 1.33436024 0.02008624
-4.36605501 2.05132031 1.46963370
-4.13952112 1.57653880 1.81670654
-4.03002787 4.06356239 2.13796663
-4.31686878 3.33742595 0.43022498
-4.24239445 2.17096257 1.03945971
-4.60453796 1.44779837 0.36707652
-4.54188251 2.55727291 0.41432512
-4.32758665 3.36369038 0.55604446
-4.07130766 1.70528460 1.84518695
-4.38318157 1.89038622 0.16887251
-4.40344095 1.70690751 0.20604765
-4.38528347 1.88248062 0.32924527
-4.44337130 3.57978821 0.04898519
-3.92097545 4.19457579 2.14048791
-4.13169909 2.52157784 1.56408787
-4.48721981 3.37659836 0.12160636
-4.45366430 3.41852021 0.23775706
-4.26912260 2.95367026 1.49648499
-4.36716604 2.81186104 1.36870241
-4.12799931 2.07420158 2.04524589
-4.02583265 2.10067773 2.25520492
-4.13354158 3.04290295 1.65403152
-4.46541929 4.16407537 0.51079124
-4.45126486 4.09038067 0.36915562
-4.44592953 3.98808908 0.39228138
-4.38508606 1.93797553 0.21226211
-3.93116522 4.42501259 2.14125562
-4.37816429 3.15550089 0.48151588
-4.33818626 3.22461677 0.47665951
-4.34458828 3.01131010 0.42929009
-4.03864861 4.15148783 1.91289735
-4.18807888 2.82912278 1.43869817
-4.46747065 3.11433315 0.45088661
-4.43082428 3.85039258 0.40500936
-4.24649239 2.52258134 0.99744534
-4.49574327 3.19285965 0.47175777
-4.24534655 2.44173741 1.23272848
-4.25726461 2.58828425 1.16575909
-4.50276089 1.75665295 0.06244009
-4.54427195 1.62706721 0.37095898
-4.44788504 1.68020213 0.31872800
-4.07226276 1.75230384 1.81817150
-4.51155424 3.57556248 -0.08408036
-4.51615858 3.77767396 -0.17670137
-4.46221161 3.73326874 -0.04700859
-4.23844957 2.60868692 1.02826011
-4.15257406 1.93190134 1.87246501
-4.19858217 2.72181511 1.42752528
-4.49195290 1.63709140 0.19247751
-4.50512934 1.93771386 0.02825680
-4.14070988 1.85123146 1.76008439
-4.44152308 3.85958362 0.29434055
-4.41713428 3.96379614 0.22402786
-4.03791428 4.44515991 1.89371955
-4.41475010 1.94110703 0.27776036
-4.47542858 3.91147685 0.19131175
-4.09776545 4.07744789 1.97902727
-4.32313824 3.13739419 1.44356477
-4.48164845 3.31419659 0.35255828
-4.37315035 3.37608790 0.30219981
-4.15243149 3.97459674 1.92629278
-4.10055256 4.10517550 1.88735354
-4.12468433 4.01017857 1.81003678
-4.50289249 2.02823830 0.25464469
-4.24575806 2.79759097 1.38386929
-4.15933084 2.33317924 1.93901825
-4.50551605 1.93020856 -0.10071298
-4.18454361 2.02887678 1.77519095
-4.49516487 1.95590675 0.33581066
-4.22670460 2.67355013 1.07676101
-4.09612226 3.98488808 2.08419561
-4.51597357 2.06074262 0.10469393
-4.53619099 2.04055142 -0.01725573
-4.47934484 2.01930785 -0.16608843
-4.39261007 2.91109562 1.33247054
-4.45665550 2.84947753 1.14503050
-4.48761463 2.09303164 -0.18253443
-4.11590719 1.56421268 1.68640089
-4.13665915 1.48225939 1.76523840
-4.52701998 2.12265491 0.00169901
-4.26226902 2.46539712 0.86608237
-4.37455559 2.96512794 1.20185733
-4.41040707 4.18001795 0.30892450
-4.45530510 2.95013905 1.07705784
-4.31909513 3.03881264 1.29758263
-4.27547312 2.97535086 1.17961991
-4.46108627 4.00540924 0.10680111
-4.51925850 1.60040247 -0.05460553
-4.30333900 3.01461148 1.11216033
-4.43090963 4.10806274 0.23399797
-4.15125513 1.58387733 1.54650176
-4.16263342 3.82043242 1.95112765
-4.24528360 3.06326270 1.28878450
-4.35588169 3.05051017 1.38675880
-4.52369452 2.29071689 -0.08907052
-3.87066388 3.12004161 2.41554546
-3.86779499 3.07155824 2.22641730
-3.75652122 3.01325989 2.38353515
-3.80625248 2.99523830 2.26871872
-4.20626926 3.16131616 1.37303269
-3.86248469 3.18890548 2.40772033
-4.48249531 2.88555074 0.97110105
-4.50399113 3.96202278 0.02589517
-4.23081446 3.80993962 1.75003040
-3.75376439 3.04645634 2.48857093
-4.53453875 2.54070354 -0.07651896
-3.83349586 3.34449697 2.50978637
-4.28069830 2.12681627 0.85675937
-4.28881645 3.09152699 1.05098808
-4.40874577 3.07574940 1.08620393
-4.46281862 3.08251882 1.04662704
-4.16803217 1.70454097 1.54091549
-4.45577812 3.48050261 1.06624007
-4.41807985 3.43567801 1.19671047
-4.48985720 3.86578631 -0.09788015
-4.43365908 3.61598969 1.09036577
-4.32354259 2.12226176 0.75783616
-4.33514595 2.24165082 0.64484560
-3.88163066 3.27563477 2.41679406
-4.53133011 2.55249834 -0.25738630
-4.28242111 1.94282532 0.99352878
-3.83533263 2.62348676 2.50843024
-4.40840816 3.19854331 1.18668711
-4.31942892 3.22271633 1.20186937
-4.18570900 3.23522902 1.37521279
-4.29733038 1.97549295 0.90343779
-4.34391117 1.93667424 0.89592648
-4.52293110 1.27599573 0.80840528
-4.41154051 3.28382730 1.24786937
-4.15651846 1.86269569 1.62808514
-4.24304247 3.32292986 1.44214523
-4.35396004 1.98604083 0.83629429
-4.49589252 4.01645851 -0.05517632
-4.52253246 3.94127321 -0.22848272
-4.53090048 1.72745156 0.76648772
-4.19855738 1.40177405 1.44485378
-4.13048649 4.04267120 1.77708828
-4.23632383 1.61899245 1.29355240
-4.53445005 2.50012755 0.14490421
-4.10722685 4.35141611 1.77432740
-4.46787262 3.78128791 0.91158634
-4.53841066 1.50933599 0.75842661
-4.19701481 4.11124849 1.71956503
-4.52293110 1.27599573 0.80840528
-4.43444586 1.27995920 0.86783803
-4.58393526 1.23738122 0.71663642
-4.20041418 1.88505721 1.57383668
-4.42766857 3.44287682 -0.19668193
-4.13623428 4.50048208 1.66929376
-3.64119864 2.81326699 2.52988625
-4.22320032 3.40317512 1.35993004
-4.20764399 1.76272118 1.53619254
-4.34030342 3.46483374 1.36340153
-4.33455753 3.53498578 1.46065640
-4.46252823 3.38692713 -0.15047154
-3.91623116 3.44759202 2.40308857
-4.17734194 4.36951685 1.71833384
-4.18947983 4.24154854 1.74843740
-4.43280077 3.65438628 -0.32090259
-4.50482464 3.52586055 -0.14153965
-4.22674131 3.10601068 1.21197057
-4.22533798 3.16855907 1.30618119
-4.25841093 3.10442400 1.14754319
-4.28445625 3.28785515 1.28663921
-4.35944414 3.31525326 1.30076051
-4.26180458 1.48151684 1.30252862
-4.24250364 3.41235566 1.28840089
-4.35514832 2.75375080 0.30732197
-4.47503519 3.21463203 -0.43563569
-4.29799747 1.75760138 1.54145670
-4.34279537 3.44168186 1.25663948
-4.31588316 1.87657225 1.53561866
-4.37581968 1.34206009 1.24205065
-4.50039005 2.98399329 0.30729795
-4.45950174 2.88239479 0.17849950
-4.37336206 2.93292499 0.33138779
-4.41243219 1.90540385 0.37441275
-4.47575855 2.98784065 0.36885312
-4.49316120 2.64864993 0.24315244
-4.41971827 2.78951931 0.20722179
-4.38623810 2.86294079 0.23496607
-4.18671417 3.98530245 1.69839120
-4.40227222 4.26314735 0.87773460
-4.49521780 2.90513659 0.10683446
-4.37981319 1.55297422 1.22439933
-4.52132559 3.21395707 0.13509424
-4.31841803 1.65459561 1.36155915
-4.30795717 3.73682356 1.56074643
-4.51421022 2.78222179 0.15619412
-4.52803516 2.85900426 0.04637546
-4.48886490 2.94028783 -0.03556139
-4.35219860 1.70957887 1.46680772
-4.50353670 2.78035927 -0.31739989
-4.53910971 2.68884087 -0.06467172
-4.53769875 3.28121901 0.29182008
-4.50375366 3.72957611 -0.24565369
-4.39925003 1.78564441 1.40709233
-4.54789829 2.65572977 0.13298599
-4.45538568 3.97602201 -0.42505604
-4.51032066 3.96749830 -0.33173552
-4.46401548 3.02047706 -0.47906321
-4.26775503 4.17889595 1.57468545
-4.24638367 4.41641855 1.58227682
-4.38859606 2.37843418 1.32240164
-4.38711500 2.13084340 1.25116491
-4.25915003 2.99031544 1.13388014
-4.30356169 4.37145472 1.45749927
-4.39757681 2.10456491 1.34292114
-3.75124860 0.03325713 0.09116414
-4.41772175 -0.01276769 -1.12618375
-4.38887596 0.02390844 -0.97411919
-4.42871237 0.03568413 -0.81671691
-4.09868813 0.02758477 -0.67732000
-4.54947710 0.61005229 0.07623386
-4.55879593 0.56444317 -0.15131007
-4.56157827 0.40908810 -0.15251565
-4.49125099 0.96784210 -0.36076787
-4.46034813 0.94418246 -0.49926594
-4.55332708 0.88559395 -0.54517400
-4.10894251 0.02038380 -0.45956397
-4.51252222 0.06551600 -0.89115840
-4.41772175 -0.01276769 -1.12618375
-4.63041162 0.80138516 0.01894462
-4.51252222 0.06551600 -0.89115840
-4.60901785 0.06806508 -0.32781357
-4.62927198 0.03743569 -0.02466165
-4.59265184 0.18888350 -0.38777247
-4.51834011 0.41210365 -0.64443123
-4.50845098 0.58069885 -0.55242682
-4.47589588 0.65598506 -0.72164601
-4.58988190 0.73256236 -0.10126018
-4.25709772 0.03883746 -0.72680271
-4.33849478 0.00376843 0.13846646
-4.39440060 0.01739423 -0.13424504
-4.28508711 0.00471933 -0.02465245
-4.19646597 0.03256474 -0.60457897
-4.54857922 0.74006951 -0.60376126
-4.62927198 0.03743569 -0.02466165
-4.60445404 0.01638166 0.14862871
-4.50375414 0.80547297 -0.72030050
-4.59993219 0.21161312 -0.12890118
-3.90410161 0.00751286 -0.10361482
-4.51821566 0.14189196 -0.94279253
-4.51256514 0.01141424 0.07171157
-4.53137636 0.67307180 -0.24290581
-4.45209026 0.03177178 -0.48794606
-4.51783133 0.02452340 -0.24203116
-4.54905319 0.76644874 -0.21623191
-4.61097383 0.83149046 -0.26469505
-4.25677204 0.00993737 -0.34985283
-4.17008352 0.01369719 -0.34873676
-4.20523930 0.00973633 -0.18311174
-3.90839744 0.02253569 -0.26097813
-4.35678005 0.01013780 -0.24152917
-4.04964876 0.01468408 -0.36018857
-4.03199482 0.00540556 -0.27768195
-4.57883692 0.04043006 -0.44385508
-4.55796242 0.05783410 -0.65531510
-4.55277348 0.71502674 -0.48686340
-4.57883692 0.04043006 -0.44385508
-4.23538017 0.03019132 -0.44486836
-4.04533482 0.02398814 -0.22363459
-4.40388632 0.77060455 -0.93464243
-4.63002872 0.83906013 0.10142225
-4.52908897 0.93484032 -0.77047879
-4.47358274 0.42371112 -0.88740784
-3.98599052 0.01604967 -0.10334937
-4.59603739 0.83526659 -0.40400928
-4.39483404 0.90368778 -0.96273452
-4.42038012 0.91104877 -0.88494593
-4.08643770 0.00286612 0.02402878
-4.62125111 0.97992969 -0.00763086
-4.50357437 1.03879070 0.00900838
-4.55796242 0.05783410 -0.65531510
-4.58902073 0.12485216 -0.53503889
-4.36638451 -0.04663450 -1.23098922
-4.41772175 -0.01276769 -1.12618375
-4.36638451 -0.04663450 -1.23098922
-4.19914818 0.01475617 -0.07245256
-4.59429693 0.93899864 -0.31753838
-4.63364649 0.92139435 -0.22822817
-4.63238430 1.04638886 -0.08327873
-4.40814066 2.09201241 -0.43149143
-4.35772324 2.20276523 -0.49586889
-4.38397074 2.05140448 -0.48805979
-4.45376110 2.68874049 -0.62452513
-4.50616407 2.51393557 -0.41647717
-4.49612999 2.67727804 -0.42437735
-4.50597095 1.78720546 -0.21515413
-4.39670467 1.96331954 -0.24674177
-4.41392565 1.56286216 -1.02339590
-4.35658884 1.50512826 -1.04144871
-4.36069107 1.54596102 -0.95042229
-4.40956306 3.44147277 -0.70827085
-4.39679480 3.36804867 -0.87918025
-4.46927691 3.26075220 -0.69765174
-4.51494646 2.34170723 -0.27334306
-4.44122458 1.58420134 -0.76267868
-4.37379217 2.09939694 -0.98190409
-4.29219723 2.24083185 -0.69486558
-4.31884766 2.17233539 -0.58225572
-4.32656431 2.30497241 -0.62157112
-4.32261515 2.46148181 -0.88963729
-4.41537571 2.64417529 -0.80126882
-4.41890812 1.48813903 -1.09117138
-4.38848448 1.43489683 -0.95401603
-4.42903852 1.04979062 -0.53562659
-4.43698931 1.02205622 -0.59160417
-4.43782997 1.13397241 -0.76325500
-4.50662947 1.07053268 -0.78477585
-4.40535879 2.77074242 -0.83536732
-4.49112320 2.14465761 -0.33391544
-4.52534866 0.98634058 -0.63897067
-4.29429293 2.28935194 -0.78822809
-4.35179043 2.33996248 -0.73403716
-4.44245529 1.38607943 -0.14503001
-4.44919491 1.11043298 -0.36130840
-4.45635891 1.37421167 -0.92113459
-4.41487741 1.18411279 -0.96297675
-4.39059067 1.12641990 -1.01913393
-4.39101458 1.32170033 -0.61006194
-4.38795662 1.19475615 -0.70788103
-4.44603395 1.23352230 -0.97849888
-4.53970146 1.83524525 -0.38530749
-4.50172949 1.70071566 -0.23078561
-4.37688732 3.50835609 -0.86752641
-4.47295713 2.89888644 -0.55467588
-4.42194510 2.33350039 -0.56151193
-4.35919523 2.16020608 -0.87671357
-4.41939688 1.57904387 -1.08359361
-4.33819342 2.36071396 -0.85183054
-4.49831772 1.60953248 -0.39010468
-4.45888853 2.18769932 -0.42208543
-4.42741537 2.01729798 -0.37369189
-4.43166256 2.52622724 -0.69748837
-4.40966988 2.09996176 -0.84845918
-4.44905853 3.03728008 -0.63750368
-4.42268133 2.95776272 -0.73634493
-4.43107176 1.07761681 -1.03582513
-4.48940611 2.29696918 -0.43100077
-4.44096708 1.41169596 -1.09186101
-4.41076756 2.01997304 -1.03348875
-4.50368834 1.17774844 -0.80695349
-4.47014380 2.41208315 -0.50111073
-4.46041012 1.50249958 -0.09547495
-4.44772816 2.74234819 -0.72875249
-4.34715366 1.01273751 -1.10035777
-4.48121548 1.65977097 -0.77685159
-4.49569941 1.82937789 -0.61469710
-4.45041800 1.89602554 -0.84323794
-4.47993898 1.22602820 -0.78546977
-4.43593025 1.43677402 -0.32541567
-4.42244387 2.11183190 -0.73140973
-4.31798840 2.16669703 -0.66091305
-4.30935955 2.16973853 -0.77848500
-4.37445450 1.37292814 -0.85879415
-4.35031748 1.45544577 -0.85002166
-4.47866869 1.92880797 -0.57592285
-4.36817122 1.53303611 -0.84165525
-4.43915129 2.01036072 -0.82341534
-4.37699842 2.92500710 -0.93227154
-4.47057962 3.15025830 -0.59738880
-4.48886299 1.06429231 -0.21165441
-4.48239946 1.33031654 -0.93103683
-4.48671913 1.26909757 -0.94253260
-4.45246267 1.03227460 -1.01238739
-4.50285387 1.10511959 -0.90567553
-4.42684650 1.86397028 -0.98361838
-4.42775393 1.73105431 -1.02244651
-4.45762920 1.48166478 -0.58827710
-4.42468643 1.40229058 -0.52172512
-4.48514271 1.61604977 -0.59553778
-4.40581083 3.05723071 -0.87096459
-4.47536039 1.48232567 -0.49164242
-4.43909979 1.59564066 -0.20305403
-4.50802326 1.67537236 -0.48668307
-4.36016226 2.06920362 -0.57638490
-4.47556067 1.96381557 -0.49038753
-4.47272682 1.88090634 -0.21108004
-4.05303288 6.77900743 -1.42949677
-4.00284147 6.72572231 -1.59695649
-3.95552397 6.42015934 -1.83971524
-4.10007715 6.91375303 -1.35021889
-3.98322034 6.93229437 -1.52804196
-4.21051645 6.78195095 -1.33517551
-4.12293196 6.69054794 -1.41217530
-4.28127527 6.61575270 -1.26410925
-4.24948215 6.19806862 -1.37009752
-4.32479525 6.45631409 -1.13992965
-4.37383986 6.22714329 -0.99570674
-4.31795454 6.13521957 -1.16288912
-4.38105965 6.43031502 -0.93780017
-4.36346912 5.39447021 -0.85009593
-4.27960587 5.51513386 -1.14539289
-4.20142937 5.29310465 -1.19252586
-4.38671303 5.71243095 -0.90842301
-4.30551720 5.70842600 -1.19848597
-4.32122374 4.99923611 -0.75227410
-4.24386692 5.11288357 -1.03919041
-4.28376579 5.02944231 -0.95931739
-4.23244715 6.65519619 -1.35130548
-4.34776831 5.85096931 -1.06704783
-4.28428268 6.92825985 -1.24326599
-4.22546482 6.90804625 -1.32854784
-4.36254597 6.76612234 -0.90600276
-4.33892679 6.77041769 -1.07737494
-4.38214922 6.63249207 -0.90572560
-4.26941204 5.87440205 -1.32299066
-4.40916300 5.89879084 -0.87985259
-2.76144481 9.80590248 -2.16010070
-3.20547628 9.76905727 -1.60444868
-2.86991143 9.74540234 -1.98131442
-3.87599635 9.24793720 -2.05227757
-3.94269133 8.92083645 -1.94273806
-4.04726791 9.25653934 -1.77438927
-3.11709905 9.80733299 -1.82229280
-3.20547628 9.76905727 -1.60444868
-2.76144481 9.80590248 -2.16010070
-4.29543638 8.12897587 -1.13655972
-4.20041370 8.25004482 -1.32634068
-4.22730970 8.10321522 -1.22629035
-3.94555759 9.54427719 -1.88192737
-3.89442253 9.46017456 -2.02585697
-4.03779411 9.52559280 -1.76808155
-4.24779415 7.90360880 -1.20543253
-2.96515179 9.67046833 -1.84159636
-3.12495804 9.68740177 -1.63869190
-3.36875176 9.70560169 -1.27473116
-3.62506843 9.72801590 -0.79115665
-4.25341034 8.42766380 -1.21887672
-4.36376429 9.82513332 -0.98055887
-4.28491068 9.80503845 -1.26022506
-4.38592005 9.72968483 -1.00872838
-3.85826302 9.60381985 -2.03923535
-3.78420138 9.45952511 -2.16811585
-3.74206185 9.58593845 -2.18604159
-3.75823092 9.78750229 -0.80630761
-3.96400762 9.77416039 -0.19971666
-3.79588461 9.74390221 -0.39622355
-4.20689058 8.45941257 -1.37493837
-4.17426634 8.60530281 -1.39516616
-4.16020775 8.58284855 -1.47497869
-3.95840192 6.92324543 -1.68542981
-3.98538423 7.03820467 -1.59848881
-3.95855522 9.75916100 -1.89213729
-3.73504496 9.80757046 -2.21462345
-3.72254658 9.63690376 -2.23520660
-4.07633257 7.13722324 -1.46175718
-4.03091049 7.00169611 -1.44549263
-4.32179642 8.50248623 -1.09318542
-4.36563730 8.34416008 -1.01338243
-4.10473633 9.81189251 -0.38877171
-3.96400762 9.77416039 -0.19971666
-3.75823092 9.78750229 -0.80630761
-3.88126326 9.85914326 -1.96524608
-4.05352926 7.19316196 -1.55044258
-3.50275087 9.76037598 -1.12948465
-4.17446804 8.74641228 -1.48430419
-4.36005878 8.11644650 -1.01180923
-4.14002800 7.08089113 -1.37654901
-4.22112799 8.86288834 -1.34258521
-4.28596830 7.56256294 -1.23941731
-4.23969507 7.80240583 -1.35884058
-4.24649000 7.52908278 -1.34415114
-4.20670509 9.04762077 -1.46282709
-4.09457731 8.93158627 -1.66216087
-4.17454672 8.94378185 -1.48491919
-4.28433514 7.75994635 -1.19284797
-4.33594465 7.55815077 -1.09096551
-4.20173502 7.94231081 -1.33323193
-4.21046400 7.14384317 -1.35345578
-4.15862322 7.90747547 -1.50707316
-4.18063211 7.38772821 -1.39049113
-4.09318256 7.36424828 -1.53864348
-4.05484390 7.27384329 -1.64644647
-4.08353281 7.36572981 -1.68086791
-4.18242502 7.55283213 -1.49416983
-4.03447008 7.61542368 -1.81091249
-4.10579538 7.70797586 -1.66040719
-4.11870003 7.36387157 -1.43651998
-4.15962410 8.80802250 -1.54042888
-3.53264642 9.81028080 -1.32640302
-3.60602832 9.85692310 -1.57158971
-3.88424301 9.83417320 -1.03283632
-4.01224995 9.86679935 -1.30105257
-3.43278289 9.88816452 -1.99312496
-4.25792408 9.06059265 -1.33658624
-4.21758175 9.28448582 -1.44473338
-4.31689501 7.05398703 -1.10781527
-4.37456989 6.93703175 -0.90715963
-4.31619215 7.19277668 -1.04387093
-4.36136246 7.06335688 -0.92773801
-4.31590557 7.34679604 -1.14071119
-4.33623123 7.37711239 -1.05269885
-4.38217545 7.21340895 -0.95028824
-3.97645545 8.60667229 -1.88948584
-3.86823702 8.50158024 -2.06283283
-3.88945532 8.07969856 -2.04729104
-4.39762259 7.43878269 -0.93369651
-4.05641556 8.53466034 -1.69744790
-4.03552532 8.42262268 -1.78851104
-4.10437679 8.30714130 -1.61647737
-2.34581041 9.86967468 -2.66266203
-2.38964462 9.93091011 -2.95074201
-2.34581041 9.86967468 -2.66266203
-4.34869146 7.73937321 -1.07789695
-4.12256765 8.54674053 -1.58653998
-2.49641180 9.71043396 -2.31171942
-4.03392887 8.04532909 -1.79920411
-3.82512426 8.82060528 -2.12583208
-4.06440878 8.73489571 -1.71625733
-4.25103712 7.13043880 -1.30406570
-4.35478878 9.02313232 -1.07105863
-4.39141369 8.82950974 -0.84555680
-4.40591288 8.99248028 -0.84268510
-4.35572767 9.26149845 -1.00788355
-4.39746952 9.23006535 -0.82681996
-4.36130285 9.14115143 -1.04876733
-3.99075294 8.88417912 -1.81699777
-3.62278652 9.63204288 -0.69972342
-3.62506843 9.72801590 -0.79115665
-3.50275087 9.76037598 -1.12948465
-3.24504209 9.85792065 -1.94224203
-4.17209625 8.44619846 -1.50983691
-2.54756737 9.78341293 -2.31102848
-3.53264642 9.81028080 -1.32640302
-2.66524529 9.86625957 -2.44801903
-2.75229955 9.66924763 -2.07040215
-2.54756737 9.78341293 -2.31102848
-2.14199066 9.82718945 -2.64411998
-3.64625955 9.23360538 -2.32991886
-3.52073431 9.28146553 -2.46077061
-3.57934594 9.16355896 -2.40527916
-3.63195395 9.02416515 -2.33868623
-2.92759442 9.89907074 -2.45367312
-2.93644404 9.84404850 -2.14675260
-3.69963574 9.35954571 -2.28383899
-3.64415121 9.44177723 -2.35137463
-3.75708675 9.01043224 -2.21844339
-3.50801229 9.46601677 -2.50643921
-4.07279968 7.78545618 -1.69649625
-3.51357412 9.84307766 -2.47908258
-3.60454321 9.71723843 -2.39471173
-4.19351673 8.01147652 -1.31660950
-4.04075098 9.87471581 -1.53195965
-4.21416712 9.85822582 -1.21261644
-4.01224995 9.86679935 -1.30105257
-3.79588461 9.74390221 -0.39622355
-3.75876379 9.70486546 -0.31806466
-3.62506843 9.72801590 -0.79115665
-2.86991143 9.74540234 -1.98131442
-3.16762471 9.77323151 -2.83345032
-3.44902539 9.67571259 -2.57070470
-2.96515179 9.67046833 -1.84159636
-4.17890835 9.84481239 -0.78056139
-3.75876379 9.70486546 -0.31806466
-4.29222631 8.59403801 -1.20072913
-3.43278289 9.88816452 -1.99312496
-3.72289014 9.88935471 -1.81897497
-4.01224995 9.86679935 -1.30105257
-3.72289014 9.88935471 -1.81897497
-3.80274463 9.89095688 -1.93593478
-4.10410261 8.12638569 -1.62054765
-4.25096083 8.65714836 -1.30262995
-4.31363726 9.24757481 -1.17042565
-4.32868433 9.34809113 -1.17122567
-4.37138224 9.34403324 -0.89752811
-4.40317345 9.47326660 -0.95579547
-4.32142305 8.84706974 -1.12569273
-3.82424974 9.68765926 0.12039739
-4.35004902 9.63028717 -1.13058233
-4.17890835 9.84481239 -0.78056139
-3.90300012 9.73517227 0.08271552
-3.96400762 9.77416039 -0.19971666
-3.90300012 9.73517227 0.08271552
-3.79588461 9.74390221 -0.39622355
-4.36229849 8.57017517 -0.96227843
-4.36376429 9.82513332 -0.98055887
-4.21416712 9.85822582 -1.21261644
-4.21367741 9.84604836 -1.37750363
-4.21367741 9.84604836 -1.37750363
-4.37503958 9.83588982 -0.69296294
-4.44941330 9.81927395 -0.61299384
-4.37503958 9.83588982 -0.69296294
-4.45799685 9.77311993 -0.70760500
-4.27174950 9.01120853 -1.24355030
-4.33645105 7.95322895 -1.07689357
-4.38419437 7.86019516 -0.97668171
-3.20547628 9.76905727 -1.60444868
-4.17081308 9.57430172 -1.54494786
-4.24535322 9.69452095 -1.38993168
-3.97090697 9.87195683 -1.77976573
-4.04075098 9.87471581 -1.53195965
-3.80274463 9.89095688 -1.93593478
-3.97090697 9.87195683 -1.77976573
-4.10286188 9.83663273 -1.61613846
-2.71881437 6.19722271 -3.23638892
-2.57977462 6.19490337 -3.33403254
-3.19949985 6.52458239 -2.88039994
-3.09407854 6.79607821 -2.91294622
-2.98338532 6.82493877 -2.91325712
-4.18713951 3.98055005 -1.30718994
-4.22254610 4.06131649 -1.34006095
-4.17860079 4.00530291 -1.49540567
-2.93884921 5.04935837 -2.99605393
-3.08228278 5.13656855 -2.83902144
-3.05770850 5.22839022 -2.92904758
-3.65967345 5.70288229 -2.15175629
-3.48255777 5.58786154 -2.36986303
-3.65506077 5.58029032 -2.12768650
-4.18343925 4.07758141 -1.53284323
-3.86587119 6.18757343 -2.09346080
-3.82373881 6.17093897 -2.17269588
-3.85286570 6.04708576 -2.04763150
-3.86990547 6.22250605 -2.05019283
-3.99494100 3.88220716 -1.83222127
-3.87010336 3.93369818 -2.00276065
-2.69372344 6.03581095 -3.29557490
-2.54109669 5.86199856 -3.41436434
-2.50503564 6.30317593 -3.31961226
-4.20049429 4.03114367 -1.21177542
-4.17035627 4.14019346 -1.19582784
-4.21455717 4.19359446 -1.26119149
-3.80554199 6.30335045 -2.05537295
-3.77115893 6.32910109 -2.17846251
-3.91842389 4.02104044 -1.97112572
-4.01842260 4.00137377 -1.81429517
-4.22657871 4.14553070 -1.37012100
-3.25165176 6.66203594 -2.78709173
-4.21273088 4.27303457 -1.38271332
-3.22180939 6.77803183 -2.82761264
-2.71385884 6.43581963 -3.27641129
-3.40697956 5.79266548 -2.56161451
-3.39263105 5.52986288 -2.47812510
-4.25811577 4.20237446 -1.11564255
-3.84317541 6.23665428 -1.93066072
-3.82389069 6.43373871 -2.05823469
-3.90862322 6.37771177 -1.91860580
-3.79468846 3.97726011 -2.05594063
-3.66371274 6.19924068 -2.36166406
-3.63726330 6.47667265 -2.28845620
-3.39491177 6.36841440 -2.59184980
-3.30944037 6.23752022 -2.74415779
-3.30821085 6.16314459 -2.77421784
-3.28584433 4.90318346 -2.63230681
-3.03055215 4.94369364 -2.88846326
-3.07376146 4.84423637 -2.86732531
-3.13886404 4.83370066 -2.84206700
-3.86256361 4.15191841 -2.08650804
-3.80267739 4.12623549 -2.13374949
-2.45236969 6.57952547 -3.30799317
-3.58698440 5.75009537 -2.28436279
-3.52137208 5.92732716 -2.47509408
-4.00783634 4.12545347 -1.87840915
-2.65969586 3.97307634 -3.23374963
-2.84187388 3.97135019 -3.23849797
-2.77756691 4.05287981 -3.17050123
-3.24019027 5.19965410 -2.65699959
-2.59077334 6.57218552 -3.21727395
-4.14101791 4.29641247 -1.63903546
-2.57009864 3.93663740 -3.40431213
-3.68616819 6.08342171 -2.33801389
-2.45006466 6.68544388 -3.28192949
-2.55453682 3.91446447 -3.46477318
-3.75481653 4.29553652 -2.05778503
-3.67787480 4.13624048 -2.18792534
-3.76188064 4.20829296 -2.14532137
-3.72812629 5.91335630 -2.18093181
-4.23575783 4.45188522 -1.35615790
-4.15027761 4.41697025 -1.56479394
-3.19145107 5.40575218 -2.71534801
-3.79994154 4.44788599 -1.96067476
-3.57942748 4.12132549 -2.30977297
-3.93603730 4.32129622 -1.92634952
-3.82170796 4.27532721 -2.03691602
-3.12599897 4.58152294 -3.00343513
-2.98539329 4.55529976 -3.12744904
-3.02391577 4.37206841 -3.00115871
-2.97059202 4.00307846 -3.16982102
-3.12144947 4.43023062 -2.93219781
-3.87380457 4.39517117 -1.96691561
-3.84221053 4.21026421 -2.10158706
-4.24139547 4.52453232 -1.28768742
-4.12748146 4.52470112 -1.53844512
-2.70972586 6.57874346 -3.24391866
-3.77172375 4.56536818 -1.98611724
-2.96932244 4.13006735 -3.09650183
-4.24439192 4.69118071 -1.32555401
-2.93905663 4.21554422 -3.03278422
-2.60963726 4.31408978 -3.26433635
-3.03538275 4.71688366 -3.10830307
-2.79974890 4.39498758 -3.16494513
-2.93267059 4.76316881 -3.16942549
-3.02235770 4.77083254 -3.09627342
-3.17827559 4.75107527 -2.88868618
-2.88801622 4.84781694 -3.04999924
-3.34606099 6.46760941 -2.71166158
-2.62610126 6.69531965 -3.22633243
-2.50177050 6.75780439 -3.24410319
-3.16820979 4.67028713 -2.95587087
-4.29221249 4.45232773 -1.21457994
-2.65765524 4.49272823 -3.24506330
-2.74989200 6.73075581 -3.21313214
-3.35201812 6.77250242 -2.73033452
-2.48376799 4.14070082 -3.35350251
-3.42672658 6.55741167 -2.67472219
-3.49473858 6.73399925 -2.59471178
-3.96214509 4.22101736 -1.94229496
-3.18716717 4.47548532 -2.87282801
-3.42900968 6.42901897 -2.58015275
-2.42456269 6.78541851 -3.29104614
-3.97507024 5.66349459 -1.63609791
-3.82279253 5.54879427 -1.84152627
-3.88776922 5.25024986 -1.74276590
-3.87734365 6.12071657 -1.96786964
-2.83666039 6.05441189 -3.19291782
-3.50308299 6.50917435 -2.59301996
-3.22634387 4.60200787 -2.86248660
-2.66362309 6.91318226 -3.21125317
-2.92468166 5.91255140 -3.06619430
-4.08092308 4.99081278 -1.45938945
-4.05098629 5.04992294 -1.46801460
-3.99569225 4.93684292 -1.60971212
-2.81575251 4.52224874 -3.22001791
-2.94235516 6.12461519 -3.10156775
-3.54052997 6.44156027 -2.43935275
-3.76643777 5.75210047 -1.94062042
-3.80997801 5.98136616 -1.81257224
-3.79709506 6.00181293 -1.88543105
-3.98243117 4.45533895 -1.84383345
-3.91779327 4.47646046 -1.87276900
-4.19239521 4.94727802 -1.44383204
-4.18474007 5.05707502 -1.23636019
-3.53780150 6.60244751 -2.55747628
-3.25916767 4.69538403 -2.77553701
-3.57115459 6.51664591 -2.48139763
-3.90798235 5.87635660 -1.67331064
-3.01038742 6.30860996 -2.97114110
-4.06399775 5.30910015 -1.46439338
-3.97669268 5.40660906 -1.61220574
-3.33889127 4.73385191 -2.60070705
-3.26986575 4.50519562 -2.70047450
-3.56174517 4.82361507 -2.43027139
-3.42522407 4.72846270 -2.50334334
-3.55137110 4.67805958 -2.35762954
-2.47170782 4.66464233 -3.36423516
-3.73901844 4.76355267 -2.14795351
-3.17183566 3.88618922 -3.02856565
-3.34901476 4.38081741 -2.60051942
-3.56582069 5.38758850 -2.30726528
-3.47227454 5.43536997 -2.38282132
-3.50162768 5.33031178 -2.43497348
-3.59543872 4.59982538 -2.28280282
-3.99652028 4.68064642 -1.62038445
-3.91883588 4.61214924 -1.72395492
-3.94985580 4.56308031 -1.69254971
-4.07187319 4.54290771 -1.61936963
-3.81192040 5.94987202 -2.00233316
-3.27719998 4.83676481 -2.72796035
-3.89144516 4.75713444 -1.76542258
-3.46830058 4.84152508 -2.50928330
-3.99014258 4.78092098 -1.68747592
-3.41333556 5.19945335 -2.55118966
-3.53538847 5.22996140 -2.56561661
-3.56165385 6.90968847 -2.48342109
-3.67167354 5.32348156 -2.40483093
-3.65171099 5.34223652 -2.37360382
-3.98767543 6.02657366 -1.56001687
-3.93162131 6.15494394 -1.71601689
-2.77353263 6.52571011 -3.21177769
-4.14085531 4.66947222 -1.51298857
-3.87312818 4.84182405 -1.80650091
-2.82635021 6.46781015 -3.08946657
-4.07521868 4.86819077 -1.64889073
-2.67760801 4.60684204 -3.24283910
-2.73340583 4.78113031 -3.17443180
-3.42536974 4.51468563 -2.50497770
-3.78374672 4.71630907 -1.99926686
-3.76810575 5.28194904 -1.95220435
-3.62340593 5.39966488 -2.17962480
-2.78965831 6.72916317 -3.10943294
-3.70691466 5.33595896 -2.24857068
-3.76927567 4.89692402 -2.21745920
-3.36634827 4.89706230 -2.57465196
-2.96289110 5.29092550 -3.06434894
-3.19196963 5.50926399 -2.89374757
-2.58407092 5.26591301 -3.38078308
-3.13858986 5.35692215 -2.83798265
-2.92385983 6.51706982 -2.98020506
-2.98976493 5.53661680 -3.10946298
-3.82662249 5.11629009 -1.89707792
-3.77681589 5.25747442 -2.19008160
-3.33649540 5.18617392 -2.56544781
-3.57568479 4.94805050 -2.49039435
-3.86614227 5.15754318 -2.06812263
-3.48453140 5.05047083 -2.58280778
-3.56819320 5.03407860 -2.51885533
-3.09080148 4.12857580 -3.03515816
-2.82581019 6.73369408 -3.02509785
-3.84311390 4.86576033 -1.94041836
-3.84389973 4.89169121 -2.03402758
-2.73904109 5.26432419 -3.26464248
-2.94002795 6.73696995 -2.92363596
-3.87610960 5.00714493 -1.79904950
-3.05990529 6.54716349 -2.89011955
-3.68006611 4.98307419 -2.37848997
-2.89142585 6.85247040 -2.95040011
-4.10440302 5.51177454 -1.47889161
-3.22462511 4.09055138 -2.92176199
-3.70978236 5.16747713 -2.36476135
-2.74256349 5.68021774 -3.28464508
-3.18304658 5.63772488 -2.74316049
-3.20489025 5.59742975 -2.85542083
-2.78551340 4.59223938 -3.24589086
-3.79199529 5.04004574 -2.22205830
-3.03669834 4.20595646 -2.97004318
-4.29110003 4.90453959 -1.27061510
-3.16970253 4.27823305 -2.81204772
-4.33562040 4.72826004 -1.10780144
-4.30833006 4.63715219 -1.15833902
-4.35424519 4.57642508 -0.97625571
-2.82043982 5.79731750 -3.22217894
-2.76447511 5.86489916 -3.21248507
-2.83598995 4.70882320 -3.22771811
-2.74261260 5.88729334 -3.21482944
-4.36153412 4.91597176 -0.89485079
-4.33651829 4.97793484 -1.06678402
-4.35883665 4.86116886 -0.99814260
-3.87890959 5.00015402 -1.89026284
-2.92086458 4.70110178 -3.19669962
-3.13853121 4.17426777 -2.95555496
-3.87126231 4.99884129 -2.04535890
-3.68989205 5.30817413 -2.13941932
-3.19463086 4.20606756 -2.80770516
-3.48813844 6.10626411 -2.58537126
-2.70256400 5.43870211 -3.33112025
-3.30952215 4.12886667 -2.78000569
-4.27553701 4.99431324 -1.26767194
-2.83560324 5.54359150 -3.23599005
-2.75084138 5.02357769 -3.18589568
-3.14507723 5.93561316 -2.86860251
-3.12933111 6.08043385 -2.94463944
-4.18502808 5.45574427 -1.33973706
-2.89747000 5.40067673 -3.15797925
-4.22808409 5.00667191 -1.33429754
-3.08001256 5.69177437 -3.02190304
-4.02590609 3.84825635 -1.74219012
-2.96471357 5.84217215 -3.10033536
-3.06240273 5.78805113 -3.00896502
-3.08030510 5.77711916 -2.88969278
-3.43921018 4.22141027 -2.49005127
-3.50017810 4.41976929 -2.42624784
-4.24176359 5.65261459 -1.37047958
-4.14941311 5.79353857 -1.55277348
-4.18789053 5.80640364 -1.50625789
-4.12057590 4.05561638 -1.69148815
-3.58301187 6.51124859 -2.37836838
-3.58982301 6.56796312 -2.33243537
-3.57596993 6.65579367 -2.40450335
-3.47009277 4.04965162 -2.65204644
-3.54098558 4.12860632 -2.51880479
-3.60310316 4.05739927 -2.40573430
-3.68072391 6.64616585 -2.20475531
-3.58716702 6.76886177 -2.38509130
-3.63189507 6.83419752 -2.31205201
-3.99601674 5.82390356 -1.61246109
-3.45397067 3.86511636 -2.73782969
-3.49368119 3.94013834 -2.62427807
-3.43127203 4.14549541 -2.63509250
-4.07379293 4.34321976 -1.71778560
-4.05049038 5.93994474 -1.56206882
-3.34440541 4.16419649 -2.63839388
-3.53319979 4.16085672 -2.45870376
-4.06279564 6.18540049 -1.55278826
-4.15615416 6.11939764 -1.51964009
-3.75518322 6.87574816 -2.16362023
-3.73855686 6.75425005 -2.13309193
-4.16872406 5.99719143 -1.53165567
-2.42756557 4.17825460 -3.42737746
-2.56336856 3.99106646 -3.31937504
-4.18225479 4.10967588 -1.13508904
-4.06917000 6.39149332 -1.65282273
-4.18481064 4.19509792 -1.18326509
-3.11231899 6.38145733 -2.86945391
-3.26529193 5.56198502 -2.63241315
-4.24913406 4.09065437 -1.00113559
-3.90448880 6.60759497 -1.85047936
-4.18598461 6.16180515 -1.49831033
-3.91090393 6.76267672 -1.83241570
-3.91268635 6.92719984 -1.89934313
-4.31553841 4.24940395 -1.03359878
-4.36727858 4.34416151 -0.86134398
-4.35516167 4.46139050 -1.02582514
-3.30900288 6.03319359 -2.75578499
-4.13378239 6.43518257 -1.60802495
-4.04174709 6.54025555 -1.59081125
-4.20115519 6.39068270 -1.48672569
-2.56844759 8.25896454 -3.24028993
-2.66504979 8.21227932 -3.19843435
-2.69233966 8.35264301 -3.12783217
-3.20201373 8.92877865 -2.65404987
-3.10342503 9.06459999 -2.79938602
-3.10917139 8.91171265 -2.74065709
-2.65846443 7.13200665 -3.24607158
-2.56342411 6.91960096 -3.25362635
-3.83504176 7.52066660 -2.08068705
-3.71490622 7.58905935 -2.22458887
-3.69046116 7.45929193 -2.15181518
-3.56296897 7.62105942 -2.28244781
-3.41791749 7.51236963 -2.50570416
-3.48746490 7.50887823 -2.31282854
-2.62044215 8.48588753 -3.06825209
-2.63090181 8.39470100 -3.05835128
-2.73552108 8.47021008 -3.02346110
-2.75088644 8.39604187 -3.07484365
-3.52641869 7.76895666 -2.39598131
-3.48508024 8.05174637 -2.46889424
-3.36612749 7.70324516 -2.63165450
-3.63728309 7.75260782 -2.31447124
-2.43900824 6.86415577 -3.30476189
-3.11452007 9.50690842 -2.89759016
-3.01629877 9.40660477 -2.97399020
-3.09254742 9.34082508 -2.91069221
-2.58077455 7.87804222 -3.28739142
-3.61524868 6.99997473 -2.35857320
-3.20643783 9.10018349 -2.75438046
-3.62826133 7.88776779 -2.31766152
-2.91087031 8.65945244 -2.88679934
-2.58163500 8.60674000 -3.11121368
-2.69386244 7.53374243 -3.23722792
-3.29823446 8.83396053 -2.70149279
-3.11913657 8.68337154 -2.81366849
-3.14591312 8.61774063 -2.83907986
-2.61295819 7.26378155 -3.28223848
-2.48762631 7.36564255 -3.39061141
-3.55392504 7.21305895 -2.48584700
-3.50561094 7.10470963 -2.56010437
-3.59313297 7.21383810 -2.37689853
-3.59797430 7.02413654 -2.44053936
-3.47402263 6.93269539 -2.60448813
-2.76758361 6.96823740 -3.20720840
-3.32375312 8.64444065 -2.70722938
-3.27677417 8.55064106 -2.75309062
-3.27726269 9.44711018 -2.75132418
-3.22406363 8.82406712 -2.70961666
-3.67226005 7.97519064 -2.32140684
-2.91810131 8.55284500 -3.03515100
-3.75107193 7.65663433 -2.23056602
-2.58839679 9.50724697 -3.19689512
-2.77185392 9.62451077 -3.10202789
-3.11646247 8.33623314 -2.89392900
-2.91034913 8.32347202 -3.08124208
-3.03915071 8.22025204 -2.96770716
-2.82009077 6.98215103 -3.12871003
-2.70195770 7.74796486 -3.24855232
-3.03377891 8.48215199 -2.97658372
-3.76537895 7.80800867 -2.22840428
-3.72453284 7.11836338 -2.23378325
-2.70133495 8.04649925 -3.20659447
-2.75948048 7.22606850 -3.20681906
-3.37142444 7.21726227 -2.71764493
-3.28618598 7.44989824 -2.76827097
-3.27215266 7.27073193 -2.79267573
-3.51857162 8.07076740 -2.45021868
-3.45185375 8.36172867 -2.56039715
-3.94679856 7.01056004 -1.79006231
-3.34682178 8.17285156 -2.66767263
-3.25625777 9.64260101 -2.75485015
-2.98716283 9.78040028 -2.98623824
-3.54787302 8.19470882 -2.47602534
-2.95990801 9.64989185 -2.99694514
-2.89335942 7.03686476 -3.01353955
-3.89265656 7.58158350 -2.04233932
-3.24321055 8.32938957 -2.80655503
-3.19171143 8.47048473 -2.81328011
-2.57686138 8.30835724 -3.20644879
-2.86650491 8.76058197 -2.93248034
-2.71007657 8.69863033 -3.04355240
-3.32065773 8.39526367 -2.74053001
-3.30528951 8.23086357 -2.73867822
-3.97776842 7.17720509 -1.77305806
-3.39869428 7.50876951 -2.61473536
-3.25063729 7.67300272 -2.78586650
-2.80808043 8.84037781 -3.02291036
-2.72199821 8.83234787 -3.14400339
-2.49962687 8.30023956 -3.17683029
-3.09316134 6.90340519 -2.92542982
-2.84542108 9.01365185 -3.09612155
-2.59473634 8.91678905 -3.29460478
-3.49319983 7.31258440 -2.57418728
-3.03141260 7.04184151 -2.97505045
-2.77771211 9.24465179 -3.15205765
-2.71307874 9.11589146 -3.19827795
-3.11066318 7.13376141 -2.89368701
-2.93516183 7.16971540 -3.00862122
-3.47820926 7.40825129 -2.50291038
-3.42828441 7.36893845 -2.36455536
-3.53650427 7.30423307 -2.34650707
-2.94294906 9.02817059 -2.98276925
-3.29638958 7.83396387 -2.72122955
-3.55101371 8.32761860 -2.48567891
-3.71811032 8.09279251 -2.28928900
-3.18087959 6.98306084 -2.86302686
-3.40235209 8.57320404 -2.60760307
-3.05079269 8.77054691 -2.77765012
-3.25765419 6.91953993 -2.83551145
-2.95068049 8.89052200 -2.93455172
-2.89529157 9.21773148 -3.06631994
-4.00873327 7.26483488 -1.82328510
-3.04928422 8.90297604 -2.83819938
-3.23124266 8.08030891 -2.78677487
-3.20606589 7.88383913 -2.83280516
-3.08826351 7.92153931 -2.92488432
-2.92125249 8.12936401 -3.07136798
-3.12573481 7.77210379 -2.90523195
-3.42288303 8.68803596 -2.53842473
-2.67321348 9.24796867 -3.22579646
-2.65325570 9.35823631 -3.18454051
-2.82288671 7.29220009 -3.15665579
-2.79162121 7.80969572 -3.19246435
-2.89405680 7.53478003 -3.11108685
-3.84072423 7.11885595 -2.04708767
-2.86767173 7.16225052 -3.08380413
-3.08945012 7.29101801 -2.94538879
-3.34157777 9.02730942 -2.63750362
-2.86517334 9.38223743 -3.06224465
-2.69240427 9.43753529 -3.13950706
-3.29611135 9.22929382 -2.72494030
-2.50043154 8.52099133 -3.17111325
-2.82722139 8.21083546 -3.12638021
-3.16168809 7.60740232 -2.88749337
-2.96082020 7.66941071 -3.06382275
-3.44671750 9.22377777 -2.58486414
-3.89272141 7.17930222 -1.95161569
-3.92743754 7.78574276 -1.99799943
-2.46330357 8.33125401 -3.16181517
-3.55517769 8.62029457 -2.42744303
-3.39642048 9.42634869 -2.62790561
-3.43822646 8.78643036 -2.53765798
-3.06475639 9.17962074 -2.90527987
-2.55460811 8.70845318 -3.22318649
-3.38849139 8.87583256 -2.63104439
-3.94756889 7.43174505 -1.96615553
-3.51178455 9.08666420 -2.51983857
-3.85543656 7.30728722 -2.02868485
-3.74982429 7.36931467 -2.15840220
-3.13852262 8.00578785 -2.88345289
-2.99877238 9.25321007 -2.94619894
-3.68789124 8.73911476 -2.29686475
-3.71971869 8.54689407 -2.28022408
-2.93923736 9.48495102 -3.03559804
-3.54695606 8.76391029 -2.39647841
-3.49449563 8.95209885 -2.52441621
-2.75900769 9.73020649 -3.14705467
-3.72605467 8.34445572 -2.27571583
-2.61143732 9.77347755 -3.25496244
-3.54260588 7.52110481 -2.24126124
-3.55500150 7.43479729 -2.21442151
-3.48400402 7.34890175 -2.31624651
-3.65464616 7.34624863 -2.26032591
-3.61695576 8.81451225 -2.33561516
-4.28713942 4.72123957 1.07022095
-4.18911648 4.67582798 1.45928609
-4.26091146 4.85279894 1.25280559
-4.08273792 4.59182882 1.88199687
-4.38072109 4.24691677 0.68046755
-4.44391775 4.20672417 0.62734962
-4.48780584 4.18198633 -0.45062155
-4.49111652 4.17464209 -0.30946428
-4.47602081 4.36593580 -0.42194006
-4.33395338 4.83051538 0.83608443
-4.33429146 4.56130886 0.79767346
-4.49695444 5.94351864 -0.47683427
-4.52439022 6.29841089 -0.30172446
-4.48720980 6.11624098 -0.51628828
-4.18481398 4.75445652 1.52158713
-4.15478182 6.12429428 1.50535679
-4.25950527 6.17980909 1.21219921
-4.24269485 5.91243410 1.25793493
-4.22437048 4.81627893 1.69172120
-4.32985163 4.93921137 0.96479255
-4.35193634 4.54028416 0.61103261
-4.37531662 4.78949547 0.58580846
-4.47672319 4.45901680 -0.25171259
-4.39504051 4.39649343 0.24145612
-4.37413216 4.31424093 0.38928592
-4.15244341 6.49313116 1.49051213
-4.18443680 6.35546875 1.39064920
-4.10217571 6.33969069 1.68318272
-4.14989948 4.74456453 1.85979545
-4.38188171 4.26497459 0.40799597
-4.38590527 4.22633553 0.13364677
-4.44001722 4.13956118 -0.53294772
-4.33404779 5.00760508 1.13786399
-4.52327490 6.91416359 0.21867733
-4.52139759 6.87227106 -0.00228083
-4.52034473 6.55778694 0.07688557
-4.38894272 4.66291475 0.57092494
-4.39335632 4.55877352 0.42795414
-4.46826839 4.28896761 -0.58471352
-4.42927122 4.42076969 -0.60270035
-4.02720165 4.94996166 2.00664592
-4.07262135 5.04124260 1.84025788
-4.16150379 4.99190950 1.84362853
-4.12073565 4.91695356 1.96694553
-4.45124102 4.45649719 0.16745208
-4.41975641 4.53220844 0.23985621
-4.44714928 6.19458866 -0.71821624
-4.44209480 6.46596813 -0.74352539
-4.45324373 4.65289116 -0.50157607
-4.34374905 6.06722832 1.04583263
-4.29841709 6.35157490 1.21209991
-4.22896004 4.91681385 1.78043306
-4.07440376 4.82947016 2.01631498
-4.47736120 4.36146688 -0.03348281
-4.41102505 4.85239792 0.38498268
-4.46710968 4.78451777 0.43084797
-4.40292263 4.93436718 0.32592648
-4.28527498 4.59034157 1.12387156
-4.25453615 6.47144127 1.18701935
-4.35911989 5.06984758 0.77548748
-4.47611189 4.52994633 0.10194151
-4.48135185 4.59790945 0.32905641
-4.34707069 4.29885387 0.67461574
-4.18520451 6.61175489 1.50713766
-4.24774837 6.59295130 1.27402997
-4.50305080 6.46341372 -0.45011353
-4.49788523 6.79174900 -0.47949830
-4.50230694 4.63065529 -0.26196247
-4.11825800 6.08534861 1.66529322
-4.06926680 5.85247707 1.80802166
-4.08585453 5.96933174 1.86166549
-4.12810326 6.12325764 1.75457096
-4.21348858 4.97526503 1.78714836
-4.17410326 5.92999458 1.96066487
-4.18774319 6.05909157 1.85945904
-4.45591927 4.80419445 -0.40702108
-4.38636255 4.96511841 -0.40558007
-4.39064312 4.84805393 -0.45956278
-4.34682560 5.92807436 0.95153993
-4.33935452 5.60197544 0.93817061
-4.12647438 6.29119205 1.74323022
-4.21633530 4.86412477 1.59145927
-4.23689032 4.92755795 1.67529857
-4.21572018 6.17160654 1.79290080
