-1.98381686 0.07273645 8.85336399
-1.99393129 0.05144108 8.80761051
-1.91787601 0.15076724 8.80863857
-1.92605436 0.13097300 8.76344013
-1.93826282 0.11264069 8.71263218
-1.85533309 0.20635648 8.72325993
-1.86434102 0.18857767 8.67592812
-1.87730026 0.17257617 8.62330055
-1.78785133 0.26242006 8.64356899
-1.79824209 0.24815747 8.59256268
-1.81203091 0.23417103 8.53638172
-1.71582592 0.32045916 8.56759357
-1.72657239 0.30773726 8.51275349
-1.73763525 0.29612160 8.45499229
-1.63874340 0.37893289 8.49434280
-1.64810729 0.36783078 8.43610573
-1.65972281 0.35795349 8.37423611
-1.55747306 0.43637931 8.42046070
-1.56561196 0.42650196 8.35989380
-1.57667458 0.41840249 8.29486179
-1.47912621 0.48687208 8.28549767
-1.46980214 0.49406272 8.35226727
-1.48920107 0.48039261 8.21702862
-1.38762283 0.54775572 8.21386719
-1.37829864 0.55324745 8.28490543
-1.40259695 0.54147375 8.12260056
-1.29884577 0.60733569 8.12244225
-1.28406930 0.61259043 8.21655369
-1.31516314 0.60168576 8.02256298
-1.21018708 0.66347826 8.01916599
-1.19311905 0.66893059 8.12434006
-1.22757113 0.65684074 7.91130495
-1.12117267 0.71187699 7.90778828
-1.10291946 0.71871221 8.01766491
-1.14053226 0.70417279 7.79550409
-1.03646505 0.75774717 7.78969669
-1.01572251 0.76477993 7.90383863
-1.05787897 0.75110966 7.67480326
-0.95641935 0.80428910 7.66694021
-0.93366206 0.81037349 7.78365135
-0.97799128 0.79646617 7.54987526
-0.87823063 0.84545767 7.53932667
-0.85539424 0.85229284 7.65726137
-0.90015823 0.83751625 7.42083836
-0.80268902 0.88330746 7.40633774
-0.77969456 0.89105129 7.52581501
-0.82434005 0.87544519 7.28709936
-0.72781909 0.91906327 7.27038622
-0.70561486 0.92672813 7.39010000
-0.74867988 0.91056895 7.15055561
-0.63117951 0.95959973 7.25157976
-0.65239590 0.95225102 7.13226271
-0.67219007 0.94387519 7.01262903
-0.55547982 0.98832297 7.11088848
-0.57543194 0.98018408 6.99157000
-0.59475201 0.97244036 6.87245035
-0.47792324 1.01329279 6.96889210
-0.49728277 1.00566745 6.84981108
-0.51561505 0.99744958 6.73148108
-0.39894435 1.03553653 6.82582903
-0.41715804 1.02755558 6.70773602
-0.43537182 1.02052295 6.58976173
-0.31795043 1.05600226 6.68304253
-0.33600613 1.04813993 6.56581926
-0.35394332 1.04059362 6.44895124
-0.23565276 1.07303083 6.54116535
-0.25370845 1.06528687 6.42481136
-0.27117151 1.05671334 6.30853510
-0.15189320 1.08496261 6.40011787
-0.16979088 1.07737672 6.28471136
-0.18729346 1.06836867 6.16926527
-0.06682986 1.09282494 6.26025486
-0.08468803 1.08464658 6.14563847
-0.10254619 1.07721865 6.03078604
0.01843102 1.09851420 6.12224960
0.00045434 1.09065199 6.00806761
-0.01724581 1.08192039 5.89368868
0.10416602 1.10033166 5.98554754
0.08622883 1.09171867 5.87172222
0.06892379 1.08326364 5.75777721
0.19037510 1.09811914 5.84999180
0.17275400 1.08843946 5.73675728
0.15556751 1.07954979 5.62348509
0.27682132 1.09132361 5.71645021
0.25951627 1.08192039 5.60357237
0.24256678 1.07480872 5.49041796
0.36362302 1.08306611 5.58381796
0.34647602 1.07642853 5.47129536
0.32968459 1.06904018 5.35865450
0.45046428 1.07358396 5.45272589
0.43335679 1.06556344 5.34059906
0.41684192 1.05817533 5.22807693
0.53687096 1.05955815 5.32281971
0.52007955 1.05145872 5.21092987
0.50447339 1.04624355 5.09864426
0.62331706 1.04434693 5.19386148
0.60735542 1.03794670 5.08205080
0.59230238 1.03205967 4.97000265
0.70976329 1.02660739 5.06608915
0.69478923 1.02147114 4.95443583
0.68127710 1.01803398 4.84266424
0.79684162 1.00827503 4.93934393
0.78325039 1.00495636 4.82765055
0.77088404 1.00286233 4.71607685
0.88455200 0.98867863 4.81330919
0.87179053 0.98599195 4.70173502
0.86049092 0.98373991 4.59016085
0.97214389 0.96750158 4.68778801
0.96147645 0.96647447 4.57629347
0.95302153 0.96971411 4.46511459
1.06111872 0.94656175 4.56333447
1.05337489 0.94999897 4.45199728
1.04725099 0.95477968 4.34093666
1.15293813 0.92846662 4.43911695
1.14610302 0.93091613 4.32762241
1.14306080 0.93909454 4.21675920
1.24444151 0.90618330 4.31450558
1.24151778 0.91333455 4.20340538
1.24092507 0.92246115 4.09297705
1.33961916 0.88607305 4.19016981
1.33942175 0.89504182 4.07934618
1.34230590 0.90578818 3.97006392
1.43795753 0.86758298 4.06630802
1.44265938 0.87686759 3.95647287
1.44886220 0.88864130 3.84948206
1.54230142 0.84782827 3.94402719
1.55000579 0.85766602 3.83632517
1.55936944 0.86746424 3.73190212
1.65110981 0.82349050 3.82380056
1.66272557 0.83249855 3.72076082
1.67540801 0.84028190 3.61855054
1.76738548 0.79200161 3.70871043
1.78113472 0.79887635 3.60780406
1.79354048 0.80752879 3.50954437
1.88618958 0.75027996 3.59701824
1.90274405 0.75960422 3.50061512
1.91763914 0.77501279 3.40804553
2.01459455 0.71219319 3.49666452
2.03620601 0.73743957 3.40733409
2.05252337 0.76055241 3.31796432
2.15461516 0.69990569 3.41294432
2.17519951 0.73056483 3.32503653
2.19060826 0.75818181 3.23590374
2.29969311 0.69994527 3.33736324
2.31363988 0.72728562 3.24514890
2.31751180 0.74577606 3.14775848
2.42596436 0.68034863 3.24495125
2.42679405 0.69646841 3.14451861
2.42434478 0.71191657 3.04353309
2.53540516 0.65431213 3.13369298
2.53196764 0.67280251 3.02899408
2.52347326 0.68670964 2.92524290
2.63939333 0.64340770 3.00943661
2.63243961 0.65810502 2.90181375
2.62019181 0.66624391 2.79509926
2.74140620 0.63380688 2.87273502
2.72785425 0.63846886 2.76147699
2.70995688 0.63779730 2.65164137
2.83488488 0.60705918 2.72678804
2.81366849 0.59765583 2.61153936
2.78498483 0.58655375 2.50024199
2.90572524 0.54099971 2.57029176
2.87368274 0.52456385 2.45480657
2.84420919 0.52859378 2.33975577
2.95617819 0.45321026 2.41391444
2.92761326 0.46289000 2.29234457
2.90303826 0.48758328 2.16935229
3.00477481 0.38861263 2.25026727
2.98221469 0.41180456 2.12403536
2.96321082 0.44404411 2.00033212
3.05909967 0.32768941 2.09874940
3.04060912 0.35404202 1.97326815
3.11800766 0.26400068 1.94620430
3.16771030 0.19150119 1.80578852
3.08067179 0.28102893 1.82254052
3.20149112 0.17822614 1.92976844
3.12401342 0.20738398 1.68500900
3.03397179 0.30042794 1.70069420
3.24977160 0.09806196 1.79429150
3.21124959 0.11034944 1.67323530
3.17012072 0.12386148 1.55802619
3.07794571 0.22591372 1.56608629
3.12966299 0.14037615 1.44388425
3.03551292 0.24515484 1.45158839
3.09280109 0.15254495 1.33653772
2.99529243 0.25842988 1.34368885
3.05637383 0.16313346 1.23037648
2.96317172 0.27075654 1.23744857
2.93456697 0.27672261 1.13306510
3.02298856 0.16862516 1.12674367
2.84808111 0.38391107 1.13721371
2.82342720 0.38410866 1.03188217
2.90979433 0.28071281 1.02793121
2.64073658 0.57505661 1.03697884
2.73208213 0.47960231 1.03441072
2.70952201 0.47821948 0.92595798
2.80086756 0.38367403 0.92402202
2.61821628 0.57272559 0.92793334
2.52185345 0.66494006 0.92840743
2.54389954 0.66857493 1.03832209
2.41877389 0.75719404 0.92659014
2.43797541 0.76402920 1.03701842
2.31111121 0.84968531 0.92263919
2.32778406 0.85731053 1.03366005
2.20009041 0.93798822 0.91825366
2.21478772 0.94861615 1.02923501
2.22561336 0.96086413 1.14057183
2.09957886 1.03529954 1.02480996
2.11032534 1.05023396 1.13638389
2.11407876 1.06544495 1.24981499
1.99847484 1.14726841 1.24677277
1.99385214 1.13043773 1.13298619
1.99642038 1.16512680 1.36292970
1.88377964 1.23845589 1.36170495
1.88188314 1.21972847 1.24523199
1.87978923 1.25576079 1.48098326
1.77019072 1.30585849 1.36277187
1.77038813 1.32316375 1.48189199
1.76722741 1.34027112 1.60452867
1.66019678 1.38550913 1.48418343
1.65940666 1.39985096 1.60634613
1.65679920 1.41249406 1.73032594
1.55028224 1.45449221 1.60863769
1.54885995 1.46508086 1.73186696
1.54376340 1.47053289 1.85639977
1.43898475 1.51407194 1.73419785
1.43550789 1.51845777 1.85711110
1.42618382 1.50929153 1.97990572
1.32353890 1.56116712 1.85908663
1.31583464 1.55196142 1.97994530
1.29525030 1.51292646 2.09167719
1.20137644 1.58890271 1.98053765
1.18217492 1.54793143 2.09005737
1.15811384 1.48250425 2.18480062
1.06744015 1.58163297 2.09128213
1.04452479 1.51351893 2.18341780
1.02153039 1.44821024 2.27472353
0.92836779 1.53765905 2.18393135
0.90687472 1.47318006 2.27713346
0.89126855 1.43149793 2.38163543
0.79285115 1.49787331 2.28104496
0.77925992 1.45721829 2.38689017
0.77202970 1.43936026 2.49909616
0.66709328 1.48364997 2.39439702
0.66006076 1.46523869 2.50612903
0.65302801 1.44710410 2.61797953
0.54587907 1.48898375 2.51600623
0.53939950 1.46997988 2.62655306
0.53212982 1.44299507 2.73472905
0.42383510 1.48973453 2.63615370
0.41676295 1.45998394 2.74369788
0.41028339 1.42134416 2.84729123
0.29953912 1.47191572 2.75262713
0.29412633 1.43315721 2.85653591
0.28934574 1.38949955 2.95835114
0.17690249 1.44026887 2.86550450
0.17342567 1.39688766 2.96775484
0.17034397 1.35319066 3.06929350
0.05635987 1.40079927 2.97672319
0.05485851 1.35895908 3.07940745
0.05426589 1.31850159 3.18205261
-0.06137760 1.35828722 3.08794141
-0.06094300 1.31700027 3.19110012
-0.06003428 1.27974308 3.29477239
-0.17646793 1.31146896 3.19884396
-0.17429493 1.27405369 3.30358291
-0.17145027 1.24086595 3.40915155
-0.28843704 1.26781130 3.31282830
-0.28492072 1.23470247 3.41879177
-0.28017962 1.20234430 3.52566457
-0.39791709 1.22597086 3.42874813
-0.39246479 1.19515371 3.53645039
-0.38602480 1.16658854 3.64438963
-0.50419682 1.18499982 3.54688048
-0.49680868 1.15675068 3.65568924
-0.48827466 1.13320339 3.76576161
-0.60664421 1.14331770 3.66690969
-0.59732008 1.11818969 3.77706146
-0.58669209 1.09527433 3.88812160
-0.70466661 1.09811914 3.78844023
-0.69360405 1.07457173 3.89965844
-0.68064499 1.05197227 4.01194382
-0.78621370 1.03099298 4.02450752
-0.79901463 1.04932511 3.91099763
-0.77341270 1.01566339 4.13853121
-0.89170319 1.01056671 4.03774309
-0.87759846 0.99247146 4.15180635
-0.86313802 0.97765547 4.26642227
-0.96459776 0.94782603 4.27977657
-0.98020393 0.96307659 4.16452789
-0.94895214 0.93407679 4.39522266
-1.04894996 0.90152127 4.40901136
-1.06534624 0.91511244 4.29305172
-1.03294861 0.89030069 4.52524710
-1.14780200 0.86521238 4.42252302
-1.13097107 0.85470277 4.53951025
-1.11354744 0.84391677 4.65633917
-1.20951533 0.80401254 4.67036486
-1.22840083 0.81622088 4.55337811
-1.19090652 0.79401672 4.78766727
-1.28438520 0.74948984 4.80157471
-1.30406094 0.75972265 4.68371868
-1.26719880 0.74577606 4.92018175
-1.37711358 0.70326400 4.81528473
-1.35921574 0.69903660 4.93420744
-1.34036982 0.69433486 5.05312967
-1.43005574 0.64336812 5.06695843
-1.44941521 0.64870173 4.94783783
-1.41077530 0.63929862 5.18623638
-1.49856484 0.58493388 5.19962978
-1.51835883 0.58983314 5.08031178
-1.47956097 0.58220786 5.31922436
-1.56624413 0.52610469 5.33238077
-1.58552456 0.52918643 5.21274710
-1.54818833 0.52527499 5.45221281
-1.63364673 0.46672234 5.46509266
-1.65190017 0.46806556 5.34518242
-1.61685538 0.46771011 5.58512163
-1.71867061 0.40733996 5.47753811
-1.70132601 0.40710294 5.59756660
-1.68275666 0.40536445 5.71724033
-1.76244676 0.33768523 5.72838211
-1.78275442 0.34214979 5.60918283
-1.74786794 0.33973983 5.84821320
-1.84430993 0.27202103 5.73932552
-1.83032382 0.27458921 5.85923624
-1.81590295 0.27585334 5.97891045
-1.91009259 0.20544802 5.86958742
-1.89602757 0.20679128 5.98937941
-1.88275230 0.20809497 6.10905313
-1.97445321 0.13551670 5.99929667
-1.96149433 0.13658339 6.11916733
-1.94932544 0.13812408 6.23876190
-2.03822112 0.06270105 6.12845230
-2.02684259 0.06412342 6.24828339
-2.01554298 0.06515055 6.36791754
-2.10238409 -0.01141830 6.25748920
-2.09262538 -0.00987723 6.37740040
-2.08389378 -0.00778341 6.49727058
-2.16777182 -0.08632777 6.38644791
-2.16026521 -0.08451013 6.50663471
-2.15303493 -0.08265331 6.62682104
-2.23402882 -0.16277792 6.51544571
-2.22747040 -0.16143465 6.63598824
-2.22185993 -0.15977529 6.75680590
-2.29878426 -0.24227063 6.64448214
-2.29408264 -0.24069002 6.76573610
-2.29028988 -0.23871452 6.88742399
-2.36298680 -0.32385680 6.77419090
-2.36014223 -0.32211870 6.89659023
-2.35480857 -0.32251358 7.01922798
-2.42142081 -0.41097504 6.90441227
-2.41675878 -0.41172561 7.02772188
-2.41193891 -0.41322672 7.15166140
-2.47053075 -0.50520438 7.03463554
-2.46322179 -0.50927371 7.15885258
-2.45741391 -0.51298767 7.28386021
-2.51177859 -0.60583425 7.16466093
-2.50601029 -0.61073363 7.28986502
-2.50332355 -0.61432892 7.41586018
-2.55128765 -0.70986193 7.29444838
-2.54816675 -0.71480060 7.42091656
-2.54634905 -0.71760571 7.54869032
-2.59233785 -0.81515425 7.42478848
-2.58842659 -0.81957924 7.55244350
-2.58755708 -0.82048804 7.68147993
-2.62884426 -0.92009079 7.55453634
-2.62844944 -0.92175013 7.68385077
-2.63125443 -0.91831267 7.81427097
-2.67036867 -1.01404357 7.81462669
-2.66381001 -1.01941693 7.68428612
-2.67040825 -1.01068521 7.94706249
-2.71031260 -1.10337389 7.94650888
-2.70450449 -1.11001134 7.81434965
-2.71450043 -1.09460294 8.08028603
-2.75321960 -1.18440723 8.07744122
-2.74871516 -1.19337595 7.94429684
-2.75649858 -1.17393744 8.21272087
-2.80039334 -1.25591886 8.20952129
-2.79652166 -1.26496673 8.07451820
-2.80525303 -1.24631822 8.34507656
-2.84559202 -1.32569230 8.34175777
-2.83903337 -1.33442366 8.20726967
-2.85143948 -1.31490636 8.47743416
-2.86937642 -1.39400339 8.47529984
-2.86238360 -1.40103626 8.34041500
-2.87850332 -1.38373113 8.61136913
-2.86957407 -1.45468986 8.61050034
-2.86179090 -1.46231508 8.47502327
-2.88265181 -1.44698524 8.74656963
-2.86902094 -1.51517856 8.74605560
-2.85633850 -1.51999843 8.61022377
-2.88403463 -1.50885677 8.88275814
-2.86475396 -1.57290149 8.88240242
-2.85100460 -1.57732654 8.74593830
-2.87463117 -1.56416965 9.01993465
-2.83231688 -1.60747182 9.02198887
-2.82006907 -1.61193645 8.88414192
-2.84970069 -1.60427177 9.15955925
-2.78644657 -1.59222126 9.16426182
-2.77024794 -1.60043907 9.02593994
-2.80225039 -1.58799362 9.30025196
-2.78644657 -1.59222126 9.16426182
-2.73717880 -1.56974065 9.30534840
-2.80225039 -1.58799362 9.30025196
-2.72212553 -1.57175565 9.16840935
-2.74602890 -1.56381416 9.43430710
-2.81418228 -1.58179092 9.43047333
-2.66736603 -1.55401599 9.43466187
-2.66384959 -1.55966556 9.30613995
-2.66649675 -1.54749691 9.55129337
-2.56116509 -1.54619324 9.53209209
-2.57424283 -1.55053902 9.42790604
-2.54409719 -1.54884005 9.61648464
-2.44852424 -1.54706228 9.51032257
-2.43058705 -1.54808962 9.59653091
-2.41529727 -1.57598329 9.66286659
-2.30862236 -1.55049956 9.56832123
-2.29171205 -1.57373118 9.63754177
-2.28092623 -1.61442554 9.68467712
-2.15252137 -1.62299895 9.64524651
-2.16563845 -1.58684790 9.59534645
-2.13825846 -1.65472496 9.69514751
-2.12209916 -1.65824103 9.75045967
-2.00531006 -1.65385568 9.65579510
-2.02221990 -1.63157237 9.60237789
-1.98859739 -1.65990055 9.71027946
-1.98859739 -1.65990055 9.71027946
-1.87208486 -1.65713489 9.61443043
-1.85485888 -1.65922916 9.66796398
-1.85485888 -1.65922916 9.66796398
-1.84691763 -1.61434639 9.69498920
-1.72198939 -1.66037452 9.62497807
-1.71317887 -1.61679578 9.65227890
-1.71223056 -1.56002140 9.65650654
-1.58129692 -1.61742806 9.61075592
-1.57987475 -1.56160152 9.61506176
-1.58208716 -1.50624943 9.60593605
-1.45218086 -1.50719738 9.56156635
-1.44905961 -1.56235242 9.57239056
-1.45905554 -1.45563781 9.53849316
-1.33065057 -1.45488727 9.49617767
-1.32385504 -1.50601232 9.52031898
-1.34696794 -1.43410552 9.44122124
-1.20339143 -1.45310926 9.45666981
-1.22010374 -1.43695033 9.39942074
-1.23910773 -1.45006704 9.33438778
-1.09509671 -1.43564618 9.36038494
-1.11358702 -1.45065975 9.29574776
-1.13294661 -1.46907127 9.22794914
-0.98929107 -1.45212162 9.25876808
-1.00833440 -1.47254777 9.19136429
-1.02927434 -1.48538840 9.11677170
-0.88557935 -1.47242951 9.15319920
-0.90632164 -1.48436129 9.07840824
-0.92793316 -1.49206543 8.99907303
-0.78427774 -1.48511183 9.04079533
-0.80612624 -1.49155188 8.96074867
-0.82919967 -1.49249995 8.87335491
-0.68495154 -1.48910236 8.92317486
-0.70759028 -1.48965561 8.83712578
-0.73015010 -1.48926032 8.74585819
-0.58641553 -1.48807502 8.80409527
-0.60893577 -1.48779833 8.71334267
-0.63208818 -1.48649466 8.61555767
-0.48827466 -1.48108208 8.68402767
-0.51190114 -1.48586237 8.58572769
-0.53600180 -1.48712683 8.47972488
-0.39214873 -1.48112130 8.55672836
-0.41703954 -1.48195100 8.45088387
-0.44137722 -1.48210919 8.34017849
-0.29855138 -1.47657788 8.42140961
-0.32371879 -1.47760499 8.31106091
-0.34805647 -1.47922492 8.19877434
-0.20645541 -1.47349620 8.28138828
-0.23154376 -1.47582746 8.16934109
-0.25552589 -1.47756553 8.05579185
-0.11499161 -1.47314060 8.13899708
-0.13984288 -1.47566915 8.02580357
-0.16382498 -1.47930408 7.91205645
-0.02467353 -1.47468150 7.99526262
-0.04920874 -1.47764468 7.88179159
-0.07342791 -1.47922492 7.76816368
0.06524944 -1.47543216 7.85121155
0.04067471 -1.47645926 7.73825455
0.01625801 -1.47665703 7.62498236
0.15473782 -1.47487903 7.70763540
0.12996553 -1.47578776 7.59475851
0.10475866 -1.47736800 7.48180103
0.24335700 -1.47476029 7.56425667
0.21783401 -1.47503698 7.45193243
0.19148137 -1.47744715 7.33929062
0.33114645 -1.47614324 7.42162800
0.30388507 -1.47645926 7.30961943
0.27611011 -1.47910666 7.19682074
0.41652584 -1.47685444 7.27955294
0.38811874 -1.47934353 7.16730738
0.36002773 -1.47902751 7.05431128
0.50068051 -1.47843480 7.13791323
0.47219434 -1.48013365 7.02578545
0.44457746 -1.48203003 6.91259193
0.58471662 -1.48203003 6.99773407
0.55674404 -1.48455870 6.88509417
0.52999634 -1.48558593 6.77193928
0.66934532 -1.48590195 6.85791063
0.64279515 -1.49044573 6.74527025
0.61683756 -1.49056399 6.63207674
0.75571251 -1.49009001 6.71860123
0.72971547 -1.49368525 6.60572386
0.70415300 -1.49617434 6.49221373
0.84251422 -1.49577951 6.57952833
0.81695181 -1.49732018 6.46637392
0.79206103 -1.49688578 6.35274649
0.92990863 -1.49818945 6.44053507
0.90517586 -1.49732018 6.32734156
0.88115418 -1.49388278 6.21335697
1.01825118 -1.50091553 6.30185843
0.99438763 -1.49550295 6.18830824
0.97103763 -1.49435711 6.07420588
1.10738397 -1.49957228 6.16310215
1.08419204 -1.49834728 6.04911804
1.06151378 -1.49550295 5.93481779
1.19703043 -1.50115252 6.02402973
1.17470777 -1.49629307 5.90976858
1.15285909 -1.49281597 5.79507351
1.28738797 -1.49826860 5.88464117
1.26597393 -1.49593735 5.76998568
1.24519217 -1.49198639 5.65481567
1.37857509 -1.49917698 5.74485683
1.35818839 -1.49637175 5.62964869
1.33827579 -1.49218416 5.51400518
1.47039485 -1.50020444 5.60455990
1.45107472 -1.49613488 5.48879814
1.43211031 -1.49111712 5.37268066
1.56292534 -1.49921656 5.46398640
1.54435587 -1.49447536 5.34767103
1.52626073 -1.48973429 5.23072386
1.65585089 -1.49696445 5.32313633
1.63807189 -1.49332964 5.20614910
1.62052965 -1.49009001 5.08821392
1.74877656 -1.49712276 5.18236494
1.73139238 -1.49423850 5.06466675
1.71440363 -1.48874676 4.94613934
1.84178114 -1.49874258 5.04190922
1.82483196 -1.49277651 4.92385578
1.80867255 -1.47235048 4.80635548
1.93450940 -1.50170565 4.90224409
1.91894269 -1.47657788 4.78589010
1.90440333 -1.44161224 4.67072058
2.02929211 -1.47946191 4.76664877
2.01502919 -1.44793367 4.65175581
2.00120091 -1.42225289 4.53516388
2.12482524 -1.46120858 4.63231754
2.11210322 -1.43742418 4.51679277
2.10175204 -1.42474198 4.39937115
2.22150445 -1.44848692 4.49956656
2.21221948 -1.43667376 4.38368559
2.20724154 -1.43212998 4.26816130
2.32245064 -1.44627428 4.36981773
2.31842041 -1.44200718 4.25504398
2.31984258 -1.44109869 4.14082289
2.42477918 -1.44919813 4.24441576
2.42742634 -1.44844723 4.13007593
2.43110061 -1.44738054 4.01648760
2.52825379 -1.45386028 4.12098885
2.53362703 -1.45283270 4.00751877
2.54105496 -1.45212162 3.89404821
2.55401373 -1.45176589 3.78006411
2.62844944 -1.45753419 3.99985385
2.63725972 -1.45674407 3.88673878
2.65061378 -1.45627010 3.77318954
2.65061378 -1.45627010 3.77318954
2.72643232 -1.46120858 3.88073373
2.73816633 -1.46089256 3.76836920
2.75381184 -1.46176183 3.65564942
2.73816633 -1.46089256 3.76836920
2.82275558 -1.46587074 3.76457644
2.83721590 -1.46749091 3.65351605
2.85531139 -1.47005868 3.54198170
2.91275740 -1.47373331 3.65347648
2.92974639 -1.47661757 3.54320645
2.94673562 -1.47950137 3.43297553
2.99770236 -1.48368955 3.54439163
3.01370358 -1.48669207 3.43510914
3.03385329 -1.48862803 3.32440424
3.07794571 -1.49443591 3.43728209
3.09766078 -1.49629307 3.32669592
3.11903524 -1.49799204 3.21547747
3.15889978 -1.50538003 3.33001447
3.18074846 -1.50680244 3.21875691
3.20322919 -1.50648630 3.10615540
3.20322919 -1.50648630 3.10615540
3.24024963 -1.51727235 3.22286558
3.26047802 -1.51901078 3.10983014
3.18074846 -1.50680244 3.21875691
3.27557087 -1.52146041 2.99533176
3.21717596 -1.50881755 2.99256659
3.31764817 -1.52971768 3.11366224
3.33353090 -1.53157485 2.99829555
3.34941339 -1.53347123 2.88292813
3.38394427 -1.51790452 3.00066566
3.39800954 -1.51454616 2.88435054
3.40634608 -1.51027906 2.76811433
3.41207528 -1.45824564 2.88435054
3.41981888 -1.45239830 2.76771975
3.41065288 -1.44026899 2.65326142
3.42246580 -1.39226532 2.76858854
3.41523576 -1.38215077 2.65282655
3.40559554 -1.37160182 2.53611660
3.42096496 -1.31956840 2.65318227
3.42100406 -1.31135023 2.53670883
3.43763709 -1.30676734 2.41636419
3.41152191 -1.24027348 2.53568196
3.42779970 -1.23584807 2.41415143
3.44407749 -1.23142302 2.29262114
3.43621516 -1.15615833 2.28973699
3.41634178 -1.16089940 2.41225505
3.48508787 -1.15461719 2.16623116
3.48773527 -1.07512486 2.16441369
3.43510914 -1.07548022 2.28831458
3.52503157 -1.07077861 2.03071451
3.52084398 -0.98346329 2.02502513
3.49054050 -0.98563629 2.16251731
3.52910137 -0.97832727 1.88235748
3.50839829 -0.88196421 1.87481129
3.51321864 -0.88824606 2.01822972
3.48571992 -0.87346983 1.73435605
3.47418356 -0.77864754 1.86607981
3.44459081 -0.77042973 1.72763932
3.41499877 -0.76225108 1.58915973
3.36023879 -0.65585303 1.58461595
3.39097738 -0.66446602 1.72060668
3.32408810 -0.64392126 1.45099604
3.26612830 -0.53511274 1.44799304
3.30299020 -0.54736066 1.58034897
3.22523594 -0.52164030 1.31765234
3.16411495 -0.41223916 1.31595337
3.20532346 -0.42654133 1.44609666
3.11994362 -0.39734429 1.18782496
3.05325246 -0.28825927 1.18703473
3.09908295 -0.30429995 1.31476820
3.00833058 -0.27024311 1.06064487
2.93685794 -0.16001227 1.06119800
2.98257041 -0.18032010 1.18818057
2.89150167 -0.14002059 0.93642783
2.81200933 -0.03018504 0.93733662
2.85906434 -0.05175697 1.06341052
2.76716638 -0.01011423 0.81454194
2.67941594 0.09972134 0.81525314
2.72643232 0.07755671 0.94097143
2.63718081 0.11908077 0.69506598
2.54840350 0.23563299 0.69202381
2.58791280 0.21445592 0.81244791
2.15663028 0.28288612 -0.42529675
2.44575858 0.34926131 0.68724322
1.98610842 0.45992672 -0.42569187
2.07046056 0.37711546 -0.42648202
1.66726899 0.40528551 -1.53270054
1.59607351 0.46676192 -1.53127825
1.52136147 0.52570963 -1.53123856
1.23397148 0.43124309 -2.58044553
1.00284255 0.26170906 -3.67137384
1.16490936 0.47829860 -2.58170962
0.94571233 0.29967734 -3.67200565
1.09347677 0.52294397 -2.58238125
0.88692260 0.33618411 -3.67259836
1.73850417 -1.07239878 -3.69006157
1.74059820 -1.10530972 -3.68757272
1.73834610 -1.13679850 -3.68212032
2.12628722 -1.26085746 -2.59506392
2.09689236 -1.26998401 -2.58372450
2.06469226 -1.27105105 -2.57214856
2.03182054 -1.27081370 -2.56021667
2.32549262 -1.37448609 -1.47501707
2.28013611 -1.37306380 -1.45988500
2.60727215 -1.46112990 -0.29483733
2.23288298 -1.37120688 -1.44404185
2.54686260 -1.45725775 -0.27772984
2.83705783 -1.52560866 0.84314662
2.75867152 -1.51948488 0.86072820
2.48068476 -1.45227969 -0.26050383
2.77826810 -1.51426959 0.97890019
2.67179084 -1.51174104 0.87771714
2.69047880 -1.50660515 0.99561256
2.70908761 -1.50170565 1.11323154
2.59929156 -1.49854505 1.01196957
2.61272454 -1.49356699 1.12903523
2.62611818 -1.48835135 1.24602199
2.50940800 -1.48447967 1.14539218
2.52019405 -1.47985709 1.26123321
2.52841187 -1.47495806 1.37628388
2.40656543 -1.47029579 1.27755034
2.41276860 -1.46575236 1.39240372
2.41585016 -1.46192014 1.50615060
2.29459620 -1.45630968 1.40828633
2.29597902 -1.45259571 1.52175701
2.29416180 -1.44971168 1.63459516
2.17369819 -1.44327164 1.53696799
2.17037940 -1.44082224 1.64941108
2.16374207 -1.43876755 1.76157784
2.04671550 -1.43224859 1.66387141
2.03905082 -1.43074715 1.77611721
2.02826476 -1.42762589 1.88852096
1.91518939 -1.42280591 1.79049838
1.90412676 -1.41960549 1.90329731
1.78105557 -1.41119039 1.91799474
1.89306426 -1.41640544 2.01609612
1.76975608 -1.40783203 2.03134680
1.75719202 -1.40261650 2.14489627
1.64775157 -1.39941645 2.04691339
1.63463449 -1.39408255 2.16125298
1.62159646 -1.38870955 2.27579021
1.51492167 -1.38416576 2.17721486
1.50113285 -1.37926686 2.29364824
1.48829246 -1.37559235 2.41039824
1.38521278 -1.35710192 2.31091404
1.37233269 -1.35639083 2.42928362
1.36055899 -1.35350657 2.54721856
1.26435411 -1.31569648 2.44781327
1.25605714 -1.30210531 2.56578779
1.16621327 -1.23300362 2.57566524
1.24776030 -1.28855371 2.68376231
1.15929914 -1.21546149 2.69474602
1.15262210 -1.20009220 2.81078434
1.07395923 -1.14454257 2.69277048
1.07067990 -1.12300980 2.80936193
1.06692660 -1.10064781 2.92429447
0.97739869 -1.03265238 2.90849090
0.97917658 -1.05868888 2.79549432
0.97613442 -1.00748515 3.02176356
0.87538582 -0.96291852 3.01283479
0.87530690 -0.98970592 2.89734888
0.87538582 -0.94031948 3.12697697
0.76657754 -0.94399357 3.00809360
0.76661700 -0.91981423 3.12041807
0.65366018 -0.91195172 3.11520314
0.65283048 -0.88674492 3.22827864
0.76665658 -0.89563447 3.23274302
0.65460837 -0.86216992 3.33479524
0.53983414 -0.88382101 3.22243118
0.54018974 -0.85817981 3.33270121
0.54433817 -0.83577776 3.43550444
0.42735139 -0.85387301 3.33116055
0.43055165 -0.83103704 3.43637347
0.43632001 -0.81088704 3.53348732
0.55073869 -0.81550950 3.52894354
0.44544664 -0.79322654 3.61740470
0.56037891 -0.79773068 3.61167574
0.57005864 -0.77999067 3.69444752
0.45457324 -0.77556568 3.70128274
0.46670258 -0.76059175 3.77378201
0.33762595 -0.77125937 3.70835495
0.34702912 -0.75683856 3.78444958
0.35828930 -0.74652654 3.85655379
0.22802742 -0.75028014 3.79270697
0.23656142 -0.73795313 3.86714220
0.24537192 -0.72645575 3.94240761
0.36871976 -0.74218065 3.92774963
0.37397444 -0.77730423 3.97863722
0.24900681 -0.76410836 3.98788261
0.37397444 -0.77730423 3.97863722
0.24900681 -0.76410836 3.98788261
0.24861170 -0.83881992 4.00767660
0.37073472 -0.84889489 3.99570537
0.24730791 -0.91404557 4.02976227
0.13304725 -0.91143817 4.04568434
0.13363989 -0.83352613 4.02407312
0.12897782 -0.99413097 4.06571531
0.02238194 -0.91531003 4.06496525
0.01708772 -1.00076854 4.08566761
0.12723941 -1.08926916 4.08219099
0.00946243 -1.09717071 4.10076046
0.12763448 -1.18409121 4.09839010
0.00531395 -1.19199312 4.11715651
0.02415987 -1.28246891 4.14872456
0.14122564 -1.27674019 4.13209105
0.04585042 -1.35453391 4.22229052
0.16161245 -1.34702730 4.20644760
0.06686933 -1.39388514 4.32039213
-0.06864728 -1.36140847 4.23643494
-0.04806298 -1.39969301 4.33738089
-0.02585881 -1.42087007 4.44492531
-0.16378547 -1.40506637 4.34947109
-0.14154178 -1.42628264 4.45812130
-0.12285393 -1.43608105 4.57242155
-0.25912121 -1.42798150 4.47048759
-0.23944563 -1.43754303 4.58423471
-0.22328636 -1.44283688 4.70386839
-0.35232347 -1.41968465 4.60276461
-0.33537400 -1.43947887 4.71975136
-0.31625155 -1.44544458 4.84124184
-0.44378728 -1.41498315 4.74013805
-0.42525747 -1.43177426 4.85965347
-0.40491024 -1.44497061 4.98070908
-0.53355223 -1.41506219 4.87932920
-0.51324445 -1.43185341 4.99963474
-0.49206752 -1.44477284 5.12045336
-0.62094659 -1.41549671 5.01855946
-0.59945357 -1.42932487 5.13922024
-0.57610369 -1.43588352 5.26059294
-0.70648408 -1.41379762 5.15743399
-0.68325263 -1.42379355 5.27880669
-0.65911257 -1.43090498 5.40057421
-0.78992754 -1.41265190 5.29638863
-0.76558983 -1.42367518 5.41835356
-0.74133116 -1.43604136 5.54008055
-0.87183011 -1.41731393 5.43514490
-0.84721589 -1.43505347 5.55687284
-0.82244354 -1.44868422 5.67899561
-0.95262641 -1.43371034 5.57283449
-0.92749852 -1.44911909 5.69543123
-0.90256828 -1.45899618 5.81818628
-1.03200042 -1.45022523 5.71076059
-1.00687253 -1.46255195 5.83406925
-0.98210037 -1.47167861 5.95725870
-1.11030769 -1.46745145 5.84864759
-1.08581197 -1.47606432 5.97250891
-1.06155336 -1.48305714 6.09668636
-1.18841743 -1.48044980 5.98708868
-1.16400075 -1.48712683 6.11130524
-1.14057183 -1.49103844 6.23583794
-1.26609254 -1.49115670 6.12568665
-1.24301922 -1.49518692 6.25065422
-1.22053838 -1.49743879 6.37554407
-1.34428132 -1.49767590 6.26467991
-1.32223523 -1.49945354 6.39000368
-1.30078161 -1.50210083 6.51544571
-1.42314172 -1.50190341 6.40371227
-1.40180671 -1.50407636 6.52915478
-1.38141990 -1.50443172 6.65507030
-1.50243676 -1.50478745 6.54227161
-1.48232663 -1.50628889 6.66826677
-1.46312511 -1.50767171 6.79410362
-1.58267975 -1.50889623 6.68051386
-1.56387353 -1.50972605 6.80650902
-1.54609430 -1.51063478 6.93270206
-1.66375279 -1.51185966 6.81709814
-1.64664543 -1.51205719 6.94384289
-1.63024902 -1.51197803 7.07082653
-1.74605048 -1.51438844 6.95336485
-1.73056281 -1.51359785 7.08113861
-1.71614194 -1.51225460 7.20895052
-1.82981002 -1.51604784 7.08911943
-1.81617951 -1.51415098 7.21701050
-1.80385256 -1.51225460 7.34581041
-1.91538703 -1.51608706 7.22364807
-1.90361321 -1.51300561 7.35165834
-1.89409161 -1.50937057 7.48093176
-2.00313711 -1.51395357 7.35699034
-1.99397099 -1.50885677 7.48559332
-1.98697770 -1.50605190 7.61569691
-2.09207225 -1.50933111 7.48851728
-2.08598757 -1.50775051 7.61763382
-2.08215547 -1.50644684 7.74769831
-2.18361521 -1.50664413 7.61810732
-2.18069148 -1.50751340 7.74678946
-2.18025684 -1.50166607 7.87669611
-2.27681732 -1.49882162 7.74501133
-2.27764702 -1.49834728 7.87408829
-2.28057075 -1.49506807 8.00438976
-2.37159991 -1.48550701 7.87116480
-2.37495804 -1.48293889 8.00083351
-2.38206983 -1.48578370 8.13164806
-2.37495804 -1.48293889 8.00083351
-2.46377492 -1.45769250 7.99688244
-2.38206983 -1.48578370 8.13164806
-2.47171617 -1.45962846 8.12710571
-2.39044595 -1.48325491 8.26400375
-2.48167253 -1.46148527 8.25843334
-2.55361891 -1.42067230 8.12268066
-2.56570864 -1.42572951 8.25325775
-2.57728505 -1.42786288 8.38521767
-2.63275576 -1.36705840 8.24938583
-2.64362097 -1.36954761 8.38071442
-2.65440702 -1.37025845 8.51311016
-2.69059730 -1.29195118 8.51105499
-2.68036437 -1.28946209 8.37909508
-2.69111085 -1.29282045 8.64538670
-2.67759871 -1.20317400 8.51421547
-2.68526363 -1.20669067 8.64728260
-2.69747186 -1.20914006 8.78244495
-2.65602660 -1.12063944 8.65182686
-2.66452122 -1.12474835 8.78596115
-2.68419671 -1.12455094 8.92518997
-2.63220263 -1.03577363 8.78817368
-2.64923096 -1.03778839 8.92854977
-2.66756320 -1.03628731 9.07734108
-2.62505150 -0.94758886 9.08196354
-2.60853696 -0.94912994 8.93261909
-2.62702680 -0.92783451 9.20657539
-2.56452346 -0.83996576 9.06220913
-2.55749083 -0.80851668 9.16418171
-2.61146045 -0.88247776 9.30641556
-2.54421568 -0.76458234 9.25319576
-2.51335883 -0.71515626 9.32779026
-2.43584204 -0.60101432 9.24738884
-2.46586895 -0.63408327 9.17974949
-2.39716220 -0.58845031 9.30696869
-2.47906494 -0.69777232 9.38871384
-2.35030437 -0.59670764 9.35030937
-2.43453813 -0.69793016 9.43857288
-2.30411816 -0.60409576 9.39298058
-2.27507877 -0.49761847 9.26204586
-2.22988033 -0.50702161 9.30127907
-2.19795680 -0.49694705 9.34655666
-2.15935659 -0.41942981 9.21384525
-2.12952709 -0.40848559 9.25726509
-2.13284588 -0.37431043 9.29630089
-2.06690478 -0.29232863 9.21246243
-2.06299329 -0.32492387 9.17469120
-2.09223008 -0.25459731 9.23419285
-2.00341368 -0.21378425 9.13632774
-2.02822542 -0.17806803 9.15900612
-2.05868697 -0.14310236 9.17224216
-1.96595895 -0.10434394 9.09057617
-1.99634135 -0.07012884 9.10266590
-2.03146505 -0.03923250 9.10614300
-1.93482542 -0.00000008 9.04316616
-1.96805286 0.03109370 9.04774761
-2.00451994 0.04749006 9.02787590
-2.06919622 -0.02568090 9.08476830
-1.90353441 0.10063016 8.99773026
-1.93810463 0.11738183 8.97659206
-1.93810463 0.11738183 8.97659206
-2.00451994 0.04749006 9.02787590
-1.96204734 0.11200882 8.93815041
-1.87236142 0.18652304 8.93265915
-1.89737082 0.18628605 8.89540100
-1.91112006 0.17166774 8.85233593
-1.82566154 0.25321475 8.85652447
-1.84051716 0.24223094 8.81342030
-1.84683847 0.22362207 8.77007866
-1.76691127 0.31022632 8.78027153
-1.77350938 0.29481789 8.73617935
-1.78050256 0.27850032 8.69019032
-1.69650602 0.36293161 8.70978737
-1.70112836 0.34783933 8.66474628
-1.70748949 0.33266753 8.61666393
-1.61989760 0.41634804 8.64613724
-1.62534988 0.40334958 8.59817314
-1.63143432 0.39070663 8.54870701
-1.53839004 0.46944857 8.58703136
-1.54265714 0.45759574 8.53610420
-1.54921556 0.44637513 8.48095036
-1.45636892 0.51188147 8.47518063
-1.45131183 0.52140313 8.53116512
-1.46241391 0.50267577 8.41595650
-1.36478662 0.56553495 8.41607571
-1.35988748 0.57454300 8.47474670
-1.37094986 0.55794924 8.35206985
-1.26877916 0.62108475 8.35523033
-1.26297128 0.62566781 8.42061806
-1.27533770 0.61725247 8.28857899
-1.17000616 0.67837316 8.29565144
-1.16411924 0.68244267 8.36178970
-1.17940938 0.67351365 8.21639538
-1.07154918 0.73064399 8.22133446
-1.06056559 0.73495048 8.30521297
-1.08529842 0.72495466 8.12591934
-0.97731972 0.77817345 8.12520790
-0.96274072 0.78413934 8.22334957
-0.99592853 0.77137792 8.01564980
-0.88909560 0.82127804 8.01300240
-0.87032878 0.82811308 8.12102127
-0.91114175 0.81578624 7.89913607
-0.80786473 0.86394799 7.89163065
-0.78427774 0.87050664 8.00624657
-0.83164918 0.85825872 7.77491951
-0.73078221 0.90468198 7.76417351
-0.70616800 0.91092443 7.88175201
-0.75598913 0.89800495 7.64493465
-0.65757161 0.94071430 7.62889433
-0.63196963 0.94739139 7.74860716
-0.68218589 0.93411636 7.50953627
-0.58499324 0.97481090 7.49053192
-0.56002337 0.98140889 7.60996819
-0.60858023 0.96714610 7.37093782
-0.48748443 1.01198912 7.46876287
-0.51162457 1.00464046 7.34972143
-0.53406584 0.99697554 7.23008776
-0.41435289 1.03932953 7.32396126
-0.43691269 1.03162515 7.20547342
-0.45797113 1.02241933 7.08690643
-0.33849522 1.06173110 7.17801428
-0.35947460 1.05264413 7.06035662
-0.37938723 1.04403102 6.94321108
-0.25959533 1.07994497 7.03210640
-0.27966598 1.07109487 6.91579151
-0.29926258 1.06378555 6.79912090
-0.17903604 1.09645975 6.88742399
-0.19835602 1.08871603 6.77229548
-0.21728095 1.08136737 6.65680885
-0.09606668 1.10973477 6.74455929
-0.11514963 1.10234654 6.62998152
-0.13375847 1.09385216 6.51520729
-0.01167500 1.11862433 6.60264206
-0.03056041 1.11036694 6.48909283
-0.04909022 1.10167491 6.37506866
0.07362539 1.12502491 6.46262074
0.05505607 1.11566114 6.34962511
0.03664478 1.10704815 6.23603535
0.15955795 1.12854111 6.32433987
0.14106762 1.11755776 6.21193552
0.12241930 1.10910273 6.09893942
0.24647824 1.12621009 6.18740034
0.22668408 1.11653042 6.07594490
0.20835184 1.10669255 5.96326399
0.33233172 1.12012565 6.05279255
0.31328827 1.10981381 5.94113922
0.29491651 1.10029209 5.82881498
0.41877791 1.11139417 5.91929054
0.39961591 1.10076630 5.80811119
0.38128367 1.09124446 5.69622135
0.50459188 1.09886980 5.78776407
0.48598307 1.08895302 5.67650652
0.46784836 1.08124864 5.56485319
0.59072196 1.08492303 5.65730476
0.57219213 1.07627046 5.54612589
0.55433404 1.06832922 5.43455172
0.67618042 1.06884289 5.52807045
0.65796667 1.06003213 5.41685152
0.64034557 1.05181444 5.30547523
0.76112527 1.04924619 5.39990282
0.74306953 1.04019856 5.28896046
0.72588307 1.03233624 5.17778158
0.82821184 1.01886368 5.16205692
0.84559596 1.02755558 5.27280140
0.81177598 1.01281881 5.05087805
0.91327524 0.99709409 5.03602266
0.92971104 1.00294137 5.14716244
0.89826179 0.99172086 4.92472506
1.01390517 0.97876179 5.02172041
0.99861515 0.97342813 4.91065979
0.98506343 0.97085994 4.79924345
1.09809935 0.95248818 4.89718676
1.08383644 0.94810259 4.78600788
1.07154918 0.94664085 4.67463207
1.18150330 0.92222410 4.77356243
1.16988766 0.92277724 4.66210747
1.15997076 0.92451560 4.55061245
1.26664567 0.89500225 4.64985943
1.25629425 0.89587152 4.53816652
1.24969625 0.90132362 4.42647409
1.35324991 0.87173134 4.52591944
1.34574306 0.87370670 4.41379213
1.34131813 0.87892205 4.30178308
1.44107890 0.84794670 4.40217638
1.43783903 0.85197663 4.28925896
1.43594265 0.85853529 4.17752695
1.53262174 0.82554513 4.27803850
1.53226614 0.83036524 4.16484451
1.53538728 0.83874106 4.05378389
1.62708819 0.80401254 4.15484858
1.63321221 0.81021541 4.04256344
1.64107442 0.81649750 3.93201661
1.72878492 0.77856851 4.03268576
1.73984754 0.78279608 3.92111182
1.75371516 0.78773475 3.81261945
1.83565748 0.74530184 3.91222239
1.85177708 0.74376094 3.80293965
1.86924028 0.74530184 3.69839835
1.94695473 0.69220144 3.79681563
1.96911967 0.69137180 3.69136596
1.99266696 0.69820690 3.59077549
2.07042122 0.63511056 3.68729639
2.10293722 0.64629179 3.59018278
2.13035655 0.66999733 3.50073409
2.22091174 0.59777433 3.59745264
2.25109673 0.63218689 3.51163840
2.27922726 0.66817987 3.42594290
2.37649894 0.59741884 3.52858782
2.40482712 0.63455743 3.44083786
2.41999865 0.66059411 3.34554172
2.52003574 0.59165055 3.44636941
2.52979469 0.61452639 3.34340835
2.53512859 0.63582176 3.23910403
2.63686442 0.57470107 3.33941793
2.64168477 0.60097462 3.22934532
2.64239597 0.62396908 3.11852169
2.74480367 0.56948572 3.21263289
2.74895215 0.59651023 3.09888554
2.74828053 0.61922795 2.98656106
2.85574579 0.57047349 3.07798505
2.85649657 0.59311235 2.96111703
2.84914756 0.60607141 2.84357715
2.96095848 0.55079794 2.93124795
2.95230651 0.56114930 2.81185102
2.93357897 0.55873930 2.69115067
3.04661465 0.49884343 2.77573991
3.02117062 0.49386528 2.65191793
2.98893142 0.47177961 2.53252125
3.10058427 0.41476780 2.62283897
3.06913519 0.39173394 2.50411391
3.03108764 0.37719458 2.37839580
3.12187958 0.29608202 2.48447800
3.09288001 0.29106432 2.35587549
3.15467238 0.20493445 2.33339477
3.07502174 0.30540606 2.22592974
3.14526939 0.22216050 2.20159197
3.13602424 0.24353464 2.07346368
3.22531486 0.12070059 2.31806517
3.22428751 0.14152196 2.18709207
3.21919131 0.16218546 2.05773878
3.29896021 0.07597608 2.04636025
3.30030346 0.05673534 2.17622709
3.28205013 0.08857968 1.91795540
3.35857940 -0.00628191 1.91100168
3.37319803 -0.01588287 2.03912997
3.32882929 0.00142230 1.78706121
3.40685987 -0.09825955 1.78579688
3.43344975 -0.10224975 1.90989542
3.37572670 -0.09292572 1.66450381
3.29532504 0.00924520 1.66683471
3.34012890 -0.08557682 1.54803050
3.25715947 0.02093998 1.55142832
3.30251598 -0.07577880 1.43538976
3.21962571 0.03350364 1.43839240
3.26525879 -0.06601996 1.32535648
3.18161750 0.04389474 1.32990015
3.22946334 -0.05645855 1.21765459
3.14681053 0.05432502 1.22342277
3.19512963 -0.04756897 1.11121666
3.11275315 0.06179260 1.11828876
3.07956553 0.06677074 1.01354980
3.16194224 -0.04049700 1.00529242
2.99367261 0.17229961 1.02224183
2.96475196 0.17510481 0.91675222
3.04859018 0.07036607 0.90821826
2.88466644 0.28142419 0.92145389
2.86005235 0.28098977 0.81315911
2.93749022 0.17617151 0.80991942
2.77751756 0.38082927 0.81493706
2.75483918 0.37830082 0.70435071
2.83816433 0.28047580 0.70257276
2.66519284 0.47158194 0.70537800
2.68708086 0.47486117 0.81616181
2.57558584 0.56486332 0.70644468
2.47989464 0.65541834 0.70593113
2.49980712 0.66011995 0.81718904
2.59668374 0.56889325 0.81738663
2.38048935 0.74490678 0.70407420
2.39933515 0.75067502 0.81588531
2.27725172 0.83289385 0.70067638
2.29420114 0.84095371 0.81173670
2.16860175 0.91661376 0.69652790
2.18476081 0.92684662 0.80739075
2.05710649 0.99717301 0.69194484
2.07208037 1.00886786 0.80284721
2.08642244 1.02151072 0.91378909
1.95892608 1.08824182 0.79822457
1.97101605 1.10013402 0.90975916
1.98338234 1.11483145 1.02113569
1.85647881 1.17607081 0.90624285
1.86801529 1.18997812 1.01840949
1.87714207 1.20443833 1.13144529
1.75339925 1.26239848 1.01671052
1.76280248 1.27725387 1.13041806
1.76821518 1.28997588 1.24578500
1.65521872 1.35579813 1.24693084
1.64913440 1.34453809 1.13065517
1.65849805 1.36986363 1.36466825
1.54731905 1.43058908 1.36684120
1.54317069 1.41715598 1.24878764
1.55036128 1.44279742 1.48619866
1.43424380 1.48337352 1.37039721
1.43720698 1.49301374 1.49078166
1.43906379 1.50308859 1.61195636
1.32338083 1.53635538 1.49572015
1.32492173 1.54429686 1.61638129
1.32543540 1.55516171 1.73727965
1.20951533 1.58273923 1.62120163
1.20998943 1.59233999 1.74123049
1.20852757 1.59731817 1.86169410
1.09402990 1.62856996 1.74656427
1.09173834 1.63212574 1.86544752
1.08470571 1.62307823 1.98282945
0.97289467 1.66282439 1.87097871
0.96475577 1.64935172 1.98614812
0.94942611 1.60790658 2.09388971
0.84267223 1.67096329 1.99092889
0.82943672 1.62643647 2.09523320
0.81094635 1.55733478 2.18543267
0.70608890 1.63943493 2.09811735
0.69147056 1.57542992 2.18926501
0.67791885 1.51790452 2.28570700
0.57037479 1.58637393 2.19637680
0.56037891 1.53517008 2.29578185
0.55227953 1.50569618 2.40431380
0.44117963 1.54927492 2.30629134
0.43552977 1.52572727 2.41521811
0.42987996 1.50980508 2.52631807
0.31617245 1.54078031 2.42588568
0.31135234 1.52505565 2.53635359
0.30578154 1.50431335 2.64603090
0.19116528 1.53592074 2.54611230
0.18610811 1.51134598 2.65452552
0.18132751 1.47958052 2.76131892
0.06635569 1.51833916 2.66361284
0.06248381 1.48376870 2.76997137
0.05892798 1.44418025 2.87419677
-0.05766373 1.48515129 2.77826881
-0.05944163 1.44524717 2.88273072
-0.06050839 1.40206361 2.98549438
-0.17836437 1.44184935 2.89007974
-0.17828536 1.39728284 2.99288249
-0.17765321 1.35240054 3.09533000
-0.29574627 1.38906515 2.99971724
-0.29436344 1.34445906 3.10228372
-0.29183486 1.30400169 3.20686460
-0.41063905 1.33568799 3.11030388
-0.40676716 1.29633689 3.21575379
-0.40246066 1.26010680 3.32203388
-0.52158093 1.28586674 3.22460413
-0.51664227 1.24967635 3.33116055
-0.51051837 1.21557999 3.43874383
-0.62995464 1.23565066 3.34005022
-0.62311959 1.20175183 3.44794989
-0.61565238 1.17097414 3.55667901
-0.73445654 1.18235290 3.45676017
-0.72548795 1.15185153 3.56643796
-0.71620327 1.12486684 3.67714286
-0.83488905 1.13075387 3.57647324
-0.82374734 1.10250461 3.68780994
-0.81213170 1.07575691 3.79926562
-0.91793734 1.04964125 3.81017017
-0.93089646 1.07725823 3.69820118
-0.90485984 1.02846444 3.92368007
-1.00944078 1.00112402 3.93584871
-1.02318990 1.02178729 3.82190442
-0.99501985 0.98113227 4.05007029
-1.09695363 0.94802362 4.06239700
-1.11232269 0.96817321 3.94778061
-1.08154500 0.93123221 4.17764568
-1.18122685 0.89373797 4.19024849
-1.19762301 0.91139859 4.07476330
-1.16455388 0.87852699 4.30620813
-1.26249719 0.83866215 4.31920719
-1.27980232 0.85383368 4.20285225
-1.24527121 0.82649332 4.43615389
-1.34127855 0.78323072 4.44915247
-1.35925519 0.79615009 4.33212662
-1.32318330 0.77177292 4.56649494
-1.41713643 0.72507316 4.57941484
-1.43606126 0.73668873 4.46179581
-1.39678895 0.71246970 4.69695425
-1.48868752 0.66387331 4.71018982
-1.50946939 0.67544961 4.59205723
-1.46834016 0.65391707 4.82859898
-1.55810511 0.60192299 4.84171581
-1.57928205 0.61207664 4.72310972
-1.53819251 0.59536439 4.96095514
-1.62606108 0.54036748 4.97375631
-1.64688241 0.54815084 4.85455656
-1.60591125 0.53471768 5.09327126
-1.69212055 0.47719237 5.10579586
-1.71302080 0.48382989 4.98635960
-1.67193115 0.47229314 5.22546911
-1.75655997 0.41255528 5.23771715
-1.77718365 0.41784936 5.11796474
-1.73672628 0.40856472 5.35750866
-1.81953752 0.34606123 5.36924362
-1.83885765 0.34926131 5.24913502
-1.80144238 0.34444141 5.48931170
-1.88061893 0.27680174 5.50001860
-1.89895129 0.27901423 5.37987089
-1.86031115 0.27213934 5.61945486
-1.93873703 0.20291939 5.62937164
-1.95513332 0.20366995 5.50930309
-1.92475069 0.20481578 5.74963808
-2.01664901 0.13310675 5.63905144
-2.00175428 0.13338332 5.75912046
-1.98796546 0.13448957 5.87930775
-2.07773042 0.06092335 5.76836586
-2.06303287 0.06080467 5.88839388
-2.05050850 0.06191092 6.00850248
-2.13849568 -0.01268242 5.89720488
-2.12577367 -0.01216886 6.01739264
-2.11309099 -0.01268242 6.13746071
-2.19870758 -0.08822415 6.02576733
-2.18689442 -0.08842158 6.14599419
-2.17685890 -0.08778933 6.26626062
-2.25891948 -0.16566224 6.15409327
-2.24959540 -0.16514868 6.27459669
-2.24121928 -0.16423987 6.39502096
-2.31893396 -0.24468058 6.28218222
-2.31138778 -0.24428535 6.40292263
-2.30475020 -0.24325821 6.52366209
-2.37776327 -0.32666203 6.40999413
-2.37120461 -0.32654372 6.53089380
-2.36697745 -0.32504222 6.65226507
-2.43548632 -0.41117248 6.53749084
-2.43114018 -0.41030321 6.65914106
-2.42667580 -0.41006622 6.78142118
-2.48890281 -0.49900132 6.66467237
-2.48420119 -0.49983099 6.78766346
-2.47799826 -0.50184602 6.91097164
-2.53279757 -0.59346801 6.79228640
-2.52544880 -0.59678680 6.91583109
-2.51885080 -0.60109305 7.04024601
-2.56507635 -0.69480920 6.91946602
-2.55843902 -0.70006394 7.04392099
-2.55500174 -0.70448893 7.16884756
-2.59814596 -0.79804647 7.04648781
-2.59569621 -0.80405211 7.17192984
-2.59573555 -0.80922771 7.29824162
-2.63307190 -0.90239036 7.17374754
-2.63164949 -0.90981835 7.30001831
-2.63042498 -0.91681123 7.42672539
-2.66298032 -1.00803828 7.30033493
-2.66305923 -1.01467586 7.42700100
-2.66155815 -1.01953518 7.55516958
-2.69178247 -1.10977435 7.42613316
-2.69506192 -1.11360669 7.55418253
-2.69589162 -1.11475253 7.68361425
-2.73516369 -1.20293701 7.68223047
-2.73208213 -1.20171249 7.55279875
-2.74286795 -1.20025051 7.81233406
-2.78719735 -1.27832043 7.81024122
-2.78032255 -1.28179741 7.68021536
-2.79221511 -1.27274966 7.94145107
-2.82986736 -1.34651375 7.94073963
-2.82504702 -1.35263753 7.80854225
-2.83263302 -1.34038973 8.07404518
-2.84713292 -1.41320491 8.07439995
-2.84120631 -1.41695845 7.94235992
-2.85420513 -1.40700221 8.20703125
-2.84816003 -1.47318006 8.20770359
-2.84247065 -1.47792125 8.07542706
-2.85404706 -1.46737230 8.34065151
-2.83998156 -1.53034985 8.34100723
-2.83543801 -1.53544676 8.20845413
-2.84808111 -1.52576697 8.47502327
-2.82706213 -1.58337116 8.47541904
-2.81923938 -1.58811235 8.34164047
-2.83559608 -1.57772136 8.61038113
-2.79438782 -1.61584783 8.61168480
-2.78443170 -1.62181354 8.47688007
-2.80679393 -1.61434639 8.74732018
-2.74464607 -1.61217344 8.75016594
-2.73334622 -1.61588728 8.61346340
-2.75756550 -1.60545671 8.88753891
-2.74464607 -1.61217344 8.75016594
-2.69051814 -1.59091759 8.89077854
-2.75756550 -1.60545671 8.88753891
-2.67827058 -1.59937239 8.75261497
-2.70565033 -1.58262074 9.02941608
-2.77024794 -1.60043907 9.02593994
-2.63299274 -1.57238781 9.03273487
-2.61880898 -1.58194888 8.89382076
-2.64883614 -1.56361663 9.17062187
-2.56661749 -1.56231296 9.17208385
-2.55077410 -1.57159734 9.03459167
-2.57744288 -1.55543840 9.30364990
-2.47803760 -1.55480611 9.29574776
-2.47392893 -1.56385362 9.17093849
-2.46654058 -1.55057859 9.40965271
-2.35148978 -1.54793155 9.38871384
-2.36859727 -1.55342329 9.28203869
-2.33047080 -1.54891920 9.48412895
-2.20396233 -1.55200100 9.44983292
-2.22723317 -1.54722035 9.36070156
-2.18207431 -1.55863857 9.53248692
-2.05315566 -1.56709361 9.49309635
-2.07437205 -1.55701876 9.41388035
-2.03628516 -1.59530294 9.55251884
-1.90543079 -1.61165988 9.50617409
-1.92336786 -1.58910000 9.44410419
-1.88935041 -1.63903952 9.56034088
-1.75671792 -1.64433372 9.51763153
-1.77362800 -1.62157643 9.46101475
-1.73917592 -1.65942645 9.57148361
-1.72198939 -1.66037452 9.62497807
-1.60737312 -1.65938699 9.52908993
-1.62436223 -1.64820564 9.47496223
-1.59050274 -1.65895259 9.58203220
-1.59050274 -1.65895259 9.58203220
-1.47679508 -1.66053283 9.48882961
-1.46000385 -1.65824103 9.54070568
-1.46000385 -1.65824103 9.54070568
-1.45052159 -1.61703324 9.56982422
-1.33096671 -1.65903127 9.50143242
-1.32223523 -1.61426759 9.52766705
-1.32073379 -1.56025827 9.53114414
-1.19596374 -1.61130416 9.48618317
-1.19442284 -1.55800617 9.48966026
-1.19675398 -1.50411594 9.48057175
-1.07178628 -1.50372064 9.44003582
-1.06870461 -1.55646551 9.45133591
-1.07897699 -1.45389974 9.41581631
-0.95547116 -1.45425498 9.37618923
-0.94808292 -1.50304890 9.40163231
-0.97127485 -1.43691063 9.32174492
-0.83311111 -1.45366228 9.33782578
-0.84871721 -1.43671322 9.28409290
-0.86657536 -1.45310926 9.22139168
-0.72746342 -1.42817903 9.24624348
-0.74480796 -1.45152903 9.18401623
-0.76341677 -1.47389138 9.11633682
-0.62466043 -1.45137119 9.14506054
-0.64307177 -1.47286403 9.07781601
-0.66326094 -1.48534882 9.00401211
-0.52300322 -1.47270596 9.03980637
-0.54271835 -1.48523045 8.96750546
-0.56436944 -1.48609972 8.88757801
-0.42276835 -1.48376870 8.93194771
-0.44382676 -1.48278058 8.85411453
-0.46591240 -1.48195100 8.77130222
-0.32399532 -1.48056817 8.82143879
-0.34576494 -1.48017323 8.73977375
-0.36840370 -1.48013365 8.65206337
