-7.48050000 8.61930000 -1.34330000
-7.17250000 8.64820000 -2.46880000
-6.70260000 8.67640000 -3.55290000
-7.18350000 8.94500000 -2.46820000
-6.71210000 8.95050000 -3.55310000
-6.09530000 9.03640000 -4.56110000
-6.08510000 8.73710000 -4.56100000
-5.34940000 9.08680000 -5.46880000
-5.33680000 8.81560000 -5.46380000
-4.46780000 9.12570000 -6.25500000
-4.46080000 8.88340000 -6.24890000
-3.47570000 9.15830000 -6.90360000
-3.46910000 8.90020000 -6.89140000
-2.39600000 9.16010000 -7.38950000
-2.39270000 8.89100000 -7.37640000
-1.25450000 9.15850000 -7.70740000
-1.25510000 8.89720000 -7.69340000
-0.08010000 9.15510000 -7.83680000
-0.08420000 8.89470000 -7.81830000
1.09930000 9.15430000 -7.76810000
1.09010000 8.88610000 -7.74950000
2.24970000 9.13570000 -7.51920000
2.23680000 8.87760000 -7.50230000
3.34460000 9.14440000 -7.09520000
3.32820000 8.87490000 -7.07590000
4.34050000 9.15420000 -6.48860000
4.32990000 8.90570000 -6.47890000
5.23440000 9.14750000 -5.75000000
5.22710000 8.91720000 -5.74240000
6.01790000 9.16430000 -4.89160000
6.00860000 8.92840000 -4.88490000
6.65570000 9.15100000 -3.92550000
6.64600000 8.94490000 -3.92320000
7.14070000 9.13960000 -2.87190000
7.12920000 8.92420000 -2.87240000
7.47350000 9.12890000 -1.76190000
7.46390000 8.91500000 -1.76390000
7.63220000 9.14110000 -0.62160000
7.62280000 8.92680000 -0.62460000
7.63780000 9.15140000 0.52280000
7.62780000 8.94520000 0.51870000
7.46170000 9.16690000 1.64840000
7.45170000 8.94620000 1.64280000
7.15470000 9.13660000 2.74790000
7.15310000 8.93350000 2.74380000
6.68660000 9.13650000 3.78990000
6.68330000 8.91520000 3.78380000
6.07230000 9.12520000 4.74960000
6.06700000 8.91180000 4.74080000
5.32570000 9.11620000 5.60580000
5.32080000 8.88980000 5.59680000
4.46550000 9.11890000 6.34280000
4.46030000 8.89150000 6.33380000
3.51540000 9.09250000 6.94530000
3.51130000 8.86570000 6.93710000
2.48540000 9.06600000 7.41460000
2.48160000 8.83830000 7.40540000
1.38720000 9.05930000 7.72550000
1.38280000 8.84570000 7.71560000
0.25200000 9.07200000 7.85730000
0.24770000 8.83840000 7.84590000
-0.88810000 9.07010000 7.81240000
-0.89030000 8.82910000 7.79910000
-2.00310000 9.04740000 7.59220000
-2.00160000 8.77730000 7.57780000
-3.07540000 9.03770000 7.20840000
-3.07330000 8.72690000 7.19710000
-4.08570000 8.97960000 6.67590000
-4.08360000 8.67290000 6.66740000
-5.00830000 8.93570000 5.99790000
-5.00590000 8.61660000 5.98900000
-5.81630000 8.91870000 5.18650000
-5.81600000 8.58610000 5.17880000
-6.49420000 8.90310000 4.25810000
-6.49390000 8.57260000 4.24860000
-7.02550000 8.89690000 3.23580000
-7.02400000 8.56000000 3.22510000
-7.39410000 8.90240000 2.13980000
-7.38980000 8.56800000 2.12900000
-7.60010000 8.91260000 0.99610000
-7.59230000 8.58720000 0.98590000
-7.63380000 8.92500000 -0.17550000
-7.62510000 8.60750000 -0.18250000
-7.49230000 8.93680000 -1.34200000
-7.64480000 9.16750000 -0.17060000
-7.50580000 9.18070000 -1.33970000
-7.19620000 9.17820000 -2.47050000
-7.52180000 9.39670000 -1.33840000
-7.21050000 9.39050000 -2.47450000
-6.73910000 9.39430000 -3.55600000
-6.72390000 9.19150000 -3.55460000
-6.12300000 9.45560000 -4.56250000
-6.10630000 9.25320000 -4.56110000
-5.37560000 9.50910000 -5.47970000
-5.36200000 9.30530000 -5.47310000
-4.48660000 9.54130000 -6.27550000
-4.47620000 9.33790000 -6.26390000
-3.48980000 9.56130000 -6.93150000
-3.48230000 9.36120000 -6.91650000
-2.40350000 9.57650000 -7.42130000
-2.39980000 9.37740000 -7.40440000
-1.25620000 9.58050000 -7.74350000
-1.25500000 9.37370000 -7.72280000
-0.07250000 9.56860000 -7.87090000
-0.07640000 9.36640000 -7.85290000
1.11730000 9.55910000 -7.80680000
1.10800000 9.36290000 -7.78660000
2.27670000 9.54280000 -7.55790000
2.26260000 9.34050000 -7.53640000
3.37220000 9.54700000 -7.12260000
3.35880000 9.35090000 -7.11000000
4.36660000 9.55590000 -6.51310000
4.35160000 9.35880000 -6.49890000
5.25670000 9.54760000 -5.77290000
5.24330000 9.34910000 -5.76020000
6.04210000 9.55230000 -4.91230000
6.02860000 9.35810000 -4.90210000
6.68380000 9.54780000 -3.93390000
6.66780000 9.35170000 -3.92880000
7.17280000 9.52640000 -2.87430000
7.15570000 9.33430000 -2.87240000
7.49370000 9.52060000 -1.75900000
7.48230000 9.32570000 -1.76010000
7.65530000 9.53230000 -0.61670000
7.64070000 9.33770000 -0.61910000
7.65760000 9.54780000 0.53040000
7.64630000 9.35180000 0.52640000
7.49040000 9.54460000 1.66150000
7.47440000 9.35660000 1.65460000
7.16950000 9.53000000 2.75940000
7.16090000 9.33600000 2.75330000
6.69850000 9.51950000 3.80360000
6.69150000 9.32840000 3.79660000
6.08320000 9.51350000 4.76830000
6.07760000 9.32190000 4.75910000
5.33540000 9.50960000 5.62460000
5.33050000 9.31520000 5.61480000
4.47400000 9.51000000 6.35750000
4.47010000 9.31460000 6.34990000
3.51970000 9.49240000 6.96090000
3.51770000 9.29390000 6.95340000
2.49150000 9.46820000 7.43390000
2.48800000 9.26980000 7.42360000
1.39750000 9.46240000 7.74770000
1.39190000 9.26350000 7.73550000
0.26410000 9.46770000 7.88320000
0.25780000 9.27270000 7.86970000
-0.88130000 9.46970000 7.84110000
-0.88450000 9.27440000 7.82610000
-2.00790000 9.46260000 7.62260000
-2.00570000 9.25940000 7.60670000
-3.08600000 9.44350000 7.23410000
-3.07970000 9.24250000 7.21960000
-4.09780000 9.40740000 6.69490000
-4.09110000 9.20450000 6.68430000
-5.02210000 9.38840000 6.01850000
-5.01440000 9.18000000 6.00770000
-5.83090000 9.37800000 5.20760000
-5.82070000 9.16500000 5.19520000
-6.50650000 9.35500000 4.27950000
-6.49510000 9.14060000 4.26550000
-7.03620000 9.35080000 3.25940000
-7.02790000 9.13640000 3.24600000
-7.41490000 9.35370000 2.16120000
-7.40230000 9.14200000 2.14960000
-7.62490000 9.36640000 1.01180000
-7.61060000 9.15360000 1.00370000
-7.65900000 9.38370000 -0.16560000
-7.63400000 9.57470000 1.01890000
-7.67040000 9.59170000 -0.16030000
-7.53560000 9.60540000 -1.33710000
-7.63820000 9.78670000 -0.15290000
-7.51100000 9.80150000 -1.32930000
-7.21160000 9.79310000 -2.47170000
-7.22290000 9.59600000 -2.47730000
-6.74930000 9.78610000 -3.55160000
-6.75520000 9.59310000 -3.55960000
-6.12300000 9.84680000 -4.54500000
-6.13970000 9.65470000 -4.56450000
-5.35300000 9.89750000 -5.45000000
-5.38470000 9.70870000 -5.48260000
-4.46230000 9.92690000 -6.24100000
-4.49570000 9.73960000 -6.28520000
-3.46050000 9.93710000 -6.87990000
-3.49130000 9.75740000 -6.93540000
-2.37400000 9.94100000 -7.35450000
-2.40150000 9.77180000 -7.42300000
-1.24000000 9.94860000 -7.69330000
-1.25680000 9.78200000 -7.76130000
-0.06200000 9.93830000 -7.82530000
-0.06860000 9.76820000 -7.88460000
1.12340000 9.92620000 -7.76460000
1.12480000 9.75540000 -7.81950000
2.27660000 9.91450000 -7.51200000
2.28740000 9.74190000 -7.56810000
3.36190000 9.90590000 -7.07550000
3.38310000 9.74130000 -7.13010000
4.35630000 9.91330000 -6.47490000
4.38650000 9.74980000 -6.52990000
5.22860000 9.91840000 -5.72200000
5.27060000 9.74420000 -5.77890000
6.00660000 9.93160000 -4.86990000
6.05170000 9.74840000 -4.91460000
6.65040000 9.93150000 -3.90130000
6.69400000 9.74390000 -3.93520000
7.14510000 9.89830000 -2.85310000
7.18480000 9.71720000 -2.87430000
7.47560000 9.89690000 -1.74650000
7.50610000 9.71260000 -1.75820000
7.64650000 9.90170000 -0.60770000
7.67040000 9.72460000 -0.61360000
7.61660000 9.91550000 0.53420000
7.66390000 9.74070000 0.53420000
7.44070000 9.90100000 1.65800000
7.49560000 9.73160000 1.66570000
7.13600000 9.89720000 2.75330000
7.17750000 9.71930000 2.76540000
6.66240000 9.87580000 3.79140000
6.70360000 9.70570000 3.80950000
6.04590000 9.87050000 4.75110000
6.08540000 9.70270000 4.77500000
5.31120000 9.87290000 5.60350000
5.34020000 9.70070000 5.63240000
4.45110000 9.88080000 6.33120000
4.47650000 9.70340000 6.36320000
3.50660000 9.87280000 6.93950000
3.52620000 9.68720000 6.97710000
2.48470000 9.85020000 7.41220000
2.49680000 9.66240000 7.44770000
1.39840000 9.84360000 7.71320000
1.40220000 9.65650000 7.75300000
0.27510000 9.83790000 7.83280000
0.27040000 9.65770000 7.88460000
-0.86250000 9.84100000 7.79070000
-0.87560000 9.66240000 7.84580000
-1.98990000 9.84470000 7.59120000
-2.00710000 9.66000000 7.63100000
-3.07550000 9.83260000 7.22220000
-3.09010000 9.64100000 7.24700000
-4.08380000 9.80060000 6.68260000
-4.10140000 9.60740000 6.70410000
-5.00440000 9.78530000 6.00690000
-5.02580000 9.59080000 6.02680000
-5.80890000 9.77230000 5.20000000
-5.83610000 9.58080000 5.21690000
-6.49070000 9.76000000 4.28510000
-6.51580000 9.56230000 4.29200000
-7.02990000 9.75730000 3.27150000
-7.04660000 9.55800000 3.27280000
-7.40130000 9.75440000 2.17190000
-7.42450000 9.55820000 2.17150000
-7.60450000 9.76880000 1.02100000
-7.30150000 9.91920000 2.15140000
-7.49970000 9.93120000 1.01460000
-7.52930000 9.94670000 -0.14630000
-7.34160000 10.03380000 1.00360000
-7.37350000 10.05620000 -0.13260000
-7.24630000 10.07000000 -1.27200000
-7.40190000 9.96060000 -1.30660000
-6.95590000 10.05420000 -2.38310000
-7.11420000 9.95740000 -2.43940000
-6.50340000 9.99150000 -3.41540000
-6.66000000 9.94020000 -3.49970000
-5.89170000 10.05590000 -4.36360000
-6.03200000 9.99710000 -4.47280000
-5.12960000 10.10240000 -5.22690000
-5.26030000 10.03590000 -5.35640000
-4.26460000 10.08720000 -5.97900000
-4.37250000 10.05200000 -6.12310000
-3.30160000 10.07000000 -6.59620000
-3.38670000 10.05750000 -6.75240000
-2.25770000 10.05090000 -7.04910000
-2.31790000 10.05500000 -7.21410000
-1.16940000 10.03430000 -7.35960000
-1.20780000 10.04830000 -7.53440000
-0.04770000 10.02980000 -7.48280000
-0.05550000 10.03980000 -7.66160000
1.08550000 10.02050000 -7.42720000
1.10450000 10.02850000 -7.60210000
2.18920000 10.01840000 -7.17950000
2.23720000 10.01830000 -7.34990000
3.23200000 9.99510000 -6.77810000
3.29660000 10.00690000 -6.92970000
4.17190000 9.99120000 -6.20170000
4.26700000 10.01550000 -6.34360000
5.00560000 9.97920000 -5.47160000
5.12310000 10.01780000 -5.60490000
5.73160000 9.98330000 -4.63890000
5.87660000 10.01300000 -4.76010000
6.33620000 9.98990000 -3.70350000
6.49860000 10.01430000 -3.80610000
6.83690000 9.94110000 -2.71360000
6.99340000 9.98280000 -2.78490000
7.16700000 9.94840000 -1.66310000
7.33180000 10.00590000 -1.70820000
7.32430000 9.94300000 -0.57820000
7.48730000 9.99210000 -0.59310000
7.27790000 9.97510000 0.51270000
7.44650000 10.00040000 0.52300000
7.12690000 9.95610000 1.59410000
7.28750000 9.99310000 1.62750000
6.81870000 9.97150000 2.63860000
6.97840000 9.97790000 2.69710000
6.37900000 9.96550000 3.63970000
6.52350000 9.96600000 3.71690000
5.79310000 9.97720000 4.55940000
5.92360000 9.97090000 4.65550000
5.08620000 9.97230000 5.37210000
5.20180000 9.97300000 5.49410000
4.25490000 10.00110000 6.04610000
4.35710000 9.97540000 6.19510000
3.34500000 9.99410000 6.62450000
3.42930000 9.96780000 6.79210000
2.37010000 9.95160000 7.07620000
2.43000000 9.93850000 7.25600000
1.33870000 9.94830000 7.36900000
1.37120000 9.94580000 7.55850000
0.27190000 9.95480000 7.50580000
0.27420000 9.95560000 7.69170000
-0.81560000 9.97300000 7.46680000
-0.84280000 9.95640000 7.65110000
-1.89390000 9.98400000 7.27650000
-1.94740000 9.96410000 7.45880000
-2.93470000 9.99370000 6.93420000
-3.01700000 9.96920000 7.10540000
-3.91510000 9.99860000 6.43950000
-4.01720000 9.95020000 6.58890000
-4.80570000 10.00360000 5.79630000
-4.92790000 9.93830000 5.92480000
-5.57940000 9.99960000 5.01890000
-5.71790000 9.92470000 5.12570000
-6.24070000 10.00060000 4.13930000
-6.39040000 9.91730000 4.22660000
-6.77590000 10.00690000 3.17220000
-6.93630000 9.92430000 3.23890000
-7.14280000 10.01920000 2.12180000
-6.61930000 9.94240000 3.11690000
-6.97850000 9.96130000 2.08350000
-7.17650000 9.97830000 0.99320000
-6.86490000 9.80620000 2.05610000
-7.05960000 9.82680000 0.98270000
-7.10180000 9.82780000 -0.11610000
-7.20970000 9.98520000 -0.12330000
-6.97420000 9.82560000 -1.21340000
-7.08260000 9.98470000 -1.23720000
-6.68860000 9.81340000 -2.27760000
-6.79260000 9.97300000 -2.32150000
-6.25270000 9.77810000 -3.28350000
-6.35420000 9.92340000 -3.33480000
-5.67460000 9.79700000 -4.21500000
-5.75970000 9.96200000 -4.27480000
-4.95410000 9.80380000 -5.05870000
-5.01730000 9.98350000 -5.11730000
-4.11550000 9.79520000 -5.78870000
-4.16900000 9.97410000 -5.85630000
-3.19720000 9.77210000 -6.40880000
-3.23240000 9.95090000 -6.47180000
-2.18900000 9.74360000 -6.85910000
-2.21260000 9.92490000 -6.92440000
-1.12610000 9.73890000 -7.13800000
-1.14170000 9.91280000 -7.21980000
-0.03620000 9.73000000 -7.24760000
-0.04150000 9.90560000 -7.33800000
1.06070000 9.71480000 -7.18590000
1.07140000 9.88530000 -7.28570000
2.13210000 9.70710000 -6.96160000
2.15230000 9.88600000 -7.04310000
3.14410000 9.69020000 -6.57500000
3.17880000 9.85700000 -6.66090000
4.05620000 9.68430000 -6.01190000
4.10230000 9.85480000 -6.08940000
4.86050000 9.67610000 -5.30300000
4.91400000 9.85000000 -5.36970000
5.59040000 9.66270000 -4.49930000
5.63720000 9.84350000 -4.55280000
6.20390000 9.64260000 -3.59870000
6.23950000 9.83320000 -3.63410000
6.73670000 9.59730000 -2.64950000
6.75050000 9.78560000 -2.66660000
7.10070000 9.58420000 -1.62740000
7.10330000 9.77370000 -1.63770000
7.25600000 9.58560000 -0.55980000
7.26160000 9.77150000 -0.56730000
7.21670000 9.60730000 0.51680000
7.21240000 9.79800000 0.51160000
7.06850000 9.60760000 1.58710000
7.05910000 9.79190000 1.58200000
6.77960000 9.61630000 2.62700000
6.76110000 9.80060000 2.61890000
6.33440000 9.62270000 3.61090000
6.32100000 9.80330000 3.60580000
5.73090000 9.62600000 4.50190000
5.73330000 9.81200000 4.50940000
5.01430000 9.63390000 5.28440000
5.02270000 9.82030000 5.29950000
4.17600000 9.66570000 5.91680000
4.18950000 9.85650000 5.94570000
3.26180000 9.69160000 6.43270000
3.28320000 9.87280000 6.49090000
2.29780000 9.68480000 6.83270000
2.32120000 9.85520000 6.92010000
1.29690000 9.67660000 7.11060000
1.31130000 9.84660000 7.20720000
0.26770000 9.68510000 7.24660000
0.26930000 9.85480000 7.34220000
-0.77760000 9.71510000 7.20670000
-0.78930000 9.88620000 7.29950000
-1.81340000 9.73360000 7.01750000
-1.84470000 9.90180000 7.11170000
-2.81770000 9.73960000 6.68960000
-2.86130000 9.90870000 6.77900000
-3.76690000 9.73820000 6.22600000
-3.82110000 9.91430000 6.29780000
-4.64050000 9.73620000 5.62300000
-4.70390000 9.91130000 5.68740000
-5.38300000 9.74270000 4.86270000
-5.45770000 9.91640000 4.92160000
-6.01790000 9.75190000 4.01390000
-6.09970000 9.92470000 4.06010000
-6.52270000 9.77550000 3.07700000
-5.96980000 9.55510000 3.98940000
-6.46080000 9.58470000 3.05510000
-6.79130000 9.62100000 2.04080000
-6.41680000 9.38220000 3.03940000
-6.75790000 9.41530000 2.03530000
-6.95390000 9.43670000 0.97900000
-6.98950000 9.64170000 0.97910000
-6.99260000 9.44900000 -0.10470000
-7.03490000 9.64450000 -0.11030000
-6.87050000 9.44090000 -1.18290000
-6.90630000 9.64120000 -1.19580000
-6.59480000 9.42590000 -2.23180000
-6.62530000 9.62800000 -2.24850000
-6.15930000 9.39620000 -3.23320000
-6.19350000 9.59540000 -3.25240000
-5.60810000 9.40080000 -4.17750000
-5.63290000 9.60410000 -4.19050000
-4.89450000 9.39860000 -5.00690000
-4.91560000 9.60750000 -5.02420000
-4.07770000 9.37700000 -5.74100000
-4.09010000 9.59270000 -5.75650000
-3.16950000 9.37190000 -6.35740000
-3.18050000 9.57680000 -6.37790000
-2.16360000 9.34350000 -6.78720000
-2.17440000 9.54910000 -6.81780000
-1.11150000 9.34100000 -7.06660000
-1.11750000 9.54470000 -7.09500000
-0.03070000 9.32960000 -7.17040000
-0.03340000 9.53370000 -7.19600000
1.05220000 9.31020000 -7.09670000
1.05550000 9.51800000 -7.13190000
2.10700000 9.32040000 -6.86150000
2.11780000 9.51640000 -6.90480000
3.10240000 9.32270000 -6.46570000
3.11870000 9.51080000 -6.51130000
4.01830000 9.30620000 -5.92400000
4.03040000 9.49870000 -5.96010000
4.83190000 9.28890000 -5.23020000
4.83590000 9.48640000 -5.25860000
5.59170000 9.26700000 -4.45690000
5.57680000 9.46950000 -4.46870000
6.24490000 9.24550000 -3.59230000
6.21160000 9.44450000 -3.58820000
6.79210000 9.20450000 -2.64850000
6.75630000 9.40360000 -2.64550000
7.15730000 9.19810000 -1.62210000
7.12300000 9.39250000 -1.62340000
7.31550000 9.20380000 -0.54860000
7.27850000 9.39610000 -0.55390000
7.29300000 9.22640000 0.53400000
7.24930000 9.41710000 0.52490000
7.15160000 9.23480000 1.61080000
7.10540000 9.42250000 1.59800000
6.86350000 9.24520000 2.65900000
6.81930000 9.43190000 2.64210000
6.41380000 9.25960000 3.64900000
6.37120000 9.44290000 3.62840000
5.78170000 9.24930000 4.52700000
5.75260000 9.43930000 4.51210000
5.03650000 9.24770000 5.29200000
5.02140000 9.44280000 5.28420000
4.19430000 9.26990000 5.92540000
4.18120000 9.47010000 5.91540000
3.28030000 9.29600000 6.43510000
3.26560000 9.49610000 6.42310000
2.31180000 9.29060000 6.82330000
2.29920000 9.48910000 6.81020000
1.30600000 9.28000000 7.09470000
1.29690000 9.48060000 7.08060000
0.27350000 9.28760000 7.23330000
0.26960000 9.48860000 7.21770000
-0.77240000 9.31080000 7.21350000
-0.77480000 9.51480000 7.19030000
-1.79600000 9.32400000 7.00950000
-1.80020000 9.53270000 6.99460000
-2.77920000 9.33770000 6.65040000
-2.79270000 9.54290000 6.65420000
-3.71270000 9.33290000 6.17750000
-3.73630000 9.54000000 6.19470000
-4.56550000 9.33040000 5.56480000
-4.60000000 9.53870000 5.58950000
-5.29950000 9.33630000 4.81060000
-5.33520000 9.54520000 4.83100000
-5.93050000 9.34830000 3.97180000
-5.26220000 9.12040000 4.79060000
-5.88480000 9.13440000 3.94970000
-6.36870000 9.17000000 3.02120000
-5.83840000 8.86510000 3.93060000
-6.32810000 8.89290000 3.00820000
-6.71210000 8.92860000 2.02930000
-6.73530000 9.20000000 2.03220000
-6.90670000 8.95020000 0.98110000
-6.92900000 9.22370000 0.98000000
-6.93670000 8.98730000 -0.09470000
-6.96200000 9.24620000 -0.09980000
-6.82100000 8.98400000 -1.16420000
-6.84500000 9.23130000 -1.17440000
-6.54830000 8.97320000 -2.20440000
-6.57220000 9.21640000 -2.21670000
-6.10990000 8.94000000 -3.20450000
-6.13250000 9.18620000 -3.21780000
-5.55570000 8.91670000 -4.14800000
-5.58210000 9.18610000 -4.16500000
-4.86170000 8.90400000 -4.98360000
-4.87720000 9.17270000 -4.99510000
-4.05350000 8.87520000 -5.71140000
-4.06740000 9.15040000 -5.72870000
-3.14050000 8.82680000 -6.30530000
-3.15800000 9.14490000 -6.33640000
-2.14570000 8.80940000 -6.74290000
-2.15350000 9.11200000 -6.76080000
-1.09910000 8.79580000 -7.02160000
-1.10540000 9.11430000 -7.04290000
-0.02280000 8.80070000 -7.12250000
-0.02800000 9.10410000 -7.14760000
1.05300000 8.82060000 -7.04530000
1.05130000 9.08960000 -7.06880000
2.09840000 8.84070000 -6.79780000
2.09980000 9.11970000 -6.83040000
3.09260000 8.87100000 -6.39780000
3.09400000 9.13160000 -6.43260000
4.02030000 8.87450000 -5.86300000
4.01500000 9.10540000 -5.89190000
4.86490000 8.88010000 -5.19070000
4.83960000 9.08830000 -5.20540000
5.67250000 8.83070000 -4.46320000
5.62360000 9.06180000 -4.45480000
6.35920000 8.80280000 -3.62350000
6.29200000 9.04530000 -3.60400000
6.88940000 8.77750000 -2.66540000
6.83780000 8.99930000 -2.65700000
7.24020000 8.76940000 -1.62090000
7.19600000 9.00000000 -1.62180000
7.40150000 8.78030000 -0.53810000
7.35600000 9.00680000 -0.54360000
7.39500000 8.77660000 0.55550000
7.34000000 9.02890000 0.54350000
7.25130000 8.79250000 1.63910000
7.19930000 9.03850000 1.62350000
6.94900000 8.84070000 2.69140000
6.90780000 9.05310000 2.67520000
6.49340000 8.87910000 3.68810000
6.45640000 9.07210000 3.66970000
5.84290000 8.83180000 4.55970000
5.81100000 9.05640000 4.54180000
5.07690000 8.82660000 5.31660000
5.05480000 9.05020000 5.30290000
4.23170000 8.85000000 5.96520000
4.21230000 9.06300000 5.94420000
3.32260000 8.88700000 6.49000000
3.30120000 9.09550000 6.46010000
2.35060000 8.87600000 6.88800000
2.33060000 9.09180000 6.85210000
1.33430000 8.84750000 7.16910000
1.31850000 9.07840000 7.12740000
0.28960000 8.84460000 7.31180000
0.27990000 9.08030000 7.26830000
-0.76460000 8.86650000 7.28700000
-0.77010000 9.10170000 7.24810000
-1.78570000 8.86430000 7.06280000
-1.79210000 9.11020000 7.03550000
-2.75870000 8.87470000 6.67570000
-2.76950000 9.12650000 6.66060000
-3.67050000 8.86190000 6.16350000
-3.69120000 9.11720000 6.16600000
-4.49390000 8.86500000 5.51880000
-4.52880000 9.11720000 5.53830000
-5.22410000 8.86450000 4.77280000
-4.46320000 8.51110000 5.51500000
-5.18980000 8.50330000 4.76650000
-5.79870000 8.49740000 3.92070000
-5.16240000 8.08090000 4.77270000
-5.76770000 8.07150000 3.91970000
-6.27450000 8.06000000 3.00440000
-6.29530000 8.50710000 3.00270000
-6.65620000 8.06180000 2.02760000
-6.68160000 8.51900000 2.02770000
-6.83600000 8.08580000 0.98390000
-6.87520000 8.55810000 0.98340000
-6.86810000 8.10270000 -0.08020000
-6.90610000 8.59970000 -0.08770000
-6.75800000 8.11370000 -1.14190000
-6.78880000 8.60980000 -1.15270000
-6.49160000 8.09920000 -2.17970000
-6.51880000 8.58350000 -2.19140000
-6.07020000 8.08660000 -3.17770000
-6.08870000 8.55420000 -3.19070000
-5.50590000 8.07340000 -4.10560000
-5.52940000 8.53510000 -4.12760000
-4.82370000 8.06480000 -4.94450000
-4.84510000 8.51140000 -4.96750000
-4.01880000 8.03430000 -5.66300000
-4.03640000 8.48560000 -5.68900000
-3.12220000 8.02240000 -6.27120000
-3.12630000 8.44370000 -6.27990000
-2.14220000 8.00530000 -6.73460000
-2.14180000 8.43900000 -6.73530000
-1.09070000 7.99290000 -7.00340000
-1.09500000 8.42330000 -7.01290000
-0.00750000 7.99450000 -7.09210000
-0.01570000 8.42060000 -7.10460000
1.07550000 8.00320000 -7.01470000
1.06140000 8.43590000 -7.02780000
2.12540000 8.01110000 -6.74480000
2.10780000 8.45270000 -6.77250000
3.12310000 8.04870000 -6.31630000
3.10230000 8.50750000 -6.36020000
4.08240000 8.09530000 -5.80620000
4.04080000 8.56390000 -5.83560000
5.00200000 8.14410000 -5.21820000
4.91940000 8.56140000 -5.19320000
5.84140000 8.18970000 -4.52830000
5.75180000 8.53580000 -4.49160000
6.50850000 8.23180000 -3.66490000
6.43790000 8.52640000 -3.64770000
6.99410000 8.23140000 -2.66860000
6.94770000 8.51490000 -2.67100000
7.32370000 8.20260000 -1.60980000
7.28400000 8.51300000 -1.61820000
7.48060000 8.19640000 -0.51810000
7.44420000 8.52930000 -0.53060000
7.46400000 8.12420000 0.58350000
7.44180000 8.48700000 0.56830000
7.31320000 8.13280000 1.67110000
7.29450000 8.49200000 1.65590000
7.00390000 8.23260000 2.72470000
6.98530000 8.57850000 2.70890000
6.53670000 8.29490000 3.71540000
6.52360000 8.63160000 3.70510000
5.88980000 8.28910000 4.59000000
5.86950000 8.58410000 4.57580000
5.10960000 8.28150000 5.33730000
5.09630000 8.57840000 5.32970000
4.26630000 8.28100000 5.99640000
4.25140000 8.59580000 5.98500000
3.35840000 8.28210000 6.53750000
3.34330000 8.62320000 6.51870000
2.38510000 8.24290000 6.94370000
2.37050000 8.60560000 6.92310000
1.36110000 8.18470000 7.20150000
1.35110000 8.53270000 7.20340000
0.31680000 8.11460000 7.34670000
0.30310000 8.51350000 7.34660000
-0.72690000 8.07380000 7.31700000
-0.74820000 8.49490000 7.31680000
-1.74010000 8.08850000 7.07710000
-1.76920000 8.50870000 7.08370000
-2.70970000 8.09350000 6.69270000
-2.73870000 8.50760000 6.68930000
-3.62380000 8.09750000 6.18350000
-3.64540000 8.51130000 6.16670000
-4.44520000 8.09320000 5.53370000
-3.57310000 7.58410000 6.17190000
-4.41510000 7.57950000 5.55120000
-5.12420000 7.58170000 4.77900000
-4.30250000 6.99490000 5.48250000
-5.01390000 6.99000000 4.73240000
-5.59420000 6.98610000 3.86590000
-5.71850000 7.59020000 3.91220000
-6.12510000 6.97450000 2.96440000
-6.24030000 7.55990000 3.00190000
-6.56410000 6.94610000 2.01140000
-6.63400000 7.53810000 2.02690000
-6.81000000 6.95900000 0.98560000
-6.82430000 7.55530000 0.98510000
-6.85080000 6.96280000 -0.07260000
-6.85530000 7.56310000 -0.07600000
-6.71300000 6.97090000 -1.12630000
-6.74340000 7.56950000 -1.13510000
-6.43260000 6.97240000 -2.15620000
-6.47350000 7.56340000 -2.17160000
-6.02630000 6.97750000 -3.14690000
-6.05560000 7.56650000 -3.16590000
-5.47160000 6.97260000 -4.06600000
-5.48890000 7.56040000 -4.08760000
-4.78770000 6.95490000 -4.89170000
-4.80820000 7.53790000 -4.92180000
-3.98190000 6.94820000 -5.59730000
-4.01100000 7.53140000 -5.64650000
-3.07640000 6.93330000 -6.17150000
-3.11340000 7.50560000 -6.24760000
-2.10130000 6.91930000 -6.60810000
-2.13210000 7.49230000 -6.70040000
-1.05360000 6.91770000 -6.82520000
-1.07650000 7.48290000 -6.93720000
0.01490000 6.89310000 -6.90800000
0.00320000 7.48130000 -7.02600000
1.08690000 6.89440000 -6.80810000
1.08610000 7.48310000 -6.95410000
2.13670000 6.90240000 -6.54380000
2.13720000 7.51580000 -6.68000000
3.14990000 6.94340000 -6.14450000
3.13970000 7.53300000 -6.24450000
4.15560000 6.98830000 -5.72410000
4.13530000 7.58440000 -5.79150000
5.11920000 7.03910000 -5.21540000
5.08970000 7.65920000 -5.25520000
5.92190000 7.06490000 -4.48170000
5.92820000 7.73180000 -4.55400000
6.49970000 7.08500000 -3.56090000
6.56060000 7.76350000 -3.65190000
6.94000000 7.07840000 -2.56840000
7.01740000 7.76200000 -2.64330000
7.24960000 7.06320000 -1.52880000
7.33530000 7.74410000 -1.58460000
7.38140000 7.04790000 -0.45550000
7.47660000 7.71180000 -0.49430000
7.29910000 7.06610000 0.61680000
7.42460000 7.66480000 0.59990000
7.13330000 7.07380000 1.67640000
7.27020000 7.68310000 1.67900000
6.84040000 7.06330000 2.70580000
6.96260000 7.75490000 2.72400000
6.44880000 7.05060000 3.69780000
6.50740000 7.76800000 3.70990000
5.83050000 7.07130000 4.55940000
5.89160000 7.79630000 4.59500000
5.08150000 7.07940000 5.30830000
5.11280000 7.80800000 5.33520000
4.25420000 7.08010000 5.96100000
4.27600000 7.78880000 5.99970000
3.32980000 7.05580000 6.45220000
3.36000000 7.76200000 6.52680000
2.36070000 7.02690000 6.83820000
2.38740000 7.73050000 6.92870000
1.36220000 7.01830000 7.11940000
1.36310000 7.66640000 7.16400000
0.34110000 6.99530000 7.30460000
0.32800000 7.59880000 7.32410000
-0.68140000 6.99380000 7.31100000
-0.70360000 7.57680000 7.31030000
-1.67140000 6.99150000 7.05910000
-1.70440000 7.57360000 7.06520000
-2.60510000 7.00500000 6.63670000
-2.65890000 7.57810000 6.66880000
-3.48460000 7.00920000 6.10990000
-2.55180000 6.35100000 6.60630000
-3.41460000 6.34000000 6.07770000
-4.18550000 6.32040000 5.42070000
-3.37050000 5.58670000 6.07880000
-4.10890000 5.57840000 5.39760000
-4.76320000 5.56440000 4.62650000
-4.86970000 6.30270000 4.66630000
-5.32080000 5.56070000 3.76980000
-5.44090000 6.30090000 3.80590000
-5.80750000 5.56510000 2.85890000
-5.95610000 6.30010000 2.90400000
-6.31940000 5.56440000 1.96100000
-6.44670000 6.29140000 1.98380000
-6.59700000 5.55600000 0.96950000
-6.72000000 6.29210000 0.97850000
-6.66230000 5.56550000 -0.06250000
-6.77570000 6.29530000 -0.06900000
-6.56400000 5.57610000 -1.09820000
-6.63390000 6.30690000 -1.11140000
-6.31570000 5.59030000 -2.11590000
-6.35710000 6.32000000 -2.13030000
-5.95700000 5.59960000 -3.10430000
-5.96270000 6.32310000 -3.11280000
-5.42570000 5.59470000 -4.01310000
-5.43510000 6.31990000 -4.03090000
-4.68750000 5.58940000 -4.76990000
-4.72270000 6.30930000 -4.81550000
-3.93260000 5.56990000 -5.50960000
-3.93820000 6.29500000 -5.52920000
-3.03020000 5.55200000 -6.06350000
-3.04260000 6.28680000 -6.09860000
-2.05640000 5.53290000 -6.47860000
-2.07090000 6.27050000 -6.51730000
-1.01680000 5.51820000 -6.70430000
-1.03230000 6.25950000 -6.73730000
0.04400000 5.50770000 -6.79370000
0.02800000 6.24610000 -6.83910000
1.10330000 5.49760000 -6.61280000
1.08550000 6.23600000 -6.66210000
2.15030000 5.48790000 -6.34380000
2.13240000 6.23790000 -6.40010000
3.18550000 5.48480000 -6.03300000
3.15710000 6.25540000 -6.05010000
4.15940000 5.48300000 -5.58590000
4.14610000 6.27320000 -5.62380000
5.03040000 5.48330000 -4.97340000
5.04080000 6.28450000 -5.04470000
5.82300000 5.48030000 -4.27550000
5.82280000 6.29420000 -4.33170000
6.43820000 5.47930000 -3.42630000
6.41830000 6.29700000 -3.46040000
6.78440000 5.48060000 -2.42880000
6.83340000 6.29300000 -2.48450000
7.02940000 5.48260000 -1.40480000
7.12940000 6.28490000 -1.46270000
7.15430000 5.49610000 -0.36670000
7.25800000 6.29260000 -0.41340000
7.08560000 5.52920000 0.67360000
7.14880000 6.32710000 0.63620000
6.95040000 5.53080000 1.70660000
6.98570000 6.32870000 1.67950000
6.69640000 5.52040000 2.71040000
6.74860000 6.31150000 2.70160000
6.30210000 5.51060000 3.65950000
6.38530000 6.29910000 3.68290000
5.65400000 5.51200000 4.45390000
5.74740000 6.30240000 4.50910000
4.95330000 5.51040000 5.19560000
5.01500000 6.30440000 5.24490000
4.13980000 5.51070000 5.80770000
4.19610000 6.30220000 5.87690000
3.25670000 5.51350000 6.31030000
3.28910000 6.29690000 6.36480000
2.32220000 5.52330000 6.70320000
2.33580000 6.29310000 6.75240000
1.35590000 5.54280000 7.01480000
1.35360000 6.30430000 7.05670000
0.36570000 5.57020000 7.21430000
0.35500000 6.31770000 7.27610000
-0.63730000 5.59280000 7.25010000
-0.66150000 6.33290000 7.30750000
-1.60290000 5.60630000 7.01210000
-1.63750000 6.33980000 7.04390000
-2.51610000 5.59570000 6.59480000
-1.57300000 4.78960000 6.96390000
-2.49290000 4.79190000 6.59010000
-3.36260000 4.78500000 6.11530000
-2.48150000 3.95980000 6.59960000
-3.36010000 3.96060000 6.15110000
-4.07090000 3.96130000 5.44640000
-4.08190000 4.78010000 5.41780000
-4.71100000 3.96620000 4.66340000
-4.72120000 4.77840000 4.63560000
-5.27800000 3.97520000 3.81590000
-5.29270000 4.77750000 3.78930000
-5.75560000 3.97790000 2.90890000
-5.74580000 4.78100000 2.86540000
-6.21450000 3.97280000 1.99100000
-6.25580000 4.77990000 1.96960000
-6.43910000 3.96930000 0.98830000
-6.51960000 4.77340000 0.97550000
-6.53610000 3.97120000 -0.04110000
-6.59410000 4.77890000 -0.05490000
-6.52890000 3.97440000 -1.08170000
-6.54510000 4.78690000 -1.09280000
-6.29830000 3.98030000 -2.10250000
-6.31590000 4.79670000 -2.11430000
-5.98890000 3.98240000 -3.10710000
-5.99890000 4.80460000 -3.11850000
-5.46260000 3.98040000 -4.02060000
-5.44750000 4.80390000 -4.01940000
-4.74520000 3.97210000 -4.80070000
-4.71220000 4.79870000 -4.78210000
-3.95740000 3.95660000 -5.51190000
-3.94970000 4.78080000 -5.51760000
-3.00150000 3.93550000 -5.98390000
-3.02410000 4.75620000 -6.03900000
-2.02630000 3.91600000 -6.42020000
-2.04420000 4.73690000 -6.45250000
-0.98900000 3.90480000 -6.68930000
-1.00450000 4.72370000 -6.70100000
0.08240000 3.89460000 -6.76800000
0.06410000 4.71220000 -6.77980000
1.15460000 3.88420000 -6.63070000
1.13160000 4.70180000 -6.62700000
2.20790000 3.87050000 -6.38270000
2.18590000 4.69040000 -6.37350000
3.21190000 3.85450000 -6.00110000
3.21420000 4.67690000 -6.04660000
4.13520000 3.84420000 -5.45800000
4.15940000 4.66720000 -5.53870000
5.01380000 3.83190000 -4.86850000
5.03140000 4.66100000 -4.93000000
5.78550000 3.81850000 -4.16440000
5.81380000 4.65290000 -4.22430000
6.32890000 3.81730000 -3.28750000
6.40210000 4.64860000 -3.36700000
6.64140000 3.82590000 -2.30020000
6.71690000 4.65580000 -2.36880000
6.85260000 3.83230000 -1.29090000
6.91830000 4.66330000 -1.34450000
6.94110000 3.84440000 -0.26620000
7.05110000 4.67280000 -0.31570000
6.95070000 3.85580000 0.75270000
7.03940000 4.69300000 0.71830000
6.82170000 3.86300000 1.75320000
6.92390000 4.70050000 1.73580000
6.56800000 3.86520000 2.71970000
6.64090000 4.69890000 2.71730000
6.13610000 3.86480000 3.61760000
6.21350000 4.69470000 3.63380000
5.52910000 3.86660000 4.41060000
5.57960000 4.69670000 4.42140000
4.89320000 3.86720000 5.17860000
4.91680000 4.69550000 5.18060000
4.10460000 3.87520000 5.78840000
4.10300000 4.70000000 5.76850000
3.23910000 3.88340000 6.28020000
3.24540000 4.70640000 6.29320000
2.31760000 3.89540000 6.65540000
2.31860000 4.71960000 6.67930000
1.36190000 3.91220000 6.92210000
1.35980000 4.74000000 6.97110000
0.38740000 3.93020000 7.09060000
0.37740000 4.76430000 7.14410000
-0.59570000 3.94510000 7.14110000
-0.61360000 4.78020000 7.17840000
-1.55460000 3.95590000 6.94380000
-0.58130000 3.10120000 7.10650000
-1.53610000 3.11360000 6.92280000
-2.46500000 3.11900000 6.60110000
-1.52660000 2.26760000 6.94130000
-2.45170000 2.27590000 6.62390000
-3.31450000 2.28440000 6.15490000
-3.34630000 3.12380000 6.16640000
-4.03440000 2.30400000 5.46300000
-4.05080000 3.13360000 5.45730000
-4.70350000 2.32530000 4.70850000
-4.70450000 3.14730000 4.68740000
-5.32220000 2.34370000 3.90300000
-5.29200000 3.16130000 3.85570000
-5.82230000 2.34830000 3.01480000
-5.79480000 3.16550000 2.96570000
-6.20080000 2.34150000 2.06020000
-6.20400000 3.15900000 2.02400000
-6.38940000 2.33680000 1.04560000
-6.40990000 3.15460000 1.01510000
-6.48200000 2.33490000 0.01130000
-6.49490000 3.15480000 -0.01850000
-6.46020000 2.32700000 -1.03040000
-6.49130000 3.15210000 -1.05980000
-6.26880000 2.32120000 -2.05980000
-6.27760000 3.15270000 -2.08320000
-5.96760000 2.31290000 -3.06740000
-5.97450000 3.14960000 -3.08880000
-5.46760000 2.30320000 -3.99720000
-5.46740000 3.14430000 -4.01260000
-4.77170000 2.29210000 -4.79970000
-4.76050000 3.13480000 -4.80210000
-3.96280000 2.27830000 -5.49420000
-3.95660000 3.12020000 -5.49580000
-2.99530000 2.26140000 -5.96240000
-2.99040000 3.10140000 -5.95370000
-1.99500000 2.24650000 -6.36570000
-2.00800000 3.08400000 -6.38320000
-0.95320000 2.23930000 -6.65080000
-0.96990000 3.07470000 -6.66020000
0.11510000 2.23240000 -6.75790000
0.09940000 3.06640000 -6.76230000
1.18170000 2.22140000 -6.59620000
1.16850000 3.05630000 -6.61040000
2.22100000 2.20850000 -6.31660000
2.21290000 3.04200000 -6.34550000
3.21180000 2.19190000 -5.90420000
3.20640000 3.02620000 -5.94170000
4.15490000 2.17430000 -5.40310000
4.14350000 3.01120000 -5.42930000
5.01160000 2.15600000 -4.79220000
5.01190000 2.99540000 -4.83260000
5.71950000 2.14600000 -4.02770000
5.74180000 2.98440000 -4.09090000
6.25840000 2.14740000 -3.15440000
6.27130000 2.98390000 -3.21300000
6.58790000 2.15390000 -2.19000000
6.58850000 2.99160000 -2.23730000
6.77030000 2.16090000 -1.18900000
6.79040000 2.99860000 -1.23600000
6.89140000 2.16970000 -0.18460000
6.88800000 3.00880000 -0.22190000
6.89320000 2.17470000 0.81770000
6.90200000 3.01570000 0.78630000
6.77000000 2.17530000 1.80610000
6.78020000 3.02000000 1.77890000
6.54890000 2.17750000 2.76470000
6.54150000 3.02390000 2.73840000
6.08410000 2.18390000 3.62410000
6.09000000 3.02700000 3.61390000
5.45060000 2.19020000 4.37690000
5.47860000 3.02980000 4.39100000
4.82280000 2.19500000 5.13430000
4.85920000 3.03250000 5.16290000
4.07590000 2.20250000 5.77000000
4.09910000 3.04110000 5.79490000
3.21660000 2.21290000 6.23910000
3.23140000 3.05060000 6.26670000
2.30610000 2.22240000 6.60190000
2.31640000 3.06100000 6.63900000
1.36020000 2.23310000 6.85250000
1.36280000 3.07420000 6.88510000
0.39940000 2.24370000 7.03000000
0.39500000 3.08830000 7.05110000
-0.57190000 2.25650000 7.10260000
0.40350000 1.40000000 7.02110000
-0.56510000 1.41140000 7.13180000
-1.52310000 1.42250000 6.99350000
-0.55480000 0.56710000 7.16380000
-1.51770000 0.57770000 7.05090000
-2.41950000 0.59470000 6.65990000
-2.43100000 1.43310000 6.64060000
-3.24010000 0.61910000 6.10460000
-3.25990000 1.44980000 6.10870000
-4.00610000 0.65100000 5.46450000
-4.02000000 1.47570000 5.46470000
-4.69830000 0.67820000 4.73850000
-4.70150000 1.50160000 4.72510000
-5.33270000 0.69870000 3.95880000
-5.34000000 1.52210000 3.94120000
-5.83560000 0.70790000 3.08570000
-5.82190000 1.52760000 3.04790000
-6.14750000 0.70250000 2.11880000
-6.16230000 1.52260000 2.08640000
-6.40180000 0.69820000 1.11900000
-6.36970000 1.51790000 1.07690000
-6.55520000 0.69360000 0.08940000
-6.50330000 1.51400000 0.04730000
-6.45400000 0.67620000 -0.95190000
-6.44100000 1.50160000 -0.99370000
-6.26730000 0.65790000 -1.99060000
-6.26010000 1.48880000 -2.02820000
-5.97280000 0.63800000 -3.00890000
-5.96550000 1.47490000 -3.04150000
-5.47740000 0.62020000 -3.95130000
-5.46900000 1.46090000 -3.97660000
-4.76410000 0.60370000 -4.75430000
-4.77190000 1.44720000 -4.78430000
-3.96890000 0.59100000 -5.48590000
-3.96690000 1.43400000 -5.49080000
-2.99960000 0.57740000 -5.98830000
-2.99570000 1.41940000 -5.96790000
-1.97590000 0.56490000 -6.39080000
-1.98160000 1.40640000 -6.36270000
-0.93300000 0.55970000 -6.73710000
-0.93940000 1.39950000 -6.66210000
0.15110000 0.55390000 -6.82840000
0.13070000 1.39390000 -6.76450000
1.22710000 0.54090000 -6.64220000
1.19810000 1.38220000 -6.59290000
2.27460000 0.53000000 -6.35120000
2.24230000 1.37050000 -6.32120000
3.25820000 0.51280000 -5.89540000
3.23050000 1.35370000 -5.89380000
4.18250000 0.49250000 -5.34470000
4.16550000 1.33410000 -5.37370000
5.01290000 0.47380000 -4.68370000
5.00000000 1.31610000 -4.73010000
5.72980000 0.46390000 -3.91880000
5.70320000 1.30700000 -3.96020000
6.31410000 0.46460000 -3.07010000
6.27300000 1.30750000 -3.10560000
6.64100000 0.46890000 -2.11210000
6.61050000 1.31370000 -2.15030000
6.81090000 0.47600000 -1.11460000
6.77430000 1.32010000 -1.14890000
6.94350000 0.48450000 -0.12230000
6.91070000 1.32870000 -0.15190000
6.90830000 0.48750000 0.86350000
6.90140000 1.33230000 0.84290000
6.73480000 0.48450000 1.83170000
6.76030000 1.32930000 1.82430000
6.47770000 0.48190000 2.77130000
6.54280000 1.32820000 2.78110000
6.03850000 0.49080000 3.63460000
6.08610000 1.33690000 3.64140000
5.44660000 0.50760000 4.40070000
5.44550000 1.34970000 4.38070000
4.78720000 0.51910000 5.10820000
4.79990000 1.35760000 5.11410000
4.04280000 0.52870000 5.72370000
4.04650000 1.36580000 5.72920000
3.19670000 0.53750000 6.18940000
3.19760000 1.37540000 6.19920000
2.30260000 0.54610000 6.56110000
2.29600000 1.38390000 6.56280000
1.36560000 0.55320000 6.81460000
1.35870000 1.39180000 6.82660000
0.41200000 0.55820000 7.01640000
1.38380000 -0.28220000 6.82030000
0.43260000 -0.27760000 7.01490000
-0.53590000 -0.27620000 7.15250000
0.45520000 -1.10790000 6.96280000
-0.50380000 -1.10480000 7.04170000
-1.44710000 -1.08870000 6.89940000
-1.49230000 -0.26440000 7.03390000
-2.34560000 -1.05480000 6.53570000
-2.39440000 -0.23730000 6.63590000
-3.20400000 -1.02040000 6.05920000
-3.23260000 -0.20440000 6.10160000
-4.02210000 -0.98710000 5.50080000
-4.01500000 -0.16960000 5.48380000
-4.74880000 -0.96140000 4.81540000
-4.72150000 -0.14280000 4.77340000
-5.41750000 -0.94270000 4.06090000
-5.37270000 -0.12280000 4.00690000
-5.97410000 -0.93310000 3.21010000
-5.91210000 -0.11060000 3.15090000
-6.30900000 -0.93240000 2.24180000
-6.21530000 -0.11550000 2.17710000
-6.51920000 -0.94150000 1.22330000
-6.45260000 -0.12160000 1.16880000
-6.66750000 -0.95060000 0.18410000
-6.59840000 -0.12900000 0.13420000
-6.59940000 -0.97110000 -0.87080000
-6.50810000 -0.14850000 -0.91120000
-6.41530000 -0.99470000 -1.92840000
-6.31800000 -0.17030000 -1.95650000
-6.04650000 -1.02740000 -2.94570000
-5.99680000 -0.19630000 -2.97570000
-5.54120000 -1.05270000 -3.91510000
-5.49900000 -0.21800000 -3.92940000
-4.81690000 -1.07260000 -4.74360000
-4.77280000 -0.23700000 -4.73450000
-4.02130000 -1.08590000 -5.52870000
-3.98550000 -0.24890000 -5.49780000
-3.04810000 -1.09980000 -6.09440000
-3.01880000 -0.26220000 -6.03720000
-2.00240000 -1.11400000 -6.54300000
-1.98690000 -0.27560000 -6.45750000
-0.90960000 -1.12860000 -6.86240000
-0.92370000 -0.28360000 -6.80390000
0.21240000 -1.13490000 -7.02730000
0.17760000 -0.28830000 -6.92840000
1.33350000 -1.14260000 -6.86550000
1.27190000 -0.29990000 -6.74400000
2.41100000 -1.15020000 -6.53530000
2.32900000 -0.31050000 -6.42630000
3.42050000 -1.16400000 -6.04490000
3.31960000 -0.32770000 -5.94780000
4.34660000 -1.18510000 -5.43270000
4.23720000 -0.34910000 -5.35970000
5.16640000 -1.21000000 -4.70540000
5.06560000 -0.36950000 -4.67140000
5.88280000 -1.22820000 -3.90290000
5.80550000 -0.38060000 -3.91140000
6.43700000 -1.23480000 -3.01120000
6.38170000 -0.38310000 -3.04720000
6.76270000 -1.23030000 -2.03690000
6.69540000 -0.37930000 -2.07710000
6.95160000 -1.22100000 -1.04230000
6.87390000 -0.37120000 -1.08150000
7.03830000 -1.21370000 -0.05020000
6.98430000 -0.36350000 -0.09030000
6.99430000 -1.20820000 0.93060000
6.94300000 -0.35950000 0.89170000
6.78760000 -1.20440000 1.88090000
6.73680000 -0.36020000 1.84480000
6.43320000 -1.20020000 2.78410000
6.41400000 -0.35920000 2.75970000
5.98650000 -1.19200000 3.64140000
5.98830000 -0.35090000 3.62760000
5.45480000 -1.17930000 4.44060000
5.45590000 -0.33580000 4.42910000
4.80950000 -1.16570000 5.14850000
4.80230000 -0.32190000 5.13390000
4.06900000 -1.15120000 5.75380000
4.06060000 -0.30990000 5.74660000
3.21810000 -1.13770000 6.19370000
3.21000000 -0.29990000 6.19830000
2.32590000 -1.12440000 6.54360000
2.31310000 -0.28970000 6.55360000
1.40190000 -1.11450000 6.79370000
2.34920000 -1.95730000 6.57140000
1.42340000 -1.94500000 6.78630000
0.48040000 -1.93290000 6.91890000
1.44400000 -2.77080000 6.79860000
0.50420000 -2.75310000 6.92160000
-0.44240000 -2.73620000 6.90460000
-0.46810000 -1.92120000 6.92630000
-1.38650000 -2.70980000 6.74960000
-1.40990000 -1.90030000 6.78370000
-2.30920000 -2.67650000 6.48520000
-2.32420000 -1.86930000 6.49120000
-3.18110000 -2.64300000 6.05560000
-3.18830000 -1.83420000 6.04160000
-4.02240000 -2.61220000 5.55460000
-4.01760000 -1.80210000 5.51460000
-4.73240000 -2.59250000 4.86660000
-4.73520000 -1.77940000 4.83020000
-5.37790000 -2.58030000 4.10600000
-5.39220000 -1.76420000 4.07290000
-5.93510000 -2.57700000 3.26590000
-5.96710000 -1.75820000 3.23850000
-6.38520000 -2.57620000 2.34640000
-6.37240000 -1.75390000 2.29680000
-6.64480000 -2.58240000 1.34330000
-6.60940000 -1.76020000 1.28490000
-6.79280000 -2.59520000 0.29600000
-6.75500000 -1.77160000 0.23800000
-6.74540000 -2.61670000 -0.77300000
-6.69630000 -1.79350000 -0.82690000
-6.56180000 -2.64380000 -1.84940000
-6.51160000 -1.81900000 -1.89630000
-6.17270000 -2.67640000 -2.88190000
-6.11930000 -1.85420000 -2.91720000
-5.64790000 -2.70620000 -3.88170000
-5.59990000 -1.88180000 -3.90130000
-4.92580000 -2.72970000 -4.76100000
-4.87760000 -1.90320000 -4.76400000
-4.09720000 -2.74830000 -5.56410000
-4.06450000 -1.91890000 -5.55730000
-3.10240000 -2.76620000 -6.16760000
-3.07910000 -1.93460000 -6.14730000
-2.03740000 -2.78560000 -6.65700000
-2.02440000 -1.95020000 -6.62290000
-0.88720000 -2.81210000 -6.92430000
-0.89900000 -1.97170000 -6.91840000
0.28070000 -2.83300000 -7.04230000
0.24710000 -1.98600000 -7.09350000
1.44390000 -2.84300000 -6.90510000
1.39850000 -1.99210000 -6.94660000
2.55810000 -2.84990000 -6.59070000
2.50180000 -1.99600000 -6.61850000
3.59360000 -2.86160000 -6.09790000
3.52750000 -2.00730000 -6.12180000
4.52400000 -2.88080000 -5.45520000
4.45320000 -2.02840000 -5.47950000
5.33710000 -2.90670000 -4.69200000
5.27360000 -2.05440000 -4.73030000
6.00390000 -2.92930000 -3.82580000
5.95490000 -2.07830000 -3.88300000
6.51470000 -2.93870000 -2.89040000
6.47990000 -2.08740000 -2.95950000
6.87120000 -2.93440000 -1.91730000
6.83590000 -2.08200000 -1.98660000
7.06510000 -2.92550000 -0.92790000
7.03840000 -2.07180000 -0.99370000
7.13090000 -2.91690000 0.05800000
7.11340000 -2.06410000 -0.00140000
7.04890000 -2.90800000 1.02470000
7.05120000 -2.05750000 0.97840000
6.84230000 -2.89650000 1.96560000
6.84430000 -2.04930000 1.92860000
6.49720000 -2.88360000 2.85990000
6.49120000 -2.04020000 2.82970000
6.03670000 -2.87230000 3.70050000
6.02950000 -2.03180000 3.67870000
5.47940000 -2.85980000 4.47610000
5.47490000 -2.02080000 4.46210000
4.80410000 -2.84640000 5.15220000
4.80910000 -2.00840000 5.15130000
4.07290000 -2.82910000 5.76120000
4.07800000 -1.99220000 5.76550000
3.23480000 -2.80930000 6.20900000
3.22660000 -1.97490000 6.19740000
2.36580000 -2.78810000 6.58880000
3.23750000 -3.63750000 6.21430000
2.37410000 -3.61290000 6.59360000
1.45850000 -3.59040000 6.80340000
2.37850000 -4.42690000 6.59680000
1.46760000 -4.39590000 6.80550000
0.53650000 -4.36060000 6.92950000
0.52180000 -3.56450000 6.92620000
-0.40500000 -4.32560000 6.91420000
-0.42300000 -3.53750000 6.90840000
-1.34550000 -4.28880000 6.76150000
-1.36680000 -3.50620000 6.75310000
-2.26880000 -4.25100000 6.51210000
-2.29150000 -3.47240000 6.49660000
-3.13650000 -4.22020000 6.09120000
-3.16270000 -3.44030000 6.07180000
-3.97660000 -4.19820000 5.60780000
-4.00670000 -3.41490000 5.58220000
-4.69400000 -4.18700000 4.94540000
-4.72280000 -3.39720000 4.90890000
-5.36830000 -4.17980000 4.22370000
-5.39630000 -3.38660000 4.17630000
-5.90000000 -4.18160000 3.37940000
-5.92290000 -3.38710000 3.32020000
-6.34630000 -4.18730000 2.46390000
-6.36910000 -3.38890000 2.40140000
-6.63470000 -4.19540000 1.47400000
-6.64270000 -3.39700000 1.40480000
-6.79150000 -4.21110000 0.43050000
-6.79510000 -3.41160000 0.35950000
-6.77670000 -4.23140000 -0.64010000
-6.76320000 -3.43260000 -0.70940000
-6.60030000 -4.25690000 -1.72460000
-6.58310000 -3.45970000 -1.78950000
-6.23740000 -4.28880000 -2.77970000
-6.20730000 -3.49220000 -2.83350000
-5.70990000 -4.31910000 -3.79670000
-5.68120000 -3.52140000 -3.84100000
-4.99350000 -4.34680000 -4.70750000
-4.96210000 -3.54700000 -4.73610000
-4.14870000 -4.36960000 -5.52970000
-4.12380000 -3.56780000 -5.54930000
-3.14030000 -4.39520000 -6.15930000
-3.12080000 -3.58910000 -6.16650000
-2.05120000 -4.42450000 -6.66620000
-2.04270000 -3.61350000 -6.66380000
-0.86650000 -4.46160000 -6.91720000
-0.87580000 -3.64490000 -6.91490000
0.33710000 -4.49610000 -7.00540000
0.30920000 -3.67290000 -7.01000000
1.53290000 -4.51870000 -6.86590000
1.48730000 -3.68890000 -6.87510000
2.67270000 -4.53670000 -6.53250000
2.61300000 -3.70080000 -6.55580000
3.73030000 -4.55100000 -6.02590000
3.65890000 -3.71340000 -6.06140000
4.66550000 -4.57080000 -5.35450000
4.59180000 -3.73260000 -5.40870000
5.47190000 -4.59410000 -4.56240000
5.40040000 -3.75730000 -4.63280000
6.11950000 -4.61140000 -3.66900000
6.05840000 -3.77830000 -3.75400000
6.60190000 -4.61730000 -2.71630000
6.55690000 -3.78520000 -2.80990000
6.93600000 -4.61640000 -1.74290000
6.90310000 -3.78190000 -1.83610000
7.09710000 -4.60950000 -0.76370000
7.08120000 -3.77430000 -0.85110000
7.14390000 -4.60030000 0.19920000
7.13780000 -3.76500000 0.12360000
7.03100000 -4.58480000 1.13450000
7.03840000 -3.75290000 1.07810000
6.82270000 -4.56780000 2.04950000
6.83210000 -3.73780000 2.00540000
6.47680000 -4.54850000 2.91660000
6.48910000 -3.72250000 2.88820000
6.02320000 -4.52880000 3.74140000
6.03140000 -3.70700000 3.72060000
5.46700000 -4.51100000 4.50130000
5.47470000 -3.69220000 4.48890000
4.79430000 -4.49340000 5.16890000
4.80070000 -3.67700000 5.16000000
4.06850000 -4.47670000 5.77250000
4.07180000 -3.65850000 5.76700000
3.23720000 -4.45220000 6.21820000
4.06200000 -5.26600000 5.77650000
3.23390000 -5.24220000 6.22120000
2.38000000 -5.21320000 6.60080000
3.22790000 -6.00270000 6.22240000
2.37840000 -5.97440000 6.60520000
1.47490000 -5.91810000 6.80840000
1.47320000 -5.17500000 6.80710000
0.55480000 -5.86560000 6.93440000
0.54700000 -5.13070000 6.93210000
-0.37460000 -5.81170000 6.92240000
-0.38820000 -5.08580000 6.91920000
-1.30240000 -5.76160000 6.77560000
-1.32280000 -5.04290000 6.76950000
-2.21560000 -5.71590000 6.54120000
-2.24290000 -5.00100000 6.52720000
-3.07300000 -5.69330000 6.13170000
-3.10600000 -4.97240000 6.11160000
-3.89990000 -5.68480000 5.66090000
-3.94100000 -4.95890000 5.63370000
-4.61650000 -5.67860000 5.02800000
-4.65790000 -4.94870000 4.98520000
-5.28530000 -5.67470000 4.32570000
-5.32990000 -4.94740000 4.27270000
-5.83620000 -5.67710000 3.51120000
-5.87030000 -4.94820000 3.44280000
-6.28740000 -5.68250000 2.60800000
-6.31890000 -4.95480000 2.53350000
-6.60920000 -5.69050000 1.63200000
-6.62420000 -4.96250000 1.55060000
-6.77560000 -5.70000000 0.58940000
-6.78520000 -4.97680000 0.50770000
-6.79880000 -5.71360000 -0.48650000
-6.78880000 -4.99430000 -0.56510000
-6.63070000 -5.73340000 -1.58080000
-6.61680000 -5.01680000 -1.65440000
-6.29880000 -5.76050000 -2.65900000
-6.26890000 -5.04560000 -2.72110000
-5.77240000 -5.79670000 -3.69410000
-5.74150000 -5.07830000 -3.74650000
-5.06590000 -5.83360000 -4.63780000
-5.03030000 -5.10940000 -4.67320000
-4.20750000 -5.86140000 -5.47860000
-4.17880000 -5.13610000 -5.50490000
-3.18770000 -5.89790000 -6.13730000
-3.16360000 -5.16520000 -6.14930000
-2.06940000 -5.93790000 -6.66630000
-2.05900000 -5.20150000 -6.66690000
-0.85160000 -5.99210000 -6.92320000
-0.85820000 -5.24660000 -6.92050000
0.38610000 -6.04180000 -7.00600000
0.36230000 -5.28590000 -7.00550000
1.62350000 -6.08240000 -6.85140000
1.57820000 -5.31970000 -6.85880000
2.79550000 -6.10630000 -6.48710000
2.73420000 -5.33820000 -6.50980000
3.88330000 -6.12450000 -5.94440000
3.80440000 -5.35710000 -5.98780000
4.82350000 -6.13810000 -5.22280000
