-63.57830000 103.45650000 81.47290000
-60.81250000 100.77560000 83.15600000
-58.26470000 104.62410000 85.57030000
-50.31800000 95.19930000 88.98250000
0.12360000 113.37140000 -56.26980000
3.71160000 112.90050000 -55.82490000
8.92160000 112.57620000 -55.27330000
13.34690000 110.82630000 -52.92030000
13.32050000 112.15700000 -54.29890000
63.42980000 -43.24660000 -14.64080000
66.03430000 -43.45690000 -7.78670000
39.66010000 -54.52460000 -50.40840000
43.61720000 -53.30290000 -47.64980000
44.46480000 -55.01720000 -45.99620000
36.79750000 -55.29120000 -52.08650000
31.73240000 -54.03260000 -56.12880000
35.80550000 -53.99050000 -53.42150000
-44.55500000 98.87840000 92.10280000
-54.57400000 104.24060000 87.92770000
-53.79860000 98.76640000 87.45510000
-50.33050000 99.40320000 89.45760000
63.86000000 81.55080000 48.81180000
64.04650000 80.12070000 47.38180000
64.51570000 81.62590000 46.82760000
64.16720000 80.65630000 44.91790000
-23.74380000 43.22690000 -64.45610000
-23.93730000 40.95460000 -65.16990000
40.42460000 88.04050000 76.22090000
41.48970000 79.91770000 75.31090000
42.80620000 87.63050000 74.31730000
43.38110000 102.75430000 76.09280000
43.64740000 100.82630000 74.06180000
-40.76120000 -16.55840000 -63.06650000
-38.88440000 -18.06670000 -63.75440000
-39.89920000 -14.48600000 -62.64620000
-61.57330000 -20.31160000 79.66150000
-60.50320000 -22.04560000 81.57540000
-64.38740000 -23.96430000 79.44300000
-63.03860000 -22.60260000 80.42260000
63.50030000 79.58390000 46.45080000
61.83760000 79.26780000 46.59810000
62.63010000 80.02290000 44.74620000
-29.91200000 104.16170000 98.91430000
-23.90890000 104.77900000 99.79690000
36.04760000 52.73540000 -47.18360000
33.82910000 46.24090000 -48.64690000
39.26980000 54.77340000 -45.57840000
-22.49150000 43.69690000 -67.22910000
-21.64980000 44.90140000 -65.17510000
-20.63320000 44.92070000 -67.62310000
-20.04730000 41.11250000 -66.85690000
-21.13880000 43.06010000 -67.82760000
-19.60090000 43.38000000 -67.85360000
-15.82740000 32.51460000 99.02730000
-14.83170000 28.72010000 98.54010000
-13.25230000 33.60030000 99.22070000
-13.99070000 36.86670000 99.00750000
-14.95220000 34.51790000 99.05140000
63.88550000 -19.88780000 45.83590000
63.66060000 -18.85330000 43.32600000
65.21380000 -18.26250000 44.43490000
64.66380000 -27.40290000 40.04740000
64.47630000 -24.79530000 40.57140000
-10.53210000 20.68200000 97.73180000
-5.91400000 20.85890000 98.67510000
-5.94530000 18.05860000 98.12600000
-4.90650000 18.38380000 96.90270000
-15.60390000 37.65840000 98.09380000
-14.10410000 40.46650000 98.04140000
-15.81810000 40.16460000 96.32880000
-17.05710000 44.78830000 96.54170000
-14.88320000 42.67220000 97.57850000
-16.20710000 45.81530000 98.28460000
-87.16050000 16.39640000 52.56660000
-88.08530000 11.34760000 50.17850000
-86.30410000 13.30800000 53.84830000
-85.30990000 11.01830000 52.99140000
52.53580000 -9.24300000 61.51920000
54.20850000 -0.32230000 59.19690000
51.00970000 -0.23550000 63.51550000
55.70060000 -16.19040000 57.23110000
57.77620000 -9.49750000 53.97340000
-53.13870000 29.34570000 75.73060000
-53.39360000 7.88100000 75.53230000
65.84030000 15.85880000 43.32190000
66.02930000 14.40550000 42.99520000
66.38250000 15.72720000 41.08020000
65.25640000 11.04920000 42.70940000
-30.54860000 112.04810000 -66.72050000
-24.02020000 112.68720000 -67.71900000
-25.96210000 111.52860000 -67.64040000
-44.03910000 109.19250000 -62.90730000
-44.95020000 111.77050000 -62.44100000
-40.65430000 111.26460000 -64.08620000
-39.67220000 53.83470000 94.76760000
-37.31650000 53.01280000 94.93120000
-36.71050000 54.63960000 95.26290000
-35.83820000 54.93290000 94.87760000
-34.57590000 54.21990000 94.52070000
-34.83050000 55.79350000 93.84170000
67.04580000 40.84960000 -4.03030000
66.94940000 43.91340000 -4.41160000
68.09030000 43.21780000 -2.36520000
66.26920000 39.56250000 -7.83610000
67.81240000 35.87920000 -4.52260000
67.37640000 36.54170000 -7.87960000
-46.98460000 -60.96170000 83.10060000
-54.55670000 -60.58540000 76.88740000
-48.31730000 -60.57170000 80.92090000
-46.52730000 -61.88010000 84.96080000
-29.93240000 104.10720000 -65.59650000
-29.09490000 106.76750000 -66.73950000
-24.84350000 106.55940000 -66.77030000
-39.99560000 106.84210000 -63.78980000
-37.82360000 109.34270000 -65.02750000
-34.51100000 108.07200000 -65.41080000
-69.59850000 51.66600000 -41.62900000
-69.98370000 44.21420000 -43.74620000
-68.92570000 44.64580000 -42.69570000
-67.70400000 45.10190000 -44.01420000
60.25790000 44.84170000 -25.55670000
60.46900000 47.52190000 -25.39780000
59.20770000 38.98450000 -24.33980000
-45.67120000 56.92040000 91.47620000
-45.65980000 60.77570000 91.87360000
-39.24850000 55.81930000 94.97500000
-41.77760000 56.05210000 94.45290000
-71.47760000 91.17470000 -41.43100000
-67.54920000 89.00570000 -45.17350000
-68.20570000 81.01480000 -44.39820000
-68.80490000 101.88350000 -45.55500000
-69.21420000 104.17790000 -46.32790000
-66.30720000 102.16140000 -48.06860000
62.71910000 108.44180000 51.54870000
58.59430000 103.44510000 56.91540000
60.32280000 102.99660000 53.95310000
61.93470000 105.50910000 53.67850000
-10.46680000 108.77950000 -57.51000000
-6.30460000 111.24670000 -56.25170000
-6.57850000 109.58350000 -57.54510000
-40.75670000 104.99060000 -63.81390000
-45.75050000 105.37150000 -61.78190000
-44.55830000 106.49200000 -62.02520000
-43.96310000 105.03010000 -62.64190000
-41.92600000 57.96660000 93.97730000
-40.12090000 58.20860000 93.63010000
-45.42490000 62.52030000 90.15610000
-45.04300000 61.13310000 92.42500000
-44.12710000 62.14100000 91.82170000
-77.64070000 -9.39930000 66.57630000
-77.01960000 -12.65990000 67.19710000
-75.20350000 -11.04470000 69.35280000
-78.55250000 -13.28120000 63.70000000
-78.18020000 -11.96730000 64.12740000
-77.56810000 -11.83390000 61.67810000
48.37850000 107.16170000 72.79040000
52.23910000 111.43150000 68.73070000
52.54020000 110.12390000 68.72350000
-10.29710000 106.19060000 -56.10890000
-9.80060000 102.98190000 -55.51280000
-70.35880000 24.74150000 -43.04630000
-70.43210000 17.87930000 -43.60400000
-69.09320000 21.42470000 -44.25710000
-21.65120000 13.63210000 97.96890000
-23.63480000 14.57360000 96.16500000
-20.69180000 11.76160000 96.45550000
-15.98080000 14.13230000 98.65870000
-12.92410000 12.18350000 98.03130000
-13.53220000 14.85720000 98.89140000
57.88280000 46.56020000 -2.37420000
55.83890000 37.99710000 -9.97510000
56.87680000 41.49590000 -6.57300000
-84.14270000 -16.05410000 55.83260000
-83.71440000 -19.02370000 54.83420000
-85.59780000 -18.31770000 51.01620000
-84.71920000 -18.51100000 50.45240000
-46.60630000 54.78340000 91.29190000
-46.52760000 52.47640000 92.28050000
-44.00130000 54.11880000 92.96150000
-44.81280000 55.44940000 91.94490000
-42.99270000 54.86630000 93.48100000
-44.70470000 57.33090000 93.05750000
-81.49630000 35.51710000 -26.49510000
-83.26380000 37.31750000 -27.14790000
-82.09530000 34.53030000 -28.29360000
64.29160000 -46.06640000 47.51700000
63.60040000 -47.99560000 50.75840000
66.89200000 -47.31160000 42.65580000
57.88350000 -47.25370000 60.43510000
-80.00870000 -30.85630000 56.67800000
-79.20820000 -28.85520000 58.07030000
-77.51400000 -23.27220000 61.12900000
-76.21580000 -25.39130000 62.92690000
60.38250000 21.02670000 24.66240000
60.70510000 22.52180000 21.34680000
60.98070000 19.34200000 17.87960000
60.25390000 38.37380000 20.18850000
60.11970000 45.21470000 16.36290000
-30.52170000 -25.31830000 -63.36310000
-31.09580000 -25.12640000 -64.79330000
-40.50680000 -24.41230000 -62.66120000
-38.10840000 -25.80710000 -62.80070000
-75.96550000 -28.35490000 62.91540000
-77.19020000 -29.77180000 61.08060000
-78.93140000 -28.66150000 63.00630000
-78.25610000 -29.07750000 61.18860000
-76.84560000 -27.85760000 62.73260000
-7.35510000 -55.96780000 -67.36140000
-6.98400000 -57.25230000 -66.14600000
-6.91330000 -55.00730000 -67.42490000
-6.54910000 -54.72320000 -66.35580000
-38.15040000 -26.18880000 -60.94130000
-35.91160000 -26.55770000 -61.81790000
-38.70510000 -27.17210000 -60.50810000
-35.80440000 -27.22200000 -61.47290000
-3.70050000 43.94820000 -66.76700000
-1.14660000 44.29510000 -66.96820000
-1.53170000 43.38420000 -66.22390000
-79.89910000 -26.85710000 58.95100000
-81.25280000 -25.89410000 60.01850000
-79.97880000 -24.23580000 58.32730000
-77.94990000 -24.49780000 60.90330000
-64.56900000 31.46590000 -47.63830000
-68.34420000 25.13550000 -45.99470000
-68.30950000 26.95380000 -46.73930000
-66.74230000 28.05530000 -47.97990000
3.65510000 -45.39710000 93.67170000
64.75870000 -53.92820000 -18.57920000
60.35020000 -55.97330000 -24.89130000
61.66830000 -54.37380000 -24.49440000
56.24940000 16.60790000 -31.80040000
56.84350000 20.87900000 -29.96640000
57.59430000 20.89620000 -29.64290000
53.01240000 10.53230000 -37.00110000
55.69520000 13.56420000 -33.32120000
-81.25990000 -20.88010000 59.06450000
-81.55050000 -23.21770000 59.73500000
-81.29840000 -21.33460000 59.48180000
-81.41660000 31.32450000 -29.03990000
-80.49580000 29.92650000 -27.94530000
-80.85980000 32.83030000 -27.39340000
-78.48740000 27.88610000 -30.90000000
-88.62920000 106.28330000 -18.07840000
-86.60970000 105.68160000 -15.37910000
-87.45170000 108.50770000 -21.14570000
-88.28130000 107.85310000 -21.37070000
-80.63250000 -21.43400000 60.96890000
-79.80220000 -23.30130000 60.75750000
-78.33850000 -22.84310000 60.73420000
-80.32750000 -19.22610000 62.02180000
23.54950000 -20.61790000 -56.30240000
22.39540000 -16.17990000 -55.08800000
23.48260000 -16.59560000 -55.99800000
24.49290000 -26.21870000 -56.46670000
25.95460000 -15.22250000 -55.53020000
28.52540000 -20.36840000 -54.23730000
-19.73040000 61.14480000 -68.25030000
-18.37970000 66.27670000 -67.86750000
-17.81510000 63.58880000 -67.56390000
-16.92590000 65.86440000 -67.20620000
33.83180000 86.87810000 81.89670000
31.99380000 87.28690000 82.79050000
-65.39380000 27.78850000 -35.28200000
-66.46300000 13.31370000 -34.46260000
-63.33040000 19.38630000 -37.34630000
-59.39660000 45.03430000 -40.26880000
-59.98930000 27.73970000 -40.11280000
-55.88360000 42.15260000 -43.05270000
33.52800000 113.21910000 -53.09550000
34.26000000 109.75790000 -52.38040000
28.55340000 113.36120000 -56.09020000
-77.52870000 -21.52410000 64.29910000
-77.72470000 -22.40880000 61.29510000
-76.08010000 -22.23380000 63.70900000
-72.38980000 -22.36560000 68.99510000
32.49240000 80.85990000 82.68840000
33.84000000 82.44930000 81.01320000
34.98540000 66.09380000 79.91900000
36.97000000 64.18900000 77.94570000
35.58760000 70.25510000 79.00430000
8.23020000 20.68390000 95.68570000
8.55310000 19.90140000 95.52660000
15.07840000 22.31860000 92.84360000
-25.19540000 8.88620000 97.29650000
-24.40360000 6.92220000 97.42430000
-21.75840000 7.41110000 98.13310000
-16.46510000 10.67750000 98.56800000
-88.74520000 15.39790000 48.20510000
-89.87790000 6.86880000 42.72880000
-88.11550000 8.97030000 41.77690000
-90.49350000 70.63620000 1.40450000
-92.17170000 81.94160000 -0.75920000
-91.68000000 75.70770000 0.45070000
-90.71050000 75.69080000 1.26060000
-71.09420000 -41.05670000 68.17030000
-71.45490000 -28.44400000 68.51830000
-73.56010000 -29.46390000 66.05720000
-71.09140000 -25.72440000 69.83170000
-72.37820000 -23.37310000 70.89910000
-71.62080000 -23.16660000 69.00570000
-12.70290000 108.93730000 90.09360000
-7.88160000 109.67280000 90.90370000
-6.28470000 108.49310000 89.58710000
-16.52320000 105.45060000 87.87920000
-15.61230000 107.70960000 89.00580000
-12.47750000 106.38440000 88.33830000
-22.55670000 -58.85620000 -57.49800000
-81.09990000 27.41880000 60.77510000
-82.19850000 25.55680000 60.49130000
-84.01320000 -19.28520000 49.63990000
-85.67870000 -23.86250000 52.15080000
-84.88110000 -21.70240000 53.23300000
-83.73850000 -22.49800000 51.01570000
-4.03620000 12.69740000 97.98450000
-3.51170000 11.99330000 96.79820000
-9.99100000 8.31970000 98.57330000
-5.51580000 12.43830000 98.41930000
-40.16980000 5.62080000 93.48560000
-40.28730000 7.40830000 93.11310000
-35.18070000 11.96090000 94.20960000
-70.51480000 59.52520000 -28.49500000
-69.81880000 46.10670000 -30.07230000
-70.50440000 27.22360000 -29.66850000
-71.22230000 45.00330000 -28.33010000
-84.21930000 -24.88490000 49.65350000
-85.59510000 -25.05560000 53.05350000
-85.89340000 -28.84940000 51.59310000
-84.55400000 -28.86490000 52.30730000
-24.03970000 47.22080000 98.45370000
-21.76420000 48.21030000 98.29850000
-26.08900000 45.50810000 97.07780000
-18.62380000 -48.51150000 -67.94470000
-18.38230000 -46.71100000 -67.23020000
-14.14720000 -46.87280000 -67.62600000
-27.32930000 -52.44570000 -66.92240000
-84.00240000 -32.97330000 49.08420000
-84.67870000 -29.37980000 47.76470000
-84.29680000 -40.68590000 47.85300000
-85.73350000 -31.04810000 50.27860000
-85.12990000 -29.05610000 49.17270000
-84.66620000 -30.44870000 49.49410000
46.11990000 -8.98640000 -44.74770000
43.49780000 -8.95290000 -47.25110000
47.94570000 -8.26980000 -43.21150000
40.96470000 -7.05020000 -49.16830000
38.71630000 -4.48840000 -51.14230000
42.10830000 -6.95240000 -48.47630000
44.53180000 22.83190000 -31.36470000
46.65920000 23.72580000 -28.45020000
42.17880000 19.27330000 -34.40070000
38.79340000 22.38830000 -37.82740000
41.72550000 9.89340000 -35.33340000
-72.69460000 -60.80080000 59.82650000
-67.81850000 -60.58780000 64.77860000
-23.66580000 -8.25230000 96.78590000
-23.85530000 -9.13680000 95.33260000
-22.29570000 -7.73830000 95.19250000
-23.07080000 -10.91670000 94.63310000
-21.89580000 -14.51820000 94.67690000
-50.23340000 0.74830000 86.09820000
-48.50700000 4.71760000 88.51040000
-47.80930000 4.82600000 89.68770000
-45.65330000 7.40700000 90.08130000
-76.76650000 -52.35900000 -36.32140000
-84.50260000 -52.70500000 -24.40090000
-84.02780000 -49.80510000 -24.93690000
-81.53310000 -51.20340000 -29.32370000
-33.96780000 24.99310000 -65.73290000
-35.02480000 23.90480000 -64.40180000
-34.90150000 27.16020000 -64.48570000
-32.99680000 21.84210000 -65.40880000
-32.15400000 22.51360000 -66.11620000
-28.40860000 19.42850000 -66.57540000
4.25250000 -57.92860000 -57.94060000
11.27070000 -57.73580000 -56.00580000
-11.16530000 -58.80050000 -58.48090000
-11.15390000 -58.12010000 -59.30980000
-7.10190000 -58.02430000 -59.18530000
-21.46090000 -14.03810000 95.10100000
-27.52350000 -21.46650000 94.03660000
-25.56400000 -21.34360000 95.51870000
-25.14130000 -20.11240000 94.21550000
-90.75740000 24.15650000 0.42270000
-90.36630000 41.86170000 -0.02800000
-90.54590000 37.98380000 0.93190000
-89.39000000 37.56020000 2.06760000
47.42850000 43.71110000 -26.39050000
48.93730000 48.48020000 -23.63170000
46.51790000 60.72940000 -26.04050000
43.49860000 28.16260000 -32.44410000
46.53500000 30.90920000 -28.28940000
46.03090000 31.08130000 -29.56210000
69.32040000 -20.72850000 23.44650000
68.71410000 -21.76350000 21.21660000
70.30210000 -20.76600000 20.87310000
70.32560000 -17.79900000 21.85590000
70.57860000 -19.76740000 21.02830000
70.30910000 -14.50970000 20.88250000
-48.62060000 9.47230000 -58.66700000
-51.00110000 10.06750000 -58.04310000
-47.81620000 12.65940000 -58.91760000
-47.03400000 13.59730000 -57.90580000
-46.25070000 13.09080000 -59.89070000
-90.30630000 72.99420000 41.74180000
-92.44610000 74.23730000 40.56470000
-91.14340000 73.44990000 38.56530000
-90.03760000 49.36940000 37.75670000
-90.47710000 65.73290000 39.06350000
56.92730000 112.46720000 46.04930000
63.33030000 113.55800000 27.40620000
60.36930000 112.35810000 34.14700000
61.88930000 113.11610000 32.21660000
-46.07600000 10.38850000 -60.74450000
-47.49830000 11.89210000 -59.64270000
-44.45250000 12.56490000 -61.90420000
-43.46220000 10.48640000 -61.88020000
-43.35600000 12.31920000 -62.23700000
57.82130000 30.94860000 57.15060000
58.85680000 28.98870000 57.67230000
59.50190000 31.74830000 56.28250000
59.13160000 25.55820000 56.72540000
50.92020000 42.94410000 -38.94450000
53.37020000 52.14120000 -34.35980000
52.85490000 51.53290000 -32.56050000
53.70030000 51.04810000 -33.39990000
-35.74260000 51.02260000 94.95190000
-36.61630000 48.98680000 95.67300000
-34.34370000 52.84170000 95.29040000
-35.03820000 52.88360000 95.03520000
-69.50780000 -51.77590000 -44.60380000
-72.20130000 -53.66030000 -41.61500000
-64.72000000 -55.05970000 -48.34150000
-64.47710000 -52.19880000 -49.13710000
-61.44310000 -53.71180000 -51.28400000
56.27640000 27.27610000 57.00030000
57.98300000 28.82430000 57.77740000
56.57400000 29.82790000 57.13620000
55.07280000 28.93230000 57.91850000
16.96110000 29.96600000 92.18890000
16.43660000 28.77820000 93.56490000
18.91500000 29.74850000 92.12120000
8.31980000 26.39890000 94.51540000
10.34800000 26.29830000 95.45190000
10.94190000 27.86390000 94.00400000
-74.37530000 45.12530000 70.28440000
-76.05000000 44.70380000 69.93970000
-73.08930000 43.23290000 71.23430000
-76.07910000 43.50840000 68.22910000
-76.09520000 44.97540000 66.15950000
-75.09310000 42.59070000 67.05700000
64.03900000 44.12810000 -18.10710000
64.47530000 46.80830000 -16.07230000
60.52410000 37.96740000 -22.99020000
60.71560000 39.51830000 -23.38140000
61.94020000 38.80690000 -22.42310000
59.31290000 4.83970000 56.12400000
60.14160000 10.36340000 56.09010000
-73.76660000 42.34930000 71.21820000
-72.42200000 41.53420000 69.90300000
-71.35750000 42.45400000 71.22920000
-71.54040000 40.92800000 70.34090000
55.20970000 -9.10760000 -30.00470000
55.57310000 -8.56800000 -29.39290000
-84.36050000 31.05670000 3.23030000
-85.38230000 21.19570000 16.07380000
-85.20360000 12.12130000 9.75100000
-85.26050000 20.72030000 10.96090000
-14.71890000 104.94160000 -66.54130000
-11.36130000 97.14800000 -65.99130000
-11.98790000 90.49100000 -65.80690000
6.62530000 41.30630000 -62.85590000
5.73470000 35.10610000 -64.41300000
4.83770000 34.97930000 -65.74170000
5.48070000 36.53730000 -65.77510000
-4.36430000 66.44270000 -67.62080000
-1.28130000 69.10360000 -67.19050000
-3.09010000 70.86950000 -67.63320000
-1.74530000 71.64770000 -67.20470000
17.59000000 -15.75180000 88.97890000
19.66770000 -34.80300000 88.41220000
11.72240000 -20.84360000 91.11260000
11.64290000 -34.54700000 91.34970000
15.40140000 -29.80700000 90.02210000
-83.93090000 41.77700000 -26.32860000
-83.04990000 43.30200000 -24.65400000
-83.15580000 43.21220000 -27.00250000
59.95260000 109.15930000 16.48140000
60.28100000 110.15400000 22.21600000
61.47020000 111.32390000 16.53510000
58.24810000 105.24320000 11.80090000
57.90180000 102.43050000 16.05040000
58.23580000 104.58320000 17.03170000
8.16090000 37.96570000 -65.28420000
10.45540000 38.88520000 -63.67540000
9.62000000 36.70860000 -64.57760000
5.11010000 38.61470000 -65.59520000
4.55220000 39.56680000 -63.43880000
7.08600000 40.18050000 -64.08840000
-84.16330000 -11.88000000 -25.34130000
-83.91240000 -8.25880000 -25.52380000
-84.41720000 -5.65270000 -25.00750000
-82.19370000 -6.14330000 -26.36370000
-9.08770000 78.30150000 96.93930000
-15.82190000 62.60100000 96.95270000
-14.83790000 60.65030000 98.22230000
-12.77740000 59.31660000 97.81540000
-85.25780000 9.11220000 14.22000000
-85.27740000 21.61840000 19.03920000
-40.62540000 -60.36210000 -60.32240000
-50.59600000 -57.75110000 -56.17820000
-48.85980000 -56.64800000 -58.05140000
8.76480000 40.39740000 -64.38960000
9.49940000 42.52610000 -64.85860000
7.88720000 39.75940000 -64.53260000
-50.66620000 -60.41610000 -55.67230000
-54.07460000 -58.73570000 -53.76270000
-48.65550000 -58.42450000 -56.90190000
-58.88800000 -60.90330000 -50.17810000
63.72840000 113.46650000 22.66510000
62.13800000 112.28440000 22.81740000
-10.53460000 63.78410000 96.87850000
-11.89500000 61.44440000 97.02890000
-9.36660000 64.08630000 98.82620000
-15.53290000 63.22410000 96.56700000
-13.14270000 61.36870000 96.62770000
-10.47920000 65.23650000 96.56850000
-86.14160000 32.42240000 54.21250000
-86.23720000 28.68240000 55.09870000
-85.70120000 30.82130000 55.07520000
-87.77040000 26.81360000 49.19060000
-82.95950000 105.71350000 -6.61870000
-82.83690000 103.29160000 -4.22390000
-81.68260000 103.60100000 -7.46300000
-83.73340000 103.19930000 -1.28870000
-83.71070000 100.46900000 2.23750000
-82.47490000 99.48810000 -2.04340000
-46.29690000 12.77910000 87.74400000
-42.63100000 17.25840000 89.45800000
-46.49670000 11.90640000 88.08760000
-48.15540000 10.69110000 87.23540000
-47.01950000 11.36700000 89.41640000
16.88720000 60.63970000 90.12990000
22.34560000 53.26510000 87.36620000
16.87640000 68.63960000 90.50140000
20.93480000 50.78870000 88.00220000
16.79000000 46.70690000 89.81510000
20.74940000 42.77730000 87.98180000
70.48760000 -51.45920000 -2.02820000
69.21100000 -51.53300000 -7.49150000
67.66680000 -51.91370000 -12.32820000
57.49150000 103.01050000 18.89780000
58.67720000 75.01540000 21.37440000
-24.65850000 -24.31900000 97.37700000
-23.81160000 -25.09630000 96.99850000
-25.06850000 -27.24490000 95.47200000
-84.70510000 -4.07060000 -23.45660000
-84.92310000 -6.97350000 -24.34030000
-84.04010000 -8.98050000 -24.86570000
-84.28400000 -8.56120000 -23.32390000
33.21290000 -3.30860000 80.31450000
32.23410000 3.67710000 80.06270000
30.69000000 -2.03920000 80.03260000
32.17580000 -5.95880000 80.56270000
-15.34860000 -32.01500000 94.76230000
-17.38420000 -22.43940000 96.49690000
-17.10530000 -23.52760000 95.11900000
-14.33390000 -19.82900000 95.07920000
10.24770000 92.98370000 93.41070000
9.81680000 88.74020000 93.52310000
12.15120000 91.63260000 93.43390000
4.75530000 93.17270000 95.40900000
2.21480000 89.81630000 96.11600000
4.95280000 88.28250000 95.25860000
-32.43150000 17.66420000 -55.84660000
-29.28370000 5.63420000 -56.85980000
-38.92320000 26.43340000 -53.27050000
-41.25160000 11.07890000 -52.23140000
-37.57970000 8.65350000 -53.93940000
38.73530000 -5.87960000 -51.00120000
33.14880000 -2.00010000 -51.84070000
33.96800000 -3.28360000 -53.64450000
-25.18890000 -11.08630000 -65.08500000
-25.14090000 -8.92470000 -66.69250000
-24.67980000 -11.16930000 -66.78390000
-26.61610000 -18.78630000 -67.17730000
-25.53940000 -16.39620000 -67.00770000
-24.27520000 -16.30280000 -67.51700000
49.24170000 107.42720000 -37.47740000
52.38560000 109.74790000 -35.06070000
56.69200000 110.41110000 -30.65740000
54.88940000 111.74940000 -32.15050000
58.01670000 112.56530000 -28.37960000
2.05560000 7.26270000 87.18060000
1.48690000 20.71390000 87.26270000
5.04130000 18.06790000 86.51500000
9.56640000 54.12920000 84.64800000
4.23010000 46.73830000 86.37060000
6.63110000 58.97570000 85.42570000
8.66800000 92.83460000 93.60670000
8.37580000 86.80680000 93.98610000
35.09360000 -2.74900000 -52.27460000
-18.45630000 62.02840000 96.75480000
-19.19350000 59.53800000 98.18160000
-18.26600000 61.19860000 98.70740000
-19.67650000 58.20590000 98.35380000
-17.45080000 54.66810000 98.66180000
-17.26600000 58.40900000 98.91980000
26.89570000 105.44070000 -55.11190000
26.83670000 109.11860000 -56.43990000
28.69140000 109.83840000 -56.07930000
24.84230000 99.41980000 -55.56620000
27.02570000 92.12110000 -53.35610000
-21.89310000 33.52010000 -67.33400000
-20.77000000 34.56920000 -68.06230000
-18.37000000 32.62760000 -67.64570000
-23.55660000 36.32550000 -67.58270000
-22.89650000 38.83160000 -67.65930000
-22.08970000 36.06520000 -67.91880000
-24.15580000 -12.80260000 -67.39790000
-24.21490000 -9.80020000 -67.42170000
-22.46210000 -11.44550000 -67.84230000
-27.31120000 -4.42520000 -66.47540000
22.84890000 28.35190000 86.89440000
23.28840000 25.33890000 86.64480000
22.75950000 27.45030000 87.54860000
61.34260000 -59.05210000 18.37680000
58.69080000 -58.88480000 37.46070000
-16.28750000 81.66360000 -66.10790000
-14.69510000 80.54900000 -66.56180000
-16.83940000 80.82900000 -68.21150000
-22.82110000 76.80790000 -68.06570000
-21.65360000 79.12740000 -67.54790000
-18.45240000 79.90950000 -68.27920000
34.35040000 -58.60350000 -48.19920000
22.59940000 -58.82240000 -55.24030000
29.10020000 -58.38300000 -52.81570000
12.20870000 -58.66680000 -60.11460000
12.87220000 -57.60930000 -61.84420000
18.24970000 -58.05500000 -59.11100000
-41.76440000 22.54800000 -51.91060000
-46.24340000 23.06140000 -49.59380000
-49.46530000 23.33830000 -47.74750000
-45.49630000 7.76090000 -49.98610000
-21.69770000 80.08860000 -65.89710000
-18.15530000 80.73400000 -67.65490000
-23.85360000 78.69350000 -65.59480000
-3.72020000 65.19020000 98.95930000
-7.66140000 64.04440000 99.27940000
-5.60080000 62.66660000 98.18270000
-8.70080000 61.93610000 98.17000000
65.35770000 10.82460000 -13.53640000
65.71530000 12.16510000 -11.90800000
66.71100000 14.20710000 -10.56940000
-76.86880000 -60.28580000 51.44400000
-78.20380000 -58.97460000 46.10210000
-75.15430000 -58.80130000 51.49210000
-76.14920000 -58.95950000 48.63650000
-74.48470000 -60.33970000 51.06860000
-88.37800000 6.82410000 -8.88120000
-87.88010000 5.13880000 -12.34180000
-87.00760000 3.85760000 -13.49780000
-88.91060000 4.95930000 -6.68390000
61.46360000 16.28200000 50.22700000
60.67520000 18.22850000 48.47020000
62.28870000 19.30550000 49.17040000
63.07830000 17.66340000 44.76360000
61.04200000 16.33180000 47.70470000
63.22230000 16.28600000 45.59210000
65.80440000 101.55520000 -6.11510000
64.53610000 101.14260000 -9.83860000
58.72850000 99.98750000 -22.65900000
56.23690000 101.27420000 -27.34510000
58.50910000 102.01340000 -23.68870000
-17.00560000 -35.87220000 -65.17970000
64.03370000 3.70910000 -10.68000000
64.32630000 7.20800000 -10.90470000
64.11980000 4.02650000 -11.29160000
65.92970000 7.01580000 -12.30330000
63.27800000 82.68110000 -11.93130000
61.88900000 91.32470000 -15.35930000
63.36750000 94.09800000 -11.45880000
63.76250000 99.39540000 -11.06220000
62.08130000 99.90940000 -15.61560000
63.46320000 103.08820000 -13.93960000
61.32640000 11.51560000 51.27920000
60.64760000 16.34980000 49.49270000
-17.47840000 61.72770000 -67.44900000
-16.12040000 59.90860000 -67.56680000
-17.66410000 58.69620000 -68.45890000
-13.57220000 58.04190000 -68.15740000
64.71800000 8.33350000 -15.69670000
64.48050000 11.31410000 -10.81170000
65.85700000 9.71240000 -12.05800000
70.73490000 110.40230000 8.29990000
70.07800000 110.44860000 3.09410000
-9.31530000 63.61210000 -68.20500000
-16.31630000 60.69810000 -67.58320000
-17.33130000 62.83860000 -67.58200000
-16.24970000 62.77230000 -68.53650000
15.87450000 105.32550000 -58.92720000
-71.33900000 48.03950000 72.67450000
-70.53350000 46.98070000 72.09210000
-70.08300000 48.39320000 72.46040000
-70.54430000 49.15160000 71.86350000
-86.54210000 20.02670000 47.22210000
-86.78560000 19.40750000 49.11240000
-87.55880000 21.17240000 48.41260000
-88.34510000 15.94150000 46.66620000
-87.15400000 18.78960000 49.45350000
-86.71080000 17.63030000 47.28480000
29.35100000 -31.21540000 81.11100000
30.04660000 -30.23780000 80.28660000
31.92420000 -26.38930000 78.85650000
29.38700000 -24.68230000 81.06110000
30.45850000 35.18330000 -44.23320000
23.44030000 77.16030000 -46.22290000
22.48250000 72.30740000 -47.07350000
25.76390000 73.47000000 -45.06130000
-68.30990000 -19.86370000 74.42620000
-66.26880000 -20.23140000 73.99090000
-64.87440000 -20.71910000 75.54890000
-87.61340000 22.23820000 49.70930000
-87.88010000 26.63300000 50.46860000
-87.18580000 29.51010000 53.24110000
-87.21650000 30.15510000 52.16060000
-20.39710000 37.57190000 -67.02610000
-19.67470000 39.24420000 -65.19790000
-18.57420000 38.07430000 -65.59130000
-17.49110000 41.98050000 -65.21490000
-17.03080000 38.98370000 -65.30510000
29.99430000 -5.78560000 80.21660000
31.11920000 4.37870000 79.59200000
-31.00450000 5.89920000 -63.16660000
-33.82720000 10.28280000 -62.83620000
-33.80800000 11.73760000 -62.50670000
-31.81290000 16.18320000 -63.10040000
-47.94610000 -60.08160000 80.20290000
-47.01810000 -58.89760000 79.32940000
-41.63830000 -58.66960000 82.09230000
-41.63490000 -58.88520000 81.25380000
-40.62790000 -60.26600000 81.50500000
-18.28530000 41.95600000 -65.69930000
-18.91010000 42.27380000 -67.11810000
-19.75440000 45.14990000 -67.36320000
-19.81990000 45.51810000 -65.40750000
-18.37150000 44.83800000 -65.73070000
-87.46870000 -60.61920000 28.93940000
-85.67910000 -60.38090000 26.94340000
-64.44840000 12.12430000 -45.34700000
-67.45830000 15.21120000 -42.69510000
-67.30300000 19.30680000 -43.08060000
-69.35640000 18.88760000 -43.58310000
-67.52000000 20.93410000 -43.30930000
-77.71190000 -1.31310000 62.04180000
-78.54050000 1.36430000 64.11650000
-77.21050000 0.52720000 62.84420000
-75.83950000 1.26920000 64.66220000
-11.18960000 13.18640000 98.04300000
-12.23890000 20.05350000 97.39590000
10.88500000 8.86940000 -60.40510000
11.83080000 15.96200000 -60.31850000
11.03220000 18.61860000 -61.20680000
67.99370000 10.05280000 20.92440000
69.98830000 9.19990000 20.99920000
-6.11350000 -55.12890000 -65.97730000
-73.78990000 -1.01100000 66.65360000
-73.95390000 -1.60940000 68.36060000
-75.80020000 0.61560000 64.30940000
-85.87430000 -60.68030000 30.54700000
-89.36280000 -60.45600000 16.39790000
-7.43700000 11.61420000 -59.21320000
-7.86560000 7.67360000 -59.17260000
-6.75790000 7.63520000 -58.74640000
-74.84880000 33.26660000 -40.20690000
-77.30760000 37.51720000 -37.13250000
-75.96100000 37.61190000 -38.50280000
-76.89760000 38.67330000 -37.11090000
51.46160000 59.90760000 -33.82990000
57.25920000 51.80840000 -26.61100000
52.71260000 57.27660000 -32.39770000
-82.48800000 59.78670000 -26.60930000
-85.28480000 61.35060000 -25.23620000
-82.12550000 60.94030000 -26.30990000
-81.28310000 61.90760000 -27.55600000
-82.24180000 20.74510000 -6.61390000
-82.41820000 81.19580000 -2.17010000
-81.92490000 79.32940000 -4.25600000
19.35910000 -56.51740000 90.83630000
7.31250000 -55.98550000 94.98030000
-54.79890000 -60.62180000 54.21160000
-64.16490000 -60.81220000 63.85730000
-50.38010000 -60.70040000 60.22200000
53.81520000 98.86690000 -30.42450000
52.50010000 99.49580000 -32.09800000
10.38320000 46.34170000 -63.56610000
10.90870000 42.66060000 -64.34730000
22.48870000 82.22740000 -54.51930000
27.44390000 84.64620000 -52.18660000
-80.63170000 2.53640000 62.18210000
-80.81230000 1.66140000 61.13790000
-79.21980000 2.08480000 64.36230000
-77.44810000 4.68590000 64.22540000
-76.23140000 3.49210000 66.50380000
-75.28580000 4.41870000 65.56610000
67.90070000 61.50550000 -6.67840000
68.06520000 69.14990000 -4.99630000
65.57880000 69.83750000 -6.40300000
65.97970000 71.02850000 -3.86090000
67.55510000 69.79750000 -5.86270000
2.02100000 50.80210000 -66.72130000
5.67110000 48.98270000 -66.04710000
9.27570000 45.28120000 -65.09940000
56.43730000 77.60270000 60.09180000
57.39680000 80.01350000 59.43860000
59.37330000 81.57450000 57.21110000
60.84430000 83.17620000 54.37770000
59.35000000 82.57550000 57.40610000
32.84980000 100.25780000 81.68640000
32.66860000 95.56460000 80.92780000
35.39270000 99.85620000 78.89050000
31.86640000 92.93650000 81.28930000
65.78760000 68.25850000 -8.15790000
-79.67400000 -60.08620000 -23.85670000
-76.76960000 -59.47720000 -29.74690000
-75.05710000 -60.35050000 -29.14610000
-78.82080000 -60.45240000 -22.16310000
-77.37300000 -60.27380000 -23.15970000
-7.57220000 -0.75870000 -64.75300000
-6.26410000 11.70120000 -64.32270000
-44.43320000 -7.09310000 88.21360000
-38.92930000 0.19160000 90.65310000
-40.25840000 -3.37550000 90.03710000
-37.13280000 -9.04060000 91.05810000
2.74910000 106.06130000 85.94800000
12.58080000 108.34070000 85.08810000
9.70210000 110.17220000 87.09290000
13.57600000 109.92900000 86.09360000
65.28590000 105.73410000 45.24510000
67.64660000 108.26540000 36.45550000
67.94450000 109.89130000 37.90270000
67.23520000 107.98650000 39.64530000
-79.03080000 3.54180000 64.11980000
-77.49230000 3.54320000 65.66590000
-77.93090000 8.08730000 64.82400000
-79.34990000 4.18410000 63.78120000
-40.42210000 -58.89700000 89.92370000
29.44470000 92.51610000 72.96410000
29.52030000 100.59430000 72.73970000
33.46670000 87.35500000 69.89330000
34.19050000 98.58270000 68.83570000
-56.23930000 40.60270000 -54.18830000
-56.13380000 41.23670000 -52.39050000
-54.88060000 40.42200000 -53.17680000
-59.37270000 36.56510000 -53.36200000
-57.26950000 37.91570000 -54.96000000
65.60500000 87.57900000 34.52430000
65.31660000 77.25330000 34.22110000
65.85300000 105.19070000 40.33170000
-46.69170000 -59.37720000 5.24810000
-62.21970000 -59.68130000 -1.28630000
-48.61630000 -59.56020000 -1.69580000
-35.35320000 -59.37770000 9.60760000
-30.94420000 -59.46370000 5.28410000
-24.42130000 -59.42640000 12.93240000
-2.76240000 112.73740000 -55.62620000
-4.30820000 110.83700000 -54.71870000
-47.46860000 28.86990000 -56.58320000
-53.88520000 37.56220000 -53.36980000
-54.62470000 38.83980000 -53.33030000
-55.97720000 39.48070000 -54.58720000
-4.73170000 60.96630000 98.34210000
-9.61060000 61.13640000 98.08030000
-5.97550000 61.57650000 98.45580000
-78.13880000 23.26080000 66.49000000
-77.58440000 25.44050000 65.46820000
-76.12330000 23.04930000 66.95580000
-75.62620000 24.52480000 65.62680000
-60.88190000 99.25200000 68.59330000
-60.83900000 101.86730000 69.10650000
-58.24530000 102.06950000 71.34010000
-60.79470000 73.76330000 68.91370000
-8.30060000 31.90390000 -66.43680000
-6.87970000 32.05650000 -66.56370000
-7.85420000 28.24800000 -64.26010000
-8.13750000 30.73520000 -64.70260000
-6.79500000 30.50540000 -64.69450000
66.69610000 15.94980000 33.41280000
68.94030000 15.65080000 30.47360000
68.34820000 16.82530000 30.32440000
68.71180000 18.34410000 32.17990000
-96.87290000 105.15760000 23.21760000
-96.40550000 103.05140000 21.11650000
-96.44800000 108.77080000 29.27950000
-95.47320000 110.29950000 33.97710000
-21.81770000 9.53670000 96.81130000
-24.22360000 8.98140000 97.39840000
-25.89990000 12.02060000 96.38090000
-21.96330000 11.79090000 96.10370000
-24.34580000 14.04760000 95.91740000
68.16920000 10.32810000 36.45570000
67.34410000 10.32930000 34.56630000
68.61190000 11.70050000 35.12890000
68.85240000 9.64250000 31.48740000
68.35870000 7.88320000 32.24720000
69.55130000 8.18220000 30.88000000
47.50740000 -11.89710000 -39.97560000
48.06780000 -10.33530000 -41.98790000
49.45970000 -11.60140000 -40.60590000
49.73040000 -5.28760000 -40.69100000
50.57280000 -7.26980000 -40.37960000
-34.31400000 111.65860000 97.75880000
-22.95850000 109.90020000 100.40120000
-24.98860000 107.81020000 99.75860000
63.73320000 34.21220000 46.86500000
63.12030000 36.09500000 45.57880000
62.80470000 31.44130000 49.28440000
64.02420000 31.05870000 48.11560000
68.75960000 11.82550000 32.17430000
69.08730000 13.62690000 29.90680000
69.25510000 16.02860000 31.92350000
68.55810000 10.45320000 32.11120000
-26.13300000 13.77110000 94.57300000
-27.44750000 11.18230000 95.34860000
-26.52120000 10.75500000 96.41370000
49.83300000 -9.52800000 -41.37120000
51.63990000 -11.03380000 -39.01780000
-3.94940000 72.77970000 -66.57520000
-5.54300000 72.53190000 -65.10510000
-4.52170000 73.68540000 -66.06560000
-6.14970000 73.99990000 -65.20410000
67.25510000 24.45800000 39.15520000
67.09560000 28.25460000 37.47730000
67.35850000 26.53260000 39.44100000
66.66020000 21.35880000 41.35460000
-30.28310000 27.01560000 86.16890000
-33.03180000 24.07590000 85.46230000
63.40450000 70.77890000 -18.03480000
63.25760000 72.57140000 -17.01220000
64.41220000 65.69230000 -16.92920000
-31.08430000 -23.49940000 -66.06740000
-29.74070000 -24.14940000 -65.49900000
-28.22650000 -22.02570000 -66.50230000
-25.17950000 -19.13600000 -67.09630000
-26.98150000 -22.19880000 -66.27810000
-75.85140000 98.31090000 69.23990000
-75.93650000 95.57680000 68.54430000
-71.42160000 100.70410000 74.33980000
-74.93870000 100.21680000 70.68190000
-69.74370000 95.77670000 75.19760000
-92.90080000 67.23640000 33.43700000
-94.06560000 66.54790000 35.14510000
-91.95200000 66.75350000 34.87520000
-91.44520000 44.19340000 30.28070000
67.57630000 30.27480000 37.93490000
68.23250000 36.01040000 36.48280000
68.62380000 37.06760000 35.02950000
68.14670000 35.45500000 34.95910000
68.86160000 37.45950000 32.82010000
14.47390000 29.69880000 -59.98340000
19.12100000 43.02010000 -57.98690000
20.21470000 53.21570000 -57.40660000
23.14710000 52.16180000 -55.93790000
-90.74680000 18.61050000 24.03390000
-91.30160000 22.96260000 22.71890000
-89.63290000 20.09590000 22.26320000
-91.31970000 31.78350000 28.36340000
65.01290000 51.02940000 -11.97830000
65.68320000 50.10450000 -10.28860000
62.36930000 -31.78230000 46.40100000
63.03130000 -30.04480000 44.71550000
61.92150000 -28.21420000 47.79300000
26.32160000 65.90410000 -54.24370000
22.91550000 56.02270000 -55.53130000
-93.93230000 99.91190000 6.75260000
-93.78650000 99.62870000 4.30820000
-93.20730000 96.93450000 4.93210000
-18.09910000 55.81560000 -68.42580000
-18.39350000 57.52930000 -68.49990000
-15.29950000 57.14720000 -68.49730000
-24.05120000 56.67310000 -66.86390000
-50.18270000 -4.72050000 -55.07600000
-52.89050000 -4.10410000 -53.58050000
-44.57200000 8.69600000 -58.63330000
-46.33630000 8.78840000 -59.77460000
-64.89920000 -61.02320000 -45.39790000
-65.41910000 -58.79600000 -45.17240000
-70.25250000 -60.31760000 -40.32680000
-68.72670000 104.43010000 61.78520000
-70.18490000 106.88010000 61.91040000
-65.28200000 105.16780000 66.04510000
-74.51770000 104.25610000 54.02810000
-76.72370000 106.11070000 51.86520000
-74.31820000 106.46200000 56.18060000
-96.59910000 109.30800000 2.98630000
-95.93860000 108.19960000 -0.58270000
-95.66200000 106.62750000 3.84770000
-95.78880000 111.56360000 -0.57470000
-96.55730000 111.12750000 3.26040000
44.09130000 113.49950000 61.77570000
45.52350000 112.88920000 58.04180000
45.20260000 113.90710000 61.01900000
-4.19950000 79.57500000 -65.23180000
68.44790000 2.54390000 31.68530000
69.46350000 4.10890000 31.14390000
68.85370000 -0.17520000 30.91500000
70.12260000 -0.73210000 29.37350000
69.70610000 0.88950000 29.19300000
33.83620000 8.89430000 -52.68830000
32.77990000 12.62140000 -51.61060000
34.16320000 11.76960000 -52.81670000
32.53380000 8.62870000 -54.42470000
30.61570000 9.68980000 -53.14990000
32.90660000 9.05860000 -52.84620000
17.48800000 22.29930000 89.76290000
18.07860000 21.88280000 89.08280000
-92.34150000 107.96530000 -7.32970000
-92.33880000 111.20480000 -8.30310000
-90.73940000 107.45130000 -9.67600000
-96.11280000 110.11240000 -0.89660000
35.12800000 11.74610000 -53.02370000
35.29910000 9.12070000 -52.90910000
35.97750000 9.82410000 -52.67080000
37.44420000 13.65370000 -51.81770000
-7.48100000 -7.57950000 97.56240000
-8.83320000 -11.01080000 98.35890000
-6.90010000 -9.86820000 97.87950000
-14.21770000 -16.67820000 98.42940000
-11.16180000 -15.95390000 98.25540000
-31.76290000 111.29250000 91.71280000
-23.68850000 111.51170000 93.44120000
-48.25110000 110.72910000 85.20190000
-87.50930000 6.49250000 -16.31810000
-89.41620000 8.53230000 -13.10190000
-87.46740000 9.46230000 -12.50880000
-90.02790000 7.69050000 -8.81760000
-89.44390000 5.69700000 -13.10930000
34.45420000 7.14690000 -52.89390000
34.22460000 3.50380000 -53.45200000
32.59300000 7.06500000 -54.65580000
-83.45010000 -19.14670000 55.84540000
-84.74410000 -21.03290000 54.28620000
55.20860000 38.84190000 -11.64000000
53.88250000 61.00540000 -12.52510000
52.10140000 76.77770000 -14.81550000
-29.30190000 85.77980000 85.38220000
-26.40910000 93.34300000 85.98030000
-26.28190000 84.30030000 86.01130000
-33.95390000 85.19670000 84.12040000
-35.82260000 95.55760000 83.46470000
-31.58040000 90.27700000 84.81540000
53.12060000 49.91060000 -31.42340000
53.09640000 48.03300000 -32.25090000
52.83680000 44.88450000 -32.90430000
-87.50700000 -1.32290000 -18.71020000
-88.84350000 -2.43690000 -16.96200000
-88.29520000 -0.99450000 -15.84620000
-89.45220000 5.41880000 -14.95290000
-87.57720000 3.01130000 -17.91920000
-87.95160000 2.76680000 -16.58140000
57.38090000 67.91720000 -24.48240000
57.69460000 74.47000000 -24.10510000
56.07290000 67.65060000 -30.52580000
43.43970000 92.31480000 58.97020000
43.91930000 51.23390000 60.51350000
42.65760000 65.12490000 61.23210000
44.72090000 67.28850000 58.42920000
67.89060000 38.51280000 -2.38870000
68.01260000 36.72080000 -3.40350000
68.08810000 41.02780000 -2.23460000
51.90150000 33.49210000 -33.72410000
52.66420000 37.29140000 -32.30770000
53.13850000 33.53940000 -31.69230000
52.30020000 31.67510000 -36.19630000
52.75020000 29.97810000 -36.75300000
57.64640000 67.40960000 -27.35650000
57.48700000 67.33750000 -25.06410000
59.43080000 65.50680000 -24.20260000
54.32350000 68.92520000 -30.35840000
-13.62260000 -10.62220000 -67.01960000
-13.36470000 -8.47560000 -67.52310000
-14.39490000 -7.51920000 -68.28540000
-16.08000000 -4.84410000 -68.18870000
-14.34320000 -6.06440000 -68.12590000
69.52360000 38.56990000 27.80360000
69.37960000 37.71320000 30.35470000
70.12090000 35.54560000 28.20950000
68.69860000 38.49520000 33.99050000
69.16600000 39.52710000 31.33780000
-90.81040000 -28.00330000 20.33230000
-90.73590000 -24.29370000 23.12690000
-89.37960000 -27.98210000 18.83040000
-91.06240000 -27.97300000 22.67090000
-90.65460000 -37.06410000 25.31010000
-39.16730000 61.22980000 -64.39470000
-40.08660000 65.76500000 -64.06710000
-38.18170000 65.54570000 -64.75240000
-42.75100000 64.92990000 -62.49850000
51.69690000 28.29710000 -34.60280000
50.19910000 28.30630000 -37.74010000
52.29820000 28.70150000 -36.37100000
53.77590000 31.48060000 -35.50830000
70.94640000 -15.81850000 4.87010000
68.19770000 -13.67950000 5.09240000
69.44100000 -13.85900000 6.17990000
70.84220000 -18.93770000 12.65130000
71.18310000 -17.27780000 12.53330000
-89.36990000 -30.09450000 15.34030000
-89.34910000 -30.31480000 13.51310000
-89.41700000 -27.81770000 14.32530000
-89.28440000 -17.87350000 16.76220000
68.51050000 2.22330000 32.64740000
69.51050000 -3.13960000 32.32210000
69.29170000 -2.93820000 30.39490000
-39.63020000 70.08600000 -63.28660000
-39.92580000 67.70160000 -63.53510000
-39.39330000 69.48180000 -63.76950000
-37.78590000 67.71180000 -64.91800000
61.00860000 5.91030000 8.45910000
-82.28100000 -25.48770000 53.29230000
-81.50160000 -30.44570000 54.25950000
-84.74360000 -31.23390000 52.49910000
-85.20660000 -58.32370000 48.41580000
-83.12820000 -59.87380000 48.49550000
-82.07970000 -58.72700000 53.56820000
-85.72680000 -57.41640000 48.94170000
30.95990000 -14.20940000 -52.53420000
28.35070000 -7.89010000 -53.88790000
30.82720000 -4.57810000 -52.57050000
36.92220000 -8.11130000 -48.63190000
36.31760000 -17.67150000 -49.08720000
32.97500000 -16.92630000 -51.31110000
48.12620000 -47.54630000 72.40840000
47.73460000 -49.15110000 73.28510000
49.96060000 -45.24520000 68.36790000
-79.27730000 -28.93220000 62.05110000
-80.60900000 -28.20010000 60.44740000
54.02640000 89.77570000 39.97040000
53.91110000 105.09300000 40.95490000
52.34710000 104.51860000 44.48320000
-28.18890000 6.26280000 86.81510000
-21.49830000 33.65860000 87.81710000
-22.76970000 40.14650000 87.60090000
-19.10080000 40.45220000 88.06250000
52.78470000 29.34560000 -33.04340000
53.30410000 29.12600000 -35.00040000
67.14770000 20.57430000 -10.56080000
67.23650000 15.89990000 -10.51210000
65.36840000 22.23030000 -12.58290000
-79.27030000 -8.81520000 64.40140000
-81.43930000 -1.67350000 60.52760000
-82.28660000 -1.98330000 59.55800000
-80.63550000 -4.08830000 62.61620000
70.36510000 12.58870000 13.68580000
70.36530000 11.84610000 14.88430000
71.22820000 9.97760000 14.65570000
70.41640000 6.22660000 14.00290000
69.86060000 9.57840000 12.40460000
71.21470000 7.35670000 14.42180000
58.37080000 69.88890000 59.07850000
59.90030000 65.78450000 56.62900000
58.80770000 70.11950000 57.96220000
58.25740000 73.60790000 58.75370000
-79.60620000 0.91000000 61.58230000
-80.21540000 -0.45290000 60.92830000
-80.16560000 -1.75970000 61.52140000
-78.13000000 -0.66010000 61.32160000
67.81600000 -13.00610000 4.53440000
68.32860000 -12.79530000 5.16490000
69.56610000 -10.68140000 4.64910000
70.18140000 -14.24660000 7.15320000
-9.59750000 -56.91330000 96.64460000
-5.80220000 -58.27340000 95.31280000
-2.67260000 -56.51940000 96.42080000
-68.40640000 80.21790000 -47.62830000
-62.87900000 81.73940000 -50.88060000
-84.98060000 102.85180000 59.76630000
-83.76990000 101.17640000 59.65240000
-83.48550000 102.97880000 62.06570000
-90.62570000 103.07020000 44.55860000
-90.35470000 101.13840000 44.29010000
-89.12450000 100.94080000 47.30720000
70.33350000 -12.12960000 8.10780000
67.74520000 -10.34360000 3.39810000
-89.82750000 108.44000000 29.13130000
-90.01470000 110.42130000 25.17300000
-89.30360000 -35.95810000 32.91710000
-88.76240000 -41.92130000 34.36830000
-88.38890000 -36.10810000 36.74600000
-4.81780000 -50.05220000 -66.24960000
-5.15780000 -45.18820000 -65.16010000
-4.24870000 -48.00500000 -67.41830000
-5.23280000 -42.59950000 -63.80170000
-5.72660000 -45.36490000 -63.73170000
-5.33020000 -41.73170000 -62.50990000
46.34620000 -44.37760000 70.60080000
46.60420000 -34.52730000 69.74070000
45.72590000 -28.87130000 70.21980000
-32.00460000 74.12920000 -63.34120000
-33.04670000 71.97270000 -64.69290000
-34.16540000 72.63420000 -63.36090000
-31.66110000 72.75140000 -63.75130000
-25.54210000 13.89730000 -67.41370000
-23.95820000 20.08190000 -67.50410000
-21.27380000 23.69880000 -67.45980000
67.95140000 -9.62830000 7.08380000
67.84130000 -3.86440000 8.78580000
69.56100000 -9.82850000 5.33810000
67.71640000 -9.08750000 3.90990000
67.96600000 -9.12600000 5.71260000
6.93300000 107.83500000 96.87110000
7.94970000 106.72140000 97.33440000
-0.74410000 109.16060000 100.05290000
5.33330000 107.42050000 98.51430000
-91.18460000 73.17470000 43.30710000
-90.79360000 76.47090000 43.02650000
-89.44800000 76.56330000 43.40320000
-28.80560000 103.64810000 -54.29860000
-32.38810000 102.33930000 -53.15080000
-29.77700000 100.61950000 -53.69910000
-39.04590000 100.27450000 -50.71820000
-35.43000000 101.03700000 -52.08160000
-39.52760000 1.06910000 91.16160000
-89.91000000 -59.26150000 0.09760000
-87.23460000 -60.30700000 -3.56520000
-82.92430000 -60.37280000 -15.40410000
-11.88260000 35.44070000 -67.64300000
-9.03950000 35.65920000 -68.21240000
-8.90320000 31.44120000 -67.59090000
-8.54670000 34.12210000 -67.63980000
-76.82140000 18.34650000 63.41140000
-75.49330000 14.59060000 64.86950000
-78.01080000 19.33380000 65.38540000
-76.64830000 18.66160000 66.31390000
-79.55890000 111.23200000 57.75030000
-75.74840000 111.29320000 63.44460000
-76.87010000 110.14430000 58.53090000
-73.00230000 23.54750000 -40.99980000
-73.32800000 26.40370000 -41.56640000
-71.99590000 23.36130000 -42.41020000
-71.12460000 25.25310000 -42.55900000
-71.51470000 28.52190000 -41.97030000
-69.51360000 27.46970000 -41.69140000
68.42790000 -14.19030000 13.15000000
68.22680000 -5.22760000 17.45710000
68.70150000 -11.94910000 19.43340000
70.02940000 -12.90860000 18.94310000
-79.28240000 111.75520000 61.44970000
-20.05450000 67.92250000 -67.67650000
-22.91180000 68.83650000 -66.16070000
-21.93960000 69.33110000 -65.75200000
-22.99090000 71.00730000 -65.07410000
-23.56090000 69.06700000 -66.35630000
-24.21390000 69.81470000 -67.18420000
47.51790000 110.78760000 -32.18550000
46.57620000 113.35800000 -33.00290000
48.63280000 111.82290000 -29.23290000
50.06270000 111.66840000 -28.46360000
-17.34320000 30.82480000 -68.31180000
-31.55600000 32.63310000 -66.13260000
-33.70180000 32.66670000 -64.35770000
-74.05570000 -45.86720000 64.48220000
-73.52560000 -40.54660000 65.34960000
44.27420000 -0.56080000 61.41310000
44.43160000 -0.55820000 61.21550000
44.26140000 -1.57040000 61.43600000
65.46990000 -58.39380000 -11.98360000
66.88490000 -58.82120000 -7.44760000
69.47430000 -59.20600000 6.46400000
69.06970000 -58.69550000 2.40710000
69.31230000 -56.66500000 3.40090000
-19.72130000 10.26290000 96.73310000
-19.22860000 8.48300000 97.91840000
-17.94010000 11.16020000 97.95000000
-28.54250000 28.05000000 -66.08910000
-29.87790000 30.26850000 -65.61890000
-27.76310000 30.28420000 -66.83320000
-23.80060000 32.65180000 -67.76600000
-29.51340000 32.89520000 -66.73240000
-25.42120000 35.32500000 -66.85100000
-87.83160000 2.00160000 47.72760000
-85.84310000 0.75130000 47.87960000
-83.74730000 -59.06520000 2.21780000
-84.00530000 -60.07450000 12.73730000
-52.15270000 -54.91250000 -57.10120000
-51.74310000 -52.95180000 -57.81850000
-27.05440000 111.89030000 -59.96870000
-71.93240000 56.63440000 -39.25610000
-72.08880000 59.70240000 -39.22330000
-73.17220000 56.24890000 -39.11890000
