31.10470000 -20.21770000 15.21180000
21.45820000 -30.41010000 27.04350000
34.26100000 -55.46730000 -10.92610000
19.48390000 -56.65700000 30.93620000
17.28840000 -56.48220000 32.00760000
33.16850000 -54.41570000 -13.86750000
31.78490000 -55.51100000 -16.53460000
31.39590000 -52.28640000 -17.60620000
32.59300000 -51.92260000 -15.37990000
32.06670000 -17.91120000 12.91130000
18.96530000 -54.44790000 31.37960000
17.27890000 -53.94840000 32.18610000
15.26910000 -54.94670000 32.93350000
30.37490000 -49.25230000 -19.09170000
31.79120000 -49.02480000 -16.67270000
33.76000000 -52.61920000 -12.67650000
28.66680000 -20.77610000 19.34530000
33.69100000 -50.52760000 -12.65670000
20.87280000 -54.47420000 30.34670000
32.51190000 -48.15530000 -14.99040000
25.92510000 -19.89990000 22.66940000
34.64750000 -51.60230000 -10.11480000
32.75300000 -23.07060000 -10.84230000
32.99490000 -45.88790000 -13.28680000
27.82740000 -54.47110000 24.59870000
35.21410000 -53.14290000 -8.10230000
31.13810000 -24.86790000 -14.96270000
31.89670000 -19.00880000 -12.81430000
32.40470000 -34.90500000 -13.00330000
26.97210000 -52.89400000 25.36800000
24.77250000 -54.34280000 27.49270000
30.28220000 -46.24490000 -18.62930000
35.76380000 -53.25270000 -5.68270000
31.47500000 -45.15140000 -16.36960000
25.13440000 -52.37460000 27.08150000
23.06430000 -53.11220000 28.83210000
23.65260000 -51.90640000 28.27740000
36.12530000 -52.00510000 -3.37050000
27.64220000 -50.98040000 24.31450000
35.54380000 -51.18880000 -6.56720000
24.24140000 -50.92050000 27.51970000
36.02020000 -49.71080000 -3.06560000
25.37400000 -49.66890000 26.24950000
24.31250000 -49.86790000 27.24290000
24.02660000 -49.16840000 27.17840000
16.59460000 -52.48380000 32.32050000
34.26610000 -46.67120000 -9.90190000
35.08790000 -47.78170000 -7.22570000
35.59890000 -47.38280000 -4.19270000
20.56920000 -52.71310000 30.45860000
22.76180000 -51.26700000 28.79860000
21.20110000 -50.50960000 29.64920000
30.37060000 -27.52410000 -16.59270000
29.89300000 -14.52460000 -16.60370000
20.11540000 -50.31450000 30.22050000
35.90060000 -46.74990000 -0.21970000
36.25820000 -49.75990000 0.06710000
18.24720000 -51.96540000 31.53930000
17.97810000 -49.85250000 31.12610000
16.74690000 -50.34580000 31.83870000
36.12910000 -54.92000000 7.21870000
36.34930000 -54.08820000 5.44650000
36.48590000 -54.72310000 3.66390000
34.44430000 -43.50880000 -8.15800000
22.81160000 -50.31400000 28.42480000
22.32430000 -49.89330000 28.75610000
21.78510000 -49.23310000 28.89850000
21.43750000 -48.53220000 29.04270000
23.21170000 -48.95880000 27.85580000
35.13650000 -42.90760000 -4.45210000
36.30570000 -51.78140000 5.45610000
36.43490000 -51.61740000 2.31640000
34.53990000 -38.95530000 -6.64460000
18.18160000 -47.90530000 30.65490000
16.71520000 -47.00940000 31.17910000
33.33070000 -42.45010000 -11.59990000
35.98540000 -48.08760000 4.11800000
34.34630000 -16.27050000 -1.54720000
35.92060000 -46.69230000 2.27540000
35.50160000 -42.80720000 -1.18280000
23.96630000 -61.03600000 -2.67610000
24.27730000 -62.29100000 -1.02480000
24.31790000 -62.76160000 0.52290000
24.58080000 -63.57900000 0.14380000
25.14280000 -63.95980000 0.49240000
24.76310000 -63.71870000 1.82450000
24.42520000 -63.33840000 1.11810000
24.69340000 -63.80090000 -1.04670000
24.22200000 -61.59770000 1.27050000
24.25560000 -60.57090000 -0.45370000
25.39070000 -63.88970000 3.32960000
24.70530000 -63.49850000 2.90490000
26.70620000 -64.03030000 3.65270000
25.19220000 -63.68590000 3.89690000
24.38030000 -62.55360000 4.06000000
24.95620000 -62.80650000 4.96020000
24.05750000 -59.70030000 -1.12610000
23.75340000 -58.84830000 -1.27550000
25.48400000 -63.46140000 4.86150000
26.33230000 -63.86160000 4.85460000
27.28410000 -63.91070000 5.47830000
26.59630000 -63.50940000 5.67890000
24.18260000 -60.31640000 0.86210000
35.03330000 -38.25640000 -3.19050000
23.98440000 -59.50690000 0.81930000
23.41160000 -58.26430000 0.76910000
34.46630000 -27.53620000 -4.13790000
33.73750000 -15.79380000 -6.12670000
24.43660000 -63.12640000 2.59170000
24.16040000 -62.25970000 3.09140000
23.91490000 -60.66740000 3.52080000
23.60830000 -58.98650000 3.01380000
23.54350000 -59.96180000 4.89960000
25.62520000 -62.54610000 5.90220000
23.03680000 -58.50240000 4.79810000
22.74330000 -59.30700000 6.71760000
22.21760000 -58.10830000 6.60450000
24.53550000 -61.73920000 5.92830000
30.02740000 -40.99010000 -18.21090000
25.52950000 -61.76300000 6.62960000
22.44300000 -57.46330000 4.37620000
24.67490000 -61.25050000 6.97880000
23.17770000 -57.97130000 2.63660000
28.50210000 -41.54990000 -20.39640000
24.08950000 -61.65810000 5.27820000
22.61240000 -57.22810000 2.04110000
23.55820000 -60.80250000 5.86300000
23.79050000 -61.08740000 6.54810000
21.70030000 -56.91160000 5.02250000
24.00820000 -60.91680000 7.81240000
23.28420000 -60.71500000 7.16100000
21.40140000 -56.33870000 2.52950000
22.83200000 -60.25770000 7.77660000
23.01950000 -60.69720000 8.78180000
22.61940000 -60.50140000 8.84150000
22.11200000 -60.12590000 9.35430000
22.01510000 -58.84090000 8.20300000
23.01220000 -58.27710000 -3.58850000
31.06810000 -39.39610000 -16.28510000
28.20590000 -63.36560000 6.34340000
28.11750000 -63.83770000 5.94580000
28.61960000 -64.04040000 5.58070000
30.44100000 -63.80400000 6.57970000
23.16040000 -57.81850000 -1.83140000
23.19120000 -57.73920000 -0.67200000
31.96010000 -39.30830000 -14.51030000
30.86250000 -63.30340000 7.00010000
22.20870000 -57.14790000 -3.49330000
21.78310000 -56.56930000 -2.02830000
32.26610000 -62.39460000 7.83770000
22.64160000 -57.07030000 -0.44930000
22.51850000 -57.82120000 -4.84660000
21.88540000 -56.57700000 0.61610000
27.84530000 -62.66690000 6.60210000
18.48500000 -54.64980000 0.30800000
28.71950000 -35.48600000 -19.62200000
28.34180000 -61.96730000 7.30670000
17.46920000 -54.09600000 1.92390000
26.13170000 -61.47350000 7.19960000
28.73290000 -61.44150000 8.10620000
27.29870000 -61.05720000 8.47200000
21.42160000 -57.23980000 6.95400000
20.78290000 -57.54080000 9.15830000
21.22290000 -58.31540000 9.44420000
34.24260000 -10.46770000 0.91600000
20.35490000 -56.64260000 8.17270000
21.04400000 -56.50150000 5.14500000
17.57220000 -54.58250000 4.85930000
22.19350000 -60.77960000 13.92840000
22.33350000 -60.74780000 11.21100000
17.71400000 -55.29780000 8.25370000
19.34900000 -56.42380000 9.51400000
19.88500000 -60.36670000 13.56850000
20.95490000 -60.64310000 12.61310000
19.76350000 -60.63340000 14.32780000
15.63480000 -54.83340000 10.33600000
33.42310000 -6.73090000 7.56610000
14.23110000 -52.64700000 4.97560000
14.33300000 -53.12630000 6.63590000
15.48740000 -53.19590000 3.17340000
13.33570000 -51.93050000 3.38530000
33.92130000 -9.87490000 -4.01350000
23.70030000 -60.77380000 9.23010000
21.13180000 -60.32490000 11.59640000
22.17590000 -60.61340000 10.38490000
32.64910000 -4.27730000 -9.40640000
21.44230000 -59.69660000 10.38470000
20.15080000 -59.28710000 12.27080000
3.37000000 -60.31540000 22.27660000
5.53580000 -60.40660000 22.19370000
5.54230000 -60.61360000 25.16880000
6.23580000 -60.61360000 22.86740000
10.25100000 -60.53200000 21.60420000
9.40780000 -60.55630000 22.54540000
7.96580000 -60.45140000 22.07980000
6.00260000 -60.53670000 25.67780000
9.91720000 -52.67800000 10.71410000
12.33550000 -53.60430000 10.63210000
10.29370000 -54.25820000 14.05680000
8.48800000 -52.65070000 11.57800000
27.14470000 -30.38470000 -21.25800000
14.52690000 -55.57300000 13.47930000
25.40430000 -27.05530000 -23.00690000
29.26080000 -26.06750000 -18.28850000
12.21690000 -52.03000000 7.12840000
33.98070000 -3.85490000 3.17550000
11.12810000 -51.75970000 7.80590000
9.92490000 -50.94740000 6.94610000
9.76030000 -51.70370000 8.93080000
12.97180000 -60.51250000 31.54920000
12.78290000 -60.46410000 32.56020000
10.08990000 -60.46450000 32.89270000
13.47710000 -60.13290000 32.76810000
27.99830000 -21.47590000 -19.81520000
33.33730000 -0.98570000 -6.12420000
8.55220000 -55.07460000 16.49170000
13.06470000 -60.32820000 19.85020000
11.11650000 -60.42940000 20.87400000
13.76860000 -59.63580000 18.99190000
12.72100000 -59.49860000 19.58000000
12.89640000 -58.09050000 18.88220000
14.57890000 -56.48150000 15.78920000
12.73500000 -57.01150000 18.11900000
13.20330000 -56.61630000 17.30800000
12.30420000 -55.83540000 16.38750000
11.39170000 -57.55690000 19.29070000
10.39340000 -55.97930000 17.61520000
35.26660000 -52.77160000 11.10090000
30.17760000 -19.93400000 16.87810000
35.61870000 -52.28100000 9.51200000
34.77910000 -51.38700000 12.29410000
35.25490000 -51.08880000 10.69990000
30.64250000 -15.67770000 15.86160000
29.91450000 -18.28740000 17.33910000
22.61520000 -15.26050000 -25.32050000
34.03870000 -50.93570000 14.19830000
3.58170000 -58.85710000 21.68190000
5.27950000 -60.07410000 21.91760000
2.11830000 -58.63660000 21.49100000
5.50150000 -59.38810000 21.64280000
36.07190000 -51.80960000 7.29970000
28.58540000 -15.32400000 19.22810000
3.09330000 -57.52350000 21.02820000
35.81730000 -48.68560000 6.37350000
3.45400000 -56.45970000 20.17640000
5.26850000 -58.28400000 21.30200000
4.90570000 -57.51930000 20.90230000
5.83610000 -56.96960000 20.32560000
27.44860000 -15.84210000 20.71350000
26.27940000 -15.73750000 22.10160000
8.69810000 -60.20510000 21.53520000
8.91190000 -59.75200000 21.21820000
10.90200000 -60.09200000 20.58700000
35.41520000 -49.67560000 9.15080000
8.29280000 -58.98460000 21.10800000
10.77690000 -59.30920000 20.31360000
24.94830000 -10.00320000 -22.96300000
26.56060000 -13.58440000 -21.28520000
11.22870000 -58.42210000 19.83060000
7.88930000 -58.17000000 20.79660000
8.95470000 -57.50040000 19.98200000
34.98340000 -50.14540000 11.18650000
34.32480000 -49.62460000 12.70280000
29.49300000 -10.58620000 17.56410000
35.11330000 -48.27590000 9.78050000
23.50810000 -10.69750000 -24.42020000
34.76470000 -46.68880000 10.20440000
34.12200000 -46.90130000 12.03440000
33.44320000 -52.13170000 15.96770000
6.44780000 -55.84370000 18.67430000
24.90350000 -15.90680000 23.58170000
33.20040000 -50.58140000 15.95620000
2.74770000 -55.70480000 19.05190000
33.99280000 -49.16620000 13.54650000
6.28180000 -56.33560000 19.53460000
33.47400000 -49.65700000 14.79480000
32.71070000 -49.04640000 16.31740000
31.75430000 -50.55820000 18.74930000
33.50850000 -48.71640000 14.50550000
32.43670000 -48.87490000 16.99560000
32.84570000 -13.08740000 10.36540000
32.88710000 -46.44380000 15.05970000
31.98240000 -48.83100000 17.67210000
33.53920000 -46.38820000 13.47470000
31.19900000 -48.74280000 18.96900000
9.34320000 -56.78890000 19.17040000
31.19440000 -7.21980000 14.27400000
35.37550000 -40.13940000 0.98840000
31.84340000 -46.67230000 17.22960000
31.31520000 -46.47200000 18.01170000
31.20420000 -45.01450000 17.92990000
35.52540000 -44.45840000 4.42160000
35.17120000 -37.92900000 3.18770000
35.23020000 -43.20520000 5.90840000
35.01560000 -40.00080000 5.52560000
31.75760000 -6.39300000 12.96620000
35.18770000 -46.69030000 8.40960000
34.61050000 -39.60780000 7.77170000
34.49720000 -36.15470000 7.33000000
34.48290000 -44.51940000 10.23340000
34.76560000 -43.10880000 8.48120000
25.85720000 -12.11170000 22.39970000
27.33790000 -9.41080000 20.59060000
28.67940000 -8.72860000 18.75600000
30.26030000 -7.82420000 16.12640000
34.65290000 -41.13790000 8.33480000
34.28100000 -38.42010000 8.93740000
34.15270000 -44.58030000 11.19970000
34.02490000 -35.97970000 9.41490000
28.66190000 -5.68700000 18.64310000
27.59200000 -5.95180000 20.00190000
26.51900000 -8.37680000 21.61110000
32.86350000 -1.77480000 9.32450000
32.92160000 -33.07590000 12.45250000
33.62310000 -31.82240000 10.09350000
32.42930000 -4.31120000 11.01610000
28.64240000 -4.08750000 18.36740000
27.54550000 -4.79740000 19.90760000
30.04250000 -2.85860000 16.22300000
29.03660000 -2.31870000 17.81090000
27.84190000 -2.69740000 19.59220000
28.52290000 -2.92820000 18.42550000
27.92510000 -0.91260000 19.46560000
31.62020000 1.50550000 12.71810000
30.20710000 1.20400000 15.62450000
28.76150000 1.79800000 18.15560000
29.46610000 2.83180000 16.96860000
-14.47110000 -10.84270000 28.29320000
-12.83840000 -5.78140000 28.95940000
-15.72430000 -5.19720000 27.60400000
-14.07390000 -34.44300000 29.65420000
10.37880000 -23.42450000 31.69730000
11.22040000 -23.32140000 31.56580000
11.27090000 -21.53570000 31.51840000
10.64440000 -19.71030000 31.57630000
-11.78850000 -36.86470000 30.70130000
-12.22680000 -33.60040000 30.31060000
8.67240000 -19.99480000 32.04050000
9.13280000 -25.10170000 32.14650000
9.97120000 -26.10060000 31.94770000
6.03900000 -60.43570000 31.71500000
1.96380000 -60.39170000 33.85190000
-0.77040000 -60.46230000 32.23250000
7.43070000 -20.53600000 32.24080000
12.01000000 -23.32700000 31.16950000
12.25920000 -22.29020000 30.95910000
12.64470000 -20.46840000 30.99330000
13.31050000 -21.41630000 30.67560000
9.20990000 -19.27030000 31.81690000
11.63260000 -19.90140000 31.41880000
13.02600000 -19.40860000 30.99520000
-14.45020000 -28.90900000 29.00530000
-14.84150000 1.15900000 28.05940000
-10.90540000 -31.92110000 30.65450000
-11.69640000 -33.47550000 30.43090000
-1.94080000 -60.63720000 28.40640000
15.26690000 -22.09590000 30.26740000
14.63530000 -25.51790000 30.56110000
16.83080000 -23.19320000 29.62390000
-1.01820000 -60.47760000 29.54440000
14.89180000 -20.76280000 30.31170000
14.05320000 -22.27730000 30.53180000
16.61630000 -19.47960000 29.60890000
15.45560000 -19.93650000 29.93590000
-12.37180000 -28.61430000 29.90220000
-10.61750000 -28.35430000 30.43640000
16.48990000 -17.54600000 29.46580000
14.23340000 -19.29750000 30.60150000
15.03830000 -18.84700000 30.15100000
-5.94530000 -34.54820000 32.20380000
-4.95580000 -38.02430000 32.71700000
-4.58050000 -33.79830000 32.46810000
18.51540000 -18.70400000 28.67380000
22.06780000 -19.05680000 26.24790000
20.52090000 -20.18920000 27.46990000
22.11560000 -20.89510000 26.38370000
23.16390000 -20.13290000 25.43890000
-2.38750000 -30.94140000 32.56610000
-3.03720000 -35.54440000 32.75530000
-6.90460000 -35.05200000 32.05760000
-20.77650000 0.29890000 24.74700000
-19.23730000 -8.43470000 25.80280000
-17.58380000 1.82220000 26.68380000
19.44920000 -19.54900000 28.16580000
20.19470000 -16.92680000 27.68840000
12.03880000 -17.45690000 31.20820000
9.03600000 -17.56380000 31.92110000
10.51690000 -16.03610000 31.57730000
-19.10830000 6.36820000 25.78580000
13.35880000 -18.05020000 30.88900000
15.22310000 -16.75160000 30.12660000
13.96390000 -15.89660000 30.53870000
17.67700000 -16.68670000 29.06580000
16.44110000 -13.98930000 29.47740000
-1.81290000 -35.89730000 33.00180000
-0.64600000 -37.76550000 33.26450000
1.01250000 -35.73540000 33.20520000
14.75610000 -14.53600000 30.21160000
18.54470000 -15.08630000 28.53140000
17.12530000 -14.88780000 29.08580000
-4.80800000 -61.34090000 33.11650000
0.33700000 -32.90340000 32.93730000
13.21730000 -16.91270000 30.74760000
12.51770000 -11.83960000 30.87070000
11.88830000 -12.56850000 31.15540000
-3.65980000 -60.70280000 32.74600000
2.59600000 -32.51770000 32.99200000
-4.21030000 -60.66840000 33.82230000
-2.90290000 -60.39700000 33.88840000
-2.52810000 -60.51160000 32.08620000
-3.17780000 -60.09880000 34.24270000
-4.75780000 -60.52750000 33.98670000
-5.44200000 -59.21520000 34.14750000
10.10970000 -11.34490000 31.53220000
17.99680000 -13.85090000 28.52290000
17.39590000 -12.92650000 28.84410000
-4.73740000 -28.85830000 32.09200000
15.01330000 -11.36000000 30.00570000
-8.03650000 -30.36300000 31.38700000
-3.11220000 -58.75880000 34.62970000
-5.25770000 -57.47080000 34.46780000
-1.37460000 -60.12760000 34.37300000
-0.76920000 -60.35650000 34.06580000
-2.12300000 -59.77890000 34.51600000
1.93060000 -59.76990000 34.56260000
-0.91870000 -58.30030000 34.87900000
1.37000000 -60.17990000 34.37000000
13.64860000 -10.02850000 30.50330000
2.13390000 -58.94410000 34.74320000
2.66640000 -56.77860000 35.10310000
-0.64730000 -29.48710000 32.71270000
0.63430000 -30.60570000 32.80950000
-7.13210000 -57.85800000 34.06190000
-7.55350000 -55.78440000 34.19990000
-11.21030000 1.46590000 29.51570000
-5.22180000 -55.49510000 34.75900000
-5.73340000 -53.97950000 34.68710000
-3.69410000 -26.78690000 32.21230000
-0.10910000 -26.88290000 32.62260000
0.40080000 -55.83130000 35.29680000
-2.73630000 -56.52630000 35.02300000
2.70030000 -26.34920000 32.67600000
1.26350000 -22.86400000 32.62250000
-1.04550000 -23.88590000 32.38230000
12.61200000 -44.08410000 32.24200000
12.33800000 -47.90180000 32.95290000
15.03200000 -47.16310000 31.91910000
2.83560000 -22.72900000 32.65520000
9.52840000 -47.14730000 33.45690000
4.25960000 -23.79610000 32.52680000
-2.58660000 -54.63520000 35.18490000
9.75920000 -44.26410000 33.03870000
13.23230000 -41.08520000 31.78880000
10.87290000 -41.03480000 32.39560000
-3.55780000 -53.33620000 35.06510000
3.85840000 -28.84540000 32.70840000
5.76950000 -26.95440000 32.60640000
15.68840000 -44.59240000 31.24810000
-12.85330000 6.98800000 28.89350000
4.86660000 -25.09150000 32.59690000
-0.85710000 -52.87980000 35.22740000
0.31460000 -53.50830000 35.36620000
14.59230000 -41.60440000 31.30320000
6.50990000 -23.38890000 32.40500000
-1.09180000 -20.79340000 32.39930000
-2.09440000 -22.24630000 32.25100000
5.31930000 -60.28070000 34.01670000
-3.05340000 -20.53020000 32.11060000
5.01140000 -58.70700000 34.71420000
5.79000000 -59.92460000 34.31780000
-9.68110000 -4.07240000 30.13640000
0.74980000 -19.83350000 32.43110000
9.20160000 -60.33870000 33.47240000
7.72310000 -60.08260000 34.00890000
7.28480000 -58.54150000 34.49590000
9.06220000 -59.71300000 33.98870000
-3.93410000 -18.91500000 31.88420000
-4.28540000 -20.78500000 31.77910000
-2.64650000 -18.92240000 32.06500000
-7.65640000 3.99400000 30.57710000
-7.31660000 -1.15690000 30.79130000
-0.80470000 -17.89610000 32.28140000
1.78210000 -18.65760000 32.49440000
11.31490000 -60.19730000 33.29230000
16.41390000 -40.48320000 30.44670000
15.73100000 -39.18970000 30.69570000
3.98530000 -20.57300000 32.52860000
12.06260000 -59.81190000 33.30690000
10.18070000 -59.01810000 33.92250000
16.14130000 -37.69020000 30.33590000
10.37040000 -39.18440000 32.45790000
12.64550000 -38.48150000 31.69000000
14.13700000 -38.02540000 31.21520000
5.02650000 -56.15190000 35.08460000
11.93360000 -37.04880000 31.92000000
-10.10150000 6.74680000 29.88600000
8.56890000 -56.00920000 34.61710000
11.26570000 -57.07410000 33.94550000
7.31920000 -44.15560000 33.40490000
6.74050000 -47.30060000 34.03200000
12.93940000 -55.29570000 33.68820000
10.71970000 -54.12930000 34.30680000
8.08570000 -42.03300000 33.11850000
5.05270000 -43.62250000 33.64850000
6.66110000 -54.32910000 35.03080000
5.30900000 -39.49290000 33.23560000
7.74170000 -39.40540000 32.87640000
5.61130000 -51.83960000 34.93220000
8.28740000 -53.41360000 34.73070000
-5.13070000 0.58950000 31.31280000
4.58960000 -14.77640000 32.34320000
6.22600000 -37.78620000 33.03690000
1.44620000 -15.82360000 32.40680000
-7.19400000 9.60110000 30.75680000
8.55250000 -36.64800000 32.61610000
-5.08910000 10.90850000 31.23410000
0.34660000 -12.92440000 32.27020000
7.30480000 -37.54280000 32.75110000
3.31180000 -54.45550000 35.34630000
6.65970000 -35.92140000 32.83080000
-3.39580000 1.01200000 31.64390000
3.60370000 -40.08930000 33.38620000
3.99240000 -36.93370000 33.12290000
3.59200000 -53.08390000 35.30420000
3.06820000 -11.93920000 32.32710000
10.10290000 -35.24120000 32.31850000
22.85040000 -16.77490000 25.53620000
1.44270000 -10.81070000 32.19110000
2.75030000 -10.55690000 32.12820000
21.83430000 -17.52360000 26.49400000
-4.12460000 -16.70190000 31.77010000
-3.10330000 -15.07970000 31.90970000
-5.38480000 -15.86800000 31.44010000
17.03960000 -36.61170000 29.86220000
14.74050000 -35.47840000 30.89450000
21.70850000 -15.56650000 26.52000000
-5.02540000 -51.69090000 34.58160000
20.29410000 -15.21800000 27.51780000
14.46520000 -32.94670000 30.89070000
10.91900000 -34.60600000 32.03330000
12.44340000 -33.82950000 31.65760000
-2.77960000 -50.54710000 34.73330000
-0.18130000 -49.82690000 34.79650000
23.16940000 -14.73670000 25.23700000
-5.44410000 -49.67750000 34.16320000
-4.81980000 -47.15820000 33.81180000
-2.99890000 -46.35340000 33.98900000
9.87220000 -52.41300000 34.35210000
-5.24090000 -11.62910000 31.43690000
24.01750000 -11.25530000 24.24200000
5.29830000 -34.65420000 32.89320000
4.81480000 -34.02170000 32.98540000
7.86570000 -51.33080000 34.48300000
-3.24250000 -12.29980000 31.77050000
3.11510000 -35.24260000 33.15240000
23.39770000 -12.19260000 24.89990000
22.37150000 -14.14080000 25.78310000
10.27810000 -49.72970000 33.78850000
6.14830000 -34.57460000 32.69810000
3.06770000 -50.62230000 34.94870000
20.51900000 -13.93060000 27.09300000
7.45880000 -34.01080000 32.66340000
18.77880000 -14.13480000 28.12170000
6.49070000 -32.73520000 32.66650000
19.41580000 -12.84980000 27.76300000
8.80110000 -32.37180000 32.34080000
22.08660000 -12.35900000 25.94530000
20.48500000 -11.85130000 27.10370000
-2.88790000 -6.97070000 31.78270000
-1.64260000 -8.89280000 31.98860000
5.46630000 -30.54730000 32.69010000
-8.73050000 -10.24260000 30.44080000
-6.83430000 -13.99450000 31.09930000
-5.77170000 -8.17580000 31.18700000
-1.08700000 -11.08250000 32.04700000
1.07330000 -9.18260000 32.13630000
18.62780000 -12.70550000 28.05150000
18.67780000 -11.62640000 28.14480000
17.14100000 -9.60880000 29.00150000
0.08670000 -8.33590000 32.14780000
18.28130000 -8.51850000 28.32040000
7.52430000 -14.03090000 32.05010000
15.85830000 -7.74550000 29.57050000
4.89130000 -48.25540000 34.38640000
11.36960000 -32.13840000 31.87680000
9.43160000 -30.93840000 32.21650000
2.53590000 -30.97870000 32.79680000
25.01660000 -9.55710000 23.21380000
23.20600000 -8.67730000 24.98160000
-0.77190000 -46.47470000 34.19000000
2.52120000 -46.37670000 34.20790000
23.79070000 -9.26050000 24.25730000
12.70170000 -29.65250000 31.33210000
24.63980000 -8.28840000 23.52660000
24.25800000 -7.60230000 23.99520000
11.26840000 -30.22870000 31.72800000
22.25530000 -11.32650000 25.69770000
21.04420000 -9.73320000 26.74660000
22.58280000 -9.62990000 25.54370000
9.80420000 -29.69270000 32.17390000
21.16940000 -8.82720000 26.50650000
-2.09520000 -42.72880000 33.61470000
11.83900000 -27.10890000 31.54480000
19.70320000 -8.20510000 27.57750000
-0.32200000 -42.42290000 33.73260000
7.18080000 -29.79240000 32.57820000
23.46610000 -7.34410000 24.62450000
22.14630000 -5.99030000 25.82240000
20.99120000 -5.61260000 26.59910000
6.21260000 -27.99290000 32.51390000
7.95830000 -26.30340000 32.28690000
26.01320000 -7.79450000 22.04170000
25.34380000 -7.08060000 22.83860000
6.39110000 -10.44770000 32.08100000
5.21890000 -9.77460000 32.05420000
3.68730000 -9.22180000 32.17630000
2.74230000 -7.80680000 32.19710000
26.12860000 -6.41290000 21.78600000
19.16230000 -34.66690000 28.69030000
3.46190000 -42.34840000 33.69050000
26.95170000 -4.70580000 20.80170000
25.97670000 -4.92070000 22.06660000
17.52180000 -33.95460000 29.56970000
24.40900000 -3.76850000 23.70750000
23.80310000 -5.48800000 24.40550000
-8.28530000 -53.74640000 34.08830000
16.42920000 -35.25490000 30.18180000
-6.99840000 -52.85980000 34.34860000
22.07160000 -3.90190000 25.76450000
23.08940000 -3.92340000 24.90010000
-9.10170000 -52.77540000 33.75260000
18.60520000 -32.62830000 28.92920000
9.42130000 -7.59400000 31.59580000
11.13970000 -7.85320000 31.18770000
-10.05520000 -51.77330000 33.30960000
-9.38500000 -51.34000000 33.34790000
22.44760000 -0.66770000 25.48200000
19.55650000 -9.95200000 27.73510000
-14.31320000 -14.29940000 28.46940000
-11.29720000 -10.59010000 29.61230000
-7.71180000 -50.44560000 33.71610000
-9.53260000 -48.47390000 32.88950000
-8.91410000 -49.73160000 33.35160000
19.78020000 -32.80540000 28.17890000
-6.29530000 -50.70760000 34.23460000
20.76690000 -31.06090000 27.57640000
19.58310000 -31.66890000 28.29940000
16.93650000 -32.05020000 29.79390000
-10.28370000 -50.09450000 32.81060000
20.16400000 -5.87160000 27.14030000
18.93820000 -30.38220000 28.72010000
17.16120000 -31.16650000 29.52390000
18.06860000 -30.46490000 29.19280000
-8.15300000 -49.03200000 33.35550000
20.00260000 -29.49500000 28.09810000
19.61720000 -30.22710000 28.24090000
-7.75650000 -47.70920000 33.26490000
-10.65190000 -46.05890000 32.09940000
14.78500000 -30.20290000 30.52630000
16.12550000 -30.35030000 30.05090000
13.15150000 -7.37020000 30.57330000
14.06030000 -30.84680000 30.93920000
-6.20310000 -48.30780000 33.70370000
14.21370000 -3.11160000 30.15640000
15.33800000 -4.57200000 29.67450000
17.41660000 -4.15380000 28.73050000
14.16890000 -28.75550000 30.78210000
16.90220000 -29.81020000 29.57160000
-8.00860000 -45.89860000 32.85760000
19.03780000 -4.40430000 27.88340000
-6.92790000 -45.24850000 33.12600000
16.21930000 -29.04050000 30.04540000
-6.17880000 -6.45890000 31.13210000
17.16470000 -28.75900000 29.51900000
18.12320000 -26.81160000 29.05170000
16.03250000 -27.14760000 30.01680000
20.65300000 -28.63890000 27.64030000
13.00330000 -3.20520000 30.52040000
13.32480000 -29.04780000 30.98980000
15.97720000 -1.78420000 29.45150000
13.82990000 -53.65510000 33.40830000
1.42920000 -29.08430000 32.82440000
14.02040000 -50.99300000 32.94340000
11.44600000 -52.90920000 34.05050000
2.05270000 -6.27220000 32.16030000
19.77980000 -3.47400000 27.34720000
20.25360000 -2.15660000 27.10400000
-0.64600000 0.70650000 31.97680000
1.09100000 -0.06510000 32.12900000
17.71920000 -0.65420000 28.56510000
26.48640000 -1.99050000 21.40930000
25.18110000 -0.85400000 22.91720000
-13.40620000 -26.38040000 29.30130000
-14.81980000 -21.77010000 28.55310000
23.95230000 0.65670000 24.13980000
26.00050000 0.00350000 21.87610000
-11.70830000 -25.89900000 29.98380000
-10.89620000 -25.63270000 30.14350000
27.09040000 1.82170000 20.58850000
-1.42780000 6.40950000 31.90390000
-12.43970000 -21.92730000 29.57400000
25.89930000 1.83280000 22.02660000
27.86610000 4.59880000 19.40440000
5.26730000 -8.25250000 32.04170000
7.74300000 -7.78240000 31.76150000
6.25160000 -6.71830000 32.02630000
23.32590000 5.78480000 24.64670000
27.06320000 4.10590000 20.46200000
1.48070000 -42.91910000 33.74510000
14.33560000 2.18820000 30.05390000
-10.60490000 -22.96760000 30.27840000
20.46770000 -0.10210000 26.89660000
12.18750000 -6.54270000 30.88500000
11.58380000 -6.80110000 30.95220000
20.84960000 4.76160000 26.63340000
21.88060000 5.85440000 25.87550000
7.78080000 -5.81200000 31.81300000
2.53270000 -40.02410000 33.44190000
1.36920000 -40.16920000 33.56690000
10.76950000 -5.29140000 31.20650000
18.33940000 2.93690000 28.16350000
11.99350000 -2.68590000 30.85850000
-8.85090000 -25.68310000 30.81290000
-6.43760000 -23.83390000 31.44890000
9.23000000 -0.32910000 31.51490000
14.90810000 7.00540000 29.76410000
19.45750000 3.36340000 27.54940000
16.58040000 6.68630000 28.99720000
-4.09760000 -22.43510000 31.90310000
4.99130000 -2.23680000 32.06420000
10.41190000 -1.29140000 31.19440000
-8.55610000 -42.45490000 32.33770000
7.13480000 -1.13960000 31.83900000
-5.54890000 -21.34480000 31.50500000
19.95200000 4.86820000 27.17100000
-9.44610000 -24.43250000 30.66630000
-8.41340000 -23.66050000 30.98640000
19.07620000 9.13110000 27.69690000
-6.16860000 -42.75690000 32.97300000
-4.39930000 -42.84390000 33.30300000
15.99030000 15.16490000 29.22020000
25.66620000 9.48700000 22.19150000
26.63790000 6.92660000 21.03620000
24.49310000 10.28970000 23.48650000
-8.90080000 -20.97280000 30.75660000
2.40920000 -3.81740000 32.18060000
3.91230000 -3.68810000 32.07580000
-6.04350000 -19.76730000 31.43140000
-10.55090000 -38.57680000 31.30590000
-7.76070000 -18.98000000 30.97590000
3.35000000 9.89080000 32.09970000
-4.70590000 -19.80450000 31.60480000
-7.61340000 -38.39620000 32.15990000
-9.46370000 -37.39000000 31.47230000
10.95160000 2.04110000 31.04430000
-16.71570000 -17.69000000 27.38770000
12.04010000 6.83970000 30.76030000
-13.41810000 -17.34710000 28.96740000
6.44210000 5.28340000 31.90610000
7.84530000 7.94590000 31.63210000
-16.97220000 -13.16190000 27.14920000
9.91210000 11.59660000 31.24860000
-11.05750000 -18.24340000 29.96310000
-10.49900000 -36.37750000 31.14120000
-9.89040000 -34.99260000 31.20900000
-9.15080000 -14.72390000 30.42390000
-10.88690000 -14.13550000 29.83650000
13.14190000 13.80180000 30.37170000
-12.12350000 -14.08660000 29.31890000
-12.61840000 -13.24570000 29.20610000
21.79980000 -26.75740000 26.60980000
20.84940000 -26.31260000 27.41740000
19.52170000 -25.72650000 28.26940000
21.80110000 -24.78380000 26.59180000
20.68360000 -24.76100000 27.52460000
18.84460000 -23.59060000 28.54710000
19.95660000 -23.62910000 27.86000000
21.85820000 -23.19150000 26.49720000
20.54940000 -22.05930000 27.51440000
12.99840000 -25.90830000 31.17220000
13.00150000 -24.15550000 31.05410000
12.86750000 -23.14200000 30.86180000
-12.66380000 0.37280000 -32.20580000
-11.21320000 -2.21960000 -32.68160000
-13.68280000 -2.31850000 -31.91110000
-5.22750000 14.49380000 -33.40120000
-3.95270000 7.82720000 -33.68680000
-7.21870000 9.21870000 -33.26090000
-14.74670000 3.44590000 -31.43780000
-1.21930000 10.24560000 -33.75910000
1.29750000 19.29720000 -33.70090000
0.40900000 5.42720000 -33.84990000
2.78080000 11.93310000 -33.64380000
-15.98120000 -3.36380000 -31.09690000
-16.86360000 -1.63570000 -30.62560000
-16.00960000 1.40950000 -30.98780000
-18.01090000 -0.11630000 -30.04760000
-2.52070000 17.73900000 -33.64510000
-22.31420000 -13.02700000 -27.32130000
-10.21050000 2.78350000 -32.79460000
-8.35470000 2.25020000 -33.15600000
-7.72480000 -0.06840000 -33.34440000
-6.02790000 4.45600000 -33.47720000
-4.27870000 -0.18320000 -33.70520000
-0.16520000 22.16520000 -33.72890000
-8.36380000 5.65270000 -33.12610000
-9.38930000 8.84360000 -32.87210000
-9.92140000 10.39600000 -32.82130000
-8.97210000 12.69220000 -32.87110000
-4.61000000 -20.30480000 -33.85890000
-13.55690000 6.83870000 -31.82550000
-16.45910000 7.74860000 -30.68870000
-11.21460000 13.55350000 -32.33990000
-11.80990000 2.89890000 -32.37880000
-8.12590000 -14.69780000 -33.40020000
-9.66640000 -15.07590000 -33.12720000
-6.05120000 -9.54700000 -33.60500000
-6.73400000 17.46770000 -33.22370000
-8.95020000 19.13310000 -32.77270000
-11.51560000 7.69140000 -32.42420000
-11.45570000 -13.22210000 -32.70900000
-10.38800000 -6.67510000 -32.91570000
-12.87480000 19.83900000 -31.78610000
3.36110000 -15.40260000 -33.72960000
9.30630000 -5.72550000 -32.43850000
5.20370000 0.96830000 -33.35890000
-4.52430000 19.68590000 -33.44160000
-14.99200000 11.86390000 -31.18010000
-13.19130000 13.44990000 -31.79030000
3.74290000 5.50830000 -33.54740000
4.30990000 20.65560000 -33.40020000
1.54120000 -5.14750000 -33.85030000
7.20300000 2.07970000 -32.95700000
7.07650000 18.21080000 -32.91400000
8.93750000 14.78280000 -32.44850000
-1.71640000 -14.12020000 -33.92670000
0.01870000 -6.50820000 -33.92100000
-1.77610000 0.15820000 -33.86830000
18.90720000 -6.69410000 -27.93690000
-2.92560000 -7.52730000 -33.85870000
20.33970000 0.95960000 -26.87100000
-11.42910000 23.66040000 -32.27770000
-7.61520000 22.78820000 -33.07040000
-6.33210000 25.70240000 -33.32160000
-16.92270000 -13.12910000 -30.76000000
-15.39870000 -13.13510000 -31.43820000
-13.30430000 -12.16410000 -32.17690000
-9.89300000 26.37520000 -32.69590000
-19.01280000 -8.39660000 -29.59670000
-23.73200000 -5.64730000 -26.00920000
-20.24840000 -5.98610000 -28.77090000
12.06600000 18.32570000 -31.35540000
3.12080000 29.55190000 -33.54720000
15.07840000 8.50430000 -30.04060000
-1.85440000 24.66700000 -33.70820000
-3.91390000 27.73050000 -33.58910000
16.67670000 1.66180000 -29.21490000
-1.52650000 30.19600000 -33.71960000
-5.88310000 30.03830000 -33.43380000
1.41060000 31.78290000 -33.75230000
-8.39120000 30.89190000 -33.04680000
-14.11190000 -7.36290000 -31.84850000
-5.57480000 35.07060000 -33.55870000
-6.37530000 7.23340000 -33.46220000
-0.94730000 35.72330000 -33.83400000
-3.75850000 37.01430000 -33.74790000
-12.46320000 -4.55910000 -32.36410000
-9.32840000 -3.71550000 -33.09050000
-6.21530000 -4.22770000 -33.57180000
-10.16390000 -2.70520000 -32.95670000
-7.58660000 -2.37610000 -33.35260000
-25.11900000 -3.23230000 -24.63650000
-26.32830000 -20.58960000 -23.60560000
-33.29370000 6.84800000 6.86980000
-33.99260000 34.92250000 4.31810000
-34.27410000 29.57110000 2.14410000
-33.77310000 17.15940000 4.82830000
-27.19670000 -8.98180000 -22.43220000
-33.48970000 24.89600000 6.34940000
-33.60790000 33.94110000 6.27570000
-32.82430000 29.12240000 8.84920000
-32.90930000 34.73720000 8.64100000
-34.44690000 31.29120000 0.11630000
-34.20350000 35.56610000 2.70590000
-28.81310000 -8.03290000 -20.27730000
-32.22310000 13.78300000 10.37660000
-34.34270000 37.56100000 2.32730000
-33.35290000 36.72750000 7.24000000
-33.99390000 38.81600000 4.65290000
-33.25840000 40.12750000 -11.65810000
-32.86500000 27.90610000 -12.29280000
-33.87340000 40.91730000 -9.56450000
-34.38480000 40.11770000 -6.61850000
-34.06890000 28.48740000 -7.56710000
-34.37730000 27.69700000 -5.25650000
-34.61720000 38.19320000 -3.71040000
-34.50070000 27.85440000 -3.20340000
-30.89940000 15.61320000 13.56520000
-32.36780000 38.36030000 -14.06630000
-32.10010000 19.52160000 -14.15610000
-32.97510000 16.98670000 -11.71900000
-33.59050000 21.22560000 -9.60440000
-27.65860000 11.96470000 18.62430000
-34.12490000 15.73390000 2.55180000
-31.65350000 29.11010000 -15.39870000
-32.78790000 17.24320000 8.70490000
-34.50910000 39.79560000 0.88410000
-34.56760000 34.70520000 -1.13780000
-34.67360000 40.76120000 -1.79330000
-33.86330000 44.30800000 6.10760000
-31.70220000 20.82230000 11.82580000
-33.09460000 -1.04400000 -11.44750000
-34.31400000 44.61640000 3.67880000
-34.60880000 43.87220000 1.19460000
-34.03290000 0.24210000 -7.30420000
-29.08700000 17.70330000 16.77390000
-30.43730000 27.09650000 -17.63540000
-29.69430000 35.07080000 -19.00960000
-28.97120000 22.52820000 -19.86560000
-30.07040000 11.63670000 15.05990000
-34.88070000 48.91900000 -3.41560000
-34.90430000 49.86100000 -0.45470000
-29.82340000 27.12050000 15.77270000
-27.85430000 35.65410000 -21.58900000
-27.52010000 26.80590000 -21.87590000
-34.32150000 49.22870000 -8.31020000
-32.26920000 3.88380000 -13.67600000
-34.71270000 50.46830000 -5.91250000
-34.42210000 9.34500000 -2.87760000
-35.01330000 56.09650000 0.34340000
-34.41340000 15.54980000 -0.56360000
-34.94880000 51.83900000 -1.93790000
-31.23810000 41.23180000 -16.65020000
-32.60100000 49.84290000 -14.00520000
-34.27950000 14.42350000 -5.42110000
-31.33140000 48.19390000 -16.67290000
-30.09880000 49.41270000 -18.91380000
-31.78930000 53.00650000 -16.42050000
-30.73650000 53.19900000 -18.49430000
-21.95110000 6.06740000 -27.36350000
-11.22670000 30.84400000 -32.41300000
-12.20190000 26.94450000 -32.17730000
-13.23600000 28.05180000 -31.84240000
-33.63200000 53.23860000 -11.52670000
-33.99450000 12.88610000 -7.55560000
-14.32100000 31.51540000 -31.52780000
-15.52660000 29.08400000 -30.98120000
-15.74730000 31.70040000 -30.98260000
-33.08120000 54.69270000 -13.58360000
-12.43520000 33.60340000 -32.20110000
-14.02130000 33.34110000 -31.82270000
-16.44380000 33.64750000 -30.59810000
-13.60400000 34.19360000 -31.94390000
-14.87490000 35.69840000 -31.41170000
-13.71630000 36.78390000 -31.96300000
-12.60040000 37.27690000 -32.28950000
-17.58370000 29.34730000 -30.10400000
-18.67860000 28.33410000 -29.52640000
-19.36420000 29.37750000 -29.01640000
-21.57220000 31.06490000 -27.60040000
-19.89150000 35.01380000 -28.77620000
-17.36990000 36.09050000 -30.23270000
-29.44590000 6.10790000 -19.08560000
-35.14480000 57.26070000 -3.46250000
-34.98860000 58.18040000 -5.84460000
-26.15280000 -1.82790000 -23.40660000
-27.08070000 9.50720000 -22.27420000
-22.13390000 36.96180000 -27.28160000
-34.36600000 58.72690000 -10.00530000
-34.55020000 56.80320000 -8.55480000
-18.84500000 41.38820000 -29.40650000
-15.83690000 37.18430000 -31.09080000
-19.01070000 6.41810000 -29.41740000
-15.00810000 37.96510000 -31.41650000
-20.54400000 11.58410000 -28.32980000
-22.61860000 39.74890000 -27.04090000
-35.27640000 60.23020000 -3.60720000
-17.78280000 9.32160000 -30.05000000
-8.95370000 35.42920000 -32.99710000
-32.00270000 35.26850000 11.31370000
-4.50660000 47.61700000 -33.89750000
-5.64800000 43.05820000 -33.68550000
-7.04160000 48.97720000 -33.70440000
-7.56030000 38.20960000 -33.30410000
-17.36860000 14.44630000 -30.12440000
-10.78740000 39.80470000 -32.77580000
-19.27680000 16.12440000 -29.05340000
-15.60700000 16.81110000 -30.80330000
-24.33520000 14.12450000 -25.24310000
-23.29830000 16.36330000 -26.14580000
-11.21320000 49.75920000 -32.89170000
-9.54020000 46.56040000 -33.24560000
-30.35740000 12.29570000 -17.58730000
-8.07980000 56.88240000 -33.66590000
-5.62280000 54.83350000 -33.93000000
-25.48460000 22.88060000 -24.08650000
-31.24720000 11.72290000 -15.93920000
-21.85540000 22.19350000 -27.25180000
-19.55940000 22.07610000 -28.82070000
-23.65670000 23.81870000 -25.85010000
-17.33570000 21.60160000 -30.03490000
-12.77730000 54.10870000 -32.55710000
-14.48720000 54.51860000 -32.01160000
-13.19760000 58.87060000 -32.66810000
-15.15210000 58.72250000 -32.19090000
-16.15640000 54.96440000 -31.39010000
-9.88350000 59.69670000 -33.37870000
-20.20410000 25.52120000 -28.48700000
-14.24500000 60.81030000 -32.77730000
-12.29090000 61.08120000 -32.99550000
-16.42420000 59.70830000 -31.93560000
-13.10150000 62.32180000 -33.11940000
-22.91180000 32.27940000 -26.63800000
-14.92060000 61.99200000 -32.95730000
-14.18330000 62.67830000 -33.00740000
-8.91900000 39.06600000 -33.16750000
-12.49100000 41.91400000 -32.35980000
-8.51510000 41.94120000 -33.25000000
-2.84060000 48.98380000 -34.03910000
-1.03680000 44.82110000 -33.98630000
-7.34340000 41.67590000 -33.50680000
-14.20180000 41.79650000 -31.69470000
-26.33380000 28.97140000 -23.36580000
-16.99050000 63.02320000 -31.96230000
-17.66640000 62.57370000 -31.84960000
-18.37170000 63.32720000 -31.22660000
-16.16270000 62.13440000 -32.65860000
-16.16490000 61.54680000 -32.45960000
-16.01180000 62.58530000 -32.64450000
-15.09420000 63.20430000 -32.57590000
-16.46340000 63.41440000 -31.81030000
-12.61660000 63.12860000 -33.06370000
-12.62270000 63.56020000 -32.78340000
-13.86260000 63.74590000 -32.13180000
-17.04450000 63.71910000 -31.04100000
-13.79050000 64.05520000 -31.22670000
-21.14170000 64.19230000 -25.83960000
-13.83550000 64.44680000 -28.06430000
-13.77930000 64.31570000 -29.76850000
-19.24790000 62.95970000 -31.23590000
-18.67190000 63.55130000 -30.81520000
-19.82620000 63.23000000 -30.85990000
-18.61750000 63.76720000 -30.23310000
-20.54660000 63.54000000 -29.93890000
-21.51110000 63.28800000 -29.81410000
-22.74560000 63.54480000 -28.44790000
-24.01770000 39.65010000 -25.88710000
-24.87230000 34.08480000 -24.94150000
-19.57310000 63.98780000 -28.72510000
-25.73020000 35.27260000 -24.05860000
-26.49740000 38.39530000 -23.34390000
-29.09450000 41.87600000 -20.21340000
-25.47570000 63.68150000 -25.49750000
-27.80180000 63.40590000 -23.96950000
-27.30360000 63.77630000 -23.03110000
-25.78270000 64.03960000 -21.78330000
-24.31820000 63.93910000 -25.15300000
-28.94520000 63.77110000 -20.16680000
-21.80670000 64.21790000 -23.15910000
-25.96470000 64.10420000 -19.61660000
-23.75980000 63.18070000 -28.21960000
-23.06560000 62.96590000 -28.88850000
-27.60290000 42.81900000 -22.21270000
-30.14720000 42.88160000 -18.64500000
-24.74390000 63.45560000 -26.94250000
-26.19870000 63.26600000 -25.97270000
-26.61540000 62.91820000 -25.80830000
-27.45870000 63.01290000 -25.06810000
-25.41170000 63.13880000 -26.81330000
-28.40630000 63.11180000 -23.83970000
-22.57230000 63.81720000 -27.71480000
-14.61720000 22.64430000 -31.24860000
-12.91770000 24.60490000 -31.89220000
-34.06130000 59.85880000 -12.11490000
-34.70630000 60.48730000 -9.35900000
-15.41760000 23.61300000 -31.03420000
-35.04020000 60.11360000 -7.06790000
-17.21750000 23.84650000 -30.22610000
-18.21930000 25.92030000 -29.69990000
-35.07490000 60.04660000 -6.11100000
-35.70240000 61.70020000 -5.42630000
-14.22980000 25.29680000 -31.66770000
-35.52040000 61.85280000 -7.21010000
-35.27430000 62.29360000 -8.85600000
-15.30310000 25.48900000 -31.17580000
-35.29030000 63.00440000 -8.12940000
-35.72840000 62.59820000 -7.49800000
-35.32640000 63.08840000 -6.84000000
-35.71680000 62.84060000 -6.63500000
-33.98130000 63.51940000 -9.36980000
-34.04460000 63.61960000 -4.31980000
-35.15810000 63.28390000 -3.51030000
-22.06310000 44.77340000 -27.44390000
-23.97810000 44.41570000 -25.94600000
-14.85340000 27.10370000 -31.25380000
-33.14710000 63.43370000 -14.98040000
-33.29650000 62.96290000 -16.11800000
-33.57740000 63.24630000 -14.77280000
-34.11130000 63.05030000 -13.93200000
-26.06040000 43.63010000 -24.02570000
-32.90970000 63.66720000 -13.27700000
-34.01700000 63.28220000 -13.38660000
-34.12410000 63.36740000 -12.08420000
-34.40680000 63.04240000 -12.85910000
-34.59340000 62.92510000 -12.02550000
-34.61220000 63.16020000 -11.54860000
-31.47550000 63.93500000 -11.41490000
-30.23520000 63.96960000 -9.35650000
-28.00120000 64.02030000 -14.68350000
-31.64760000 63.81170000 -14.21010000
-29.93710000 63.98320000 -14.10420000
-32.78560000 63.78330000 -10.18140000
-35.11050000 62.81050000 -10.17440000
-35.43310000 62.77620000 -8.66650000
-34.74480000 63.17660000 -10.13330000
-34.99710000 62.90600000 -10.98130000
-29.78610000 63.49540000 -20.99020000
-30.13230000 63.12030000 -21.62850000
-31.46900000 62.91150000 -19.87170000
-30.55350000 62.85600000 -21.19970000
-31.41270000 63.21670000 -19.46860000
-30.73550000 63.54690000 -18.84880000
-32.21940000 62.72230000 -18.78570000
-32.40380000 63.09140000 -17.95970000
-32.00450000 63.49880000 -17.22680000
-30.95730000 63.71310000 -17.43730000
-32.89150000 62.96920000 -17.26970000
-32.95200000 63.26400000 -16.36760000
-29.51520000 63.94720000 -16.76410000
-28.50240000 48.66730000 -21.20810000
-26.08970000 48.74350000 -23.99860000
-35.82770000 62.08880000 -3.90020000
-35.79960000 62.21750000 -4.91170000
-35.84490000 62.76410000 -4.48490000
-35.82300000 62.65440000 -5.34190000
-35.61280000 62.96490000 -5.44340000
-36.04760000 62.53620000 -6.04010000
-35.85260000 62.34670000 -6.45210000
-28.60550000 52.00150000 -21.39160000
23.14890000 24.79380000 -24.29230000
23.70260000 18.23720000 -23.82260000
22.65800000 15.05670000 -24.87070000
24.75960000 47.51490000 -22.48260000
25.92070000 46.40300000 -21.02750000
24.61610000 41.39290000 -22.69980000
21.50960000 24.22940000 -25.83180000
26.01260000 24.28680000 -21.03720000
26.76550000 21.11090000 -20.19020000
24.49830000 24.39420000 -22.84130000
28.04760000 20.95420000 -18.28740000
29.16930000 18.50240000 -16.55850000
28.29940000 18.25960000 -18.04090000
28.90830000 20.87930000 -16.91410000
29.84920000 19.14820000 -15.06220000
23.54140000 51.60770000 -23.96810000
22.66580000 47.79760000 -24.84550000
20.78990000 51.15850000 -26.65130000
21.62930000 42.18210000 -25.84760000
29.92150000 20.32600000 -15.02060000
29.29420000 21.53290000 -16.06320000
28.52300000 22.61980000 -17.41510000
27.50440000 24.05440000 -19.05210000
22.37510000 54.10240000 -25.36740000
25.46170000 51.42620000 -21.50980000
25.04060000 55.54800000 -22.41740000
33.57820000 5.18010000 4.72960000
31.13060000 24.34250000 -11.29730000
32.01260000 22.61380000 -8.21780000
31.40830000 21.71890000 -10.57760000
33.26910000 4.92430000 6.71360000
30.40090000 27.84640000 -12.91050000
30.60900000 24.63680000 -12.75410000
31.81550000 35.52490000 -8.23030000
32.68940000 8.30020000 8.63850000
32.37290000 33.20430000 -5.88810000
31.29520000 34.11510000 -10.16690000
32.08560000 6.67550000 10.91430000
32.83600000 22.40390000 -4.19860000
28.48000000 -3.85870000 -18.48620000
30.24110000 20.69820000 -14.12430000
29.20530000 23.56010000 -16.01910000
30.54500000 32.67890000 -12.46790000
30.61200000 7.81560000 14.58830000
29.89510000 6.90400000 16.06600000
29.96560000 30.64950000 -13.99560000
30.09930000 23.24200000 -14.06180000
30.92270000 20.86670000 -12.24040000
31.16490000 7.68660000 13.25100000
27.13490000 0.39120000 -20.23250000
29.63520000 27.35720000 -14.87630000
28.08410000 26.03280000 -17.90630000
27.48470000 25.62860000 -19.06000000
28.83250000 26.90670000 -16.49790000
25.87960000 25.61150000 -21.09410000
26.32130000 26.34100000 -20.57280000
27.31850000 26.85630000 -19.24610000
32.83850000 33.57350000 -3.02420000
27.26220000 28.16340000 -19.22390000
27.85530000 29.05690000 -18.24390000
33.86620000 5.49680000 -1.39770000
33.96370000 -0.52720000 -1.05700000
33.70600000 2.79640000 -3.23400000
33.93620000 2.40800000 0.65490000
28.86600000 28.67800000 -16.43890000
29.33710000 30.20040000 -15.36900000
33.76120000 8.20700000 1.10450000
33.60160000 8.85030000 3.15120000
32.93970000 47.87480000 -0.24500000
33.08150000 32.63710000 1.42120000
33.09690000 28.08920000 -0.92650000
33.25840000 12.13080000 5.05310000
32.96100000 13.14860000 6.74220000
33.42290000 7.41780000 -4.43920000
33.67010000 7.70600000 -2.48380000
33.61740000 9.04990000 -1.34330000
32.90590000 37.21320000 3.80540000
32.80770000 27.25100000 5.98240000
33.18830000 19.24750000 3.59590000
33.75320000 8.76400000 -0.00150000
33.51990000 10.81650000 0.47630000
29.86740000 -1.12200000 -16.04890000
33.57800000 11.61370000 2.23150000
32.95130000 50.50620000 2.19480000
25.08190000 2.69960000 -22.56510000
29.52100000 33.27030000 -14.82960000
32.05000000 11.58850000 10.51030000
30.62500000 39.07770000 -11.99510000
29.84090000 35.44760000 -14.01790000
19.71840000 21.19200000 -27.14960000
20.40300000 34.82750000 -26.71560000
31.07090000 12.24750000 13.35350000
24.70130000 27.41960000 -22.55930000
29.16510000 35.39880000 -15.55190000
31.96650000 -1.21870000 -11.33520000
29.08320000 36.36590000 -15.83560000
26.31890000 27.71200000 -20.60480000
30.62510000 -6.00490000 -14.75880000
24.93440000 28.86620000 -22.25430000
31.14550000 -1.31840000 -13.43530000
29.69960000 39.57490000 -14.31930000
31.25410000 15.27430000 12.51870000
22.95360000 30.13090000 -24.54090000
28.86610000 37.88840000 -16.16500000
29.52070000 37.26370000 -14.78340000
28.11020000 38.56320000 -17.52860000
28.83590000 39.20500000 -16.05010000
26.21740000 29.54330000 -20.57080000
25.14010000 29.79670000 -22.07020000
32.51720000 17.78740000 8.26420000
24.03330000 31.68970000 -23.29800000
33.11380000 10.65410000 -4.65780000
33.34620000 10.92310000 -2.46470000
25.89490000 30.61620000 -21.05450000
25.31590000 32.77690000 -21.83910000
26.56190000 31.01560000 -20.16820000
33.34100000 15.10630000 -0.91750000
23.82160000 35.14920000 -23.74860000
33.22260000 13.47970000 -2.84200000
24.93540000 34.29160000 -22.43460000
31.19820000 50.03140000 -10.11340000
31.72060000 51.21400000 -8.22210000
33.39370000 15.11940000 0.68480000
33.37090000 14.52440000 2.23740000
32.81720000 13.56490000 -5.78250000
32.13680000 17.42340000 -8.24210000
32.38750000 13.81430000 -7.72670000
26.86790000 29.02560000 -19.81990000
28.31200000 30.16060000 -17.46930000
27.48580000 30.09240000 -18.93750000
27.63730000 31.41700000 -18.74610000
28.62990000 44.20080000 -16.46460000
28.33950000 30.94740000 -17.30490000
31.65110000 21.25900000 11.03750000
26.96990000 32.01890000 -19.68600000
29.87620000 43.67800000 -13.75250000
28.70590000 31.01680000 -16.71560000
31.13330000 19.92430000 12.55340000
29.14970000 32.22410000 -15.75950000
28.08110000 32.74430000 -17.93890000
28.58640000 32.95510000 -16.84010000
28.66090000 34.66680000 -16.66530000
27.52280000 32.90750000 -18.94700000
26.33190000 33.61150000 -20.65140000
27.23960000 33.51060000 -19.21370000
25.78040000 35.28240000 -21.23280000
26.79290000 34.88500000 -19.90790000
27.27860000 34.86720000 -19.06050000
26.26220000 36.44950000 -20.52410000
28.09840000 33.82850000 -18.04810000
29.63650000 7.11440000 -16.25170000
31.89170000 25.78750000 10.13300000
27.92700000 35.30300000 -18.10270000
26.91970000 36.78890000 -19.69330000
27.44750000 36.46970000 -18.77630000
28.29380000 36.33550000 -17.42270000
27.90650000 36.86670000 -18.34660000
30.17360000 50.92080000 -12.98250000
28.32960000 37.04890000 -17.29390000
28.33830000 37.62760000 -17.35060000
32.65550000 52.45340000 -3.16710000
33.30390000 5.21180000 -5.81680000
32.76260000 5.26190000 -8.21160000
30.65580000 53.85150000 -11.70990000
4.87310000 35.83190000 -33.36610000
5.87180000 29.43950000 -33.11100000
