3.10890000 -4.12520000 0.44920000
3.07650000 -4.05270000 0.54600000
3.07380000 -4.15730000 0.69310000
3.07210000 -4.11400000 0.66150000
3.03460000 -4.14070000 0.74750000
2.98200000 -4.07390000 0.76340000
3.00080000 -4.01640000 0.69280000
3.05280000 -4.03710000 0.60200000
3.00210000 -3.91300000 0.57880000
2.93960000 -3.76690000 0.58890000
3.02190000 -3.88290000 0.43210000
2.92650000 -4.19260000 0.85750000
2.89680000 -4.13380000 0.87130000
2.91820000 -4.05700000 0.81670000
2.80820000 -3.99110000 0.87400000
2.92440000 -3.90940000 0.71470000
2.82380000 -3.88210000 0.80960000
2.86940000 -3.78580000 0.71350000
2.76340000 -3.74970000 0.81690000
2.64980000 -3.80080000 0.93420000
2.62350000 -3.63620000 0.92060000
2.51950000 -3.67510000 1.01120000
3.00850000 -3.78100000 0.29980000
2.96720000 -3.72660000 0.48070000
2.98420000 -3.69460000 0.37860000
2.98150000 -3.58280000 0.15940000
2.98170000 -3.56420000 0.23850000
2.94810000 -3.53170000 0.40700000
2.96540000 -3.46740000 0.29390000
2.96130000 -3.36370000 0.14120000
2.94560000 -3.34280000 0.33820000
2.95370000 -3.19640000 0.21340000
2.94190000 -3.15470000 0.10740000
2.94560000 -3.00520000 0.27030000
2.88150000 -3.65660000 0.62570000
2.80450000 -3.61340000 0.72380000
2.89990000 -3.53800000 0.53370000
2.82040000 -3.48580000 0.65460000
2.71380000 -3.56580000 0.81580000
2.70980000 -3.41540000 0.78450000
2.91160000 -3.37740000 0.45130000
2.85140000 -3.34490000 0.56560000
2.78630000 -3.32820000 0.66680000
2.69980000 -3.23310000 0.76870000
2.56120000 -3.45120000 0.94560000
2.47550000 -3.50370000 1.02740000
2.40930000 -3.29550000 1.07330000
2.56170000 -3.27710000 0.93070000
2.51770000 -3.09820000 0.97710000
2.93120000 -3.13170000 0.35390000
2.90030000 -3.08070000 0.44130000
2.85740000 -3.07800000 0.53120000
2.79000000 -3.08080000 0.64080000
2.91940000 -2.83210000 0.39890000
2.80920000 -2.87520000 0.61920000
2.68240000 -3.02830000 0.78350000
2.49340000 -2.96850000 1.01630000
2.67950000 -2.76140000 0.81900000
2.09480000 -3.23100000 1.51700000
2.02800000 -3.24090000 1.68700000
1.77260000 -2.99800000 2.02750000
1.67890000 -2.89700000 2.07720000
1.53880000 -2.86370000 2.14570000
2.26820000 -2.97770000 1.30970000
2.14070000 -3.01250000 1.54310000
2.29120000 -2.78580000 1.36130000
2.16860000 -2.82470000 1.57060000
2.44750000 -2.81340000 1.10580000
2.48500000 -2.45320000 1.16400000
2.66130000 -2.35100000 0.94250000
2.24020000 -2.54500000 1.52700000
2.11190000 -2.74500000 1.67920000
2.39600000 -2.37700000 1.33330000
2.41560000 -2.07300000 1.39160000
2.21390000 -2.37150000 1.59860000
2.00080000 -2.81220000 1.81280000
1.91860000 -2.82100000 1.89120000
1.87370000 -2.48410000 1.91800000
1.75790000 -2.55900000 1.99790000
1.63090000 -2.49020000 2.05380000
1.96370000 -2.52450000 1.84670000
1.49280000 -2.38070000 2.08500000
1.60950000 -2.11430000 2.01200000
2.08610000 -2.59960000 1.72520000
2.04400000 -2.49250000 1.76900000
2.21870000 -2.17110000 1.61440000
1.93620000 -2.23980000 1.85700000
2.10290000 -2.18320000 1.73000000
2.04460000 -2.08790000 1.78300000
1.81430000 -2.20980000 1.93570000
1.73610000 -2.19460000 1.97400000
2.85930000 -2.97860000 -0.04890000
2.91180000 -3.05320000 0.03450000
2.92560000 -2.96020000 0.09240000
2.94450000 -2.89390000 0.19860000
2.87930000 -2.45010000 0.05890000
2.90090000 -2.63340000 0.07720000
2.71330000 -2.54710000 -0.16990000
2.79800000 -2.41720000 -0.05290000
2.94690000 -2.68760000 0.29220000
2.93840000 -2.72730000 0.17640000
2.90470000 -2.66500000 0.46910000
2.87100000 -2.60250000 0.55340000
2.94560000 -2.55930000 0.35460000
2.78280000 -2.43870000 0.74840000
2.84800000 -2.37890000 0.65620000
2.93620000 -1.93540000 0.61870000
2.93240000 -2.44240000 0.17070000
2.95340000 -2.46310000 0.25940000
2.95910000 -2.22010000 0.27330000
2.96720000 -2.23070000 0.34140000
2.96460000 -2.19350000 0.42210000
2.96730000 -1.96300000 0.52130000
2.84180000 -1.74550000 0.09780000
2.93580000 -2.14260000 0.20440000
2.91590000 -2.05660000 0.17280000
2.89000000 -1.85850000 0.73830000
2.98690000 -1.92130000 0.40260000
2.55940000 -2.32690000 -0.31110000
2.52030000 -2.06430000 -0.33650000
2.64020000 -2.10430000 -0.20580000
2.76690000 -1.85910000 -0.01670000
2.97000000 -1.92210000 0.31410000
2.96280000 -1.81140000 0.29910000
2.90390000 -1.77000000 0.19030000
2.63750000 -1.74050000 -0.17100000
2.40080000 -1.84800000 -0.43390000
2.44160000 -1.66930000 -0.40050000
2.50860000 -1.40500000 -0.30320000
2.63560000 -1.20490000 -0.11270000
2.99590000 -1.77690000 0.47630000
2.99140000 -1.79000000 0.39910000
3.00370000 -1.59040000 0.51660000
2.99470000 -1.57100000 0.59070000
2.96720000 -1.61990000 0.65430000
2.94880000 -1.67890000 0.28270000
2.99670000 -1.64690000 0.42500000
2.98900000 -1.59520000 0.39080000
2.98300000 -1.48530000 0.38100000
3.01130000 -1.45420000 0.47720000
3.01900000 -1.42520000 0.57830000
3.01420000 -1.37320000 0.64950000
2.91720000 -1.48750000 0.25220000
2.95660000 -1.31320000 0.33060000
3.00470000 -1.21140000 0.44050000
2.93290000 -1.13940000 0.30820000
2.75330000 -1.21440000 0.05020000
2.83180000 -0.86170000 0.19300000
3.03030000 -1.32360000 0.56110000
3.03320000 -1.18560000 0.53380000
3.04720000 -1.10360000 0.60280000
2.99860000 -0.96310000 0.44720000
1.91710000 -2.02320000 1.86980000
2.00700000 -1.88080000 1.80900000
1.75010000 -1.97920000 1.94690000
1.83730000 -1.84650000 1.90450000
1.61590000 -1.90440000 1.98360000
1.73250000 -1.65120000 1.94460000
2.37400000 -1.89440000 1.47650000
2.78670000 -1.94020000 0.88390000
2.72580000 -1.90290000 0.98070000
2.61010000 -1.68540000 1.22730000
2.84830000 -1.64860000 0.88140000
2.84940000 -1.28840000 1.01740000
2.41900000 -1.68660000 1.46370000
2.56460000 -1.53830000 1.33570000
2.55920000 -1.31160000 1.39500000
2.80240000 -1.09830000 1.14780000
2.26530000 -1.91640000 1.58450000
2.17230000 -1.86990000 1.67590000
2.26170000 -1.46260000 1.65020000
2.14030000 -1.55190000 1.73690000
2.01660000 -1.61810000 1.81550000
1.87380000 -1.44490000 1.89050000
2.35220000 -1.56710000 1.55690000
2.05440000 -1.23230000 1.80470000
2.49560000 -1.12920000 1.49360000
2.92300000 -1.58510000 0.77450000
2.90270000 -1.41650000 0.88630000
2.97570000 -1.45480000 0.72830000
3.00900000 -1.28640000 0.72510000
2.99220000 -1.16360000 0.82420000
2.76320000 -0.87270000 1.25590000
3.04210000 -1.16680000 0.66320000
3.03980000 -1.06690000 0.74030000
2.98900000 -0.89290000 0.93870000
3.03090000 -0.99300000 0.81380000
3.02400000 -0.81970000 0.89440000
3.04220000 -0.95450000 0.56560000
3.05840000 -0.98230000 0.68000000
3.05630000 -0.92800000 0.75550000
3.06520000 -0.86470000 0.67480000
3.06120000 -0.72750000 0.65160000
2.65600000 -0.85160000 1.38230000
2.50370000 -0.42840000 1.57000000
2.33020000 -1.00150000 1.64100000
2.64750000 -0.56100000 1.43250000
2.20390000 -0.95380000 1.72730000
2.24130000 -0.64180000 1.72640000
2.39440000 -0.60330000 1.63100000
2.01340000 -0.90720000 1.83490000
2.11550000 -0.60830000 1.79380000
2.16610000 -0.35380000 1.78660000
3.04990000 -0.63630000 0.88020000
3.06620000 -0.71110000 0.79700000
2.94860000 -0.67260000 1.06630000
2.98740000 -0.56580000 1.03120000
2.81120000 -0.53490000 1.26760000
2.91170000 -0.38820000 1.16960000
2.78660000 -0.24990000 1.33190000
2.32440000 -0.29740000 1.70870000
2.24530000 -1.36460000 -0.55850000
2.31320000 -1.37760000 -0.51240000
2.20380000 -1.45860000 -0.57510000
2.35840000 -1.31570000 -0.47090000
2.34840000 -1.06650000 -0.45420000
2.07950000 -1.16200000 -0.65980000
2.23010000 -1.07150000 -0.56610000
2.07990000 -1.02680000 -0.65920000
2.24120000 -0.84300000 -0.53220000
2.13870000 -0.89080000 -0.61270000
2.47630000 -0.81790000 -0.26970000
2.66920000 -0.70400000 -0.00280000
2.35400000 -0.75620000 -0.40660000
2.57360000 -0.00280000 -0.07100000
2.90780000 -0.67900000 0.32490000
1.96480000 -0.88680000 -0.71590000
2.13060000 -0.58850000 -0.57040000
1.88500000 -0.71570000 -0.74510000
1.99370000 -0.63320000 -0.65400000
2.31710000 -0.32190000 -0.39570000
2.39570000 -0.30770000 -0.31250000
2.26140000 -0.31420000 -0.44200000
2.97260000 -0.51710000 0.45760000
3.02980000 -0.78950000 0.54180000
3.00990000 -0.34680000 0.55910000
2.88360000 -0.04410000 0.35560000
2.77070000 -0.18140000 0.17590000
1.80740000 -0.49180000 -0.76780000
1.88280000 -0.27490000 -0.65910000
1.96460000 -0.36600000 -0.61670000
2.11820000 -0.22560000 -0.51140000
1.73580000 -0.01110000 -0.75420000
1.80520000 0.12510000 -0.66090000
2.00580000 -0.04140000 -0.53740000
2.08650000 0.22910000 -0.45880000
2.24440000 0.08910000 -0.39140000
1.90160000 0.15830000 -0.57680000
2.50220000 0.23560000 -0.13740000
2.42820000 0.33910000 -0.20970000
2.33430000 0.25590000 -0.30270000
2.38800000 0.51170000 -0.23110000
2.74430000 0.29360000 0.17640000
2.52100000 0.61960000 -0.08930000
3.07070000 -0.58460000 0.73940000
3.04980000 -0.51470000 0.63870000
3.06690000 -0.51310000 0.82740000
3.06510000 -0.35090000 0.80550000
3.05950000 -0.37380000 0.71760000
3.02620000 -0.55240000 0.96450000
3.04890000 -0.34440000 0.92360000
3.02760000 -0.37540000 0.98340000
2.97660000 -0.33540000 1.08230000
3.04840000 -0.08440000 0.89590000
3.05240000 -0.09200000 0.78470000
2.98130000 -0.06860000 1.08890000
3.02250000 -0.04770000 0.99410000
3.03680000 -0.22870000 0.65540000
3.03480000 -0.02620000 0.69910000
2.96960000 0.29510000 0.56500000
2.99940000 0.29850000 0.64400000
2.99380000 0.32450000 1.05610000
3.03100000 0.24160000 0.76000000
3.03770000 0.24280000 0.87860000
3.02520000 0.31130000 0.95820000
2.63300000 0.00920000 1.50700000
2.91410000 -0.06350000 1.19450000
2.39420000 -0.09190000 1.68700000
2.84760000 0.08660000 1.28820000
2.76360000 0.18960000 1.38770000
2.50940000 0.20570000 1.62770000
2.95150000 0.26690000 1.14460000
2.84320000 0.46180000 1.29830000
2.93220000 0.62560000 1.16580000
2.61720000 0.42990000 1.54640000
2.51330000 0.48540000 1.63930000
2.68370000 0.62840000 1.48530000
2.53110000 0.67310000 1.63650000
2.91260000 0.36140000 0.45270000
3.02960000 0.43790000 0.83430000
3.01270000 0.56210000 0.73500000
3.02370000 0.49260000 0.92400000
2.98470000 0.79970000 0.64570000
3.01720000 0.81250000 0.81950000
2.68620000 0.61590000 0.11580000
2.89210000 0.65960000 0.42950000
2.82220000 0.58530000 0.30990000
2.74260000 0.79310000 0.18830000
2.82570000 0.87100000 0.31070000
2.93200000 0.75100000 0.51270000
2.94870000 1.16410000 0.53690000
2.88970000 1.23920000 0.40220000
3.00290000 0.70860000 1.00050000
2.96440000 0.85530000 1.09910000
3.01530000 0.83400000 0.90770000
2.83690000 0.88450000 1.31330000
2.73220000 0.81090000 1.44200000
2.54160000 0.84020000 1.65090000
3.00730000 0.93420000 0.75150000
2.98820000 1.22060000 0.66470000
2.90350000 0.92640000 1.21590000
2.70540000 0.96140000 1.49310000
2.77650000 1.17480000 1.43490000
2.98360000 1.03450000 1.05200000
2.93220000 1.16200000 1.18560000
2.99960000 1.20750000 0.99790000
3.01280000 1.19480000 0.88220000
3.01090000 1.36420000 0.78430000
2.85900000 1.13980000 1.30320000
2.90050000 1.33830000 1.27090000
2.95830000 1.34240000 1.15590000
2.99010000 1.45260000 1.07390000
2.88840000 1.52180000 1.34490000
2.77900000 1.42780000 1.49740000
1.34170000 -2.46820000 2.13740000
1.32090000 -2.19120000 2.08440000
1.48170000 -2.08200000 2.04070000
1.27640000 -2.00030000 2.04780000
1.12560000 -1.92330000 2.03130000
1.34190000 -1.83680000 2.01890000
1.22230000 -1.76700000 2.01170000
1.00580000 -1.81870000 2.00210000
1.46150000 -1.90270000 2.01500000
1.67750000 -1.45820000 1.95360000
1.53270000 -1.55120000 1.97910000
1.41580000 -1.52200000 1.98720000
0.93760000 -1.52700000 1.93610000
1.15950000 -1.48430000 1.97320000
1.29380000 -1.50730000 1.98490000
1.58590000 -1.21030000 1.95580000
1.46720000 -1.08010000 1.95800000
1.15510000 -1.16780000 1.93310000
1.34280000 -1.05530000 1.95330000
1.86960000 -0.96390000 1.89280000
0.80300000 -1.31340000 1.87140000
0.66480000 -1.24110000 1.84160000
0.82020000 -1.04820000 1.84450000
1.05390000 -1.00300000 1.89080000
0.70860000 -0.99520000 1.82980000
1.01860000 -0.72990000 1.86170000
0.86110000 -0.74820000 1.83550000
1.05090000 -0.38370000 1.86620000
0.61600000 -0.85950000 1.83330000
0.81150000 -0.64820000 1.83310000
0.70230000 -0.55280000 1.84320000
0.62620000 -0.45130000 1.86650000
0.38780000 -0.46900000 1.92440000
0.16220000 -0.43020000 1.98650000
0.87540000 -0.36310000 1.85250000
1.60590000 -0.85560000 1.93820000
1.74120000 -0.76970000 1.92580000
1.81830000 -0.65460000 1.90920000
1.67590000 -0.56740000 1.93350000
1.29920000 -0.66320000 1.91600000
1.42970000 -0.72290000 1.93540000
1.40790000 -0.52090000 1.92630000
1.54160000 -0.54440000 1.93610000
1.24440000 -0.40290000 1.89790000
1.36740000 -0.24780000 1.92390000
1.56210000 -0.34670000 1.93940000
1.48160000 -0.01460000 1.95530000
1.94200000 -0.56600000 1.87030000
1.97610000 -0.35760000 1.87040000
1.82850000 -0.23140000 1.92190000
1.69570000 -0.26700000 1.94010000
0.13340000 -0.17850000 2.04480000
0.29350000 -0.01860000 2.04550000
0.44680000 -0.05310000 1.99060000
0.56350000 -0.21550000 1.92050000
0.77160000 -0.20870000 1.87920000
0.71470000 0.03010000 1.93250000
0.86060000 0.06780000 1.91630000
0.73100000 0.25030000 1.98120000
0.53910000 0.30940000 2.05540000
1.93530000 0.12410000 1.92010000
1.56470000 -0.10990000 1.95300000
1.75410000 0.22310000 1.96390000
1.65820000 0.15300000 1.97070000
1.30910000 0.00700000 1.93270000
1.62120000 0.34720000 1.98970000
1.05980000 -0.07990000 1.89270000
0.96920000 0.07200000 1.91020000
1.35450000 0.27010000 1.97030000
1.12120000 0.30980000 1.95690000
0.99280000 0.41700000 1.98200000
0.85350000 0.29170000 1.96570000
0.77580000 0.47600000 2.03270000
0.98650000 0.71960000 2.06570000
0.59980000 0.55270000 2.11070000
0.81740000 0.69920000 2.09300000
1.38310000 0.50300000 2.01070000
1.51860000 0.37680000 1.99590000
1.11870000 0.66910000 2.04150000
1.43680000 0.71840000 2.05970000
0.78110000 0.98840000 2.21560000
1.27650000 0.87500000 2.09760000
1.01460000 0.96980000 2.14270000
1.04200000 1.26680000 2.25790000
-0.04450000 -0.23070000 2.05060000
-0.01420000 0.00370000 2.09630000
0.15030000 0.10770000 2.10830000
-0.37280000 0.26600000 2.18710000
-0.22610000 0.14370000 2.13540000
0.01980000 0.20070000 2.14340000
-0.43190000 0.43850000 2.24680000
-0.55350000 0.29290000 2.18900000
-0.53750000 0.51780000 2.25980000
-0.16030000 0.46070000 2.24130000
0.28840000 0.35420000 2.14570000
0.03470000 0.42430000 2.21060000
0.17350000 0.50690000 2.22060000
0.29390000 0.56160000 2.21340000
0.14590000 0.70330000 2.29950000
0.45500000 0.66960000 2.20140000
-0.20060000 0.68910000 2.33350000
0.02300000 0.75880000 2.34150000
-0.10930000 0.94650000 2.43360000
0.11690000 1.00850000 2.44280000
-0.54890000 0.65240000 2.29240000
-0.54120000 0.84640000 2.33500000
-0.59410000 0.99960000 2.33440000
-0.30450000 0.83700000 2.38470000
-0.34480000 0.98120000 2.41850000
-0.12620000 1.06920000 2.47790000
-0.16420000 1.17180000 2.50160000
-0.32300000 1.16760000 2.46200000
-0.77370000 1.11830000 2.25240000
-0.90550000 1.27840000 2.17870000
-1.09610000 1.30820000 2.08060000
-0.50270000 1.29360000 2.39370000
-0.42710000 1.18490000 2.42620000
-0.21950000 1.31400000 2.51210000
-0.31330000 1.44250000 2.48190000
-0.52790000 1.48620000 2.36930000
0.41480000 0.81740000 2.27790000
0.39080000 0.91370000 2.33310000
0.61040000 0.96970000 2.27010000
0.26480000 0.93850000 2.38180000
0.13160000 1.22710000 2.53420000
0.39780000 1.11660000 2.43720000
0.25710000 1.26360000 2.53730000
0.55090000 1.05050000 2.34080000
0.73410000 1.29260000 2.38090000
0.81290000 1.26770000 2.32680000
0.52270000 1.28680000 2.48140000
0.35770000 1.24260000 2.51030000
0.71810000 1.40990000 2.45860000
0.47550000 1.43570000 2.56580000
0.35110000 1.49130000 2.60580000
0.04780000 1.29350000 2.55580000
-0.02870000 1.38930000 2.56900000
-0.10940000 1.50330000 2.55790000
0.03860000 1.58140000 2.59920000
-0.23300000 1.58740000 2.51050000
-0.01110000 1.67310000 2.58460000
-0.15970000 1.74860000 2.52140000
-0.37410000 1.70920000 2.42620000
0.23670000 1.51590000 2.61600000
0.09240000 1.52240000 2.60570000
0.22760000 1.69090000 2.63730000
0.05590000 1.85210000 2.58590000
0.38540000 1.71950000 2.65340000
0.16680000 1.76460000 2.62700000
0.26880000 1.93020000 2.63320000
2.23860000 0.07240000 1.79780000
2.12700000 -0.07640000 1.83630000
2.04930000 0.13770000 1.88530000
2.33180000 0.31210000 1.76130000
2.15360000 0.35230000 1.86070000
1.87700000 0.32660000 1.95040000
1.77360000 0.49740000 1.99130000
2.00830000 0.38200000 1.91590000
2.05120000 0.54650000 1.92110000
1.90770000 0.54660000 1.96950000
1.78080000 0.67780000 2.02170000
2.42240000 0.40710000 1.69960000
2.25900000 0.59600000 1.82890000
2.15130000 0.63320000 1.88500000
2.37660000 0.59000000 1.75060000
2.30550000 0.74420000 1.81840000
2.08700000 0.76670000 1.94540000
2.15740000 0.79940000 1.91110000
1.96550000 0.72920000 1.98370000
1.94720000 0.95990000 2.05380000
1.59810000 0.61610000 2.03490000
1.78560000 0.86350000 2.06680000
1.60380000 0.85320000 2.09240000
2.39440000 0.82700000 1.77450000
2.37540000 1.09570000 1.86620000
2.06730000 1.00130000 2.02010000
2.24580000 0.86060000 1.88290000
2.25880000 1.12060000 1.95810000
2.16940000 1.08910000 2.00010000
1.46560000 1.00520000 2.14260000
1.59870000 1.10390000 2.16970000
1.74730000 1.03380000 2.12720000
1.16510000 1.00960000 2.13420000
1.14990000 1.23670000 2.22290000
1.34440000 1.17390000 2.19420000
1.25070000 1.27340000 2.23040000
1.93300000 1.26290000 2.15010000
1.70990000 1.52910000 2.30160000
1.79920000 1.45310000 2.25780000
1.50460000 1.36540000 2.26000000
1.42000000 1.58870000 2.34630000
1.54280000 1.73510000 2.39040000
2.59250000 0.98030000 1.63010000
2.49020000 1.13370000 1.77410000
2.64630000 1.16430000 1.61130000
2.13640000 1.29100000 2.07890000
2.27090000 1.32970000 2.01610000
2.41780000 1.34110000 1.90200000
2.61210000 1.37530000 1.71480000
2.71900000 1.47330000 1.60630000
2.50450000 1.45980000 1.86950000
2.63590000 1.70260000 1.81870000
2.41910000 1.52560000 1.97950000
2.35110000 1.65060000 2.07990000
2.25260000 1.57510000 2.12320000
2.85810000 1.87350000 1.54930000
2.74500000 1.84800000 1.72800000
2.54550000 1.73790000 1.93760000
2.46210000 1.84710000 2.05650000
2.01980000 1.44390000 2.18810000
2.15380000 1.46770000 2.14060000
1.90680000 1.70770000 2.32140000
2.05040000 1.70830000 2.27000000
2.18430000 1.98770000 2.29810000
1.82900000 1.85390000 2.39230000
1.70050000 1.94980000 2.44440000
1.97100000 1.96950000 2.39330000
2.28700000 2.00210000 2.23920000
2.39420000 2.16460000 2.21400000
2.05620000 2.11090000 2.40490000
1.86910000 2.11550000 2.46710000
0.95670000 1.43680000 2.35710000
0.93270000 1.63630000 2.47010000
1.17990000 1.51240000 2.33690000
1.07190000 1.62020000 2.40900000
0.68950000 1.57220000 2.55480000
0.60440000 1.63860000 2.60800000
0.50520000 1.68260000 2.64030000
0.61250000 1.83510000 2.65700000
0.91620000 1.80690000 2.56120000
0.82570000 1.80040000 2.59570000
0.77910000 1.87130000 2.63450000
1.31260000 1.74780000 2.41590000
1.14160000 1.79000000 2.46540000
1.06760000 1.89950000 2.53300000
1.23530000 1.96110000 2.51020000
1.00310000 2.06330000 2.61420000
0.85230000 2.07460000 2.65520000
0.58240000 1.92330000 2.67060000
0.39110000 1.91910000 2.66050000
0.47480000 1.92920000 2.67130000
1.49850000 2.01810000 2.48670000
0.15880000 -0.63310000 -2.19370000
0.31700000 -0.88040000 -2.11580000
0.28530000 -0.56150000 -2.15730000
0.45120000 -0.55400000 -2.12030000
-0.21000000 -0.99690000 -2.25850000
-0.65030000 -0.41600000 -2.26790000
-0.34330000 -0.74220000 -2.27590000
-0.48750000 -0.43050000 -2.28770000
-1.01720000 0.78640000 -2.29110000
-1.45420000 -0.92240000 -1.80440000
-1.32290000 -0.31480000 -2.00450000
-1.65620000 -0.96300000 -1.62880000
-1.61300000 -0.80750000 -1.67450000
-1.21360000 -0.46570000 -2.05390000
-1.41070000 -0.29380000 -1.94080000
-1.63890000 -0.39430000 -1.70830000
-1.70270000 -0.57270000 -1.63120000
-1.56890000 -0.08620000 -1.83170000
-0.03650000 -0.70320000 -2.24670000
-0.17010000 -0.37060000 -2.28480000
-0.29050000 -0.21110000 -2.30400000
-1.20800000 0.11180000 -2.13210000
-1.12780000 0.74710000 -2.24810000
-1.56150000 0.37270000 -1.92400000
-1.53700000 0.77360000 -2.01990000
-1.37310000 0.48580000 -2.08970000
-0.49090000 0.51290000 -2.34930000
0.03750000 -0.22710000 -2.24780000
0.12370000 -0.02150000 -2.24400000
0.39620000 -0.19740000 -2.18010000
-0.14310000 0.13270000 -2.30240000
-0.75790000 0.61750000 -2.33450000
-0.68440000 0.87580000 -2.36590000
-0.36750000 0.57350000 -2.34930000
0.01210000 0.34970000 -2.29470000
-0.93340000 0.73030000 -2.30930000
0.86860000 -0.54810000 -1.98230000
0.62360000 -0.44990000 -2.09130000
1.00600000 -0.51470000 -1.90180000
1.12180000 -0.37030000 -1.79810000
1.01380000 -0.34000000 -1.89540000
0.66290000 -0.15780000 -2.10660000
0.74630000 0.05930000 -2.08010000
0.81570000 0.44670000 -2.03050000
1.29790000 -0.18730000 -1.46510000
1.12150000 -0.00750000 -1.73800000
1.06910000 0.00230000 -1.81160000
0.88760000 0.47090000 -1.95850000
0.80510000 0.23000000 -2.04620000
1.44450000 -0.23040000 -1.21210000
1.15660000 0.35290000 -1.52890000
1.28020000 0.20000000 -1.37040000
1.38520000 0.40050000 -1.18980000
1.02780000 0.47810000 -1.74280000
1.24670000 0.66950000 -1.33940000
0.25570000 0.14010000 -2.24490000
0.39140000 0.24760000 -2.23620000
0.49880000 0.26660000 -2.20720000
0.64940000 0.73070000 -2.14980000
0.25000000 0.62330000 -2.30390000
0.16220000 0.58200000 -2.30710000
0.36970000 0.62340000 -2.27860000
0.56040000 0.54940000 -2.20060000
0.43650000 1.31810000 -2.28130000
0.84860000 0.82550000 -1.94750000
0.92580000 0.94970000 -1.75010000
1.08000000 0.88510000 -1.51330000
0.93920000 1.17590000 -1.64630000
0.80740000 1.07630000 -1.94640000
1.10450000 1.13830000 -1.45050000
0.92630000 1.49960000 -1.59860000
-0.30400000 0.89800000 -2.36350000
-1.25550000 0.92670000 -2.21400000
-1.39410000 0.89820000 -2.13710000
-1.20470000 1.62800000 -2.31370000
-0.61240000 1.31300000 -2.40580000
-0.52520000 1.57760000 -2.43100000
-0.92760000 2.21590000 -2.45620000
-1.04020000 2.32860000 -2.44130000
-0.80220000 2.18760000 -2.47330000
-0.65810000 1.82880000 -2.45370000
-1.16810000 2.25440000 -2.39450000
-0.16950000 0.96530000 -2.35920000
-0.01540000 1.07560000 -2.36800000
0.15190000 1.03720000 -2.35750000
0.23410000 1.13700000 -2.35340000
0.29860000 1.24910000 -2.34300000
0.30610000 1.53640000 -2.35440000
-0.10210000 1.78620000 -2.45410000
0.51710000 1.56860000 -2.22090000
0.77510000 1.38860000 -1.90040000
0.47270000 1.50850000 -2.25680000
0.62550000 1.45960000 -2.12240000
0.64820000 1.69890000 -2.05040000
0.85190000 1.33540000 -1.74650000
0.58250000 1.76910000 -2.13340000
0.48210000 1.93230000 -2.23200000
0.76800000 1.69150000 -1.79030000
0.65060000 1.90950000 -1.98540000
0.78070000 1.95730000 -1.70200000
0.71030000 1.98180000 -1.81710000
-0.30410000 2.06230000 -2.48310000
-0.01220000 1.90990000 -2.46530000
0.02730000 2.23730000 -2.49440000
-0.32390000 1.68150000 -2.43400000
-0.58580000 1.65610000 -1.74850000
-0.50000000 0.94680000 -1.65650000
-0.47330000 1.73830000 -1.75530000
-0.38270000 1.52480000 -1.71620000
-0.30460000 1.43130000 -1.68450000
-0.39740000 1.93490000 -1.76440000
-0.30370000 1.86430000 -1.72350000
-0.50570000 2.19300000 -2.49360000
-0.69600000 2.38590000 -2.50130000
-0.09640000 2.32840000 -2.52450000
0.22510000 2.33060000 -2.42140000
0.48130000 2.37240000 -2.19250000
0.47590000 2.22130000 -2.21430000
0.26250000 2.58410000 -2.40310000
-0.19020000 1.24960000 -1.61360000
0.00420000 0.93510000 -1.47340000
-0.17890000 1.84200000 -1.65550000
-0.07750000 1.67110000 -1.56860000
-0.27750000 2.14820000 -1.75200000
-0.18270000 2.24070000 -1.71070000
-0.09370000 2.14090000 -1.62330000
-0.03400000 1.83550000 -1.54110000
0.63450000 2.25400000 -1.91300000
0.64110000 2.43150000 -1.84900000
0.55280000 2.38570000 -2.07410000
0.57190000 2.65470000 -1.97180000
0.32060000 2.60510000 -2.35680000
-0.07690000 2.37250000 -1.64230000
0.44670000 2.68200000 -2.21230000
0.46220000 2.91900000 -2.16330000
-0.54270000 2.91400000 -2.57020000
-0.24670000 2.57530000 -2.55660000
-0.11590000 2.66910000 -2.56010000
-0.34140000 2.84020000 -2.58180000
-0.02150000 2.68310000 -2.54220000
0.06530000 2.87400000 -2.52500000
-0.08640000 3.16570000 -2.59550000
0.32530000 2.81030000 -2.34950000
0.30570000 3.21990000 -2.36330000
-0.21460000 2.98540000 -2.59920000
0.10070000 3.36090000 -2.53030000
-0.06100000 3.43010000 -2.60560000
-0.21240000 3.54540000 -2.64800000
0.16270000 3.21200000 -2.48460000
0.35390000 3.35900000 -2.30390000
0.22250000 3.50850000 -2.44750000
-0.31540000 3.67070000 -2.66460000
-0.42260000 3.54270000 -2.64750000
0.01600000 3.64700000 -2.58710000
-0.14320000 3.71630000 -2.64860000
0.15880000 3.67120000 -2.50350000
-0.45490000 3.88410000 -2.67370000
-0.05780000 3.87460000 -2.63390000
0.04170000 3.98520000 -2.59360000
-0.28490000 3.98790000 -2.68960000
-0.10790000 3.98840000 -2.66050000
-0.18320000 4.02230000 -2.67790000
-0.25400000 4.07920000 -2.68310000
-0.32550000 4.05070000 -2.69030000
-0.17720000 4.10490000 -2.66150000
-0.05770000 4.04790000 -2.63940000
0.02070000 4.08840000 -2.59200000
-0.08760000 4.13190000 -2.61910000
0.02400000 4.11980000 -2.57440000
-0.00500000 4.15240000 -2.55980000
-0.07880000 4.17250000 -2.56610000
-0.15910000 4.15050000 -2.62830000
-1.81870000 -0.72700000 -1.53840000
-1.94980000 -0.51280000 -1.45340000
-2.07560000 -0.57610000 -1.35010000
-2.18510000 -0.51020000 -1.25040000
-2.42970000 -0.37890000 -0.93170000
-2.02580000 -0.05530000 -1.42280000
-2.15650000 -0.21020000 -1.30110000
-2.28400000 -0.21340000 -1.16500000
-2.51130000 -0.35380000 -0.76570000
-2.61800000 -0.17040000 -0.49090000
-2.35710000 -0.23500000 -1.06690000
-2.42750000 0.16940000 -1.01990000
-2.56010000 -0.08750000 -0.70700000
-2.51160000 0.13600000 -0.87100000
-2.60470000 0.05830000 -0.62560000
-1.97760000 0.27870000 -1.49550000
-2.17410000 0.35330000 -1.33670000
-1.85600000 0.44490000 -1.63570000
-2.36150000 0.36250000 -1.14090000
-2.27410000 0.36990000 -1.24080000
-2.57760000 0.52090000 -0.83590000
-2.63290000 0.62370000 -0.75400000
-2.27950000 0.72260000 -1.28000000
-2.40440000 0.67720000 -1.13480000
-2.39640000 0.91980000 -1.19280000
-2.49760000 0.72110000 -1.01880000
-2.59770000 0.92970000 -0.91540000
-2.65800000 -0.08360000 -0.34700000
-2.67720000 -0.05210000 -0.23420000
-2.70590000 0.19850000 0.13630000
-2.69390000 0.29090000 0.32730000
-2.66580000 0.20720000 -0.46520000
-2.71500000 0.24060000 -0.09750000
-2.70990000 0.27680000 -0.25830000
-2.74600000 0.49970000 0.01890000
-2.73210000 0.53630000 0.25040000
-2.74730000 0.49720000 -0.15120000
-2.78240000 0.74670000 0.04410000
-2.62800000 0.38950000 0.62160000
-2.54750000 0.46910000 0.81650000
-2.39390000 1.07750000 1.06270000
-2.50830000 1.25550000 0.95360000
-2.71400000 0.60410000 0.39550000
-2.67190000 0.68020000 0.57450000
-2.63630000 0.82100000 0.70320000
-2.77940000 0.89290000 0.27420000
-2.75920000 0.95150000 0.40590000
-2.73490000 1.07810000 0.54670000
-2.65800000 1.22100000 0.74410000
-2.65170000 0.51130000 -0.66210000
-2.68800000 0.52370000 -0.55440000
-2.73470000 0.55560000 -0.36010000
-2.74920000 0.92280000 -0.57960000
-2.80150000 0.88960000 -0.30370000
-2.80720000 0.86300000 -0.13760000
-2.72020000 0.95450000 -0.67990000
-2.77580000 0.88540000 -0.44990000
-2.67810000 1.05030000 -0.81340000
-2.89290000 1.29440000 -0.20100000
-2.87050000 1.21870000 -0.28530000
-2.82740000 1.23390000 -0.53710000
-2.87730000 1.34920000 -0.44680000
-2.81960000 1.00010000 0.12390000
-2.85710000 1.24320000 0.17390000
-2.88390000 1.41040000 0.21780000
-2.87230000 1.46060000 0.30760000
-2.83260000 1.52320000 0.47300000
-2.68200000 1.57210000 0.76210000
-2.87930000 1.87470000 0.49390000
-2.89110000 1.28980000 -0.09060000
-2.94740000 1.54190000 -0.07830000
-3.00290000 1.80520000 0.02950000
-2.87880000 1.58360000 0.37130000
-2.88690000 2.09240000 0.53140000
-3.05510000 2.10920000 0.12860000
-2.01440000 0.94620000 1.51890000
-2.07250000 1.44100000 1.43440000
-1.92400000 1.20530000 1.62920000
-2.16410000 1.56100000 1.30090000
-2.22880000 1.64790000 1.21670000
-2.28430000 1.59400000 1.15820000
-2.34660000 1.42040000 1.10480000
-1.97300000 1.61020000 1.56970000
-1.62150000 1.29660000 1.87190000
-1.71640000 1.40290000 1.81090000
-1.87290000 1.42300000 1.68310000
-1.54500000 1.44330000 1.90360000
-1.41130000 1.52310000 1.94930000
-1.53130000 1.63420000 1.89120000
-1.18990000 1.63640000 2.01700000
-1.78430000 1.62780000 1.74890000
-1.66690000 1.64380000 1.82370000
-1.38390000 1.74750000 1.93240000
-2.48300000 1.80270000 0.98060000
-2.61700000 1.88040000 0.85980000
-2.70470000 1.89340000 0.76410000
-2.34510000 1.96530000 1.08830000
-0.79750000 2.00910000 0.89810000
-0.86880000 1.80620000 0.89930000
-0.92450000 2.00050000 0.84000000
-0.98700000 2.30850000 0.76770000
-1.02210000 2.03770000 0.79490000
-1.11900000 2.00590000 0.74690000
-1.38670000 2.06830000 0.60300000
-1.50800000 2.29370000 0.53870000
-1.36650000 2.33830000 0.59890000
-1.17760000 2.31840000 0.68430000
-1.79250000 0.81050000 -1.78190000
-1.69160000 0.96320000 -1.92320000
-2.13460000 0.99400000 -1.46290000
-2.02540000 1.07020000 -1.58570000
-1.88060000 1.32100000 -1.81770000
-2.53510000 1.19310000 -1.08990000
-2.38050000 1.18990000 -1.26980000
-2.45710000 1.34250000 -1.22790000
-2.23900000 1.33700000 -1.44050000
-2.53850000 1.54280000 -1.19930000
-2.39520000 1.63990000 -1.38120000
-2.52070000 1.81940000 -1.32020000
-1.38210000 1.47230000 -2.21360000
-1.67400000 1.77590000 -2.08920000
-1.76380000 1.75190000 -2.02710000
-2.06630000 1.36360000 -1.61860000
-1.77150000 1.47300000 -1.96450000
-2.16830000 1.71390000 -1.61580000
-2.03080000 1.90660000 -1.82690000
-1.95370000 2.00970000 -1.93070000
-1.59540000 1.94020000 -2.15500000
-1.73530000 2.35840000 -2.14140000
-1.92920000 2.36550000 -2.02300000
-1.33020000 2.08780000 -2.30400000
-1.55780000 2.51360000 -2.25820000
-2.28320000 2.09070000 -1.62540000
-2.42580000 2.20560000 -1.54210000
-1.54550000 1.97210000 -1.50910000
-1.41370000 1.81190000 -1.54650000
-1.37390000 2.02770000 -1.60140000
-1.56880000 1.26870000 -1.37130000
-1.68190000 1.64040000 -1.36300000
-1.86180000 1.42280000 -1.15790000
-1.68820000 2.07160000 -1.43890000
-1.45460000 2.23680000 -1.58450000
-1.83460000 1.94520000 -1.31290000
-1.67720000 2.32150000 -1.48270000
-2.12900000 2.22010000 -1.09050000
-2.07240000 1.80790000 -0.99950000
-1.98800000 1.60480000 -1.05040000
-1.96240000 1.86950000 -1.17180000
-1.98250000 2.25680000 -1.26940000
-1.87580000 2.34340000 -1.37280000
-2.07640000 2.28040000 -1.17930000
-2.17120000 2.29050000 -1.80090000
-2.15420000 2.51700000 -1.15880000
-1.97820000 2.56710000 -1.34130000
-1.85830000 2.61270000 -1.42400000
-2.63110000 1.33870000 -1.00250000
-2.79610000 1.33250000 -0.69630000
-2.70620000 1.34050000 -0.87980000
-2.80140000 1.52800000 -0.80420000
-2.76050000 1.61510000 -0.92340000
-2.95400000 1.61570000 -0.40890000
-2.89750000 1.60230000 -0.62290000
-2.69520000 1.74540000 -1.08250000
-2.61220000 1.81310000 -1.21530000
-2.77530000 2.10790000 -1.15320000
-2.89600000 1.86490000 -0.82610000
-2.88000000 2.17810000 -1.05020000
-3.04690000 2.09350000 -0.62330000
-2.99740000 2.04750000 -0.73200000
-2.19910000 1.89510000 -0.83340000
-2.37040000 2.36480000 -0.83450000
-2.36830000 2.22560000 -0.74100000
-2.46750000 2.30910000 -0.37740000
-2.35240000 1.91400000 -0.31300000
-2.40050000 2.09790000 -0.43740000
-2.38530000 2.17800000 -0.64860000
-2.36870000 2.04620000 -0.53620000
-2.26310000 1.80230000 -0.62210000
-2.21660000 1.75530000 -0.70690000
-3.00820000 1.79030000 -0.34340000
-3.18090000 2.43710000 -0.21920000
-3.02800000 2.20160000 0.28060000
-3.08780000 2.07750000 -0.26450000
-3.16610000 2.46210000 -0.57050000
-3.20680000 2.54170000 -0.42180000
-3.20070000 2.55360000 -0.10380000
-2.52730000 2.52360000 -0.33540000
-3.21450000 2.75990000 0.03770000
-2.68840000 2.09580000 -1.24950000
-2.56490000 2.23720000 -1.43730000
-2.95790000 2.26290000 -0.97770000
-3.04850000 2.39270000 -0.88850000
-2.16300000 2.01680000 -0.95730000
-2.27810000 2.38870000 -0.96940000
-2.34620000 2.46600000 -0.92110000
-2.55510000 2.63600000 -0.52010000
-2.45770000 2.49910000 -0.75540000
-2.57970000 2.81710000 -0.70070000
-2.70060000 2.54400000 -1.43980000
-2.74790000 2.39080000 -1.32450000
-2.86380000 2.86810000 -1.41290000
-3.07180000 2.75060000 -1.07850000
-2.92920000 2.77790000 -1.29600000
-2.98170000 2.72410000 -1.20450000
-2.29840000 2.66580000 -1.06060000
-2.12030000 2.68020000 -1.25060000
-2.19620000 2.73230000 -1.19010000
-2.47000000 2.75950000 -0.89180000
-2.56770000 2.84310000 -0.76900000
-2.51840000 2.75970000 -0.81340000
-2.36800000 2.89190000 -1.08780000
-2.42530000 2.91920000 -1.03120000
-2.59700000 3.16440000 -0.94610000
-3.15550000 2.62130000 -0.79790000
-2.61320000 2.81090000 -0.45570000
-3.21190000 3.02070000 -0.97110000
-3.32560000 3.13100000 -0.72800000
-3.32810000 3.05070000 -0.59470000
-2.68620000 3.16520000 -0.72030000
-0.77130000 1.87350000 -1.77610000
-0.75790000 1.73020000 -1.74860000
-0.93660000 1.79130000 -1.72420000
-0.82950000 1.62080000 -1.71100000
-0.89930000 1.93560000 -1.76390000
-1.06460000 1.86690000 -1.71070000
-0.84280000 2.10190000 -1.79960000
-1.22780000 1.84800000 -1.64560000
-1.11190000 1.77790000 -1.67460000
-1.20280000 2.10300000 -1.69380000
-1.05380000 2.20560000 -1.76100000
-0.92000000 2.15930000 -1.78550000
-0.64800000 1.41630000 -1.70600000
-0.61370000 2.04040000 -1.80400000
-0.72960000 2.19420000 -1.82360000
-0.47130000 2.51100000 -1.86740000
-0.35010000 2.38480000 -1.82010000
-0.92890000 2.35720000 -1.81380000
-1.15100000 2.41890000 -1.75390000
-1.26190000 2.56510000 -1.72500000
-0.78190000 2.39160000 -1.84700000
-0.59860000 2.43050000 -1.86720000
-0.68060000 2.50630000 -1.87700000
-0.56480000 2.65140000 -1.89540000
-1.09420000 2.61270000 -1.79750000
-0.91090000 2.62230000 -1.85540000
-1.63370000 2.43510000 -1.51910000
-1.54970000 2.45970000 -1.56810000
-1.43170000 2.47780000 -1.62660000
-1.71480000 2.52050000 -1.48180000
-1.62500000 2.53150000 -1.52440000
-1.58140000 2.59090000 -1.56250000
-1.69330000 2.57920000 -1.49770000
-1.33700000 2.54050000 -1.67660000
-1.45300000 2.64190000 -1.63630000
-1.74350000 2.65490000 -1.48800000
-1.94420000 2.73590000 -1.40230000
-1.99300000 2.73090000 -1.37260000
-0.23140000 2.52580000 -1.79720000
-0.28740000 2.71880000 -1.86310000
-0.15910000 2.52860000 -1.74840000
-0.08350000 2.59890000 -1.69470000
-0.13490000 2.89290000 -1.81990000
0.01800000 2.53440000 -1.56520000
0.01180000 2.20760000 -1.52860000
0.09640000 2.43670000 -1.45100000
0.10370000 2.76910000 -1.47900000
0.05370000 2.85880000 -1.57950000
-0.01900000 2.77850000 -1.66410000
-0.07160000 2.85800000 -1.74910000
-2.09120000 1.14070000 0.04250000
-2.13770000 0.96680000 -0.12980000
-2.19070000 1.36800000 -0.06050000
-2.05740000 1.34470000 0.11970000
-2.00200000 1.67520000 0.20830000
-1.93760000 2.02340000 0.28110000
-2.35790000 2.08710000 -0.11270000
-2.25950000 1.58640000 -0.14520000
-2.35880000 1.97260000 -0.20790000
-2.24790000 1.69540000 -0.05320000
-2.51960000 2.59740000 -0.21720000
-2.47310000 2.62090000 -0.10900000
-2.21630000 1.79150000 0.01800000
-2.13080000 1.86090000 0.11850000
-2.39590000 2.54060000 -0.02750000
-2.32220000 2.77720000 0.07320000
-2.40210000 2.78660000 0.01160000
-2.12400000 2.41570000 0.18530000
-1.76910000 2.43250000 0.40120000
-1.72260000 2.03390000 0.41410000
-2.05970000 2.58650000 0.23740000
-1.96790000 2.73480000 0.29240000
-2.21160000 2.87420000 0.14730000
-1.29620000 2.61000000 0.57350000
-1.04600000 2.56870000 0.69130000
-1.14460000 2.62710000 0.63360000
-1.21840000 2.84560000 0.54760000
-1.71250000 2.63870000 0.42380000
-1.58000000 2.66640000 0.47620000
-1.44060000 2.61510000 0.52860000
-1.68640000 2.87840000 0.41410000
-1.92460000 2.91180000 0.30410000
-1.46990000 2.83490000 0.47580000
-1.40680000 2.94270000 0.46080000
-1.61960000 2.98150000 0.41390000
-1.38930000 3.14030000 0.41670000
-2.62280000 2.87310000 -0.32860000
-2.59130000 2.95550000 -0.18630000
-2.51040000 2.94070000 -0.07140000
-2.30000000 3.05040000 0.10180000
-2.37920000 3.13920000 0.06010000
-2.15400000 3.02670000 0.17410000
-2.61040000 2.89880000 -0.25400000
-2.68510000 3.11170000 -0.37150000
-2.66830000 3.01040000 -0.41840000
-2.69810000 3.15870000 -0.59800000
-2.72800000 3.26610000 -0.49460000
-2.65380000 3.10120000 -0.26690000
-2.57820000 3.10750000 -0.12520000
-2.62410000 3.15410000 -0.18930000
-2.51670000 3.11380000 -0.04900000
-2.57310000 3.24080000 -0.09920000
-2.71710000 3.28550000 -0.39270000
-2.66160000 3.30300000 -0.23510000
-2.61690000 3.32650000 -0.14680000
-2.45840000 3.12030000 0.00560000
-2.45590000 3.32800000 -0.00110000
-2.53060000 3.29460000 -0.05230000
-2.30410000 3.30510000 0.08810000
-2.12340000 3.30310000 0.16080000
-2.13730000 3.13750000 0.16810000
-2.58990000 3.41560000 -0.10960000
-2.54760000 3.49530000 -0.07320000
-2.35690000 3.49310000 0.03990000
-2.01370000 3.05180000 0.24190000
-1.79540000 2.98970000 0.35140000
-1.70540000 3.05730000 0.36900000
-1.93970000 3.16930000 0.24840000
-1.80130000 3.13260000 0.30770000
-1.78720000 3.29040000 0.26960000
-2.03790000 3.21100000 0.20340000
-1.48860000 3.10700000 0.40300000
-1.63860000 3.17110000 0.34710000
-1.16430000 3.13340000 0.50310000
-1.60690000 3.31880000 0.31180000
-1.36180000 3.33470000 0.38410000
-1.63060000 3.55490000 0.25780000
-1.38910000 3.55750000 0.33650000
-2.22500000 3.44350000 0.10660000
-2.11660000 3.50940000 0.13790000
-1.89160000 3.41500000 0.21250000
-1.99790000 3.43950000 0.18800000
-2.20150000 3.61630000 0.08680000
-2.06360000 3.69010000 0.11300000
-2.29730000 3.57380000 0.06510000
-2.04270000 3.61920000 0.13890000
-1.91880000 3.57920000 0.17580000
-1.67270000 3.79860000 0.20740000
-1.94870000 3.81470000 0.12090000
-1.88870000 1.75090000 1.65250000
-2.06950000 1.93950000 1.43580000
-1.88130000 2.04010000 1.62490000
-1.59880000 1.84230000 1.82710000
-1.75040000 1.86100000 1.74640000
-2.67060000 2.23950000 0.79690000
-2.28860000 2.30160000 1.13680000
-2.51670000 2.36300000 0.91260000
-2.39020000 2.38490000 1.02190000
-1.97090000 1.98990000 1.55240000
-2.19270000 2.42490000 1.25810000
-1.70320000 2.07950000 1.73020000
-1.82920000 2.22960000 1.62720000
-1.53420000 2.14240000 1.78960000
-1.76240000 2.31940000 1.64210000
-1.61650000 2.32270000 1.70370000
-2.16830000 2.65170000 1.26850000
-2.05710000 2.51900000 1.39480000
-2.00310000 2.62290000 1.41490000
-1.89920000 2.59730000 1.48440000
-1.69240000 2.46000000 1.62450000
-1.62930000 2.66590000 1.55440000
-1.71220000 2.75650000 1.48470000
-1.91820000 2.82310000 1.39020000
-2.87490000 2.25250000 0.57290000
-3.15800000 2.74590000 0.18050000
-3.11180000 2.80710000 0.28150000
-3.23690000 3.15100000 0.11950000
-3.26810000 3.06980000 0.03640000
-3.36800000 3.17660000 -0.29740000
-3.36820000 3.23630000 -0.20720000
-3.35380000 3.26940000 -0.12350000
-3.32010000 3.31360000 -0.02100000
-3.30410000 3.46550000 0.02160000
-2.82830000 2.44080000 0.63480000
-2.73210000 2.55820000 0.71670000
-2.56050000 2.83900000 0.81610000
-2.44270000 2.72080000 0.93810000
-3.01680000 2.79100000 0.41820000
-2.98240000 3.05480000 0.44310000
-2.71750000 2.81380000 0.69350000
-2.28860000 2.69900000 1.11910000
-2.38020000 2.90380000 1.00610000
-2.22210000 3.03860000 1.15280000
-1.86540000 2.90360000 1.37180000
-2.13220000 3.04350000 1.21140000
-1.75780000 3.04080000 1.33240000
-2.09130000 3.14810000 1.18480000
-2.45900000 3.19310000 0.89520000
-2.34790000 3.18660000 1.01320000
-1.80820000 3.19110000 1.23320000
-2.01210000 3.27650000 1.13810000
-2.22300000 3.37460000 1.03370000
-1.93880000 3.49680000 1.01350000
-1.83540000 3.47120000 1.05650000
-3.09500000 3.08270000 0.32230000
-2.87580000 3.08160000 0.53190000
-2.94610000 3.30370000 0.43050000
-2.71390000 3.19590000 0.64030000
-2.63410000 3.27700000 0.69370000
-2.78230000 3.39480000 0.54060000
-3.22750000 3.28210000 0.14400000
-3.09480000 3.24270000 0.30950000
-3.21990000 3.44060000 0.14180000
-3.10250000 3.50770000 0.25080000
-3.18140000 3.56220000 0.16470000
-2.92620000 3.63160000 0.35900000
-2.67780000 3.57110000 0.60470000
-2.84480000 3.76240000 0.38880000
-2.39930000 3.37640000 0.92350000
-2.29180000 3.35610000 1.01050000
-2.51710000 3.39540000 0.80280000
-2.41180000 3.52810000 0.86070000
-2.34290000 3.58800000 0.87410000
-2.49630000 3.53730000 0.78960000
-2.17680000 3.69760000 0.86060000
-2.04420000 3.52500000 0.97940000
-2.25370000 3.66230000 0.86790000
-1.98360000 3.72060000 0.86300000
-1.83330000 3.68160000 0.93780000
-2.33840000 3.72890000 0.80280000
-2.57680000 3.67510000 0.68090000
-2.49600000 3.70400000 0.73570000
-2.44570000 3.80170000 0.71960000
-2.70290000 3.76890000 0.52680000
-2.55550000 3.82370000 0.63560000
-2.87480000 3.94520000 0.30330000
-2.38450000 3.88840000 0.69590000
-2.55950000 3.98360000 0.54000000
-2.04430000 3.80880000 0.80760000
-1.89280000 3.77950000 0.85650000
-1.91450000 3.91400000 0.77940000
-2.30160000 3.98710000 0.66080000
-2.09590000 3.97600000 0.69680000
-2.00850000 4.02870000 0.68190000
-1.37480000 2.65010000 -2.35820000
-1.76460000 2.85210000 -2.20290000
-1.86030000 3.59420000 -2.25340000
-2.11310000 2.53500000 -1.92240000
-2.22260000 2.54020000 -1.83180000
-2.36510000 2.75200000 -1.78830000
-2.09050000 2.87740000 -2.01780000
-2.12740000 2.74890000 -1.96380000
-2.24740000 3.40110000 -2.02060000
-2.55230000 3.19520000 -1.78390000
-2.45960000 3.35180000 -1.88500000
-2.12420000 3.81040000 -2.14890000
-2.55020000 2.62660000 -1.60190000
-2.74050000 2.87810000 -1.53910000
-3.09130000 3.15780000 -1.26390000
-2.05590000 2.74350000 -1.32070000
-2.15650000 2.89200000 -1.28950000
-2.31220000 3.01660000 -1.19350000
-2.47070000 3.16330000 -1.10640000
-2.54960000 3.17480000 -1.02290000
-2.64550000 3.01580000 -1.66720000
-2.80210000 3.24560000 -1.61140000
-2.95080000 3.19630000 -1.44910000
-2.91130000 3.39600000 -1.56130000
-3.07580000 3.60280000 -1.45250000
-2.57130000 3.38100000 -1.11330000
-2.67110000 3.50200000 -1.05250000
-3.16620000 3.09780000 -1.11240000
-3.29610000 3.16490000 -0.86780000
-3.38640000 3.23410000 -0.46760000
-3.41550000 3.39420000 -0.58410000
-2.69880000 3.28460000 -0.82740000
-2.64500000 3.19260000 -0.87390000
-2.72750000 3.49300000 -0.95090000
-3.25720000 3.39940000 -1.11600000
-3.19360000 3.45400000 -1.25060000
-3.15200000 3.55260000 -1.34560000
-3.36090000 3.43490000 -0.89330000
-3.33320000 3.46730000 -0.99220000
-3.40330000 3.46650000 -0.76000000
-3.34970000 3.66930000 -1.06370000
-3.42670000 3.78300000 -0.91070000
-3.47630000 3.85270000 -0.74220000
-2.91890000 3.65870000 -1.62440000
-3.02470000 3.68640000 -1.53140000
-2.76590000 3.62860000 -1.73960000
-2.54380000 3.75910000 -1.91240000
-2.90730000 3.91080000 -1.68780000
-2.70170000 3.92620000 -1.83700000
-2.39070000 3.95160000 -2.02630000
-2.60250000 4.08820000 -1.92240000
-3.06640000 4.07850000 -1.57940000
-2.86400000 4.10280000 -1.75120000
-2.78110000 4.16430000 -1.81340000
-2.90710000 4.19480000 -1.71940000
-3.29400000 3.67410000 -1.18350000
-3.25670000 3.83070000 -1.30570000
-3.35320000 3.91880000 -1.16460000
-3.40510000 3.92680000 -1.05190000
-3.20090000 4.01910000 -1.42640000
-3.29500000 3.96620000 -1.28880000
-3.45000000 4.06160000 -0.99040000
-3.10970000 3.91280000 -1.50290000
-2.99250000 4.17020000 -1.65950000
-3.07560000 4.18880000 -1.58260000
-3.01120000 4.22020000 -1.62890000
-3.11090000 4.23150000 -1.52760000
-3.17300000 4.18970000 -1.48330000
-3.23260000 4.13280000 -1.41140000
-3.23420000 4.21800000 -1.40240000
-3.16370000 4.25580000 -1.44470000
-2.98740000 4.24780000 -1.61960000
-3.04520000 4.26360000 -1.53730000
-2.95520000 4.26920000 -1.59200000
-3.07070000 4.27150000 -1.46600000
-2.77990000 4.27460000 -1.61100000
-2.86080000 4.26950000 -1.63890000
-3.21290000 4.27950000 -1.19670000
-2.91340000 4.27930000 -1.37670000
-3.29830000 4.11140000 -1.31760000
-3.40450000 4.14490000 -1.12580000
-3.36230000 4.19160000 -1.21700000
-3.47190000 4.15160000 -0.94730000
-3.37680000 4.22740000 -1.17700000
-3.44060000 4.20680000 -1.03950000
-3.40810000 4.26310000 -1.06010000
-3.41030000 4.28170000 -0.96370000
-3.34080000 4.28320000 -1.08000000
-3.33860000 4.28790000 -0.93080000
-3.13830000 4.28540000 -1.08770000
-3.28000000 4.17970000 -1.35150000
-3.31380000 4.22180000 -1.28730000
-3.27900000 4.26850000 -1.26470000
-1.18560000 2.73190000 -1.78800000
-0.78210000 2.66570000 -1.88710000
-0.69790000 2.73720000 -1.91140000
-0.73910000 2.84060000 -1.94820000
-0.63650000 2.81550000 -1.93930000
-0.96070000 2.74520000 -1.86870000
-1.13860000 2.83920000 -1.84210000
-0.83240000 2.78260000 -1.91550000
-0.99380000 2.85500000 -1.90130000
-1.09260000 2.95150000 -1.89100000
-1.27200000 2.84360000 -1.78160000
-1.14860000 3.23800000 -1.92690000
-0.87590000 2.88010000 -1.94250000
-0.94910000 2.94330000 -1.94040000
-0.95310000 3.23740000 -1.99320000
-0.81240000 2.96220000 -1.97170000
-0.71330000 3.01600000 -1.98540000
-0.79110000 3.20220000 -2.56880000
-1.18490000 3.14370000 -2.48640000
-1.34620000 3.30570000 -2.44860000
-1.49270000 3.37510000 -2.39820000
-1.64030000 3.34830000 -2.33050000
-0.84680000 3.26670000 -2.01680000
-1.04440000 3.28430000 -1.97640000
-1.43230000 2.78100000 -1.68520000
-1.54960000 2.92030000 -1.66400000
-1.56370000 2.75570000 -1.59940000
-1.56610000 2.85400000 -1.63160000
-1.71850000 2.84050000 -1.55150000
-1.45380000 3.28740000 -1.79510000
-1.73670000 3.18460000 -1.63100000
-1.80900000 2.69990000 -1.45430000
-1.70960000 2.73690000 -1.52050000
-1.87980000 2.79450000 -1.43880000
-1.85210000 2.86920000 -1.48410000
-1.98530000 2.92530000 -1.42080000
-1.82640000 2.98840000 -1.53460000
-1.91930000 3.10920000 -1.50330000
-1.96550000 3.27020000 -1.51550000
-1.86870000 3.50290000 -1.64300000
-1.25560000 3.55130000 -1.95500000
-1.53110000 3.62840000 -1.83930000
-0.45080000 2.78300000 -1.90850000
-0.44590000 2.87880000 -1.93360000
-0.21070000 2.92250000 -1.87600000
-0.60270000 2.90890000 -1.96130000
-0.54590000 3.03570000 -1.97490000
-0.25040000 3.20550000 -1.94310000
-0.32260000 3.19890000 -1.96780000
-0.45500000 3.21380000 -1.99690000
-0.13350000 3.05010000 -1.86510000
-0.00120000 3.00920000 -1.71270000
0.04370000 3.06750000 -1.66720000
-0.15930000 3.20890000 -1.91120000
-0.03340000 3.18330000 -1.82140000
-0.03810000 3.35410000 -1.86850000
0.03870000 3.28950000 -1.77940000
-0.61140000 3.34050000 -2.03910000
-0.53300000 3.53720000 -2.06980000
-0.40850000 3.47740000 -2.03660000
-0.79960000 3.50130000 -2.06470000
-0.25480000 3.54970000 -2.01260000
-0.12100000 3.35970000 -1.92280000
-0.08250000 3.59880000 -1.94880000
-0.16020000 3.60660000 -1.99360000
-1.01550000 3.32670000 -2.54520000
-1.22830000 3.71310000 -2.52150000
-1.37710000 3.75640000 -2.47890000
-1.04740000 3.68910000 -2.56350000
-0.76280000 3.75690000 -2.61620000
-1.44940000 4.01850000 -2.47880000
-0.83980000 4.03270000 -2.62580000
-1.02990000 4.07120000 -2.59310000
-1.20810000 4.00200000 -2.54970000
-1.13250000 3.67830000 -2.02540000
-1.24160000 3.77290000 -2.01180000
-1.34920000 3.90630000 -1.99940000
-1.73490000 3.78130000 -1.78020000
-1.91910000 3.61080000 -1.64090000
-1.69250000 4.01210000 -2.38060000
-1.35160000 4.13210000 -2.06120000
-1.76630000 4.08930000 -1.85680000
-1.82560000 4.22440000 -1.89830000
-1.78370000 4.24560000 -1.95200000
-1.89410000 4.25320000 -1.92380000
-1.73980000 4.17940000 -1.90340000
-1.67950000 4.23950000 -2.01090000
-1.51330000 4.20110000 -2.02630000
-1.47560000 4.23110000 -2.08130000
-1.01930000 3.68260000 -2.05980000
-0.62510000 3.60380000 -2.08630000
-0.74270000 3.66240000 -2.09570000
-0.91210000 3.70470000 -2.08640000
-1.01090000 3.92100000 -2.12900000
-0.89840000 3.94920000 -2.16170000
-0.81430000 3.76320000 -2.11320000
-0.66970000 3.73540000 -2.10690000
-0.49780000 3.65280000 -2.07740000
-0.59100000 3.84850000 -2.15230000
-0.52580000 3.79380000 -2.12090000
-0.70500000 3.88660000 -2.16690000
-0.35220000 3.66660000 -2.06170000
-0.44510000 3.72830000 -2.08670000
-0.36940000 3.82900000 -2.12280000
-0.24910000 3.71080000 -2.05610000
-0.10380000 3.86480000 -2.02670000
-0.17860000 3.92610000 -2.08840000
-0.27840000 3.96580000 -2.13980000
-0.40370000 4.00180000 -2.18940000
-0.48690000 4.04350000 -2.67940000
-0.74750000 4.04960000 -2.21610000
-0.94060000 4.13270000 -2.20790000
-0.77780000 4.13990000 -2.24390000
-1.01340000 4.17880000 -2.20730000
-0.80280000 4.18330000 -2.26270000
