1.87800000 7.80980000 -1.36660000
2.43270000 4.91770000 0.17430000
2.43630000 4.22650000 0.18940000
1.78940000 7.83430000 -1.48630000
-1.59810000 3.53640000 -2.60210000
-1.47140000 5.19000000 -2.68960000
-1.31810000 4.78270000 -2.75960000
1.65960000 7.11120000 -1.64640000
1.63640000 7.72980000 -1.66040000
1.52430000 7.67740000 -1.76600000
1.96520000 7.83330000 -1.27290000
-1.76050000 4.51350000 -2.52010000
1.89610000 7.86190000 -1.37560000
2.13760000 7.78890000 -1.91250000
2.06420000 7.41950000 -1.98770000
2.19450000 7.84190000 -1.83720000
2.08600000 7.86940000 -1.93590000
2.70530000 0.26420000 -1.10260000
2.17340000 7.87900000 -1.82510000
2.11170000 7.89420000 -1.85200000
2.23910000 7.90200000 -1.67570000
2.24640000 7.88770000 -1.72280000
-1.72110000 5.28230000 -2.55140000
2.25850000 7.86220000 -1.74590000
1.60860000 7.89590000 -1.94710000
1.53880000 7.81660000 -1.76490000
-1.28670000 5.39640000 -2.77920000
1.63850000 7.82810000 -1.66910000
1.72840000 7.85890000 -1.58180000
1.83050000 7.87410000 -1.47630000
1.90250000 7.88650000 -1.43730000
1.67410000 7.87490000 -1.66800000
1.63950000 7.89060000 -1.75460000
2.80870000 1.99640000 -0.77910000
2.72760000 1.37820000 -1.02910000
2.77090000 3.78620000 -0.86710000
2.72700000 2.54460000 -0.99240000
2.03480000 7.77010000 -2.01930000
2.05570000 7.84390000 -1.98790000
1.95890000 7.81300000 -2.08810000
1.96910000 7.85900000 -2.05990000
1.94900000 7.89350000 -1.99010000
2.00160000 7.88100000 -1.99870000
-1.77820000 5.10770000 -1.88430000
-1.86670000 4.85720000 -1.79590000
-1.75130000 4.65130000 -1.88630000
1.90690000 7.87180000 -2.09340000
1.81600000 7.83600000 -2.20400000
1.54060000 7.89020000 -2.17200000
2.69420000 3.62200000 -1.07500000
2.60870000 2.22640000 -1.26580000
-0.91010000 4.93450000 -2.33980000
-1.04300000 5.06260000 -2.29660000
-1.02790000 4.41900000 -2.29310000
-0.84810000 4.44890000 -2.35410000
-1.15280000 4.87090000 -2.25180000
-1.29710000 5.37400000 -2.19070000
-1.13980000 5.97780000 -2.26710000
2.41880000 0.72110000 -1.61230000
2.32420000 0.57570000 -1.74160000
-1.95850000 5.22070000 -1.71640000
-1.95300000 4.73050000 -1.70230000
2.83450000 3.91630000 -0.65310000
-1.86670000 5.44550000 -1.81500000
2.53720000 0.61320000 -1.43290000
0.89080000 7.50380000 -2.19400000
0.86720000 7.10160000 -2.21360000
1.00530000 6.96470000 -2.14710000
1.06810000 7.63030000 -2.10000000
1.12110000 7.17600000 -2.07570000
1.23590000 6.99420000 -1.99880000
-1.66640000 5.00210000 -1.96620000
-1.72600000 5.79420000 -1.93100000
2.88610000 3.74290000 -0.41960000
2.91070000 3.22350000 -0.26170000
2.86520000 2.68630000 -0.53780000
-1.60350000 5.80580000 -2.02960000
-2.15770000 5.80540000 -2.23740000
-2.30010000 5.14340000 -2.10060000
1.49430000 6.18150000 -2.47090000
1.34840000 5.76970000 -2.56580000
1.30060000 7.24200000 -2.57600000
-2.05630000 5.72620000 -2.32430000
1.45390000 7.36890000 -2.48440000
1.76030000 7.47890000 -2.26650000
1.84420000 6.51580000 -2.20380000
1.65590000 6.52660000 -2.35420000
-1.94330000 5.51110000 -1.74250000
-1.99300000 6.14070000 -1.69190000
-2.06850000 5.10020000 -1.58080000
1.58530000 7.50960000 -2.39340000
2.62640000 3.55050000 -1.22880000
2.53100000 2.67630000 -1.40550000
1.90100000 7.46780000 -2.14650000
1.71740000 7.76110000 -2.29330000
1.82740000 7.78190000 -2.21110000
1.65330000 7.84330000 -2.31010000
1.79260000 7.86780000 -2.18500000
1.52740000 7.79380000 -2.41320000
1.64070000 7.87430000 -2.26200000
0.88120000 7.87520000 -2.52330000
1.09570000 7.88720000 -2.30320000
1.39360000 7.68790000 -2.51020000
1.31730000 7.81550000 -2.53240000
1.46160000 7.85190000 -2.41710000
1.33810000 7.87340000 -2.41870000
1.24860000 7.85380000 -2.53450000
-1.89900000 6.31740000 -2.43260000
-1.58610000 6.19710000 -2.62490000
-1.49880000 5.79450000 -2.09690000
-1.39670000 4.85930000 -2.13370000
2.52710000 3.25520000 -1.42000000
2.43030000 2.92150000 -1.57300000
0.75250000 7.11800000 -2.26280000
0.70400000 7.64950000 -2.27630000
0.63250000 6.98220000 -2.30700000
0.88330000 7.77060000 -2.20210000
0.92720000 7.82220000 -2.19220000
0.75200000 7.82530000 -2.27050000
0.83950000 7.85670000 -2.25190000
-1.36280000 6.66710000 -2.72690000
2.34350000 3.91090000 -1.68520000
2.29830000 2.74440000 -1.75310000
0.74970000 7.85610000 -2.28670000
0.72300000 7.87120000 -2.32700000
0.94470000 7.88120000 -2.25020000
0.72530000 7.87820000 -2.40090000
-1.73910000 6.46120000 -2.53480000
0.51410000 7.59650000 -2.34160000
0.45510000 7.11030000 -2.36520000
0.34410000 7.59590000 -2.39480000
0.26660000 7.04270000 -2.41530000
0.54830000 7.80370000 -2.34200000
0.65060000 7.83940000 -2.32000000
0.70280000 7.86110000 -2.31190000
0.57040000 7.86130000 -2.37060000
0.39830000 7.78950000 -2.38810000
0.44560000 7.84580000 -2.39260000
0.44780000 7.86920000 -2.44120000
0.31980000 7.87130000 -2.58040000
0.82490000 6.26730000 -2.80590000
0.83320000 7.26010000 -2.79010000
1.10910000 6.86360000 -2.68200000
-2.38490000 6.16100000 -2.00930000
-2.41190000 5.13810000 -1.97890000
1.07420000 7.57540000 -2.68920000
-0.83090000 3.93810000 -2.90250000
-0.84460000 4.58870000 -2.91860000
-0.62280000 3.24890000 -2.93330000
-0.67860000 4.72410000 -2.95250000
-0.44360000 4.17550000 -2.96600000
0.64610000 6.42950000 -2.86440000
0.51520000 7.23650000 -2.88950000
0.68670000 7.63230000 -2.83800000
0.88080000 7.73370000 -2.76510000
0.64730000 7.78180000 -2.84040000
2.18730000 3.62760000 -1.87760000
2.14940000 1.93210000 -1.92740000
1.20580000 7.73260000 -2.61540000
1.15550000 7.82760000 -2.61660000
1.04450000 7.79600000 -2.68360000
1.02150000 7.85400000 -2.62530000
-0.52700000 4.90260000 -2.97480000
-1.00570000 4.54170000 -2.87540000
0.64120000 7.85910000 -2.74770000
0.86300000 7.83190000 -2.73660000
2.01500000 3.47100000 -2.06080000
0.76280000 7.81820000 -2.79240000
0.69390000 7.84760000 -2.78290000
-0.33100000 4.86500000 -2.98470000
1.33380000 7.61560000 -1.91690000
1.37600000 6.59220000 -1.90260000
1.14600000 7.81910000 -2.06090000
1.49530000 6.97280000 -1.80290000
1.42820000 7.81910000 -1.85290000
1.28380000 7.84240000 -1.97170000
1.43390000 7.87030000 -1.88010000
1.30810000 7.88980000 -2.06840000
1.16940000 7.87560000 -2.08090000
1.56730000 7.87000000 -1.77380000
-0.76240000 5.55160000 -2.94930000
-0.48490000 4.98340000 -2.43220000
-0.65420000 4.98490000 -2.40490000
-0.68780000 4.32950000 -2.39650000
-0.53890000 4.30410000 -2.42770000
-0.88300000 5.72120000 -2.92060000
-1.11970000 5.76850000 -2.84540000
-1.14530000 4.45180000 -2.82390000
0.97730000 7.85080000 -2.18400000
1.12310000 6.64740000 2.86290000
1.29590000 6.57690000 2.78420000
1.02360000 6.22020000 2.90390000
2.26220000 1.17770000 -1.80600000
2.47130000 4.70170000 -1.49100000
-0.64290000 6.13240000 -2.40730000
-0.47690000 5.76110000 -2.43170000
-0.77040000 5.15720000 -2.37780000
-0.35710000 5.37690000 -2.44500000
-0.51730000 5.99950000 -2.98730000
1.49030000 6.56150000 2.68050000
1.39310000 5.33000000 2.73290000
2.04160000 5.00560000 -1.24500000
2.00020000 4.99400000 -1.30340000
1.98010000 4.50140000 -1.36120000
2.05470000 4.38460000 -1.26230000
2.11440000 4.40880000 -1.16420000
2.09180000 5.17700000 -1.15580000
-0.37400000 6.07320000 -2.44230000
-0.23050000 5.78570000 -2.45080000
-0.86470000 6.11350000 -2.35480000
-0.97160000 5.91190000 -2.32390000
-0.78610000 6.01340000 -2.37610000
-0.18020000 6.20230000 -2.99920000
-0.12330000 5.15320000 -2.98740000
0.04830000 6.24240000 -2.98750000
0.09180000 4.56250000 -2.97590000
0.11950000 5.39680000 -2.97110000
2.12040000 5.22440000 -1.94620000
1.99340000 7.22580000 2.30390000
1.90160000 6.09300000 2.38110000
2.08180000 6.23390000 2.21460000
1.80050000 7.17870000 2.46810000
1.64900000 6.71850000 2.57920000
1.77580000 6.22670000 2.48600000
2.17610000 6.94650000 2.11900000
2.93430000 4.13240000 0.18890000
2.92960000 2.70170000 0.06900000
2.49110000 6.76740000 1.70480000
2.57100000 5.99090000 1.58100000
2.62400000 6.38560000 1.47530000
2.89780000 5.24450000 -0.29360000
2.92740000 4.67440000 -0.07290000
-1.00860000 6.12160000 -2.88490000
2.38470000 5.89820000 1.86750000
2.33650000 7.00590000 1.93100000
2.28350000 6.33690000 1.99980000
-0.68010000 6.56890000 -2.95670000
2.92000000 5.21690000 0.41580000
2.92190000 3.43920000 0.34800000
2.93200000 5.37500000 0.08890000
2.42370000 4.99740000 -0.00490000
2.44340000 4.23420000 0.02640000
1.88520000 7.70450000 2.40400000
1.99330000 7.75700000 2.30600000
2.26600000 7.52740000 2.02280000
2.85630000 5.71640000 -0.50220000
1.75370000 4.84450000 2.49520000
2.36160000 7.62520000 1.90060000
2.12730000 7.63450000 2.17700000
2.20550000 7.76340000 2.08970000
2.07100000 7.80350000 2.22560000
2.12430000 7.83710000 2.14940000
2.26500000 7.81720000 2.00770000
2.32870000 7.85950000 1.88520000
2.16630000 7.86680000 2.02330000
2.13970000 7.87800000 1.85020000
1.89670000 7.85790000 2.28600000
2.47210000 7.65520000 1.74390000
2.39250000 7.80770000 1.84830000
2.40380000 7.88280000 1.65180000
0.60150000 6.99070000 3.02680000
2.23040000 5.27870000 2.05660000
2.84330000 1.51630000 -0.67180000
2.54340000 6.21110000 -1.35400000
2.62230000 5.77590000 -1.20170000
2.88620000 1.65570000 -0.47330000
1.12150000 4.54260000 2.26050000
1.04430000 4.27770000 2.29060000
1.05600000 4.66860000 2.29510000
2.69590000 5.84490000 -1.02690000
1.16660000 4.37520000 2.23110000
1.25140000 4.87520000 2.19600000
1.24730000 4.32240000 2.18360000
1.32640000 4.49560000 2.13750000
0.79010000 7.12080000 2.42380000
0.85200000 6.28400000 2.40120000
0.59120000 6.34530000 2.48420000
2.15670000 4.54330000 -1.06820000
2.67270000 1.75230000 -1.14670000
2.37080000 5.97350000 -1.63150000
1.95450000 4.98470000 -1.36040000
1.89870000 5.01110000 -1.43020000
1.87850000 4.53520000 -1.49140000
2.28190000 5.01460000 -1.75900000
0.39240000 5.50980000 2.52430000
1.62850000 5.50300000 2.59390000
1.17410000 4.74390000 2.23800000
0.87850000 4.24100000 2.36010000
0.91200000 6.98510000 2.94150000
1.12250000 4.83000000 2.26770000
2.79610000 5.63800000 -0.73950000
1.04850000 5.11110000 2.30930000
0.93550000 5.37840000 2.36220000
0.82800000 7.47370000 2.97210000
1.17040000 5.27260000 2.25340000
1.28930000 5.79180000 2.20330000
1.15770000 6.14770000 2.27360000
2.16600000 6.28000000 -0.94190000
2.13710000 5.45760000 -1.05270000
2.19570000 5.31130000 -0.92280000
1.78550000 4.95210000 1.77140000
1.75750000 4.30060000 1.77240000
1.65540000 4.37260000 1.87310000
1.69730000 5.22080000 1.86400000
0.38310000 7.38250000 3.07480000
1.01060000 6.78740000 2.33940000
1.04730000 5.99100000 2.32730000
1.11000000 7.54970000 2.87020000
1.37180000 7.46700000 2.74980000
1.04840000 7.46240000 2.32590000
1.18060000 6.96160000 2.25930000
0.39530000 6.85490000 2.52870000
-0.05960000 6.87690000 2.56080000
2.21140000 4.80450000 1.14890000
2.19240000 4.22760000 1.14400000
2.13710000 4.23260000 1.25750000
2.16780000 4.80970000 1.24340000
0.21170000 7.40390000 2.55760000
0.55920000 7.19500000 2.49800000
0.63890000 7.61850000 2.48530000
-1.12790000 4.29910000 -2.24960000
0.90740000 7.67060000 2.39220000
0.44100000 7.49640000 2.53030000
2.38880000 4.72260000 0.59960000
2.37160000 4.20470000 0.63690000
2.33500000 4.28880000 0.76230000
2.35430000 5.34800000 0.72120000
-0.88370000 2.89270000 -2.87830000
2.48570000 1.59440000 -1.49820000
1.53220000 7.03410000 2.02500000
1.55270000 5.75660000 2.01470000
1.41380000 6.46750000 2.11790000
1.68290000 6.59030000 1.89660000
2.62690000 4.78220000 1.45950000
1.67710000 7.40940000 1.89860000
1.35220000 7.03780000 2.15740000
1.94620000 6.94600000 1.61390000
1.97190000 6.50620000 1.58710000
1.87290000 6.69060000 1.69990000
2.01450000 6.90750000 1.52100000
-0.41940000 4.29390000 -2.44680000
2.10340000 7.15380000 1.37390000
2.16250000 6.60890000 1.27620000
2.11350000 6.08510000 1.38430000
1.38470000 1.65840000 -2.54340000
2.69880000 6.08900000 1.31930000
2.18160000 7.19600000 1.21240000
2.76440000 6.22780000 1.13370000
2.10420000 5.02550000 1.36140000
2.07640000 4.29860000 1.36460000
2.01180000 4.37850000 1.46590000
2.04710000 5.27850000 1.45920000
1.88630000 4.99630000 1.66500000
1.96720000 5.22450000 1.57180000
1.93660000 4.37520000 1.56920000
1.85270000 4.31040000 1.67000000
1.27360000 7.61060000 2.21270000
1.16740000 7.77290000 2.29030000
1.44450000 7.58290000 2.09660000
1.32200000 7.83100000 2.24340000
1.34870000 7.80000000 2.19410000
1.59550000 7.64090000 1.97610000
1.59280000 7.84520000 2.06910000
1.43760000 7.84070000 2.19320000
1.45230000 7.85060000 2.24860000
1.48980000 7.82260000 2.10790000
1.42430000 7.76830000 2.12590000
1.55080000 7.77640000 2.02680000
1.57550000 7.81940000 2.02780000
1.79690000 7.23140000 1.77620000
1.77670000 6.64480000 1.80100000
2.35200000 6.48640000 0.70380000
2.38810000 5.57340000 0.58270000
1.92350000 7.26230000 1.63460000
2.81720000 6.21240000 0.94960000
2.01160000 7.49890000 1.51610000
2.32560000 6.35950000 0.82570000
2.30720000 5.38670000 0.88240000
2.27830000 6.26040000 0.98800000
2.09420000 7.68240000 1.39520000
2.02540000 7.76340000 1.50610000
1.90060000 7.68150000 1.66220000
1.96480000 7.87080000 1.83530000
1.65280000 7.85830000 2.35130000
1.42780000 3.84240000 -2.52970000
1.70380000 3.36110000 -2.32990000
1.73670000 7.86050000 2.02030000
1.88210000 7.85730000 1.78930000
2.39130000 1.90110000 -1.62880000
2.01630000 7.85760000 1.60720000
2.17880000 7.88250000 1.53430000
1.70110000 7.73310000 1.88130000
1.76930000 7.67760000 1.80710000
1.65760000 7.79190000 1.93470000
1.75070000 7.81160000 1.85050000
1.82260000 7.78990000 1.76030000
1.83440000 7.83820000 1.78250000
1.75590000 7.84930000 1.89870000
1.65410000 7.82790000 1.96360000
1.89560000 7.82120000 1.70050000
1.98090000 7.81590000 1.58410000
1.77470000 7.81190000 2.47990000
1.66880000 7.78780000 2.56270000
1.77180000 7.74080000 2.49350000
1.87500000 7.80000000 2.40460000
1.83130000 7.83240000 2.41950000
1.88860000 7.84470000 2.35300000
1.93440000 7.82170000 2.34330000
1.97840000 7.84080000 2.28120000
0.82500000 7.70970000 2.97360000
0.59090000 7.73220000 3.03480000
0.75310000 7.78380000 2.98970000
0.67290000 7.80840000 2.99300000
0.56420000 7.79590000 3.02720000
0.59500000 7.82080000 2.97460000
1.29160000 2.74660000 -2.60820000
1.36220000 7.75420000 2.75260000
1.56730000 7.64550000 2.63500000
1.28310000 4.16300000 -2.61970000
1.05930000 3.48080000 -2.73290000
1.08090000 7.78410000 2.87840000
1.24950000 7.77840000 2.80660000
1.18260000 7.81760000 2.82130000
1.24040000 7.82160000 2.79230000
1.10120000 7.83530000 2.82630000
1.04740000 7.81650000 2.87830000
1.21360000 7.83640000 2.78180000
1.22920000 7.84410000 2.72400000
1.33450000 7.81390000 2.74960000
1.29370000 7.83540000 2.74180000
1.40380000 7.81930000 2.71110000
1.39200000 7.84210000 2.66750000
0.90500000 7.80220000 2.93710000
0.79030000 7.81460000 2.96410000
0.80390000 7.82940000 2.92920000
0.96070000 7.83490000 2.86960000
0.89950000 7.82430000 2.92100000
0.76900000 7.83410000 2.87270000
0.98010000 7.84260000 2.67710000
1.03980000 7.84370000 2.78450000
0.38700000 7.81590000 2.85030000
0.79400000 7.82890000 2.64210000
1.23600000 7.84990000 2.51220000
0.19900000 7.42470000 3.09530000
0.34730000 7.67990000 3.07710000
0.08540000 7.66840000 3.10200000
0.14140000 7.75590000 3.08990000
0.33250000 7.77840000 3.06780000
0.48070000 7.78470000 3.04530000
0.46650000 7.81530000 2.99240000
0.09560000 7.80220000 3.00110000
-0.15270000 7.75950000 3.08700000
-0.04850000 7.75690000 3.09320000
-0.19300000 7.78890000 3.02190000
-0.03830000 7.53430000 2.57180000
0.05470000 7.70010000 2.58230000
0.24550000 7.70650000 2.57020000
0.26530000 7.77450000 2.59620000
0.06790000 7.79530000 2.68500000
0.14130000 7.78930000 3.06480000
0.40350000 7.80410000 3.03510000
0.51900000 7.80760000 3.02200000
-0.07070000 7.78190000 3.06720000
-0.21560000 7.77910000 3.06790000
0.70770000 7.77600000 2.49110000
0.81730000 7.76400000 2.44220000
0.45400000 7.71750000 2.54250000
0.64000000 7.80220000 2.55110000
0.48930000 7.81030000 2.64860000
0.85440000 4.95240000 -2.24320000
0.63220000 5.17520000 -2.32710000
0.74460000 4.29150000 -2.31730000
0.90850000 4.27160000 -2.25080000
0.95700000 7.82210000 2.44020000
1.01850000 7.79920000 2.37440000
1.54010000 4.54370000 -2.45400000
1.46750000 7.79040000 2.68850000
1.54300000 7.81120000 2.63090000
1.68080000 7.83230000 2.52380000
1.57710000 7.84260000 2.55380000
1.12730000 5.00620000 -2.69410000
1.46240000 7.83380000 2.65400000
1.04820000 4.39840000 -2.73760000
1.76630000 7.84740000 2.43310000
1.19690000 7.83550000 2.34020000
1.09520000 7.84410000 2.45990000
0.51520000 3.37970000 -2.91660000
0.71210000 4.43060000 -2.86180000
0.66860000 2.92920000 -2.87360000
2.70780000 7.03930000 1.27660000
2.61370000 7.30230000 1.48810000
2.78780000 7.16730000 1.04580000
0.86920000 3.71240000 -2.81030000
2.84660000 7.11260000 0.80570000
2.86190000 6.19450000 0.77250000
-0.06860000 3.82740000 -2.98130000
0.06070000 3.06760000 -2.97770000
-0.21600000 3.31860000 -2.97500000
2.54910000 7.59120000 1.61540000
2.69390000 7.71660000 1.31470000
2.61480000 7.77730000 1.48040000
2.57270000 7.85430000 1.53720000
2.61860000 7.86870000 1.41710000
2.66500000 7.84760000 1.35390000
2.66180000 7.87810000 1.30250000
2.63520000 7.89030000 1.24780000
2.70530000 7.84520000 1.26460000
2.71050000 7.87350000 1.20890000
1.78970000 5.50990000 1.79180000
2.49970000 7.81690000 1.67960000
2.48270000 7.86770000 1.66130000
2.54710000 7.87980000 1.51250000
2.76830000 7.71190000 1.11850000
2.74610000 7.83520000 1.16740000
2.25530000 7.08370000 1.01960000
2.21520000 6.67370000 1.14760000
0.27720000 3.54190000 -2.96100000
0.20740000 5.09500000 -2.96720000
2.20160000 5.62180000 1.20770000
-0.45080000 2.58960000 -2.95200000
2.26430000 5.08020000 1.00730000
2.29250000 4.32160000 0.89480000
2.24590000 4.27700000 1.01910000
2.30980000 7.18560000 0.83670000
2.34570000 7.32190000 0.67800000
2.37510000 6.70390000 0.57450000
0.44990000 5.03270000 -2.39310000
0.58360000 4.29890000 -2.37390000
2.31580000 7.69770000 0.81270000
2.27340000 7.66260000 0.96710000
2.89420000 6.42270000 0.56500000
2.88850000 7.40470000 0.55940000
2.91240000 6.64180000 0.36570000
2.91120000 7.50240000 0.31950000
-0.07720000 4.77720000 -2.45870000
-0.09030000 4.23580000 -2.47060000
0.05660000 4.24410000 -2.46750000
0.03430000 4.80500000 -2.45690000
2.36800000 7.27990000 0.56640000
2.38320000 7.15790000 0.46030000
0.30840000 4.90680000 -2.42650000
0.32360000 4.27820000 -2.43750000
0.46080000 4.30160000 -2.40790000
2.90190000 7.75020000 0.48060000
2.91220000 7.80130000 0.28970000
1.92290000 5.83670000 1.65800000
2.84590000 7.77460000 0.80170000
2.87860000 7.81800000 0.62240000
2.84900000 7.86230000 0.73150000
0.50080000 4.98490000 -2.91450000
2.85000000 7.87980000 0.68020000
2.86430000 7.87360000 0.64110000
2.83280000 7.89670000 0.64680000
2.81270000 7.89440000 0.71550000
2.75160000 7.90300000 0.66140000
2.89540000 7.85580000 0.46670000
2.88050000 7.87290000 0.54900000
0.38870000 5.27710000 -2.93340000
2.87730000 7.88960000 0.50300000
2.86090000 7.90120000 0.46910000
2.85500000 7.88700000 0.60320000
2.84120000 7.90270000 0.54700000
2.79660000 7.90850000 0.44920000
2.02580000 6.15330000 1.51810000
2.37050000 7.61200000 0.52600000
2.34450000 7.76020000 0.68300000
2.33520000 7.82750000 0.77180000
2.36210000 7.85860000 0.71020000
2.36170000 7.84610000 0.65170000
2.38370000 7.87700000 0.67060000
2.38340000 7.86900000 0.62570000
2.38530000 7.83890000 0.54150000
2.58190000 7.90070000 0.55690000
2.44820000 7.88760000 0.52090000
2.42350000 7.88840000 0.65860000
2.40810000 7.88070000 0.58790000
2.41360000 7.87510000 0.48940000
2.44270000 7.88360000 0.41600000
2.67010000 7.90550000 0.24540000
0.87860000 5.11390000 -2.80110000
2.49310000 7.89070000 0.23570000
2.38990000 7.54340000 0.36490000
2.40140000 6.91490000 0.27180000
2.39030000 6.68110000 -0.07640000
2.39040000 7.31860000 0.01170000
2.36880000 7.33680000 -0.16430000
2.40030000 7.13810000 0.13600000
2.39700000 7.53840000 0.14500000
2.39330000 7.75770000 0.05000000
2.39120000 7.84170000 -0.04430000
2.37440000 7.76330000 -0.11700000
2.41420000 7.85160000 0.09360000
2.39380000 7.78730000 0.38400000
2.41920000 7.86200000 0.38590000
2.40080000 7.71140000 0.22090000
2.42430000 7.85320000 0.25420000
2.44610000 7.88180000 0.12200000
-0.23680000 4.97720000 -2.45290000
-0.24630000 4.27490000 -2.46510000
2.14740000 7.58320000 1.28820000
2.21140000 7.65790000 1.14640000
2.10330000 7.83570000 1.41720000
2.15740000 7.78750000 1.28610000
2.20890000 7.84640000 1.21910000
2.21790000 7.87790000 1.32580000
2.25610000 7.82420000 1.06690000
2.30690000 7.85030000 0.95390000
2.30350000 7.87680000 1.08580000
2.37570000 7.88710000 0.95630000
2.34690000 7.87450000 0.87950000
2.30700000 7.81770000 0.88560000
2.34100000 7.85120000 0.82160000
2.48930000 7.89490000 1.09070000
2.81170000 7.73390000 0.96370000
2.78590000 7.84490000 1.03400000
2.76480000 7.86020000 1.08630000
2.74440000 7.88720000 1.05780000
2.81150000 7.85320000 0.92220000
2.81020000 7.87240000 0.87550000
2.82420000 7.86540000 0.83300000
2.76230000 7.89410000 0.84860000
2.78350000 7.87060000 0.98250000
2.77540000 7.88940000 0.93030000
2.70830000 7.89620000 1.00940000
1.55960000 5.15980000 -1.79070000
1.58030000 4.39270000 -1.81980000
1.69210000 4.41130000 -1.71550000
1.69880000 5.20870000 -1.66130000
2.72870000 7.88210000 1.13760000
2.82690000 7.87430000 0.78710000
1.41890000 5.18400000 -1.89940000
1.45760000 4.38410000 -1.91940000
2.42050000 7.89060000 0.81570000
2.37560000 7.87750000 0.76160000
2.91710000 6.76520000 0.12530000
2.91340000 7.65960000 0.07660000
2.89340000 7.53320000 -0.17800000
-1.73300000 1.62720000 -2.49490000
-1.90610000 1.72120000 -2.37720000
2.90760000 7.78510000 -0.06840000
2.91390000 7.81770000 0.10030000
2.90450000 7.84610000 -0.00540000
2.88990000 7.82830000 -0.17820000
2.89250000 7.86680000 -0.09440000
2.87100000 7.88680000 -0.13570000
2.88770000 7.88620000 -0.01980000
2.88380000 7.88870000 -0.05870000
2.85420000 7.90440000 -0.05450000
2.87190000 7.87710000 -0.18830000
2.87660000 7.89340000 0.40530000
2.89500000 7.87660000 0.33950000
2.90380000 7.86760000 0.19550000
2.87680000 7.89980000 0.23120000
2.80420000 7.91210000 0.07590000
2.84220000 7.90690000 0.31500000
2.87340000 7.90250000 0.12920000
2.63320000 7.90880000 -0.24290000
2.89690000 7.88070000 0.06840000
2.87110000 7.90100000 0.02660000
2.42560000 7.88130000 -0.02500000
2.43730000 7.89210000 -0.14800000
2.86980000 6.85330000 -0.36800000
2.84650000 7.76230000 -0.47950000
2.83520000 7.54710000 -0.53740000
2.87190000 7.84330000 -0.29040000
2.86790000 7.81530000 -0.36640000
2.85740000 7.87100000 -0.36680000
1.27980000 5.07630000 -2.00300000
1.33050000 4.34890000 -2.01290000
2.80560000 7.77230000 -0.66360000
1.48180000 5.07730000 2.04480000
1.44240000 4.36640000 2.05230000
1.35740000 5.31970000 2.13990000
2.84270000 7.86340000 -0.45670000
2.81640000 7.88460000 -0.50690000
2.82060000 7.86400000 -0.55120000
2.83460000 7.89080000 -0.42520000
2.81420000 7.90090000 -0.46370000
2.77630000 7.91090000 -0.45010000
2.78030000 7.90680000 -0.55180000
2.86060000 7.88510000 -0.24580000
2.80730000 7.91040000 -0.12050000
2.84780000 7.90170000 -0.16390000
2.81740000 7.90680000 -0.21880000
2.83500000 7.90210000 -0.27880000
2.78940000 7.91010000 -0.31060000
2.84700000 7.88950000 -0.32670000
-1.05850000 1.45340000 -2.82550000
2.82450000 7.90290000 -0.37740000
2.33770000 7.04120000 -0.33420000
2.34810000 7.74100000 -0.27540000
2.31490000 7.75240000 -0.40300000
2.30230000 7.45690000 -0.44560000
-1.42890000 2.31330000 -2.67220000
2.26230000 7.69730000 -0.54830000
2.28670000 7.83290000 -0.49780000
2.34570000 7.85190000 -0.34280000
2.32160000 7.87230000 -0.46710000
2.40680000 7.89410000 -0.34760000
2.37510000 7.90040000 -0.62650000
2.31820000 7.89180000 -0.55910000
2.36200000 7.83860000 -0.23620000
2.38220000 7.85880000 -0.17450000
2.37900000 7.87350000 -0.26490000
2.39670000 7.86610000 -0.11190000
2.70950000 7.91390000 -0.59430000
1.81650000 5.14590000 -1.52620000
2.80790000 7.84410000 -0.63600000
2.78920000 7.88990000 -0.60770000
2.77130000 7.88810000 -0.68140000
2.75220000 7.90680000 -0.64190000
2.77160000 7.86680000 -0.73170000
2.68350000 7.91060000 -0.73490000
2.73900000 7.90200000 -0.72190000
2.73040000 7.89190000 -0.78580000
-1.26670000 1.73250000 -2.74210000
1.14040000 4.96530000 -2.09720000
1.19660000 4.31030000 -2.10030000
-0.71890000 7.27520000 2.48260000
1.77240000 5.05680000 -2.27370000
-0.21820000 7.35650000 2.56380000
-0.44670000 7.42190000 2.54280000
-0.23210000 7.68130000 2.57610000
2.92840000 5.49810000 0.28340000
-0.09630000 7.76580000 2.61060000
-0.42990000 7.76210000 2.58080000
-0.36690000 7.78500000 2.64100000
-0.48690000 7.71000000 2.55460000
-0.61830000 7.65830000 2.52390000
-0.64870000 7.74550000 2.53550000
-0.78570000 7.69600000 2.48830000
-0.87940000 1.11400000 -2.88140000
2.91600000 6.23950000 -0.07510000
2.25960000 7.81660000 -0.55710000
2.26700000 7.87060000 -0.60700000
2.23440000 7.83910000 -0.66670000
2.25610000 7.88530000 -0.71830000
2.30040000 7.89580000 -0.65380000
2.25310000 7.89130000 -0.80040000
2.22590000 7.87440000 -0.77700000
-2.57160000 6.23210000 -0.55030000
1.99410000 6.03390000 -2.07150000
-2.53770000 6.73300000 -0.68160000
2.39590000 6.07710000 0.50400000
2.40510000 5.44490000 0.47910000
2.41620000 5.58950000 0.34960000
-2.48750000 5.42480000 -0.82210000
-2.49920000 6.60130000 -0.81840000
-2.45270000 6.15720000 -0.93710000
0.19290000 4.30300000 -2.45630000
0.16670000 5.09970000 -2.44550000
-2.99260000 6.37630000 -0.86450000
-2.94890000 5.22230000 -1.02190000
0.25890000 2.15780000 -2.94690000
2.40670000 4.88560000 -0.19800000
2.38240000 4.94450000 -0.32220000
2.40820000 4.24140000 -0.30530000
2.42970000 4.26410000 -0.14130000
2.41790000 6.00400000 0.22160000
-0.73950000 1.94190000 -2.91180000
-2.18830000 5.34830000 -1.44150000
-2.21770000 6.32510000 -1.42480000
-2.25530000 5.56300000 -1.35190000
-2.14930000 6.28080000 -1.52300000
-2.40930000 5.26910000 -1.01530000
-2.40860000 6.47970000 -1.04530000
2.75050000 6.77110000 -0.84780000
-2.36490000 5.63200000 -1.14180000
-2.31960000 6.81240000 -1.23970000
-2.31500000 5.70160000 -1.24530000
0.15750000 6.25950000 -2.44040000
-0.01990000 5.59270000 -2.45240000
2.08750000 6.32480000 -1.11650000
2.34620000 5.04900000 -0.46450000
2.30030000 5.11760000 -0.61440000
2.32440000 4.46250000 -0.62820000
2.37710000 4.28380000 -0.45690000
-2.59010000 6.48830000 -0.39470000
2.40900000 6.32010000 0.08090000
2.40550000 5.88560000 -0.06330000
-3.04720000 6.82780000 -0.61050000
2.40300000 6.30440000 -0.01720000
-2.38100000 6.80000000 -1.11550000
0.89820000 5.93420000 -2.21290000
1.01060000 5.46860000 -2.16270000
0.72250000 5.83430000 -2.28690000
2.27210000 6.58840000 -0.58670000
2.27000000 5.97790000 -0.63600000
2.30870000 6.36340000 -0.48460000
2.28050000 6.81980000 -0.54570000
-1.85440000 6.28580000 -1.83290000
2.22370000 6.45080000 -0.76510000
2.25360000 5.38520000 -0.75230000
2.24790000 6.67130000 -0.66620000
0.30050000 5.71760000 -2.42130000
0.43320000 6.28630000 -2.38390000
-0.02920000 6.72160000 -2.44730000
-0.13960000 6.39780000 -2.45010000
0.06910000 6.73710000 -2.44580000
-1.31680000 6.57570000 -2.18450000
-1.58460000 6.89130000 -2.03520000
1.00870000 6.03250000 -2.73600000
1.17080000 5.72280000 -2.66210000
2.82020000 6.80970000 -0.60710000
-1.48070000 7.08060000 -2.09490000
0.08370000 2.42590000 -2.96580000
0.38600000 6.41250000 -2.93120000
-0.09840000 2.64480000 -2.97290000
-1.72590000 7.01580000 -1.92630000
-2.93020000 6.28200000 -1.07360000
-2.87270000 5.36200000 -1.23460000
-2.60570000 6.19660000 -1.73010000
-2.52570000 5.14030000 -1.83730000
-2.64910000 5.24020000 -1.66090000
-2.87410000 6.30510000 -1.22050000
-2.78240000 5.93000000 -1.42100000
-2.71210000 5.84580000 -1.55800000
-2.31930000 2.72990000 -2.02410000
-2.67610000 6.37050000 -1.62000000
-1.07050000 2.72900000 -2.82120000
-2.80660000 6.82070000 -1.35010000
-2.69180000 6.90940000 -1.56430000
-2.49080000 6.31970000 -1.88550000
-2.26320000 6.38830000 -2.13260000
-1.72470000 3.15310000 -2.52880000
-2.01410000 2.86640000 -2.31530000
-1.87010000 3.09150000 -2.43270000
2.39450000 6.54780000 0.44410000
-2.02480000 6.92040000 -2.33010000
-2.15870000 6.62160000 -2.22480000
-1.25200000 3.07170000 -2.75720000
2.21870000 7.15760000 -0.74230000
-2.54060000 6.91860000 -1.80070000
2.24950000 7.20880000 -0.62660000
2.37960000 6.26850000 -0.20140000
2.37010000 6.88620000 -0.19400000
2.35490000 6.12320000 -0.33720000
-2.60760000 3.28270000 -1.67920000
-2.40780000 6.87800000 -1.96850000
2.29000000 7.11970000 -0.49720000
-2.27280000 7.02630000 -2.10970000
1.00410000 1.50710000 -2.73400000
1.13940000 2.12440000 -2.68360000
-2.38360000 3.39820000 -1.97740000
-2.47860000 3.90080000 -1.87500000
-3.07900000 6.76350000 -0.39920000
-3.09470000 7.06280000 -0.19520000
0.96930000 2.37950000 -2.76430000
-1.99620000 4.48190000 -1.63500000
-2.01400000 4.20030000 -1.59430000
-1.95830000 4.19570000 -1.65900000
2.17800000 7.15120000 -0.86700000
-2.69820000 4.16990000 -1.55700000
-2.57370000 6.92380000 0.31900000
-2.56800000 4.04660000 -1.76320000
-2.31820000 4.02160000 -2.06270000
-2.60830000 7.13530000 -0.07110000
-1.83940000 3.65430000 -2.46540000
2.77810000 7.50570000 -0.74920000
-1.33200000 4.16350000 -2.74050000
-1.08830000 3.82180000 -2.82810000
-2.59910000 7.05880000 -0.34080000
-2.58630000 7.33250000 -0.48270000
-2.60830000 7.44250000 -0.26910000
2.74590000 7.78110000 -0.85910000
2.76830000 7.84000000 -0.77530000
-2.55430000 7.55250000 -0.65070000
2.72690000 7.86290000 -0.87010000
-2.58870000 7.71250000 -0.54090000
2.69160000 7.88550000 -0.92410000
1.77220000 4.43690000 -1.62750000
-2.09700000 7.23140000 -1.57280000
0.29880000 2.77350000 -2.95390000
-1.99020000 7.20660000 -1.68520000
-1.86370000 7.20170000 -1.81170000
1.20790000 5.99590000 -2.03210000
1.13140000 5.70070000 -2.08970000
1.29850000 5.88370000 -1.97320000
2.19290000 6.45810000 -1.85240000
-1.41490000 4.27990000 -2.10170000
-1.34160000 4.28220000 -2.14350000
-1.50880000 4.26170000 -2.04200000
-1.54260000 4.95320000 -2.04950000
-1.67720000 4.48410000 -1.93860000
-1.66320000 4.15120000 -1.92620000
-1.59210000 4.18280000 -1.98110000
-1.62550000 4.58970000 -1.98240000
-2.88770000 7.02470000 -1.15650000
-3.10120000 7.51080000 -0.11020000
-3.06420000 7.42320000 -0.51610000
-3.06500000 7.66370000 -0.48030000
-3.08740000 7.56540000 -0.30100000
-3.01890000 7.33390000 -0.73420000
2.01910000 5.69940000 -1.25120000
1.92240000 6.50880000 -1.34980000
1.93430000 5.56910000 -1.35710000
-2.96140000 7.13680000 -0.94780000
1.77730000 6.14710000 -1.53680000
-2.91490000 7.55990000 -1.06070000
-2.85670000 7.67860000 -1.18680000
-2.80000000 7.44940000 -1.33550000
-2.47330000 7.24600000 -0.88680000
-2.32940000 4.86460000 -1.16270000
-2.32370000 4.33990000 -1.12440000
-2.27010000 4.43530000 -1.23780000
-2.55410000 7.71400000 -0.70410000
-2.49120000 7.70010000 -0.87610000
-2.55450000 7.75980000 -0.77160000
-2.60490000 7.76710000 -0.57140000
-2.61280000 7.77740000 -0.66870000
-2.58620000 7.78250000 -0.86430000
-2.70420000 7.78480000 -0.69000000
-2.53640000 7.76850000 -0.85230000
-2.86670000 7.76700000 -0.84620000
-2.86370000 7.77410000 -0.36120000
-2.97250000 7.62630000 -0.88120000
-3.04100000 7.62780000 -0.62550000
-3.00050000 7.68540000 -0.75240000
-2.39150000 4.38990000 -0.97620000
-3.03140000 7.72100000 -0.57130000
-2.98230000 7.75010000 -0.66720000
-2.99410000 7.73670000 -0.71720000
-3.00640000 7.74730000 -0.47080000
-2.96160000 7.71310000 -0.88210000
-2.93090000 7.73150000 -0.93620000
-2.84930000 7.76120000 -1.05740000
-2.88620000 7.75440000 -0.99290000
-2.92990000 7.70200000 -0.98450000
-2.88980000 7.72070000 -1.06770000
-2.84250000 7.74670000 -1.14160000
-2.15790000 4.70320000 -1.43830000
-2.14210000 4.26720000 -1.43140000
-2.07920000 4.40550000 -1.52560000
-2.95610000 7.73130000 -0.84210000
-2.95860000 7.74760000 -0.77830000
-2.92360000 7.75040000 -0.88890000
-2.88770000 7.76230000 -0.93490000
-1.90730000 4.41830000 -1.73390000
-1.89180000 4.21990000 -1.73220000
-1.85960000 4.47250000 -1.78230000
-1.89420000 4.49340000 -1.75460000
-1.89760000 4.60080000 -1.75690000
-1.93990000 4.35440000 -1.69200000
-1.94400000 4.49230000 -1.69950000
-2.18840000 4.27110000 -1.36140000
-2.26960000 5.07190000 -1.29200000
-1.91900000 4.53360000 -1.73160000
-2.80650000 4.78480000 -1.36780000
-2.18070000 7.36470000 -1.47020000
-2.60170000 7.35730000 -1.69810000
1.58710000 5.90530000 -1.74930000
1.48270000 5.74550000 -1.84080000
-2.47500000 7.42940000 -1.86800000
-2.69050000 7.47750000 -1.54900000
-2.32500000 7.41540000 -2.04570000
-2.15450000 7.16850000 -2.22000000
-2.22400000 7.35930000 -2.15400000
-2.15550000 7.49930000 -2.21090000
-2.45630000 4.39980000 -0.80350000
1.04560000 6.05130000 -2.13580000
-1.90290000 7.63720000 -1.77160000
1.00500000 6.22380000 -2.16240000
-1.73910000 7.66790000 -1.91190000
-1.60640000 7.47550000 -2.01200000
0.55940000 6.29010000 -2.34140000
0.80550000 6.34840000 -2.25420000
0.72490000 6.44850000 -2.28540000
-2.34300000 7.68720000 -2.00930000
-2.47370000 7.69550000 -1.85030000
-2.07890000 7.67980000 -2.27050000
-2.00660000 7.48740000 -2.33520000
-2.23730000 7.67430000 -2.12700000
-2.24340000 7.73860000 -2.10690000
-2.50610000 4.35070000 -0.61850000
-2.21780000 7.78050000 -2.06610000
-2.28820000 7.75370000 -2.04920000
-2.15580000 7.70440000 -2.20140000
-2.13010000 7.75590000 -2.19940000
-2.09590000 7.79280000 -2.14030000
-2.02670000 7.78240000 -2.26090000
-2.28620000 7.51320000 -1.30150000
-2.20270000 7.70660000 -1.44310000
-2.30090000 7.71320000 -1.29140000
-2.27110000 7.75240000 -1.36510000
-2.78480000 7.69350000 -1.34090000
-2.81230000 7.73440000 -1.24890000
-2.70770000 7.67710000 -1.49610000
-2.75560000 7.75480000 -1.32500000
-2.69580000 7.74650000 -1.47090000
-2.64450000 7.77570000 -1.45380000
-2.59410000 7.63600000 -1.69100000
-2.59370000 7.73400000 -1.66090000
-2.54360000 7.76940000 -1.67470000
-2.60970000 7.78470000 -1.23320000
-2.44290000 7.78710000 -1.66580000
-2.39940000 7.58330000 -1.08490000
-2.47250000 7.74560000 -0.95380000
-2.50350000 7.77700000 -0.95850000
-2.43570000 7.75670000 -1.06290000
-2.37130000 7.72830000 -1.17120000
-2.45940000 7.78040000 -1.09120000
-2.38500000 7.78870000 -1.30920000
-2.51640000 7.78890000 -1.12890000
-2.36270000 7.76440000 -1.23220000
-2.34130000 7.77850000 -1.32030000
-2.18940000 7.78520000 -1.52700000
-2.78280000 7.77230000 -1.11420000
-2.77550000 7.76480000 -1.21510000
-2.70260000 7.77500000 -1.31010000
-2.16370000 7.80020000 -1.73740000
1.13840000 6.49960000 -2.07800000
-2.09280000 7.66170000 -1.57320000
-1.99360000 7.71130000 -1.68190000
-2.12730000 7.75940000 -1.55480000
-2.09160000 7.79720000 -1.69750000
-2.03460000 7.78090000 -1.68230000
-1.82420000 7.74240000 -1.84860000
-1.89170000 7.76500000 -1.80510000
-1.95880000 7.76530000 -1.73990000
-1.77010000 7.77290000 -1.91030000
-1.81580000 7.79500000 -1.90430000
-1.92230000 7.79660000 -1.83360000
-1.78060000 7.81080000 -1.98610000
-1.27180000 4.77780000 -2.19630000
-1.23700000 4.26960000 -2.19660000
-2.46590000 7.75350000 -1.83180000
-2.36120000 7.76860000 -1.94030000
-2.33870000 7.78800000 -1.88380000
-2.38950000 7.74250000 -1.94220000
-1.73860000 4.17760000 -1.86640000
-1.95160000 7.80820000 -2.08950000
-1.82010000 4.15260000 -1.79470000
-1.67780000 4.64000000 -1.94720000
0.15820000 6.27870000 -2.97180000
-0.49530000 6.46600000 -2.42780000
-0.83400000 6.69050000 -2.36350000
-0.29140000 6.67830000 -2.44540000
-0.41650000 6.73050000 -2.43720000
-0.36860000 6.69220000 -2.99250000
1.56950000 5.05010000 1.97390000
1.54460000 4.33790000 1.97080000
-1.09010000 6.76450000 -2.83990000
-0.89720000 6.71710000 -2.90320000
-0.52520000 7.02690000 -2.96600000
2.03200000 7.23420000 -1.18200000
2.10740000 7.33300000 -1.03700000
-0.16890000 7.14860000 -2.44450000
-0.55110000 7.06100000 -2.41740000
1.67720000 6.00530000 -1.66210000
-0.38490000 7.32550000 -2.43410000
-1.03190000 6.86200000 -2.30180000
-1.19460000 7.08630000 -2.23530000
-0.90300000 7.31720000 -2.33790000
-1.35120000 7.28760000 -2.15920000
-0.77080000 7.19820000 -2.92040000
-0.99100000 7.29620000 -2.86160000
2.07000000 7.69640000 -1.10290000
2.20540000 7.71550000 -0.76220000
2.19810000 7.60070000 -0.79840000
2.22000000 7.76250000 -0.69100000
2.15180000 7.77160000 -0.91650000
2.18060000 7.84070000 -0.86420000
2.20570000 7.84370000 -0.79010000
2.20660000 7.87350000 -0.84840000
2.24570000 7.89380000 -0.88620000
2.20350000 7.88480000 -0.90640000
2.10410000 7.79610000 -1.03430000
2.05370000 7.81450000 -1.13630000
2.11660000 7.86330000 -1.05180000
2.06930000 7.86710000 -1.14610000
2.15480000 7.86230000 -0.95800000
2.18490000 7.88940000 -0.98360000
0.11000000 6.78300000 -2.97760000
0.23690000 7.01510000 -2.95550000
-0.01120000 6.92990000 -2.98740000
-0.18200000 6.92110000 -2.99240000
0.32220000 7.47150000 -2.93390000
0.13910000 7.08050000 -2.43770000
-0.11430000 7.31440000 -2.98470000
0.09680000 7.20920000 -2.97430000
0.15340000 7.48810000 -2.96300000
-0.29150000 7.24880000 -2.98140000
0.00590000 7.45340000 -2.97870000
-0.64670000 7.49540000 -2.93840000
-1.62780000 6.96140000 -2.59020000
-1.17900000 7.31010000 -2.79650000
-0.43560000 7.73060000 -2.43690000
-0.19160000 7.66340000 -2.44720000
-0.34410000 7.81740000 -2.46590000
-1.07710000 7.43480000 -2.27970000
-1.51430000 7.67570000 -2.07100000
-1.48630000 7.78550000 -2.10570000
-1.34260000 7.76210000 -2.16930000
-1.23590000 7.61550000 -2.21080000
-1.00040000 7.68930000 -2.30820000
-1.18350000 7.75280000 -2.24130000
-1.41280000 7.80650000 -2.16010000
-1.25060000 7.79640000 -2.22880000
-1.33770000 7.81430000 -2.20720000
-1.39320000 7.82180000 -2.18860000
-1.38600000 7.82650000 -2.24000000
-1.11620000 7.79210000 -2.28900000
-1.24290000 7.82050000 -2.27190000
-1.14150000 7.83080000 -2.40790000
-1.46430000 7.82450000 -2.38110000
-1.10660000 7.82190000 -2.33420000
-0.71820000 7.20230000 -2.38660000
-0.85170000 7.62040000 -2.89380000
-0.76260000 7.75880000 -2.90780000
-0.90910000 7.74930000 -2.87290000
-0.74030000 7.80220000 -2.88680000
-0.95370000 7.78410000 -2.84290000
-0.60790000 7.63190000 -2.41030000
-0.78530000 7.62270000 -2.36900000
-0.80470000 7.76380000 -2.37460000
-0.55980000 7.80760000 -2.44490000
-0.67140000 7.80150000 -2.42320000
-0.46250000 7.81770000 -2.45270000
-0.41830000 7.84490000 -2.49010000
-0.36940000 7.84380000 -2.48150000
-0.50230000 7.83610000 -2.46590000
-0.54920000 7.84340000 -2.49430000
-0.32430000 7.85500000 -2.55480000
-0.70740000 7.84310000 -2.55920000
-0.80440000 7.81540000 -2.40480000
-0.62790000 7.83080000 -2.45310000
-0.69380000 7.83530000 -2.46910000
-0.90900000 7.83000000 -2.42160000
-0.97840000 7.80100000 -2.34570000
-0.32710000 7.85340000 -2.69870000
-0.99140000 7.82940000 -2.67250000
-0.72640000 7.82660000 -2.82490000
0.05060000 7.34840000 -2.43950000
0.25570000 7.72330000 -2.93690000
0.04380000 7.70130000 -2.96760000
0.10010000 7.79650000 -2.94860000
-0.10030000 7.78760000 -2.95700000
-0.03300000 7.83110000 -2.93010000
0.19210000 7.82970000 -2.91210000
0.18360000 7.64580000 -2.43010000
0.02400000 7.73950000 -2.44870000
0.11430000 7.81220000 -2.45650000
-0.02960000 7.82120000 -2.46860000
0.18940000 7.84660000 -2.46390000
-0.01110000 7.84940000 -2.50230000
0.26330000 7.79730000 -2.42670000
0.32670000 7.84980000 -2.43620000
0.22100000 7.86490000 -2.50440000
-0.01140000 7.86300000 -2.58500000
-0.10190000 7.78650000 -2.45610000
-0.17990000 7.81760000 -2.47070000
-0.25260000 7.84590000 -2.49750000
-0.34470000 7.84950000 -2.50250000
0.19950000 7.86210000 -2.77300000
-0.29660000 7.84710000 -2.83920000
0.17680000 7.85330000 -2.87370000
-0.03410000 7.84860000 -2.88420000
0.47640000 7.67520000 -2.89480000
0.42390000 7.80750000 -2.88810000
0.58220000 7.83880000 -2.82870000
0.36610000 7.85080000 -2.85360000
-0.43690000 7.59210000 -2.96080000
-0.15720000 7.62470000 -2.97450000
-0.31410000 7.76620000 -2.95600000
-0.36370000 7.82450000 -2.91190000
-0.65110000 7.70140000 -2.93360000
-0.55690000 7.77260000 -2.93360000
-1.80450000 7.26180000 -2.47880000
-1.53990000 7.47810000 -2.62990000
-1.64810000 7.82410000 -2.16380000
-1.53900000 7.81220000 -2.53830000
-1.71460000 7.81170000 -2.39440000
-1.89600000 7.68970000 -2.40770000
-1.90880000 7.80170000 -2.29980000
-1.78070000 7.79760000 -2.43100000
-1.78010000 7.76370000 -2.47340000
-1.91950000 7.77410000 -2.36520000
-1.93960000 7.79300000 -2.32630000
-2.02140000 7.74320000 -2.30550000
-1.63950000 7.70500000 -2.56900000
-1.48460000 7.80650000 -2.60950000
-1.46240000 7.78320000 -2.64460000
-1.64520000 7.78940000 -2.53440000
-1.29120000 7.59020000 -2.74370000
-1.08060000 7.65460000 -2.82460000
-1.13070000 7.75530000 -2.79690000
-1.29560000 7.81390000 -2.65780000
-1.24490000 7.77620000 -2.73930000
-1.32790000 7.79640000 -2.69430000
-1.40430000 7.73760000 -2.68700000
-1.06770000 7.80640000 -2.77740000
-1.64520000 7.77380000 -2.00180000
-1.72120000 7.79190000 -1.96380000
-1.66250000 7.81410000 -2.03990000
-1.58230000 7.79960000 -2.06360000
-1.52060000 7.81130000 -2.11050000
-1.58040000 7.82180000 -2.11200000
-1.49990000 7.82150000 -2.16610000
-2.55890000 7.29770000 0.44520000
-2.45500000 7.46120000 0.79990000
-2.34810000 7.66720000 1.05670000
-2.41400000 7.70400000 0.92020000
-2.56350000 7.65650000 0.47020000
-2.49620000 7.73700000 0.76000000
-2.51790000 7.67520000 0.66870000
-2.44640000 7.74250000 0.88380000
-2.47910000 7.77340000 0.87920000
-2.52520000 7.77670000 0.77960000
-2.55100000 7.74520000 0.59770000
-2.55780000 7.76970000 0.64270000
-2.56410000 7.73800000 0.52690000
-2.57670000 7.76640000 0.55190000
-2.59300000 7.78180000 0.58890000
-2.61950000 7.78640000 0.59250000
-2.57160000 7.78550000 0.72230000
-2.59680000 7.58440000 0.24990000
-2.61540000 7.61920000 0.02360000
-2.62040000 7.72780000 0.13690000
-2.63430000 7.74970000 0.03110000
-2.63700000 7.76000000 0.13470000
-2.64610000 7.76720000 0.08890000
-3.07960000 7.67920000 0.26450000
-3.09060000 7.60180000 0.18010000
-3.09200000 7.69590000 0.09520000
-3.09970000 7.62400000 0.00800000
-3.07120000 7.72790000 0.16220000
-3.02080000 7.75930000 0.12620000
-3.07090000 7.74040000 0.06460000
-2.64760000 7.76840000 -0.11290000
-2.67120000 7.77830000 0.08820000
-2.69280000 7.78480000 -0.08900000
-2.69520000 7.78120000 0.29610000
-2.84590000 7.77560000 0.14710000
-2.65460000 7.78350000 0.47400000
-2.60450000 7.77930000 0.52360000
-2.94980000 7.76350000 0.61020000
-2.97930000 7.76000000 0.48130000
-2.98700000 7.75620000 0.56830000
-2.60920000 7.73550000 0.27700000
-2.58500000 7.73780000 0.42110000
-2.61000000 7.76680000 0.40600000
-2.64750000 7.77840000 0.33010000
-2.63040000 7.76830000 0.28150000
-2.66420000 7.77720000 0.24860000
-2.62950000 7.75500000 0.20750000
-2.65930000 7.77500000 0.18030000
-3.06020000 7.69180000 0.40800000
-3.03010000 7.73350000 0.52030000
-3.04190000 7.74190000 0.38240000
-3.00710000 7.75940000 0.30810000
-3.07170000 7.71660000 0.30660000
-3.05490000 7.74120000 0.24810000
-2.62220000 7.69140000 -0.12230000
-2.62420000 7.73500000 -0.27480000
-2.60800000 7.68580000 -0.38310000
-2.62300000 7.76090000 -0.40670000
-2.65610000 7.78020000 -0.28550000
-2.64990000 7.78540000 -0.46900000
-2.71920000 7.78910000 -0.30090000
-2.31900000 7.72500000 1.15960000
-2.36650000 7.74430000 1.06990000
-2.36560000 7.71840000 1.04030000
-2.35840000 7.76210000 1.13070000
-2.40370000 7.74300000 0.98060000
-2.41980000 7.77660000 1.05440000
-2.44440000 7.76880000 0.93950000
-2.49240000 7.78660000 0.97920000
-3.09310000 7.69520000 -0.09220000
-3.09490000 7.67410000 -0.18360000
-3.08370000 7.71860000 -0.16490000
-3.06440000 7.71020000 -0.38650000
-3.07730000 7.71080000 -0.25450000
-3.06480000 7.73390000 -0.20040000
-3.02030000 7.75030000 -0.27880000
-3.05580000 7.72820000 -0.31320000
-3.08890000 7.72070000 0.01040000
-3.08030000 7.73250000 -0.03290000
-3.04900000 7.74680000 -0.14540000
-3.07570000 7.73180000 -0.11380000
-3.03520000 7.75430000 -0.05690000
-3.05400000 7.75340000 0.00580000
-2.99200000 7.75900000 -0.16130000
-2.27900000 4.33640000 1.21140000
-2.35600000 4.29310000 1.05160000
-2.48790000 4.30930000 0.66090000
-2.17690000 4.33200000 1.38090000
-2.22860000 5.12630000 1.25650000
-2.05670000 4.59380000 1.54530000
-2.53930000 4.27810000 -0.42940000
-0.01240000 4.22510000 2.54080000
-0.05160000 4.60100000 2.53900000
-1.93640000 4.53590000 1.69310000
-1.78300000 4.66000000 1.85060000
1.06260000 4.27430000 -2.17620000
1.02840000 4.82050000 -2.16350000
2.41690000 4.80300000 -0.12920000
2.28960000 4.39370000 -0.75330000
-1.14800000 4.46800000 2.29290000
-1.32710000 4.46640000 2.19730000
2.23240000 4.37040000 -0.90970000
1.39910000 5.79640000 -1.89680000
-2.43010000 4.25990000 0.85680000
-2.27920000 3.81890000 1.23260000
-2.36410000 3.81370000 1.05300000
-2.43980000 3.80720000 0.85650000
-2.49790000 3.81130000 0.66170000
-2.54200000 3.82120000 0.45480000
-2.18970000 3.82040000 1.37320000
-2.57110000 3.82300000 0.22360000
-2.09220000 3.82110000 1.53030000
-2.58370000 3.81840000 -0.00280000
-0.96960000 3.81980000 2.37320000
-1.16120000 3.81960000 2.29750000
-1.34790000 3.81970000 2.19490000
-1.52560000 3.82040000 2.07650000
-2.56560000 3.82050000 -0.24840000
-2.53250000 3.81890000 -0.43950000
-2.49630000 3.81630000 -0.61260000
0.37680000 3.82120000 2.50700000
0.19540000 3.82120000 2.52950000
0.55040000 3.82080000 2.46460000
0.70940000 3.81940000 2.42310000
-0.18780000 3.82110000 2.54240000
-0.38000000 3.82050000 2.52160000
-0.57220000 3.81850000 2.49280000
-0.76660000 3.81680000 2.44460000
-0.01210000 3.82120000 2.54100000
-1.68040000 3.82110000 1.96350000
-1.97030000 3.82120000 1.67520000
-1.83110000 3.82120000 1.82570000
2.42240000 3.82030000 0.34730000
2.39530000 3.81780000 0.50570000
2.43650000 3.82110000 0.19170000
-0.99140000 3.82280000 -2.30210000
-0.84610000 3.82570000 -2.35600000
-0.69810000 3.81460000 -2.39600000
-0.54860000 3.81560000 -2.43030000
1.99730000 3.81720000 -1.38350000
2.07100000 3.81340000 -1.27010000
2.14300000 3.81830000 -1.15720000
2.44660000 3.82120000 0.03090000
1.11330000 3.80770000 2.24690000
0.99320000 3.81030000 2.30940000
1.21990000 3.79930000 2.18770000
1.31580000 3.80220000 2.12710000
2.19840000 3.82180000 -1.04110000
1.90510000 3.81180000 -1.50730000
0.85650000 3.81490000 2.36480000
2.26550000 3.82100000 -0.89340000
2.32080000 3.82100000 -0.73650000
1.73440000 3.77830000 1.77890000
1.62560000 3.78640000 1.88330000
2.17680000 3.78020000 1.15010000
2.11550000 3.77540000 1.27240000
-1.11170000 3.80470000 -2.25100000
2.36750000 3.81230000 0.65250000
2.32560000 3.80750000 0.77750000
-0.40630000 3.81760000 -2.45300000
2.05530000 3.77960000 1.37200000
1.98990000 3.78690000 1.47080000
1.91590000 3.78550000 1.57090000
1.82820000 3.77840000 1.67710000
0.79600000 3.80430000 -2.31760000
0.94910000 3.79730000 -2.25560000
1.70370000 3.79130000 -1.73810000
1.80190000 3.79660000 -1.63130000
2.28290000 3.80080000 0.90440000
2.23400000 3.79080000 1.02750000
0.63490000 3.80670000 -2.37140000
-0.09270000 3.80740000 -2.47650000
0.06640000 3.79960000 -2.47260000
0.32980000 3.80110000 -2.44320000
0.47270000 3.80530000 -2.41350000
1.51640000 3.78640000 1.97990000
-0.24200000 3.81550000 -2.47340000
1.59630000 3.78860000 -1.84070000
1.48120000 3.78740000 -1.93630000
1.08890000 3.79180000 -2.18760000
1.36040000 3.78690000 -2.02610000
1.41420000 3.79130000 2.05790000
1.22590000 3.78820000 -2.11200000
0.20320000 3.80300000 -2.46120000
2.43600000 3.82120000 -0.13330000
2.41800000 3.82120000 -0.30700000
2.36800000 3.82110000 -0.59120000
2.39790000 3.82120000 -0.44790000
-2.01650000 3.75080000 -1.56490000
-1.94630000 3.74700000 -1.64590000
-1.41430000 3.79370000 -2.09040000
-1.32590000 3.79740000 -2.14190000
-1.50140000 3.78360000 -2.03240000
-1.65360000 3.75200000 -1.91820000
-1.58130000 3.76360000 -1.97380000
-2.30690000 3.78610000 -1.11710000
-2.24170000 3.79380000 -1.24310000
-2.37700000 3.80360000 -0.96170000
-2.08320000 3.78790000 -1.48440000
-2.13880000 3.75930000 -1.40590000
-2.18250000 3.75910000 -1.33950000
-1.87220000 3.75260000 -1.72550000
-1.79950000 3.74340000 -1.79260000
-2.44180000 3.81470000 -0.78840000
-1.22250000 3.79780000 -2.19590000
-1.72690000 3.75120000 -1.85660000
-2.27930000 3.28570000 1.23450000
-2.36550000 3.28560000 1.05460000
-2.44320000 3.28530000 0.85600000
-2.50100000 3.28540000 0.66380000
-2.54560000 3.28570000 0.45500000
