1.07070000 -1.40060000 0.51890000
0.85490000 -1.09580000 0.61400000
1.00840000 -1.20250000 0.56880000
1.08290000 -1.29430000 0.51430000
1.06770000 -1.23300000 0.53010000
1.06030000 -1.17270000 0.43890000
0.89720000 -0.75680000 0.60630000
0.96220000 -0.86970000 0.58640000
1.05520000 -0.96560000 0.32900000
1.04930000 -0.96940000 0.43110000
1.05070000 -1.12750000 0.54740000
1.06250000 -1.09350000 0.48560000
1.00950000 -0.88370000 0.56440000
1.02710000 -1.01770000 0.55730000
1.06530000 -1.03040000 0.52690000
0.03570000 -0.38480000 0.67530000
0.28680000 -0.48730000 0.66780000
0.38790000 -0.64360000 0.64530000
0.19590000 -0.26020000 0.67130000
0.36110000 -0.48580000 0.65050000
0.43310000 -0.53020000 0.63790000
0.50050000 -0.38660000 0.64800000
0.06730000 -0.20920000 0.66380000
0.19220000 -0.03640000 0.67040000
0.36570000 -0.32020000 0.66160000
0.29730000 -0.08160000 0.66810000
0.42330000 -0.16280000 0.64980000
0.41430000 0.02280000 0.66090000
0.49720000 -0.68990000 0.64090000
0.58720000 -0.69400000 0.62600000
0.63920000 -0.57340000 0.61720000
0.54240000 -0.54080000 0.63610000
0.67630000 -0.34070000 0.63020000
0.78550000 -0.52560000 0.60900000
0.53060000 -0.08290000 0.65590000
0.59780000 -0.30720000 0.64950000
0.82210000 -0.38450000 0.62050000
0.73740000 -0.29690000 0.63060000
0.60620000 -0.06180000 0.64890000
0.72300000 -0.09660000 0.63590000
0.77920000 -0.14700000 0.64870000
0.92470000 -0.48050000 0.60070000
0.89610000 -0.32200000 0.62560000
0.81050000 -0.23310000 0.64870000
0.88730000 -0.11900000 0.64080000
0.96320000 -0.27330000 0.60810000
0.96770000 -0.03400000 0.61720000
1.00760000 -0.23470000 0.58360000
1.06750000 -1.05380000 -0.37800000
1.06350000 -0.18250000 -0.29910000
1.05770000 -1.06150000 -0.28440000
1.06670000 -0.48050000 -0.41250000
1.04320000 0.23660000 -0.20570000
1.04780000 -0.32000000 -0.05640000
1.05640000 -0.54590000 0.24580000
1.03680000 -0.91370000 -0.19350000
1.04020000 0.02050000 -0.13870000
1.05390000 -0.88450000 0.53590000
1.05680000 -0.91970000 0.49360000
1.06650000 -0.78760000 0.50800000
1.04830000 -0.70230000 0.53760000
1.01550000 -0.53170000 0.55410000
1.06360000 -0.63130000 0.50730000
1.06030000 -0.66540000 0.41810000
1.05000000 -0.52420000 0.45290000
1.04940000 -0.14450000 0.23440000
1.04290000 -0.26860000 0.36580000
1.04620000 0.01990000 0.09470000
1.04270000 -0.37890000 0.48460000
1.04980000 -0.50100000 0.50330000
1.02510000 -0.39830000 0.55080000
1.02780000 -0.20530000 0.47580000
1.03960000 -0.30110000 0.53030000
1.01960000 -0.13740000 0.56050000
1.04620000 -1.54010000 0.54580000
1.05240000 -1.69790000 0.53610000
-1.00680000 0.38860000 -0.40110000
-1.01000000 0.76210000 -0.37990000
-0.98690000 0.55930000 -0.42200000
-1.01680000 0.24940000 -0.37670000
-1.01830000 0.63480000 -0.28010000
-0.98770000 0.74730000 -0.41770000
-0.94030000 0.76480000 -0.44910000
-0.97480000 0.91720000 -0.42960000
-0.92140000 1.08060000 -0.45400000
-1.00420000 2.86430000 0.49780000
-0.99710000 1.98640000 0.54200000
-1.01200000 3.01360000 0.36230000
-1.00770000 1.38890000 -0.34020000
-0.99350000 1.10540000 -0.40680000
-0.96240000 1.27200000 -0.43590000
-1.00090000 1.32960000 -0.38580000
-0.91660000 1.42570000 -0.45450000
-0.99350000 1.49370000 -0.40110000
-0.97110000 1.53620000 -0.43030000
-1.00100000 1.85190000 -0.36650000
-0.98590000 1.78130000 -0.40980000
-0.92980000 1.87540000 -0.44960000
-0.86370000 1.82720000 -0.46390000
-1.00670000 2.91240000 0.12740000
-0.98060000 0.68910000 0.58390000
-0.95770000 1.27760000 0.59960000
-0.98750000 1.43590000 0.56790000
-0.91800000 1.17770000 0.61600000
-0.96510000 0.39990000 0.62010000
-0.94440000 0.62030000 0.61250000
-0.88330000 0.63980000 0.62400000
-0.85350000 0.43850000 0.65690000
-0.72890000 0.45830000 0.66460000
-0.53670000 0.37060000 0.67370000
-0.60280000 0.43030000 0.67360000
-0.82260000 0.58380000 0.63140000
-0.74230000 0.55750000 0.63980000
-0.79510000 0.71890000 0.62120000
-0.73890000 0.66030000 0.62350000
-0.65180000 0.54180000 0.66760000
-0.69340000 0.60280000 0.64500000
-0.67080000 0.67820000 0.66060000
-0.87780000 0.98910000 0.62310000
-0.82340000 0.83450000 0.62530000
-0.73480000 0.80450000 0.63510000
-0.66730000 0.77850000 0.66410000
-0.68740000 1.00220000 0.63290000
-0.71490000 0.90350000 0.63870000
-0.57750000 0.82410000 0.66700000
-0.56800000 0.93640000 0.63690000
-0.54890000 1.03430000 0.63370000
-0.57340000 0.59920000 0.68320000
-0.35850000 0.45320000 0.68290000
-0.28740000 0.59090000 0.68270000
-0.06040000 0.49930000 0.68150000
-0.54410000 0.70610000 0.68620000
-0.32690000 0.75150000 0.67510000
-0.44080000 0.88140000 0.66690000
-0.44030000 1.02970000 0.66040000
-0.34410000 0.83460000 0.66510000
-0.30780000 0.95490000 0.66290000
-0.18670000 0.77650000 0.67450000
-0.02720000 0.72970000 0.67570000
-0.25500000 0.87230000 0.65580000
-0.22910000 0.99040000 0.66680000
-0.10400000 0.90160000 0.67870000
-0.80040000 1.51800000 0.62610000
-0.66450000 1.19520000 0.63350000
-0.93160000 1.90740000 0.60870000
-0.87730000 1.86790000 0.62000000
-0.95540000 2.26990000 0.59330000
-0.71000000 1.91830000 0.63080000
-0.55660000 1.41990000 0.62100000
-0.54290000 1.61530000 0.62130000
-0.51280000 1.70850000 0.63140000
-0.60020000 1.89720000 0.63350000
-0.54720000 1.94840000 0.65390000
-0.52690000 1.13410000 0.63580000
-0.39500000 1.23680000 0.62560000
-0.37630000 1.15630000 0.64350000
-0.31710000 1.09310000 0.66200000
-0.27600000 1.44430000 0.61240000
-0.13670000 1.37610000 0.62260000
-0.15580000 1.16640000 0.64790000
-0.10930000 1.07720000 0.67710000
-0.07520000 1.17790000 0.66790000
-0.04960000 1.29260000 0.64570000
-0.19390000 1.59910000 0.61670000
-0.35850000 1.66420000 0.63720000
-0.45110000 1.73920000 0.65520000
-0.49270000 1.79890000 0.66200000
-0.42520000 1.87000000 0.68100000
-0.32130000 1.75450000 0.66440000
-0.33540000 1.90290000 0.67360000
-0.22520000 1.68880000 0.64160000
-0.13760000 1.67540000 0.62400000
-0.15430000 1.79430000 0.65610000
-0.04010000 1.79890000 0.63430000
-0.00540000 1.38280000 0.62540000
-0.02420000 1.54710000 0.61960000
0.04710000 1.52910000 0.63560000
0.00940000 1.72720000 0.64560000
-0.96570000 0.39720000 -0.43910000
1.04820000 0.34850000 -0.47520000
1.03400000 -0.15210000 -0.49430000
0.98580000 -0.13700000 -0.51770000
0.91730000 -0.39170000 -0.52910000
0.98390000 0.86850000 -0.51350000
1.02610000 0.79800000 -0.49490000
1.05460000 0.84230000 -0.45890000
0.79150000 0.48210000 -0.53310000
0.80010000 2.15300000 -0.52950000
0.96610000 1.60050000 -0.51520000
1.05000000 1.60130000 -0.46650000
1.06270000 1.31160000 -0.43000000
-0.97220000 2.86600000 0.57680000
-0.99910000 2.78570000 0.52960000
-1.00480000 2.87580000 -0.24570000
-0.99940000 2.21070000 -0.36490000
-0.98810000 2.02160000 -0.40380000
-0.96370000 2.16720000 -0.43190000
-0.98910000 2.21590000 -0.40180000
-0.94610000 2.04550000 -0.44340000
-0.91340000 2.32620000 -0.45440000
-1.00010000 2.46120000 -0.34860000
-0.96520000 2.36150000 -0.43040000
-0.98110000 2.46470000 -0.41070000
-0.99920000 2.82570000 -0.34750000
-0.93530000 2.59160000 -0.44720000
-0.98790000 2.61640000 -0.39930000
-0.98560000 3.52040000 0.55880000
-0.94340000 3.77570000 0.59860000
-0.97730000 2.79350000 -0.41490000
-0.88710000 3.41630000 -0.46280000
-0.94910000 2.94430000 -0.43980000
-0.99480000 2.98820000 -0.38350000
-0.97870000 3.08990000 -0.41500000
-0.99570000 3.18170000 -0.38130000
-0.93900000 3.17700000 -0.44600000
-0.81610000 4.01570000 -0.47550000
-1.00260000 3.57220000 -0.36050000
-0.97710000 3.30850000 -0.41920000
-0.94070000 3.58310000 -0.44640000
-0.98740000 3.65510000 -0.40850000
-0.68060000 4.82210000 -0.48950000
-0.79370000 2.17510000 0.62990000
-0.88520000 2.66380000 0.61390000
-0.76540000 2.39890000 0.62440000
-0.69950000 2.14520000 0.64230000
-0.59590000 2.20240000 0.64260000
-0.52810000 2.14900000 0.65480000
-0.57530000 2.83020000 0.62260000
-0.45750000 2.48630000 0.62850000
-0.47530000 2.31290000 0.64720000
-0.49930000 1.91100000 0.67530000
-0.46360000 2.05720000 0.68130000
-0.44080000 2.20190000 0.67040000
-0.35290000 2.28900000 0.66240000
-0.22930000 2.33810000 0.64760000
-0.37780000 2.08960000 0.68260000
-0.23050000 1.86350000 0.67550000
-0.25920000 2.21930000 0.67520000
-0.14370000 2.15300000 0.67520000
-0.14690000 2.00870000 0.67150000
-0.15870000 1.87430000 0.67130000
-0.07510000 1.89860000 0.65050000
0.03890000 1.88930000 0.66500000
-0.00360000 2.03200000 0.66570000
0.02620000 2.15080000 0.66620000
-0.24580000 2.49430000 0.63590000
-0.09040000 2.33450000 0.65020000
-0.10220000 2.44560000 0.62920000
-0.02750000 2.27890000 0.67100000
0.00370000 2.39370000 0.66270000
0.07370000 2.35360000 0.66710000
-0.16290000 2.60860000 0.62070000
0.02160000 2.62850000 0.62070000
0.01720000 2.49110000 0.64180000
-0.91080000 3.20320000 0.60930000
-0.79820000 3.24340000 0.62290000
-0.57010000 3.12040000 0.62360000
-0.88300000 3.81060000 0.61800000
-0.81080000 3.62820000 0.63680000
-0.74800000 3.53250000 0.64210000
-0.74520000 3.33100000 0.63030000
-0.69010000 3.43110000 0.65420000
-0.66040000 3.24270000 0.63390000
-0.60330000 3.39030000 0.67710000
-0.57900000 3.22740000 0.64340000
-0.63030000 3.53640000 0.67340000
-0.53910000 3.37420000 0.68010000
-0.51210000 3.59030000 0.67310000
-0.32220000 3.11180000 0.62450000
-0.48860000 3.22330000 0.65330000
-0.40840000 3.30250000 0.66190000
-0.46040000 3.38800000 0.66750000
-0.33650000 3.18530000 0.63960000
-0.32180000 3.30240000 0.66180000
-0.12380000 3.08320000 0.62600000
-0.23790000 3.27170000 0.64360000
-0.16580000 3.29660000 0.62760000
-0.31400000 3.48950000 0.64880000
-0.25710000 3.40410000 0.65550000
-0.01160000 3.30310000 0.61970000
-0.11890000 3.49190000 0.61810000
-0.03290000 2.86940000 0.62410000
0.13460000 2.51680000 0.63640000
0.01120000 2.99430000 0.63690000
0.10060000 2.98270000 0.63560000
0.13740000 2.72510000 0.62640000
0.02920000 3.15010000 0.63730000
0.16210000 3.18300000 0.63900000
0.14070000 3.28960000 0.63060000
0.33540000 4.23690000 -0.52570000
1.01650000 1.75570000 -0.49760000
0.96040000 3.43430000 -0.51190000
1.06610000 1.95060000 -0.40270000
1.03580000 2.25270000 -0.47980000
1.06260000 2.42300000 -0.43090000
0.90510000 4.37120000 -0.51830000
1.06840000 2.60620000 -0.32000000
1.06950000 3.32550000 -0.38660000
1.05040000 2.74550000 -0.46210000
1.01200000 2.76400000 -0.49610000
-1.00830000 6.50790000 -0.36010000
-1.01290000 5.81670000 -0.23010000
-1.01370000 6.99450000 -0.36180000
-1.00380000 4.17050000 0.49700000
-1.00940000 5.27490000 0.44200000
-1.01640000 5.48200000 0.34360000
-0.98890000 4.31640000 0.54850000
-0.96590000 4.98800000 0.56810000
-0.92900000 4.85310000 0.59650000
-0.95120000 4.38310000 0.58610000
-0.91010000 4.30620000 0.60330000
-0.85730000 4.76250000 0.61550000
-0.98670000 5.26770000 0.53140000
-0.84470000 5.03990000 0.60980000
-0.89470000 5.34350000 0.59510000
-0.99970000 5.43400000 0.49540000
-0.78590000 4.17050000 0.62100000
-0.76090000 4.51810000 0.62140000
-0.74610000 4.72290000 0.64680000
-0.73670000 4.83600000 0.64800000
-0.66170000 4.59150000 0.65250000
-0.62020000 4.65880000 0.66760000
-0.61190000 4.89490000 0.66530000
-0.75880000 4.98530000 0.62320000
-0.64860000 5.04360000 0.65420000
-0.80800000 5.23370000 0.60700000
-0.71670000 5.13810000 0.62670000
-0.70560000 5.38860000 0.64250000
-0.55120000 5.19840000 0.65280000
-1.00790000 4.69530000 0.22320000
-1.01710000 6.68220000 0.04760000
-1.00740000 4.83770000 -0.10640000
-1.00690000 6.07740000 0.47200000
-0.93420000 5.65190000 0.58250000
-0.78980000 5.46660000 0.61500000
-0.83990000 5.72790000 0.61050000
-0.91880000 6.04060000 0.58470000
-0.96630000 5.92940000 0.55950000
-0.78180000 5.83090000 0.63260000
-0.82240000 5.99110000 0.60760000
-0.99310000 6.00140000 0.51970000
-1.01740000 6.71700000 0.43180000
-0.97540000 6.58990000 0.54030000
-1.00100000 6.70310000 0.50330000
-0.94840000 6.27680000 0.56300000
-0.89130000 6.40310000 0.58380000
-0.80330000 6.12270000 0.59060000
-0.76870000 6.37310000 0.60150000
-0.81690000 6.59820000 0.59190000
-0.71830000 6.01400000 0.60750000
-0.95410000 7.09200000 0.54940000
-0.92590000 6.75150000 0.56930000
-0.71360000 6.53030000 0.61440000
-0.81610000 6.83050000 0.58410000
-0.61700000 5.28780000 0.65780000
-0.66740000 5.44160000 0.65540000
-0.48540000 5.44500000 0.66070000
-0.43240000 5.23550000 0.65860000
-0.65910000 5.74360000 0.65460000
-0.43150000 5.70750000 0.65170000
-0.69060000 5.87130000 0.64290000
-0.45210000 5.84740000 0.62190000
-0.34320000 5.42790000 0.66270000
-0.41920000 5.91640000 0.59750000
-0.55680000 6.10350000 0.58890000
-0.72440000 6.24530000 0.59650000
-0.62020000 6.23380000 0.60950000
-0.47580000 6.19080000 0.60770000
-0.60770000 6.34450000 0.63950000
-0.68070000 6.42270000 0.63650000
-0.51430000 6.29480000 0.63930000
-0.52320000 6.44480000 0.65030000
-0.39280000 6.01150000 0.58600000
-0.37150000 6.11910000 0.58650000
-0.30180000 5.90890000 0.58560000
-0.26310000 5.92900000 0.59110000
-0.28600000 6.12880000 0.59520000
-0.23690000 5.98650000 0.60750000
-0.40650000 6.27810000 0.63270000
-0.38170000 6.38840000 0.65340000
-0.35360000 6.20410000 0.59760000
-0.29740000 6.26660000 0.61560000
-0.24560000 6.31520000 0.64040000
-0.32400000 6.34810000 0.63690000
-0.64220000 6.53230000 0.64130000
-0.66620000 6.69200000 0.59510000
-0.58200000 6.63310000 0.62780000
-0.52560000 6.75160000 0.59470000
-0.67350000 6.89010000 0.58140000
-0.53730000 6.57530000 0.64720000
-0.40660000 6.68770000 0.62780000
-0.41610000 6.75210000 0.59890000
-0.41350000 6.50490000 0.65570000
-0.31290000 6.47940000 0.65160000
-0.21470000 6.50920000 0.66260000
-0.36620000 6.63090000 0.64780000
-0.24810000 6.75600000 0.62700000
-0.16550000 6.65880000 0.65730000
-0.19130000 6.13970000 0.64710000
-0.13380000 6.32500000 0.66850000
-0.04290000 6.53930000 0.66040000
-0.05350000 6.16570000 0.66320000
-0.11790000 6.84760000 0.65040000
0.05260000 6.82460000 0.65200000
-0.99460000 4.89720000 -0.40340000
-0.93890000 4.98050000 -0.45640000
-0.96480000 4.72570000 -0.43820000
-0.97980000 5.04490000 -0.42800000
-1.00440000 5.17810000 -0.37090000
-0.96970000 5.40910000 -0.43990000
-0.99700000 5.22680000 -0.40150000
-1.00050000 5.46280000 -0.38570000
-0.97780000 5.56700000 -0.43190000
-0.96040000 5.25110000 -0.44660000
-0.92390000 5.44720000 -0.46430000
-1.00590000 5.78480000 -0.34640000
-0.99340000 5.75980000 -0.40860000
-0.94670000 5.87730000 -0.45540000
-0.86980000 5.94410000 -0.47570000
-0.99190000 6.07890000 -0.41510000
-0.96980000 6.02220000 -0.44230000
-0.87460000 5.10630000 -0.47360000
-1.00160000 6.22920000 -0.39110000
-0.92130000 6.17850000 -0.46860000
-0.96750000 6.24690000 -0.44810000
-0.97760000 6.39880000 -0.44000000
-0.99840000 6.45320000 -0.40760000
-0.91540000 6.43450000 -0.47150000
-0.97130000 6.64300000 -0.44860000
-0.99430000 6.71020000 -0.42310000
-0.93400000 6.59830000 -0.46860000
-1.00460000 6.89960000 -0.40350000
-0.85520000 6.86840000 -0.48380000
-0.99680000 3.96890000 -0.39560000
-1.00670000 4.41460000 -0.32480000
-0.97330000 3.95210000 -0.42870000
-1.00340000 4.24490000 -0.36540000
-0.93730000 4.07180000 -0.45110000
-0.98740000 4.17060000 -0.41220000
-0.95870000 4.23120000 -0.44180000
-0.90420000 4.47740000 -0.46410000
-0.99850000 3.90470000 0.53170000
-0.97100000 3.99810000 0.57900000
-0.97400000 4.40740000 -0.42940000
-0.99670000 4.59530000 -0.39240000
-0.67580000 3.66080000 0.65000000
-0.67300000 3.93670000 0.63940000
-0.55060000 3.70110000 0.66740000
-0.43710000 3.75500000 0.67290000
-0.56360000 3.87300000 0.64190000
-0.46810000 3.86590000 0.66030000
-0.38740000 3.58000000 0.64780000
-0.40040000 3.70660000 0.66250000
-0.61170000 4.30320000 0.62460000
-0.48080000 4.16200000 0.63200000
-0.43900000 4.04920000 0.64920000
-0.51900000 4.22920000 0.63370000
-0.49850000 4.34130000 0.65950000
-0.36580000 4.22200000 0.66560000
-0.42260000 4.26270000 0.65230000
-0.32320000 3.90790000 0.68220000
-0.33530000 3.67170000 0.63730000
-0.21920000 3.59910000 0.61920000
-0.00520000 3.51120000 0.61500000
-0.28150000 3.74870000 0.64950000
-0.23660000 3.67930000 0.62480000
-0.08620000 3.67120000 0.63090000
-0.13710000 3.80730000 0.66480000
0.10590000 3.50880000 0.62120000
0.15590000 3.57730000 0.62740000
0.17750000 3.65900000 0.64640000
0.00430000 3.81230000 0.65960000
0.25080000 3.70810000 0.65050000
-0.32510000 4.10020000 0.68520000
-0.29960000 4.38790000 0.68400000
-0.20910000 4.31320000 0.68850000
-0.12780000 4.09100000 0.68310000
-0.03740000 3.95170000 0.66620000
0.08370000 3.90280000 0.64050000
0.24170000 3.88070000 0.62510000
0.11900000 4.02520000 0.65070000
-0.08670000 4.34530000 0.67840000
0.12240000 4.51370000 0.67950000
0.24010000 4.30550000 0.67100000
-0.61880000 4.43750000 0.63560000
-0.50500000 4.47850000 0.67910000
-0.38550000 4.35140000 0.67830000
-0.44240000 4.54460000 0.68700000
-0.57100000 4.82120000 0.66540000
-0.48460000 4.77700000 0.67840000
-0.45570000 4.97450000 0.65900000
-0.36800000 4.99670000 0.67720000
-0.33090000 4.68440000 0.68770000
-0.49710000 5.05420000 0.64980000
-0.09390000 4.69570000 0.68740000
0.12480000 4.76600000 0.68890000
-0.29940000 4.98660000 0.67590000
-0.15450000 4.87370000 0.67730000
-0.21160000 4.99620000 0.65730000
-0.18910000 5.10270000 0.64410000
-0.25780000 5.20270000 0.65540000
-0.07360000 5.02640000 0.66590000
0.01030000 4.85030000 0.69060000
0.16560000 4.96120000 0.68180000
0.05590000 5.06960000 0.66700000
0.63060000 5.24990000 -0.52630000
1.00450000 3.58960000 -0.49910000
1.06360000 3.51510000 -0.42840000
1.04000000 3.46130000 -0.47550000
1.06950000 4.18500000 -0.37360000
1.05430000 3.87240000 -0.45520000
1.03280000 4.42590000 -0.48090000
1.05410000 5.02000000 -0.45550000
1.00770000 4.89170000 -0.49520000
1.06100000 4.46090000 -0.44060000
1.06940000 5.20880000 -0.40010000
-0.15740000 6.65690000 -0.51020000
-0.64780000 8.15480000 -0.50060000
0.03570000 5.39890000 0.66800000
-0.24700000 5.77170000 0.61050000
-0.22200000 5.29820000 0.65260000
-0.08710000 5.18180000 0.65550000
-0.03030000 5.30470000 0.66640000
0.16420000 5.11050000 0.67180000
-0.07530000 5.55170000 0.64590000
-0.18030000 5.65470000 0.63870000
-0.05530000 5.68090000 0.62280000
0.08830000 5.51420000 0.64200000
0.08630000 5.63580000 0.60660000
-0.12550000 5.74170000 0.62640000
-0.18350000 5.83010000 0.62070000
-0.13340000 5.97630000 0.64850000
-0.04640000 5.88220000 0.63490000
0.04790000 5.75870000 0.59900000
0.04220000 5.93240000 0.62210000
0.25450000 5.36320000 0.66840000
0.17720000 5.67630000 0.59410000
0.12100000 5.79430000 0.59640000
0.23720000 5.74950000 0.60730000
0.24140000 5.49010000 0.63240000
0.27280000 5.56990000 0.60850000
0.33100000 5.62230000 0.61000000
0.04180000 6.10670000 0.65250000
0.09670000 5.98420000 0.62970000
0.21270000 5.88520000 0.63850000
0.20560000 6.00570000 0.65740000
0.08640000 6.38810000 0.66080000
0.33960000 6.11700000 0.66870000
0.14350000 6.68160000 0.65560000
0.29830000 6.50900000 0.65710000
0.26690000 6.72770000 0.65590000
0.84610000 5.70250000 -0.51820000
0.73820000 7.89500000 -0.51010000
0.95670000 5.42280000 -0.50860000
0.97650000 6.40350000 -0.49710000
1.01860000 6.18600000 -0.48210000
1.05880000 6.49910000 -0.43700000
1.04800000 5.90110000 -0.46120000
1.06900000 6.19390000 -0.40460000
1.07100000 5.10370000 -0.30420000
1.06340000 3.94370000 -0.21050000
1.05760000 4.55940000 -0.07190000
1.03080000 5.38890000 -0.48140000
1.00130000 5.62030000 -0.49520000
1.06410000 5.61940000 -0.43240000
1.06980000 6.23970000 -0.31650000
1.06000000 5.79990000 -0.13330000
-1.02700000 7.55220000 -0.25150000
-1.00180000 7.18820000 -0.42050000
-0.97580000 6.93310000 -0.44850000
-0.96780000 7.18190000 -0.45730000
-1.01640000 7.47370000 -0.38240000
-0.98490000 7.41300000 -0.44820000
-0.95360000 7.35170000 -0.46790000
-0.90840000 7.34940000 -0.48090000
-1.00820000 7.55870000 -0.42080000
-0.98430000 7.63160000 -0.45350000
-0.95620000 7.61990000 -0.47010000
-1.01790000 7.84000000 -0.40660000
-0.99560000 7.83520000 -0.44690000
-0.87840000 7.87050000 -0.48900000
-1.02450000 8.19900000 -0.39430000
-0.93240000 8.01610000 -0.48250000
-1.05260000 9.11100000 0.02630000
-1.03530000 8.54360000 -0.32860000
-1.01130000 8.10550000 -0.43250000
-0.96820000 8.12930000 -0.47100000
-0.98340000 8.30140000 -0.46470000
-1.00510000 8.36840000 -0.44450000
-0.92630000 8.40910000 -0.48530000
-1.02430000 8.48640000 -0.41710000
-1.03330000 8.67760000 -0.39260000
-1.00940000 8.55500000 -0.44660000
-1.01560000 8.72500000 -0.44120000
-0.96440000 8.71630000 -0.47790000
-1.02260000 8.88280000 -0.43220000
-1.04870000 9.34580000 -0.30160000
-0.97160000 8.50730000 -0.47440000
-0.87280000 9.25090000 -0.49360000
-1.03570000 8.99450000 -0.38990000
-0.97730000 8.91880000 -0.47300000
-0.92080000 9.04120000 -0.48750000
-0.99800000 9.02840000 -0.46010000
-1.03480000 9.25860000 -0.39790000
-1.01870000 9.10120000 -0.43420000
-0.96040000 9.17320000 -0.47510000
-1.00680000 9.29580000 -0.45120000
-1.03790000 9.47620000 -0.41500000
-0.98420000 9.42060000 -0.47340000
-1.02080000 9.55100000 -0.45240000
-1.05270000 9.94630000 -0.37940000
-1.03940000 9.72690000 -0.42510000
-0.95760000 9.52630000 -0.48490000
-1.00570000 9.73300000 -0.46650000
-0.64670000 9.74050000 -0.50920000
-0.95750000 9.85220000 -0.48600000
-1.02170000 9.97040000 -0.45630000
-0.78140000 9.97090000 -0.50210000
-1.03830000 10.07270000 -0.43760000
-0.48400000 10.03130000 -0.50900000
-1.02240000 7.93520000 0.46910000
-1.02860000 7.56210000 0.41530000
-1.00480000 7.67930000 0.50000000
-0.90730000 7.77510000 0.54940000
-0.96710000 7.65710000 0.53400000
-0.91100000 7.36800000 0.55710000
-1.03270000 7.88070000 0.21040000
-1.01510000 7.20970000 0.47550000
-0.98730000 7.22190000 0.52370000
-0.72170000 7.49730000 0.56700000
-1.04790000 8.75670000 0.37890000
-0.95580000 7.94510000 0.53390000
-0.99490000 8.06560000 0.51590000
-0.83470000 8.00640000 0.54950000
-0.92530000 8.09580000 0.54880000
-0.67800000 7.88290000 0.55680000
-0.76440000 8.09370000 0.57210000
-1.00760000 8.27790000 0.52560000
-1.03100000 8.47850000 0.48080000
-0.96110000 8.25510000 0.56650000
-0.88640000 8.17750000 0.57490000
-0.90910000 8.34280000 0.59480000
-1.00140000 8.46090000 0.54570000
-1.02110000 8.59510000 0.50610000
-0.95870000 8.45140000 0.58020000
-0.89510000 8.58300000 0.59580000
-0.79150000 8.21040000 0.59450000
-0.85070000 8.39590000 0.59670000
-0.77000000 8.32260000 0.58930000
-0.62330000 8.17510000 0.59850000
-0.69570000 8.38870000 0.59640000
-0.64510000 8.23000000 0.60750000
-0.77250000 8.50750000 0.59040000
-0.63250000 8.07700000 0.56620000
-0.56120000 8.02660000 0.55350000
-0.51760000 7.11360000 0.57540000
-0.39400000 6.86550000 0.58190000
-0.45350000 7.23120000 0.57560000
-0.33580000 6.89830000 0.58940000
-0.23150000 6.85470000 0.62470000
-0.22550000 7.12680000 0.64260000
-0.32250000 7.06190000 0.61040000
-0.38850000 7.33120000 0.59950000
-0.47790000 7.55740000 0.57180000
-0.46520000 7.83730000 0.57390000
-0.36770000 7.82940000 0.61760000
-0.30830000 7.34630000 0.63290000
-0.25850000 7.62310000 0.64310000
0.05420000 6.75850000 0.64600000
-0.09610000 7.20650000 0.65970000
0.12680000 7.05310000 0.65330000
-0.04010000 7.31010000 0.65550000
0.05470000 7.29880000 0.64260000
-0.15640000 7.75620000 0.65250000
0.13480000 7.66220000 0.62730000
0.07830000 8.00960000 0.62330000
0.20040000 7.27910000 0.64230000
0.23630000 7.44560000 0.62200000
-0.57720000 8.37210000 0.59990000
-0.62970000 8.47270000 0.59290000
-0.42120000 8.10320000 0.57620000
-0.22930000 8.23160000 0.63930000
-0.55050000 8.16020000 0.57340000
-0.45220000 8.23290000 0.55230000
-0.48710000 8.19110000 0.55410000
-0.56180000 8.26330000 0.60230000
-0.50010000 8.30020000 0.57470000
-0.36040000 8.21400000 0.60900000
-0.52620000 8.44270000 0.58360000
-0.46170000 8.45850000 0.56360000
-0.36340000 8.40080000 0.57910000
-0.39620000 8.43050000 0.55760000
-0.30830000 8.31540000 0.62510000
-0.12610000 8.43700000 0.64070000
-0.07180000 7.89450000 0.63930000
0.32390000 7.46880000 0.59690000
0.28270000 7.67320000 0.59320000
0.17660000 7.93610000 0.61250000
0.02090000 8.38130000 0.62240000
0.24000000 8.29820000 0.60580000
0.27610000 8.05330000 0.58390000
0.39770000 7.65200000 0.58620000
0.36320000 8.21060000 0.57330000
0.30120000 8.27410000 0.58510000
0.50360000 7.96600000 0.58500000
0.48840000 8.16630000 0.58080000
-1.03100000 8.91850000 0.47180000
-1.04530000 9.09470000 0.43330000
-1.01720000 9.55290000 0.49420000
-1.06800000 9.91460000 0.38010000
-0.98210000 8.65650000 0.54040000
-1.00370000 8.88680000 0.50800000
-0.94520000 8.61460000 0.57300000
-0.91200000 8.74600000 0.54850000
-0.84680000 8.68580000 0.58730000
-0.95360000 8.82720000 0.53320000
-0.81390000 8.84040000 0.54250000
-0.72920000 8.80590000 0.56700000
-0.87380000 8.94210000 0.53610000
-0.76080000 8.66690000 0.60280000
-0.59010000 8.57410000 0.58410000
-0.55790000 8.65750000 0.60230000
-0.70200000 8.75590000 0.59220000
-0.78170000 8.98470000 0.54130000
-0.59970000 8.90340000 0.57940000
-0.46800000 8.73600000 0.61260000
-0.97910000 9.36380000 0.51720000
-0.87010000 9.33670000 0.53650000
-0.94410000 9.09790000 0.52800000
-0.72470000 9.11030000 0.56930000
-0.69000000 8.98070000 0.56260000
-0.61270000 9.04910000 0.58330000
-0.72840000 9.28520000 0.57360000
-0.65370000 9.23460000 0.57740000
-0.58900000 9.29960000 0.56680000
-0.64820000 9.75540000 0.55780000
-0.52620000 9.17900000 0.58420000
-0.52790000 9.28930000 0.56370000
-1.05350000 9.78510000 0.44330000
-1.03830000 10.04610000 0.47780000
-0.99640000 10.00570000 0.50940000
-0.98150000 10.27560000 0.50750000
-0.84570000 9.58830000 0.54820000
-0.96270000 9.78160000 0.51770000
-0.79620000 9.78410000 0.55700000
-0.51970000 9.80700000 0.54540000
-0.90570000 10.04960000 0.52620000
-0.88920000 10.20880000 0.51730000
-0.71900000 10.09440000 0.55480000
-0.53950000 10.18340000 0.54440000
-0.44430000 9.97840000 0.55230000
0.11310000 8.71880000 -0.51460000
-0.49030000 8.85830000 0.60820000
-0.33110000 8.93170000 0.61580000
-0.48520000 9.07810000 0.60370000
-0.36250000 9.24510000 0.61640000
-0.40260000 9.36550000 0.60000000
-0.27700000 9.29750000 0.61900000
-0.39830000 8.52380000 0.57600000
-0.31090000 8.54070000 0.60830000
-0.34470000 8.62790000 0.60740000
-0.26670000 8.70960000 0.62080000
-0.19970000 8.91070000 0.61640000
-0.14130000 9.11040000 0.60870000
-0.04000000 9.03310000 0.62880000
0.08290000 8.84990000 0.63030000
-0.15350000 9.34820000 0.60870000
-0.02440000 9.53920000 0.60930000
0.07540000 8.55940000 0.62690000
0.22740000 8.72610000 0.62800000
0.24630000 8.50650000 0.61580000
0.40920000 8.42840000 0.58500000
0.45520000 8.31730000 0.58590000
0.62180000 8.24280000 0.60970000
0.54550000 8.39020000 0.59400000
0.46430000 8.52870000 0.59200000
0.46610000 8.70920000 0.62590000
0.61380000 8.45720000 0.58080000
0.56740000 8.68890000 0.61150000
0.10880000 9.09810000 0.63530000
0.33330000 9.01550000 0.63310000
0.38490000 8.84840000 0.62760000
0.49680000 8.84240000 0.63600000
0.53110000 8.96660000 0.63210000
0.50330000 9.09590000 0.61850000
0.40150000 9.17760000 0.62750000
-0.46880000 9.39740000 0.56590000
-0.43050000 9.73460000 0.56000000
-0.36500000 9.63640000 0.58940000
-0.23130000 9.77160000 0.60690000
-0.33490000 9.97950000 0.58730000
-0.46100000 10.16110000 0.56050000
-0.17360000 10.02920000 0.58870000
-0.08960000 9.84310000 0.59680000
-0.09630000 10.12860000 0.57000000
-0.02850000 9.94570000 0.58600000
0.07290000 9.96690000 0.60090000
0.08980000 9.62380000 0.62180000
0.26300000 9.29410000 0.62720000
0.29330000 9.60110000 0.62460000
0.49740000 9.37820000 0.61430000
0.56570000 9.19210000 0.59130000
0.56610000 9.38600000 0.59330000
0.24490000 9.82980000 0.61870000
0.26570000 9.94360000 0.61090000
0.45240000 9.66630000 0.62460000
0.37640000 9.80990000 0.60900000
0.40060000 9.91930000 0.58510000
0.48820000 9.82530000 0.61260000
0.50320000 9.89670000 0.58870000
0.60780000 9.70610000 0.60150000
0.64140000 9.86370000 0.58810000
-0.93510000 6.86790000 -0.47040000
0.35730000 6.68040000 0.64120000
0.34840000 6.88730000 0.64870000
0.37710000 7.08970000 0.64300000
0.31250000 7.21970000 0.64290000
0.41770000 7.28380000 0.60970000
0.34590000 7.35030000 0.61360000
0.94220000 6.74470000 -0.50280000
1.07010000 6.80700000 -0.36330000
1.03900000 7.00050000 -0.46200000
1.00260000 6.97430000 -0.48650000
1.05650000 7.10960000 -0.17370000
1.04140000 8.04530000 -0.04590000
1.05750000 6.33020000 0.10030000
1.06560000 7.09150000 -0.41160000
1.06610000 7.25300000 -0.29010000
0.94250000 8.31420000 -0.49320000
0.98380000 7.61450000 -0.48890000
1.01920000 7.48020000 -0.47420000
1.05240000 7.40890000 -0.44030000
1.06190000 7.65470000 -0.37640000
1.04500000 8.60260000 -0.27870000
1.03320000 8.08870000 -0.45150000
1.05440000 7.89270000 -0.41590000
0.41530000 10.06340000 -0.50960000
1.03650000 8.38190000 0.31690000
1.02990000 8.62540000 -0.03390000
1.02080000 9.58270000 -0.05740000
1.00660000 8.49870000 -0.46950000
0.98370000 9.06490000 -0.47790000
1.04800000 8.56420000 -0.37310000
1.04210000 8.73800000 -0.41760000
0.90260000 9.54950000 -0.49190000
0.78720000 10.16590000 -0.49260000
0.94540000 9.35180000 -0.48720000
1.00490000 9.67650000 -0.45800000
1.02960000 9.21850000 -0.43850000
1.03260000 10.05590000 -0.39510000
1.04020000 9.31400000 -0.39030000
1.02550000 9.33900000 0.19360000
1.02180000 10.16900000 -0.20580000
-1.02750000 10.24940000 -0.45560000
-1.05440000 10.29480000 -0.41200000
-1.10070000 11.53610000 -0.20560000
-1.06680000 10.71610000 -0.38490000
-1.01320000 10.42530000 -0.46830000
-0.97990000 10.41700000 -0.48370000
-1.03890000 10.49230000 -0.44520000
-1.10400000 11.43880000 0.01450000
-1.05600000 10.82480000 -0.43150000
-1.01260000 10.83840000 -0.47390000
-0.94060000 10.71170000 -0.49570000
-0.91300000 10.36080000 -0.49320000
-0.98640000 10.16590000 -0.48040000
-0.71670000 10.46660000 -0.50310000
-0.85940000 10.58030000 -0.50820000
-0.31460000 10.64500000 -0.51900000
-0.90060000 11.05560000 -0.50450000
-0.46450000 11.19760000 -0.51740000
0.04370000 10.53340000 -0.50950000
-1.09100000 11.71980000 -0.39070000
-1.07410000 11.24300000 -0.41630000
-1.03720000 11.16060000 -0.46550000
-0.98270000 11.38110000 -0.49430000
-1.05750000 11.37340000 -0.45300000
-1.00830000 11.40300000 -0.48760000
-1.07550000 11.68820000 -0.43970000
-1.04470000 11.68090000 -0.47300000
-0.89470000 11.84110000 -0.50330000
-1.12770000 13.04550000 -0.37470000
-1.10920000 12.27490000 -0.36530000
-1.13570000 13.16230000 -0.28250000
-1.08820000 13.07990000 -0.44250000
-1.11600000 13.02540000 -0.41410000
-1.10190000 13.24320000 -0.40590000
-1.12130000 13.29380000 -0.36240000
-1.13560000 13.37030000 -0.26410000
-1.05020000 13.27280000 -0.44000000
-1.11170000 13.38050000 -0.36480000
-1.06260000 13.38610000 -0.41850000
-1.14940000 13.05310000 0.29200000
-1.14840000 13.15830000 0.11660000
-1.13020000 12.13680000 0.30850000
-1.14410000 13.29310000 0.31190000
-1.14820000 13.37610000 0.22800000
-1.14760000 13.36710000 -0.04190000
-1.13750000 13.47080000 0.20780000
-1.14350000 13.43400000 -0.04950000
-1.13270000 13.45580000 0.28830000
-1.02350000 11.84850000 -0.48750000
-1.08560000 12.07210000 -0.44110000
-1.04590000 11.98070000 -0.47800000
-0.99520000 12.19380000 -0.49250000
-1.04600000 12.18710000 -0.47960000
-1.10130000 12.33530000 -0.42540000
-1.07010000 12.40050000 -0.46880000
-1.11450000 12.65990000 -0.41650000
-1.09010000 12.60070000 -0.45380000
-0.61090000 12.57380000 -0.49970000
-1.05230000 12.71790000 -0.47210000
-1.09550000 12.77070000 -0.44750000
-0.93450000 12.98170000 -0.48120000
-1.10860000 12.87980000 -0.42710000
-1.05660000 12.91780000 -0.46390000
-1.03120000 13.10570000 -0.46600000
-0.96010000 13.25290000 -0.46180000
-0.82630000 13.23260000 -0.47260000
-0.27590000 13.18910000 -0.49490000
-0.36280000 13.34480000 -0.48020000
-1.06790000 10.48840000 0.43360000
-1.07480000 11.11730000 0.44130000
-1.10620000 11.49470000 0.37970000
-1.05210000 10.78170000 0.46820000
-1.02520000 10.97820000 0.48450000
-0.94740000 11.24340000 0.49390000
-0.95380000 10.86730000 0.50410000
-1.09560000 11.39620000 0.40910000
-1.00840000 11.59720000 0.47630000
-1.05480000 11.55120000 0.45800000
-1.08640000 11.85980000 0.43170000
-1.10680000 11.27100000 0.28890000
-1.02990000 12.15940000 0.46440000
-0.78300000 11.59420000 0.49190000
-0.92880000 12.16940000 0.48010000
-0.68930000 11.12180000 0.49880000
-1.02460000 10.42100000 0.48800000
-0.94660000 10.43370000 0.51570000
-1.01850000 10.63360000 0.49560000
-0.90720000 10.62860000 0.54260000
-0.91080000 10.73470000 0.52670000
-0.83010000 10.30020000 0.53630000
-0.74770000 10.21200000 0.54470000
-0.75220000 10.37630000 0.57220000
-0.81260000 10.37780000 0.56110000
-0.84320000 10.53480000 0.56530000
-0.75350000 10.61710000 0.58340000
-0.62610000 10.19560000 0.54590000
-0.60080000 10.28660000 0.55800000
-0.66030000 10.35050000 0.57390000
-0.67550000 10.46990000 0.58270000
-0.49790000 10.34680000 0.57540000
-0.50920000 10.48900000 0.58700000
-0.63730000 10.60460000 0.57910000
-0.79070000 10.76950000 0.57060000
-0.86020000 10.94720000 0.50670000
-0.81570000 10.89180000 0.52550000
-0.71830000 10.88530000 0.55300000
-0.71460000 10.82550000 0.57270000
-0.71210000 10.94510000 0.52490000
-0.48770000 10.66620000 0.58780000
-0.56310000 10.78770000 0.57950000
-0.58470000 10.95070000 0.52690000
-0.55460000 10.86800000 0.56750000
-0.47220000 10.91830000 0.53710000
-0.43300000 10.80290000 0.56480000
-0.41260000 10.86060000 0.54760000
-0.70290000 11.01940000 0.50320000
-0.59790000 11.31100000 0.50480000
-0.46600000 10.99480000 0.50470000
-0.39480000 10.93340000 0.54190000
-0.39010000 11.00800000 0.52900000
-0.44860000 11.04160000 0.49710000
-0.48670000 11.17440000 0.50150000
-0.41120000 11.11150000 0.51600000
-0.52200000 11.43410000 0.51280000
-0.42370000 11.26430000 0.53620000
-0.41120000 11.37810000 0.55580000
-0.46320000 11.54110000 0.54090000
-0.38800000 11.49360000 0.56480000
-0.52420000 11.79680000 0.50220000
-0.46960000 11.80710000 0.51570000
-0.41250000 11.69090000 0.55530000
0.09160000 10.92140000 -0.52270000
0.23840000 11.78710000 -0.51900000
0.49370000 10.81580000 -0.51660000
0.65100000 11.79920000 -0.50870000
-0.34260000 10.18750000 0.58400000
-0.25850000 10.26710000 0.57820000
-0.39260000 10.38040000 0.58300000
-0.31410000 10.46450000 0.55750000
-0.35140000 10.54080000 0.57000000
-0.21780000 10.33560000 0.55430000
-0.23920000 10.46050000 0.53820000
-0.12910000 10.42580000 0.55170000
-0.13000000 10.31020000 0.55300000
-0.02570000 10.17850000 0.57720000
-0.01510000 10.40450000 0.58240000
-0.39200000 10.68280000 0.57790000
-0.31580000 10.80170000 0.55110000
-0.29230000 10.86790000 0.55230000
-0.29090000 10.57500000 0.54150000
-0.30090000 10.68910000 0.55560000
-0.22900000 10.54900000 0.53540000
-0.25610000 10.67170000 0.54420000
-0.21300000 10.69300000 0.55220000
-0.13730000 10.67000000 0.57070000
-0.12940000 10.83040000 0.57640000
-0.04500000 10.66080000 0.57940000
0.07830000 10.31620000 0.58940000
0.03300000 10.59840000 0.57550000
0.17760000 10.47560000 0.55330000
0.00360000 10.86820000 0.54560000
0.18040000 10.30240000 0.58040000
0.18160000 10.06950000 0.59840000
0.29770000 10.06900000 0.58260000
0.37330000 10.15030000 0.54780000
0.20250000 10.60530000 0.53330000
0.45130000 10.15930000 0.54070000
0.44940000 10.00580000 0.55410000
0.60510000 9.94770000 0.56110000
0.61520000 10.02090000 0.54670000
0.51470000 10.36560000 0.53820000
0.69810000 10.25290000 0.53860000
0.38600000 10.62700000 0.53280000
0.22110000 10.77390000 0.52930000
0.29260000 10.81130000 0.53860000
0.39370000 10.77050000 0.56190000
0.51450000 10.65680000 0.54750000
0.64170000 10.60740000 0.54200000
0.71950000 10.62110000 0.53540000
-0.34820000 11.02140000 0.55200000
-0.25710000 10.97820000 0.56880000
-0.28800000 11.15760000 0.57710000
-0.19290000 11.04320000 0.57430000
-0.34450000 11.26160000 0.57050000
-0.21440000 11.33750000 0.55340000
-0.10560000 11.25770000 0.53240000
-0.11530000 11.10830000 0.55610000
-0.05140000 10.98860000 0.55940000
0.02990000 10.94550000 0.53870000
0.05160000 11.07010000 0.55690000
0.09530000 10.86320000 0.52450000
0.17960000 10.96980000 0.53190000
-0.00530000 11.17350000 0.54450000
0.15360000 11.20770000 0.56910000
0.19450000 11.10120000 0.55840000
-0.30270000 11.38460000 0.56670000
-0.31600000 11.56840000 0.56230000
-0.11110000 11.45060000 0.52360000
-0.21000000 11.51920000 0.53400000
-0.23640000 11.64920000 0.54400000
-0.12700000 11.69360000 0.51890000
0.08100000 11.36390000 0.52450000
0.04140000 11.53300000 0.52810000
0.17920000 11.28560000 0.56510000
0.16630000 11.34940000 0.54150000
-0.01550000 11.70200000 0.52630000
0.17730000 11.50600000 0.52440000
0.17070000 11.56760000 0.53780000
0.24870000 11.48500000 0.52890000
0.27700000 10.95630000 0.53200000
0.40240000 11.08770000 0.54000000
0.31200000 11.22900000 0.57740000
0.40650000 11.17690000 0.55750000
0.32530000 11.32820000 0.58370000
0.32870000 11.40980000 0.57270000
0.50070000 11.29030000 0.57410000
0.30050000 11.59880000 0.54070000
0.36450000 11.52280000 0.55960000
0.37120000 11.61130000 0.55590000
0.45730000 11.45530000 0.56660000
0.56340000 11.40250000 0.55670000
0.60060000 11.53820000 0.55830000
0.34230000 10.94550000 0.55360000
0.34700000 10.85830000 0.56360000
0.39500000 10.89990000 0.58650000
0.40600000 11.02240000 0.55380000
0.40540000 10.97170000 0.57760000
0.47930000 11.03870000 0.56330000
0.48620000 10.79300000 0.57820000
0.47070000 10.93670000 0.59210000
0.55090000 10.85620000 0.57830000
0.62440000 10.73890000 0.56820000
0.71050000 10.83110000 0.56710000
0.68340000 10.92560000 0.57210000
0.58490000 10.95990000 0.57520000
0.60330000 11.04650000 0.56320000
0.57260000 11.14640000 0.55720000
0.70270000 11.14800000 0.55730000
0.99370000 10.73790000 0.16560000
0.99970000 10.57160000 0.30700000
1.01080000 10.30430000 0.20260000
0.98200000 11.07240000 0.28220000
0.65160000 11.15240000 0.56540000
0.64890000 11.25600000 0.56320000
0.78450000 11.33370000 0.49960000
0.79060000 11.05250000 0.52280000
0.67170000 11.35090000 0.54310000
0.68940000 11.55090000 0.55150000
0.76040000 11.59810000 0.52430000
0.97290000 11.57110000 0.19490000
0.96700000 11.68180000 0.30740000
0.96980000 11.29610000 0.31500000
0.99790000 11.41690000 -0.04410000
1.02040000 11.11000000 -0.17460000
-1.11670000 12.50790000 0.39890000
-1.13360000 12.45490000 0.35140000
-1.07070000 12.35190000 0.44620000
-1.09180000 12.74390000 0.42490000
-1.01440000 12.81680000 0.45350000
-0.80500000 12.94720000 0.47000000
-0.69980000 12.66730000 0.48030000
-0.69300000 12.20230000 0.49040000
-0.55710000 12.39200000 0.49770000
-0.53420000 12.21940000 0.49730000
-0.49950000 12.56230000 0.48870000
-0.43670000 12.16700000 0.51060000
-0.42950000 12.26090000 0.53430000
-0.46900000 12.35940000 0.53030000
-0.39160000 12.36840000 0.55590000
-0.48200000 12.47050000 0.50460000
-0.43310000 12.43960000 0.54040000
-0.35300000 12.54330000 0.52430000
-0.34960000 12.48720000 0.54660000
-0.27800000 12.33200000 0.56140000
-1.14150000 12.96360000 0.34200000
-1.10880000 13.14840000 0.39710000
-1.06780000 13.15090000 0.42560000
-1.13010000 13.27230000 0.35690000
-1.00780000 13.29270000 0.43550000
-1.08780000 13.39700000 0.39230000
-1.10910000 13.45950000 0.34700000
-1.04900000 13.47950000 0.39440000
-1.01340000 13.41780000 0.42200000
-0.88580000 13.31760000 0.45100000
-0.88630000 13.48930000 0.43410000
-0.68720000 13.46920000 0.45590000
-0.56430000 12.98540000 0.48110000
-0.52660000 12.76890000 0.48970000
-0.48180000 12.96140000 0.50530000
-0.46180000 12.66660000 0.49420000
-0.38990000 12.60570000 0.50030000
-0.43630000 12.79890000 0.52250000
-0.36500000 12.72140000 0.52830000
-0.25650000 12.61360000 0.53820000
-0.30190000 12.82690000 0.54140000
-0.40590000 12.92130000 0.53910000
-0.48010000 13.08670000 0.48170000
-0.44110000 13.30990000 0.48330000
-0.42650000 13.18470000 0.48060000
-0.42700000 13.00350000 0.51990000
-0.40120000 13.08340000 0.49870000
-0.35210000 13.04090000 0.53160000
-0.33230000 13.14780000 0.50630000
-0.29760000 13.01780000 0.54140000
-0.14080000 12.99970000 0.53630000
-0.25220000 13.14610000 0.52950000
-0.33060000 13.23940000 0.51000000
-0.22560000 13.24610000 0.52980000
-0.28770000 13.30960000 0.52020000
-0.23050000 13.37330000 0.49910000
-0.17580000 12.78250000 0.54250000
-0.14550000 13.13720000 0.52770000
-0.10270000 13.31530000 0.52070000
-0.08540000 13.25500000 0.53110000
-0.38390000 11.91530000 0.54710000
-0.44880000 12.06210000 0.49790000
-0.35310000 12.11120000 0.53190000
-0.30700000 12.20910000 0.55950000
-0.07520000 12.81960000 -0.50840000
0.64570000 12.96400000 -0.50480000
0.28780000 12.88570000 -0.50980000
0.80270000 12.71020000 -0.49840000
-0.27110000 11.79280000 0.56700000
-0.28760000 11.96500000 0.57090000
-0.16680000 11.77620000 0.53900000
-0.12560000 11.88820000 0.56120000
-0.07360000 11.81980000 0.52650000
-0.14930000 11.97100000 0.57680000
-0.19080000 12.08030000 0.57640000
-0.04400000 12.08280000 0.56800000
0.03730000 11.88930000 0.55600000
-0.00860000 11.94990000 0.56130000
0.13780000 11.92440000 0.56740000
0.05700000 11.72950000 0.55520000
0.08410000 11.82750000 0.56860000
0.15560000 11.70430000 0.56580000
0.22500000 11.64370000 0.55920000
0.29600000 11.83440000 0.56940000
-0.11350000 12.23600000 0.56440000
-0.09450000 12.35060000 0.55920000
-0.02740000 12.15950000 0.55460000
-0.21440000 12.47220000 0.55340000
-0.08060000 12.44210000 0.54280000
0.15100000 12.04600000 0.55720000
0.15810000 12.13290000 0.54380000
0.03990000 12.22240000 0.54940000
0.10830000 12.29150000 0.55780000
0.20730000 12.31910000 0.56000000
0.01120000 12.34600000 0.54980000
-0.00160000 12.42200000 0.52880000
0.08790000 12.41920000 0.54410000
0.06680000 12.45840000 0.52040000
0.17760000 12.44100000 0.55940000
0.24250000 12.06890000 0.53220000
0.28600000 12.10180000 0.51800000
0.33790000 12.30900000 0.53310000
0.30910000 12.22200000 0.52440000
0.37910000 11.71870000 0.56840000
0.33430000 11.95010000 0.55050000
0.48700000 11.86150000 0.55870000
0.60080000 11.69230000 0.56170000
0.58510000 11.78490000 0.55380000
0.63630000 11.99890000 0.51710000
0.63880000 11.86050000 0.53150000
0.42490000 12.08340000 0.52860000
0.33100000 12.14720000 0.51230000
0.56280000 12.16330000 0.52160000
0.45050000 12.24630000 0.52100000
0.34120000 12.48480000 0.54700000
0.68390000 12.49740000 0.49460000
0.69920000 11.76010000 0.55110000
0.79420000 11.72920000 0.51330000
0.77890000 11.81440000 0.51080000
0.76350000 11.93780000 0.49540000
0.98920000 11.72200000 0.00340000
0.98720000 11.75860000 0.07580000
0.86020000 11.92470000 0.46640000
0.83960000 12.19920000 0.46190000
0.87690000 12.03220000 0.44130000
0.95680000 12.05590000 0.29540000
0.97450000 12.22610000 0.11440000
0.94810000 11.82770000 0.39280000
0.93630000 11.95570000 0.38040000
0.81040000 12.42460000 0.46560000
0.88540000 12.15040000 0.43530000
0.74160000 12.83670000 0.46670000
0.93730000 12.13950000 0.37260000
0.95300000 12.26130000 0.33590000
1.02050000 11.77690000 -0.23360000
0.99570000 12.17090000 -0.12320000
0.98890000 12.18230000 0.01190000
1.01650000 12.42740000 -0.22460000
-0.15740000 12.56270000 0.53650000
-0.07970000 12.71190000 0.53510000
-0.08700000 12.51770000 0.52090000
-0.06420000 12.58950000 0.51060000
0.02320000 12.63170000 0.49690000
0.00810000 12.49440000 0.50100000
-0.00010000 12.83210000 0.52480000
0.09140000 12.55320000 0.49460000
0.15080000 12.54330000 0.51380000
0.10650000 12.70390000 0.49840000
0.16650000 12.64190000 0.50450000
0.20790000 12.58590000 0.53220000
0.26830000 12.54060000 0.55600000
0.17100000 12.80300000 0.50850000
0.09040000 12.91510000 0.52670000
0.23980000 12.73130000 0.51600000
0.32400000 12.72910000 0.53550000
0.26910000 12.88280000 0.49130000
0.35510000 12.83480000 0.50930000
0.00690000 13.00260000 0.53870000
-0.00010000 13.14420000 0.53500000
0.02600000 13.27930000 0.53820000
0.14360000 13.00880000 0.50710000
0.21740000 12.96740000 0.48660000
0.41490000 12.92400000 0.49970000
0.42490000 13.06230000 0.49190000
0.12510000 13.10310000 0.51620000
0.13880000 13.24230000 0.52890000
0.18720000 13.12600000 0.50450000
0.26670000 13.18940000 0.51790000
0.22920000 13.06430000 0.48180000
0.33990000 13.14000000 0.49630000
0.45150000 12.58420000 0.51700000
0.54970000 12.56780000 0.50320000
0.42960000 12.78930000 0.52720000
0.52450000 12.86200000 0.50640000
0.45640000 13.25460000 0.49710000
0.66070000 12.96410000 0.48670000
0.61960000 13.20080000 0.48860000
0.80170000 12.85890000 0.45230000
0.87180000 12.64590000 0.43930000
0.85920000 12.95250000 0.43390000
0.81200000 13.15830000 0.44520000
0.90160000 12.78650000 0.40650000
0.90620000 13.09410000 0.39100000
0.86570000 12.33330000 -0.49650000
1.03090000 12.23650000 -0.33010000
0.90330000 13.07480000 -0.48390000
0.95290000 12.94030000 -0.47070000
0.92920000 12.27710000 -0.48580000
0.98250000 12.58500000 -0.45900000
0.99620000 13.07930000 -0.43770000
0.99580000 12.85730000 -0.20270000
0.98770000 12.67630000 -0.15120000
1.01250000 12.36270000 -0.43010000
1.01990000 13.01680000 -0.39810000
1.02940000 12.62330000 -0.37250000
1.02790000 12.77490000 -0.29190000
0.98640000 12.77410000 -0.08300000
1.01820000 13.03790000 -0.26350000
1.02890000 13.11770000 -0.32940000
0.89240000 12.45800000 0.44460000
0.95880000 12.32310000 0.21440000
0.96500000 12.60470000 0.22060000
0.98520000 12.84290000 0.04460000
0.95980000 13.05350000 0.21060000
0.94930000 12.56380000 0.34480000
0.93150000 12.91710000 0.34480000
0.93500000 12.66480000 0.37380000
0.66010000 10.58040000 -0.49970000
0.97530000 10.16800000 -0.46750000
1.01590000 10.12490000 -0.43890000
0.93240000 10.37900000 -0.47740000
0.99070000 10.58970000 -0.45400000
1.01960000 10.51540000 -0.41590000
1.02810000 10.56430000 -0.35640000
1.03360000 10.01890000 -0.32380000
1.01250000 10.46720000 0.00670000
0.84970000 10.75140000 -0.49840000
0.91350000 10.58040000 -0.47710000
0.82370000 11.26810000 -0.50060000
0.95970000 10.77530000 -0.48150000
0.93690000 11.30300000 -0.48660000
1.03040000 10.80610000 -0.19090000
1.01860000 10.67110000 -0.17320000
1.03510000 10.92430000 -0.34180000
1.03140000 10.88740000 -0.41030000
1.00710000 10.81900000 -0.45540000
0.97480000 11.04100000 -0.47580000
1.01730000 11.19080000 -0.43620000
0.99630000 11.71950000 -0.45620000
1.02850000 11.26670000 -0.38490000
1.00760000 10.76370000 0.03330000
1.03150000 11.65920000 -0.36410000
1.02650000 11.86620000 -0.40800000
0.96160000 12.05820000 -0.47500000
-1.11380000 13.43890000 -0.30750000
-1.08760000 13.42130000 -0.38340000
-1.07630000 13.48900000 -0.28680000
-1.02960000 13.47450000 -0.38170000
-0.97790000 13.39210000 -0.44630000
-0.94850000 13.43910000 -0.43960000
-1.11740000 13.49720000 0.00310000
-1.10860000 13.52020000 0.24590000
-1.07120000 13.53000000 -0.00700000
-1.05140000 13.56140000 0.24990000
-1.00770000 13.55630000 0.04400000
-1.12280000 13.46570000 -0.17510000
-1.01590000 13.51990000 -0.27500000
-0.96770000 13.51010000 -0.37000000
-0.91390000 13.48860000 -0.41760000
-0.86340000 13.54920000 -0.30870000
-0.85440000 13.54000000 -0.36010000
-0.71860000 13.57190000 -0.28860000
-0.87610000 13.58840000 0.13700000
-0.66630000 13.60390000 0.01610000
-0.87630000 13.39220000 -0.46100000
-0.69770000 13.45040000 -0.46390000
-0.81740000 13.45960000 -0.45260000
-0.84710000 13.52280000 -0.40100000
-0.77740000 13.50210000 -0.43600000
-0.73760000 13.53810000 -0.40770000
-0.68750000 13.56320000 -0.36770000
-0.62890000 13.52270000 -0.44300000
-0.37040000 13.48140000 -0.47330000
-0.58830000 13.55720000 -0.41290000
-0.54710000 13.57540000 -0.37910000
-0.38680000 13.59020000 -0.34380000
-0.48040000 13.53970000 -0.44630000
-0.31810000 13.53790000 -0.45640000
-0.36800000 13.56920000 -0.42280000
-1.06270000 13.53060000 0.34070000
-0.98780000 13.52410000 0.39850000
-1.00480000 13.55610000 0.35520000
-0.97710000 13.57460000 0.32870000
-0.90490000 13.59270000 0.29290000
-0.92660000 13.56550000 0.38390000
-0.64310000 13.62630000 0.27470000
-0.88980000 13.54510000 0.41330000
-0.80790000 13.53680000 0.43170000
-0.82170000 13.58280000 0.39320000
-0.75130000 13.60940000 0.35310000
-0.72460000 13.57500000 0.42210000
-0.59130000 13.60960000 0.40500000
-0.51300000 13.63240000 0.35520000
-0.42680000 13.60770000 -0.13330000
-0.42640000 13.63560000 0.15590000
-0.31150000 13.64780000 0.30450000
-0.19040000 13.62960000 0.03530000
-0.59930000 13.54660000 0.45000000
-0.51860000 13.58930000 0.43670000
