-1.64700000 3.91120000 0.41530000
-1.62610000 3.93000000 0.48110000
-1.60940000 4.72210000 -0.58270000
-1.40100000 3.01070000 -0.76020000
-1.47310000 3.32710000 -0.62990000
-1.60940000 3.89510000 0.34690000
-1.59820000 3.96380000 0.37770000
-1.37430000 3.20620000 -0.82820000
-1.61110000 4.08200000 0.29090000
-1.27540000 3.05460000 -0.98720000
-1.59270000 4.03260000 0.48140000
1.71520000 2.06350000 -0.23110000
1.69920000 1.91760000 -0.34380000
-1.54960000 4.77090000 -0.70800000
-1.60020000 4.85550000 -0.61590000
1.68170000 2.00410000 -0.40530000
-1.63140000 4.66550000 -0.17610000
-1.65710000 4.06500000 0.12130000
-1.62480000 4.69110000 -0.39870000
-1.67540000 4.07090000 0.08690000
-1.64920000 4.69170000 -0.24670000
-1.66510000 4.74920000 -0.27500000
-1.66710000 4.72770000 -0.04760000
-1.68820000 4.93670000 -0.24000000
-1.67360000 4.97710000 -0.28060000
-1.63350000 4.13780000 0.05830000
-1.57810000 4.08790000 0.56520000
-1.58000000 4.22600000 0.51050000
-1.63110000 4.80710000 -0.51280000
-1.67000000 4.84640000 -0.43030000
-1.70740000 5.08960000 -0.30630000
-1.61290000 4.38370000 0.32220000
-1.58740000 4.19450000 0.59800000
-1.61510000 4.28290000 0.57020000
-1.37480000 3.36120000 -0.84210000
-1.27050000 3.12390000 -0.99320000
-1.54960000 4.21980000 0.65080000
-1.27900000 3.13780000 -1.04090000
-1.34290000 3.30050000 -0.95790000
-1.66490000 4.86460000 -0.49670000
-1.68730000 5.03220000 -0.44840000
-1.60370000 4.37440000 0.50710000
-1.58860000 4.36520000 0.44700000
-1.65770000 5.15460000 -0.48000000
-1.50680000 4.77690000 -0.78130000
-1.63770000 4.47980000 0.05780000
-1.47610000 4.77350000 -0.86220000
-1.42490000 3.53020000 -0.78840000
-1.53570000 4.86160000 -0.86880000
-1.53500000 4.81930000 -0.80250000
-1.61920000 3.01540000 -0.05230000
-0.63500000 0.21210000 -1.48170000
-1.67060000 3.02430000 0.01750000
-1.57800000 4.87220000 -0.74140000
-1.56410000 3.02490000 -0.08040000
-0.52390000 0.31040000 -1.51590000
-1.55040000 3.06210000 -0.08000000
-0.58600000 0.20690000 -1.52730000
-1.56900000 3.09040000 -0.12170000
-1.57090000 3.11820000 -0.04670000
-0.51760000 0.23890000 -1.56820000
-0.48430000 0.22650000 -1.60480000
-1.56510000 3.15050000 0.03900000
-1.62130000 3.16940000 -0.01820000
-1.58490000 3.18250000 0.02030000
-0.41550000 0.25900000 -1.59320000
-1.67170000 3.20790000 -0.16980000
-1.63640000 3.15050000 -0.25160000
-1.65270000 3.18140000 -0.07570000
-1.59810000 4.97650000 -0.70620000
-1.59410000 5.01150000 -0.61950000
-1.62840000 3.13240000 -0.10800000
-1.59630000 3.10820000 -0.17730000
-1.58000000 3.12370000 -0.26820000
-0.30240000 0.30310000 -1.62540000
-1.61580000 5.12830000 -0.71320000
-1.56290000 5.09740000 -0.83110000
-0.37120000 0.34800000 -1.57470000
-1.63120000 3.19850000 -0.35010000
-0.29490000 0.39750000 -1.63640000
-1.63670000 5.22240000 -0.56020000
-0.43470000 0.48740000 -1.55680000
-0.33940000 0.48630000 -1.63340000
-1.68200000 3.28890000 -0.31750000
-1.49640000 5.32850000 -0.87390000
-1.58470000 3.29720000 0.09650000
-1.64270000 3.27790000 0.02070000
-0.61920000 0.51670000 -1.46790000
-1.11140000 4.78350000 -1.33350000
-0.97980000 4.45480000 -1.49500000
-1.15150000 4.31000000 -1.37280000
-0.77750000 0.53290000 -1.37080000
-0.66580000 4.77400000 -1.63570000
-1.66660000 3.36650000 0.01370000
-1.70230000 3.36440000 -0.14560000
-0.73030000 0.55130000 -1.42600000
-0.68280000 0.56570000 -1.48220000
-0.52560000 0.57940000 -1.52340000
-0.62240000 0.64080000 -1.55070000
-0.56610000 0.60480000 -1.54360000
-1.71010000 3.38770000 -0.25610000
-0.40000000 0.55850000 -1.58580000
-0.31090000 0.56800000 -1.64840000
-0.41790000 0.63500000 -1.60010000
-1.05360000 4.18930000 1.39900000
-1.61330000 3.26010000 -0.43300000
-1.58390000 3.30790000 -0.46440000
-1.65050000 3.28040000 -0.40850000
-1.68080000 3.39630000 -0.37610000
-1.64190000 3.37400000 -0.45790000
-0.53860000 0.63590000 -1.58870000
-0.41680000 0.60750000 -1.56630000
-1.65660000 3.45570000 -0.43690000
-1.35900000 5.03730000 -1.08060000
-0.16110000 0.30950000 -1.63220000
-1.57040000 3.42520000 -0.48380000
-1.52120000 3.44340000 -0.51850000
-1.13700000 4.20780000 1.26510000
-1.16490000 4.23300000 1.20690000
-1.22640000 4.23030000 1.13410000
-0.20640000 0.33660000 -1.63260000
-0.16620000 0.37480000 -1.67300000
-0.22130000 0.48930000 -1.69780000
-1.62070000 3.47430000 -0.46160000
-1.54280000 3.51980000 -0.48390000
-1.14710000 4.42080000 1.34100000
-1.26170000 5.01980000 -1.17520000
-1.14820000 4.95290000 -1.27220000
-1.07850000 4.33500000 1.41020000
-0.13480000 0.48930000 -1.72120000
-1.13380000 4.34580000 1.30560000
-1.19410000 4.37490000 1.24200000
-1.20410000 4.53840000 1.27450000
-1.50060000 3.62500000 -0.58700000
-1.21630000 4.16230000 1.09970000
-1.27560000 4.21100000 1.05370000
-1.27690000 4.17120000 0.96790000
-1.28350000 4.21060000 1.00680000
-1.28990000 4.25160000 0.95200000
-0.01110000 0.36850000 -1.66670000
-1.35710000 4.28010000 0.88090000
-0.01470000 0.41570000 -1.69490000
-1.67610000 3.54090000 -0.33710000
-1.32300000 5.14960000 -1.10090000
-1.27020000 4.29980000 1.04160000
-1.23760000 4.29490000 1.13000000
-1.27630000 4.36320000 1.09050000
-0.02340000 0.49620000 -1.73290000
-1.59200000 3.56220000 -0.45080000
-1.64440000 3.54990000 -0.40780000
-1.36020000 4.44760000 0.94850000
0.14740000 0.55550000 -1.73070000
-1.30120000 4.40270000 1.01920000
-1.54940000 3.58360000 -0.51700000
-1.60840000 3.60480000 -0.48770000
-1.65370000 3.62520000 -0.42770000
-1.65720000 3.66580000 -0.44350000
-1.58270000 4.32240000 0.75050000
-1.53430000 4.34520000 0.75950000
-1.43320000 4.30950000 0.80210000
-1.56910000 3.64630000 -0.52130000
-0.76700000 0.61260000 -1.45170000
-1.41630000 5.34870000 -0.95910000
-0.81270000 0.72070000 -1.46170000
-1.52670000 4.43690000 0.67810000
-1.48710000 4.51840000 0.68810000
-1.46220000 4.54220000 0.75040000
-0.63350000 0.71650000 -1.57020000
-1.39690000 4.46160000 0.87990000
-1.40410000 4.45920000 0.80620000
-1.43840000 3.64620000 -0.74430000
-0.85820000 0.65540000 -1.38550000
-1.45720000 3.53880000 -0.85080000
-1.46730000 3.63970000 -0.83220000
-0.88200000 0.76330000 -1.41330000
-1.43100000 3.72100000 -0.77870000
-1.40950000 4.49570000 0.82210000
-0.89450000 4.90420000 -1.46500000
-1.23320000 4.43750000 1.18510000
-1.01430000 4.90050000 -1.39110000
-1.29640000 4.49500000 1.07830000
-1.24650000 4.50960000 1.19620000
1.68800000 2.36230000 -0.37670000
-1.03720000 4.94660000 -1.43150000
-0.96520000 4.93240000 -1.46300000
-1.14610000 4.99800000 -1.28400000
-1.19690000 5.05020000 -1.30090000
-1.08450000 5.04440000 -1.46360000
-1.02250000 4.96740000 -1.49650000
-1.23860000 4.58310000 1.19550000
-1.30570000 4.63140000 1.11980000
1.72500000 2.63800000 -0.25340000
-1.36820000 4.53350000 0.97320000
-1.37820000 4.63640000 0.95910000
-1.22960000 5.11760000 -1.32820000
-1.29000000 4.51520000 1.04050000
-1.33500000 4.63220000 1.02530000
-1.12600000 5.14200000 -1.42700000
-0.96180000 5.02950000 -1.55570000
0.23750000 0.51880000 -1.69230000
0.30140000 0.52410000 -1.66140000
1.70980000 2.59320000 -0.37000000
1.70330000 2.55670000 -0.42190000
0.27270000 0.56890000 -1.68650000
1.63690000 2.50340000 -0.57240000
0.38800000 0.49760000 -1.67270000
1.67170000 2.56200000 -0.50940000
1.72460000 2.61670000 -0.47320000
0.42990000 0.58430000 -1.67670000
1.75400000 2.66020000 -0.38840000
-1.43310000 4.60960000 0.87570000
0.31050000 0.61520000 -1.70420000
1.74350000 2.69550000 -0.35690000
-1.24630000 4.63160000 1.25160000
-1.23200000 4.68160000 1.27280000
1.74560000 2.66820000 -0.28900000
-1.25310000 4.64770000 1.20860000
-1.31630000 4.72860000 1.14810000
1.77220000 2.71990000 -0.23580000
1.78010000 2.72540000 -0.29830000
-1.27250000 4.78740000 1.22910000
1.76670000 2.74790000 -0.45080000
0.20790000 0.63810000 -1.73400000
-0.89140000 4.96090000 -1.51990000
1.79020000 2.82090000 -0.34940000
-0.95360000 4.96620000 -1.53180000
0.27290000 0.70540000 -1.69460000
-0.84070000 5.06100000 -1.62060000
-1.42340000 4.79040000 0.93110000
-0.60560000 4.99000000 -1.62030000
-1.46210000 4.91490000 0.95220000
-0.73140000 5.03500000 -1.55650000
-0.75830000 5.08100000 -1.61460000
-1.37480000 4.86440000 1.11280000
1.75020000 2.75070000 -0.17020000
0.58110000 0.66390000 -1.68500000
1.74550000 2.83990000 -0.12180000
0.37670000 0.75290000 -1.68610000
1.77900000 2.81840000 -0.24590000
-0.96630000 4.10470000 1.47710000
-0.57010000 5.08320000 -1.63050000
0.57650000 0.84380000 -1.69420000
1.78280000 2.95270000 -0.29330000
-0.90530000 4.17360000 1.51930000
-0.80260000 3.94150000 1.58300000
1.78660000 2.96730000 -0.38590000
1.77410000 2.87890000 -0.50410000
0.43460000 0.88920000 -1.69290000
0.19400000 0.73110000 -1.69860000
0.31160000 0.81120000 -1.68780000
1.77630000 2.83530000 -0.15580000
1.78120000 2.89960000 -0.20770000
1.75280000 2.92480000 -0.14630000
-0.83230000 4.08010000 1.53930000
-0.81730000 4.10780000 1.57100000
-0.84290000 4.22060000 1.53970000
-0.83650000 4.19510000 1.56880000
-0.76480000 4.09070000 1.60280000
-0.64160000 5.12540000 -1.61430000
-0.52250000 5.15410000 -1.68220000
-0.63710000 5.15320000 -1.67350000
1.69050000 2.60240000 -0.54380000
1.70390000 2.58680000 -0.56670000
1.73210000 2.67200000 -0.54050000
-0.66150000 5.19020000 -1.72560000
-0.51900000 5.19980000 -1.76720000
0.69610000 0.69800000 -1.65780000
-0.59720000 4.34150000 1.57340000
-0.63110000 4.29020000 1.61730000
-0.53390000 4.15020000 1.57960000
1.72850000 2.73940000 -0.58560000
1.69300000 2.64910000 -0.63740000
-0.81310000 4.23140000 1.58360000
-0.47410000 5.26980000 -1.79590000
1.64480000 2.61140000 -0.68330000
1.65710000 2.66260000 -0.67420000
1.66750000 2.70200000 -0.70870000
-0.87570000 4.26330000 1.53520000
1.60750000 2.64490000 -0.78250000
-0.81580000 4.28150000 1.55750000
0.81250000 0.72870000 -1.58540000
-0.92230000 4.30070000 1.52880000
-0.82190000 4.32650000 1.57810000
-0.98970000 4.37130000 1.45920000
0.98360000 0.67670000 -1.42200000
0.95590000 0.68480000 -1.47260000
-0.85220000 5.17690000 -1.62130000
-0.89820000 4.38580000 1.53000000
1.67710000 2.85980000 -0.72840000
0.97840000 0.82870000 -1.42380000
0.95150000 0.85130000 -1.46470000
-0.94240000 4.38840000 1.47530000
1.07440000 1.05590000 -1.35140000
1.67850000 2.93820000 -0.70970000
-0.83290000 4.42920000 1.54260000
-0.82390000 4.44780000 1.48410000
-0.75690000 4.22190000 1.59680000
-1.07150000 5.32440000 -1.42400000
-0.70130000 4.24830000 1.64950000
-0.76360000 4.36660000 1.62140000
-0.73440000 4.23320000 1.62430000
-0.69710000 4.32720000 1.63980000
1.60640000 2.74120000 -0.80370000
1.61570000 2.80780000 -0.82130000
0.91350000 0.86720000 -1.51010000
-0.69280000 4.38570000 1.60090000
1.53870000 2.75540000 -0.92460000
1.56580000 2.83430000 -0.90470000
-0.66180000 4.42320000 1.55100000
1.55090000 2.76620000 -0.96000000
-0.56080000 4.40220000 1.57110000
0.85640000 0.88430000 -1.53510000
1.60840000 2.88070000 -0.81800000
-0.78810000 4.41880000 1.59370000
-0.72820000 4.42730000 1.56160000
1.58940000 2.92400000 -0.88130000
1.59580000 2.96620000 -0.81800000
1.57440000 2.93730000 -0.85230000
-0.75090000 5.35170000 -1.64870000
-0.70400000 4.47540000 1.51740000
-0.82810000 4.52180000 1.45070000
0.81300000 0.92860000 -1.56580000
-0.77820000 4.79800000 1.47940000
1.75330000 3.10460000 -0.44300000
1.73880000 2.98280000 -0.59440000
0.64730000 0.95230000 -1.65260000
-1.14490000 4.58150000 1.34940000
-1.06710000 4.62040000 1.37440000
-0.90910000 4.44230000 1.43400000
-0.98980000 4.52630000 1.40970000
-1.37640000 5.26950000 -1.06710000
-1.28860000 5.08620000 -1.19430000
-0.93500000 4.52620000 1.39840000
-1.34860000 5.18520000 -1.16240000
-1.31230000 5.13910000 -1.22440000
0.87100000 0.99180000 -1.51170000
1.66020000 3.03170000 -0.74360000
1.66130000 3.06300000 -0.70970000
1.69620000 3.13280000 -0.63340000
0.90790000 1.02830000 -1.45870000
1.63630000 3.11410000 -0.74960000
-1.32610000 5.26280000 -1.21840000
1.71260000 3.15780000 -0.53680000
1.64590000 3.22300000 -0.67240000
1.64270000 3.16490000 -0.78120000
0.71820000 1.03770000 -1.59900000
1.74540000 3.05770000 -0.05810000
0.62550000 1.12810000 -1.61850000
0.75480000 1.10490000 -1.57020000
-1.42130000 5.38590000 -1.06720000
-1.40660000 5.45980000 -0.98150000
1.75940000 2.98140000 -0.12500000
0.80670000 1.13150000 -1.51750000
1.77730000 3.01350000 -0.15890000
1.74550000 3.07180000 -0.15350000
1.76830000 3.05250000 -0.19820000
1.77220000 3.09620000 -0.23090000
-1.32040000 5.40430000 -1.20090000
0.85400000 1.19690000 -1.49720000
-0.97840000 4.67930000 1.36330000
1.73510000 3.15090000 -0.20610000
1.74390000 3.31930000 -0.09240000
1.68690000 3.37440000 -0.40940000
0.90120000 1.40920000 -1.46300000
0.77940000 1.18390000 -1.55910000
0.70180000 1.20430000 -1.61240000
-1.01350000 5.49250000 -1.43460000
0.79810000 1.26460000 -1.58370000
-1.29780000 5.56130000 -1.19080000
0.84950000 1.29400000 -1.51110000
0.82770000 1.34930000 -1.55510000
0.79150000 1.48000000 -1.54410000
-0.46780000 0.74590000 -1.63330000
-0.40530000 0.68860000 -1.62780000
-0.20330000 0.63540000 -1.71590000
-0.12350000 0.66610000 -1.74010000
-0.50150000 4.68420000 1.59480000
0.00930000 0.63790000 -1.75290000
-0.59460000 4.80680000 1.56370000
-0.47360000 4.72610000 1.61370000
-0.52370000 4.78460000 1.66300000
-0.48080000 4.76350000 1.69400000
0.10650000 0.68240000 -1.74100000
1.77070000 3.10100000 -0.31180000
-0.60250000 4.85140000 1.58980000
-0.77160000 5.48410000 -1.62250000
1.77530000 3.11050000 -0.35290000
1.74160000 3.17230000 -0.29300000
-0.52640000 4.83190000 1.72350000
1.76770000 3.16030000 -0.32030000
1.74160000 3.17150000 -0.36310000
-0.32130000 0.64660000 -1.66300000
1.73320000 3.18760000 -0.45010000
1.67900000 3.24440000 -0.46820000
-0.89510000 5.53460000 -1.54300000
1.71340000 3.24070000 -0.31040000
-0.30230000 0.70420000 -1.65370000
-0.26360000 0.73630000 -1.69330000
-1.11250000 5.55800000 -1.38140000
-0.33810000 4.76450000 1.68040000
-0.39590000 4.82340000 1.76400000
-0.87220000 5.58850000 -1.61930000
-0.35860000 0.77100000 -1.65370000
-1.14060000 5.59710000 -1.41780000
1.63430000 3.29780000 -0.61670000
1.64010000 3.27530000 -0.68220000
-1.26310000 5.59650000 -1.25900000
1.66580000 3.32570000 -0.62570000
1.65570000 3.27760000 -0.72440000
-0.33930000 0.83240000 -1.66890000
1.67580000 3.36980000 -0.63850000
-0.20940000 0.77330000 -1.70370000
-0.26750000 0.83180000 -1.66650000
-0.21660000 0.83640000 -1.68290000
1.65120000 3.33130000 -0.53200000
-1.28010000 5.63750000 -1.28580000
-1.06070000 5.62740000 -1.49970000
1.64790000 3.35070000 -0.59010000
1.63890000 3.39630000 -0.59230000
-0.07900000 0.83280000 -1.74330000
0.10470000 0.77180000 -1.74610000
-0.60250000 5.48040000 -1.70680000
-0.73250000 5.54970000 -1.69300000
0.05660000 0.83660000 -1.75180000
-0.83810000 5.76720000 -1.66280000
-0.01600000 0.93630000 -1.74410000
-0.61700000 4.88220000 1.66940000
-0.18190000 0.84190000 -1.71470000
-0.62690000 4.93350000 1.68340000
1.72790000 3.44170000 -0.35590000
1.70210000 3.41190000 -0.42580000
-0.52920000 4.88520000 1.73030000
-0.53710000 4.95770000 1.70980000
1.70540000 3.45770000 -0.49710000
-0.56120000 4.99800000 1.71190000
1.59250000 3.54080000 -0.68250000
-0.45160000 4.91660000 1.75890000
-0.18680000 0.98310000 -1.69660000
1.63780000 3.59540000 -0.70040000
-0.30560000 4.89090000 1.79130000
0.04020000 0.93170000 -1.73070000
1.72920000 3.50370000 -0.26210000
-0.09280000 0.98860000 -1.71510000
-1.13070000 5.92400000 -1.47240000
1.78210000 3.54050000 -0.27380000
1.73900000 3.60630000 -0.08660000
1.75230000 3.57960000 -0.20660000
-0.40020000 4.98070000 1.75660000
1.74420000 3.44060000 -0.41000000
-0.28280000 4.96690000 1.74870000
1.73410000 3.52210000 -0.47670000
-0.29740000 5.02640000 1.73150000
-0.38700000 5.07580000 1.75950000
1.77610000 3.50840000 -0.36030000
-0.73160000 0.86040000 -1.55430000
-0.53160000 5.07970000 1.72850000
-0.88720000 0.87280000 -1.43730000
1.78090000 3.60290000 -0.30170000
1.66350000 3.85510000 -0.44420000
-0.74030000 4.95050000 1.51180000
-0.64040000 4.90970000 1.62900000
-0.76980000 5.03360000 1.59560000
-0.74680000 4.99570000 1.56860000
1.68470000 3.62960000 -0.58110000
1.23590000 2.86190000 -1.22290000
1.30480000 2.88800000 -1.21860000
1.27160000 2.82180000 -1.20810000
1.23840000 2.89970000 -1.25680000
1.21290000 2.86470000 -1.29260000
-0.56500000 0.93910000 -1.62030000
1.27700000 2.92760000 -1.23470000
1.24390000 2.95260000 -1.27610000
1.32490000 2.96610000 -1.22580000
1.21870000 2.89090000 -1.33660000
-0.44770000 0.85860000 -1.65280000
-0.67970000 5.09880000 1.65840000
1.21030000 2.95620000 -1.33280000
1.25200000 2.99510000 -1.24010000
1.32970000 3.02900000 -1.22780000
1.20220000 3.00280000 -1.29370000
1.23040000 3.05430000 -1.25820000
1.27170000 3.06850000 -1.24060000
-1.71670000 4.78690000 -0.01670000
-0.85020000 5.02410000 1.47410000
-0.84540000 5.14030000 1.57250000
0.74050000 2.91420000 -1.59060000
0.72860000 3.03150000 -1.57840000
0.77530000 3.01630000 -1.55480000
-1.73040000 4.89590000 -0.07210000
-1.72150000 4.85630000 0.10210000
-1.71830000 5.02300000 -0.09670000
0.62440000 3.05790000 -1.61310000
0.63080000 2.89670000 -1.64590000
0.58490000 2.98320000 -1.66320000
0.67960000 2.97200000 -1.62810000
-1.13650000 4.71680000 1.31410000
0.71610000 3.09420000 -1.58400000
0.57760000 3.09430000 -1.64050000
-1.05530000 4.74400000 1.30640000
0.67120000 3.10800000 -1.60500000
0.67520000 3.15770000 -1.56850000
0.56090000 3.15480000 -1.61430000
-0.99910000 4.89280000 1.34100000
0.82570000 2.94690000 -1.51970000
0.91630000 2.90270000 -1.48920000
0.84630000 2.88140000 -1.50830000
-1.21440000 4.82200000 1.28670000
-0.84080000 0.96270000 -1.48040000
0.93450000 2.98440000 -1.50610000
-1.16110000 4.80200000 1.28380000
0.96690000 3.11670000 -1.49120000
1.05650000 2.96380000 -1.46770000
0.92440000 3.08130000 -1.49070000
-1.17220000 4.87820000 1.28030000
-0.95660000 0.99800000 -1.37590000
1.18490000 2.89750000 -1.39330000
-1.12270000 4.82260000 1.26570000
1.17900000 3.01620000 -1.37900000
1.20610000 3.02220000 -1.32460000
-1.07250000 4.83670000 1.28110000
-1.69930000 4.99290000 0.03770000
-1.12390000 4.90710000 1.27690000
-0.90840000 1.07740000 -1.41040000
-1.71350000 5.11800000 -0.01610000
1.13030000 3.07600000 -1.40460000
-0.82240000 1.15010000 -1.46340000
1.03790000 3.19170000 -1.44310000
-0.69730000 1.03240000 -1.57060000
1.24410000 3.09160000 -1.29370000
-1.25420000 4.93460000 1.26350000
-1.18970000 4.95200000 1.30190000
-1.68810000 5.15870000 0.13510000
-1.67090000 5.03280000 0.23180000
1.24710000 3.15020000 -1.29910000
1.21870000 3.19820000 -1.30090000
-1.70060000 5.21860000 0.01070000
-1.05840000 4.95790000 1.30760000
0.97830000 3.21090000 -1.46240000
-1.09690000 5.00400000 1.33400000
1.08420000 3.20630000 -1.40360000
-1.16430000 5.05810000 1.33930000
-0.48550000 1.24210000 -1.63620000
1.18830000 3.24950000 -1.34410000
-1.70370000 5.27830000 -0.10400000
1.09660000 3.27930000 -1.40010000
0.79740000 2.88410000 -1.56420000
-0.72540000 1.14380000 -1.53350000
-0.91730000 4.99060000 1.40370000
-0.64240000 1.20200000 -1.57720000
0.77280000 3.08470000 -1.53480000
0.88080000 3.04240000 -1.51620000
-1.72640000 5.32160000 -0.26730000
-0.68080000 1.17960000 -1.53130000
-0.74200000 1.23370000 -1.50700000
-0.65280000 1.24570000 -1.53230000
-1.00310000 5.04110000 1.39240000
0.81490000 3.15280000 -1.49710000
-1.69300000 5.38230000 -0.37040000
-0.32450000 0.88840000 -1.66460000
-1.01240000 5.09060000 1.43940000
0.89840000 3.16430000 -1.51400000
-0.29730000 0.94770000 -1.68460000
-1.73900000 5.38800000 -0.12560000
0.83630000 3.21960000 -1.49490000
0.91760000 3.24000000 -1.49590000
-1.37400000 4.98620000 1.13460000
-0.49050000 1.05210000 -1.64730000
-0.28660000 1.03850000 -1.67550000
1.13620000 3.28100000 -1.35910000
1.16230000 3.34200000 -1.33630000
-1.25750000 5.08730000 1.25500000
0.78440000 3.47680000 -1.50370000
0.61480000 3.33460000 -1.58790000
0.90950000 3.43240000 -1.42890000
0.87170000 3.23500000 -1.51180000
0.87920000 3.31790000 -1.46750000
-0.06800000 1.06150000 -1.69160000
-0.03230000 1.04510000 -1.72970000
0.93090000 3.31720000 -1.45760000
-1.67590000 5.34420000 -0.51040000
-0.20290000 1.10860000 -1.68910000
-1.36310000 5.13600000 1.14290000
-0.17620000 1.16040000 -1.66390000
-0.06750000 1.19480000 -1.67330000
-1.63090000 5.40330000 -0.66150000
-1.24760000 5.16910000 1.24360000
-0.31530000 1.07890000 -1.68630000
0.98640000 3.29750000 -1.46250000
1.04150000 3.32950000 -1.40820000
-0.37800000 1.15650000 -1.66590000
0.97880000 3.39230000 -1.40780000
1.10370000 3.37150000 -1.38870000
-1.60360000 4.31030000 0.66740000
-1.68890000 5.50300000 -0.47600000
1.11070000 3.41850000 -1.35380000
1.05510000 3.42640000 -1.36560000
-1.65710000 4.43160000 0.56070000
1.13550000 3.45170000 -1.29500000
-1.63950000 4.47900000 0.59760000
-1.71630000 5.45830000 -0.37760000
-1.58560000 4.44860000 0.64810000
-0.35030000 1.23460000 -1.65360000
1.17780000 3.50820000 -1.22570000
1.03720000 3.49680000 -1.34550000
0.98730000 3.65100000 -1.38040000
1.14080000 3.94420000 -1.24970000
-0.52280000 1.29940000 -1.60560000
-0.57900000 1.31500000 -1.59370000
-1.57950000 4.50340000 0.58380000
-1.55140000 4.58200000 0.56080000
-0.40800000 1.28910000 -1.65540000
-1.71260000 5.23110000 0.08840000
-1.71030000 5.28200000 0.14200000
-0.42300000 1.35830000 -1.63490000
-1.69370000 5.31970000 -0.02210000
-1.61340000 4.51140000 0.32930000
-1.71670000 5.32330000 0.05700000
-1.62950000 4.44650000 0.47360000
-1.69180000 4.57530000 0.36570000
-1.69940000 5.36270000 0.04870000
-1.69190000 5.46730000 0.05010000
-1.70860000 5.24120000 0.28920000
-1.74090000 5.32030000 0.17960000
-1.72310000 5.24020000 0.20790000
-1.65630000 4.60090000 0.25930000
1.57690000 2.94530000 -0.94800000
1.53670000 2.87440000 -1.02740000
-0.20240000 1.36120000 -1.64900000
-0.26630000 1.28700000 -1.63720000
-1.73060000 5.37770000 0.25260000
-1.73430000 5.38260000 0.17530000
-0.35230000 1.31070000 -1.64030000
-1.68140000 5.41310000 0.09110000
-1.69180000 4.58880000 0.45380000
-0.33950000 1.37490000 -1.62020000
-1.63100000 4.60330000 0.50740000
1.48220000 2.79910000 -1.07070000
1.48210000 2.90290000 -1.11390000
1.60490000 3.04550000 -0.86390000
0.21230000 0.78440000 -1.72650000
-1.72220000 5.50530000 -0.23780000
1.52840000 3.07850000 -1.09220000
1.60800000 3.11300000 -0.95380000
0.15020000 0.84820000 -1.71840000
1.58330000 3.21500000 -1.00090000
-1.43550000 4.59450000 0.78900000
0.13670000 0.92120000 -1.74020000
1.39010000 2.80950000 -1.16020000
1.38150000 2.85610000 -1.17960000
1.44750000 2.93040000 -1.13880000
-1.44070000 4.58400000 0.81990000
1.45110000 2.96330000 -1.17220000
-1.72880000 5.55370000 -0.00310000
-1.45280000 4.68590000 0.80910000
1.38360000 2.88110000 -1.21920000
1.36940000 2.94290000 -1.23130000
1.45160000 3.04020000 -1.17030000
0.24420000 0.87030000 -1.71510000
-1.52110000 4.71670000 0.68290000
-1.44190000 4.72480000 0.91560000
-1.49040000 4.78980000 0.82310000
0.21950000 0.99160000 -1.67970000
0.27590000 0.95210000 -1.67710000
1.39330000 3.03710000 -1.18930000
0.19370000 0.99750000 -1.71090000
0.08320000 0.94370000 -1.74120000
-1.51350000 4.79040000 0.68190000
-1.52620000 4.83440000 0.74180000
-1.71820000 5.42690000 0.25810000
-1.68070000 5.47430000 0.19870000
1.43690000 3.12880000 -1.18660000
1.46710000 3.18510000 -1.15420000
-1.68100000 5.46010000 0.34710000
0.03440000 0.98230000 -1.72820000
1.37970000 3.07780000 -1.23510000
-1.60250000 4.70260000 0.45970000
1.32290000 3.07370000 -1.25270000
0.14960000 1.03660000 -1.72110000
-1.56000000 4.77010000 0.55820000
-1.58100000 4.77860000 0.46490000
1.35290000 3.13450000 -1.24830000
0.35690000 0.88900000 -1.69140000
-1.63720000 4.76520000 0.41630000
-1.66880000 5.58560000 0.21110000
1.37030000 3.16970000 -1.20440000
-1.64000000 5.55030000 0.39770000
1.48860000 3.29380000 -1.09120000
-1.65450000 5.62760000 0.37260000
-1.69810000 5.62230000 0.12090000
-1.55300000 4.89330000 0.63830000
-1.57080000 4.87430000 0.59720000
1.64030000 3.27610000 -0.82010000
0.33700000 1.04610000 -1.68420000
-1.60250000 4.96280000 0.45120000
0.50790000 1.04820000 -1.65940000
0.45010000 1.10750000 -1.66090000
-1.73670000 5.64710000 -0.00290000
-1.71520000 5.62430000 -0.21300000
1.63570000 3.22240000 -0.77290000
-1.74630000 5.66930000 -0.15750000
-1.76360000 5.72520000 0.06510000
-1.76080000 5.86940000 -0.18270000
1.59940000 3.35700000 -0.90830000
-1.63890000 4.66920000 0.05050000
-1.72140000 5.67430000 0.24630000
-1.65360000 4.67980000 0.13120000
1.61990000 3.35330000 -0.85470000
-1.76820000 5.86460000 -0.02670000
0.08340000 1.04140000 -1.70110000
-1.73360000 4.74490000 0.22160000
1.32760000 3.22390000 -1.21400000
1.40980000 3.22720000 -1.19160000
0.02720000 1.01770000 -1.74240000
0.01080000 1.10550000 -1.72720000
0.05940000 1.11490000 -1.69520000
-1.70200000 4.72310000 0.10900000
-0.02920000 1.12360000 -1.70210000
1.42510000 3.32190000 -1.14040000
-1.67210000 5.60390000 -0.45950000
0.17570000 1.05520000 -1.68980000
0.14990000 1.11490000 -1.67550000
0.01850000 1.17720000 -1.68120000
1.55350000 3.35460000 -0.99630000
0.26180000 1.10440000 -1.68370000
-1.69200000 5.65860000 -0.48870000
0.46510000 1.16450000 -1.68530000
-1.72280000 5.77160000 -0.40650000
1.50180000 3.45420000 -1.01880000
1.42330000 3.41160000 -1.06490000
1.53140000 3.41690000 -1.01640000
1.40260000 3.38120000 -1.11300000
1.29780000 3.14590000 -1.24750000
-1.69420000 4.75380000 0.38300000
-1.72450000 4.75090000 0.31360000
1.26360000 3.23310000 -1.24080000
0.27580000 1.19210000 -1.71530000
0.39190000 1.17130000 -1.70330000
-1.61570000 4.88190000 0.37760000
-1.66070000 4.80220000 0.35270000
0.40440000 1.28640000 -1.72130000
1.32560000 3.34450000 -1.14970000
1.23960000 3.30310000 -1.22880000
1.23060000 3.28350000 -1.28160000
0.22470000 1.22790000 -1.69480000
1.35820000 3.27050000 -1.20340000
-1.70300000 4.81910000 0.27420000
-1.67220000 4.85810000 0.27220000
0.21660000 1.33920000 -1.69850000
1.22670000 3.35400000 -1.30540000
-1.64560000 4.95840000 0.31940000
-1.67890000 4.89060000 0.19050000
1.27680000 3.34460000 -1.18200000
1.26650000 3.33730000 -1.23550000
1.25840000 3.40890000 -1.20140000
0.01700000 1.36970000 -1.68750000
0.28320000 1.32170000 -1.72060000
-1.64420000 5.05240000 0.39620000
1.25660000 3.36000000 -1.27250000
1.23580000 3.42250000 -1.24730000
1.19390000 3.40380000 -1.31010000
1.20540000 3.45330000 -1.23030000
-1.56840000 5.57460000 -0.74730000
1.66710000 3.36450000 -0.68880000
1.61950000 3.36150000 -0.78850000
1.64000000 3.39770000 -0.67210000
-1.47920000 5.54020000 -0.85400000
1.63360000 3.39170000 -0.81380000
1.61470000 3.46480000 -0.76460000
1.61990000 3.48900000 -0.80730000
1.59490000 3.47870000 -0.84640000
-1.63390000 5.58700000 -0.61960000
1.59560000 3.43650000 -0.72300000
1.60770000 3.45930000 -0.66600000
-1.64230000 5.68160000 -0.67610000
-1.55240000 5.63440000 -0.85400000
1.57570000 3.51560000 -0.78630000
1.53030000 3.56420000 -0.80490000
1.39020000 3.47760000 -1.02330000
0.10670000 1.50010000 -1.69490000
1.44620000 3.47760000 -1.01580000
-1.51640000 4.95520000 0.81940000
1.56460000 3.44320000 -0.88240000
1.56780000 3.43350000 -0.94560000
-1.51470000 4.90590000 0.76020000
1.54400000 3.50150000 -0.87630000
0.27590000 1.42010000 -1.72630000
1.54910000 3.48520000 -0.96520000
0.22400000 1.49910000 -1.72380000
1.53710000 3.50440000 -0.92890000
0.33710000 1.52340000 -1.71890000
0.19920000 1.55640000 -1.74180000
-1.53020000 5.07970000 0.87090000
-1.67420000 6.00170000 -0.64250000
1.47400000 3.52800000 -0.94250000
0.12140000 1.55350000 -1.70030000
0.10190000 1.62790000 -1.76110000
0.26080000 1.58800000 -1.72280000
0.21640000 1.64020000 -1.75010000
-1.54230000 4.97470000 0.73690000
-1.60600000 4.98290000 0.52050000
1.38190000 3.54720000 -1.00960000
-1.58940000 4.97520000 0.62090000
0.55890000 1.24800000 -1.69270000
-1.54000000 5.09620000 0.70670000
-1.57410000 5.10070000 0.61970000
-1.62200000 5.05600000 0.54270000
1.53190000 3.64030000 -0.80860000
1.54980000 3.67130000 -0.82200000
1.43890000 3.76560000 -0.93820000
-1.49460000 5.08160000 0.95250000
1.46660000 3.79670000 -0.90340000
-1.46110000 5.12910000 0.99930000
1.58020000 3.68320000 -0.84690000
-1.75020000 6.02330000 -0.34890000
1.45740000 3.93900000 -0.97410000
0.52230000 1.43070000 -1.72900000
-1.52990000 5.24350000 0.87270000
0.64610000 1.36980000 -1.68510000
1.66390000 3.64670000 -0.69610000
-1.46400000 5.23870000 0.93240000
-1.56250000 5.17530000 0.69690000
-1.72570000 6.17190000 -0.53370000
-1.61810000 5.28120000 0.70280000
1.62720000 3.75570000 -0.80150000
1.65050000 3.81670000 -0.60410000
0.78110000 1.35490000 -1.59710000
-1.58810000 5.25380000 0.77910000
0.74850000 1.47670000 -1.61310000
1.59970000 3.70850000 -0.85550000
-1.41660000 5.50350000 -1.04000000
1.56570000 3.79590000 -0.90290000
-1.41530000 5.47640000 -0.92550000
-1.59370000 5.33600000 0.71940000
-1.43520000 5.32700000 0.91440000
-1.40050000 5.50610000 -1.09450000
-1.56590000 5.43710000 0.66570000
0.61320000 1.54820000 -1.67730000
-1.62150000 4.99390000 0.54930000
1.55760000 4.06010000 -0.79560000
-1.66250000 5.10040000 0.42010000
-1.62490000 5.05200000 0.46080000
1.58600000 3.84620000 -0.88240000
0.41800000 1.46880000 -1.73270000
-1.68750000 5.16590000 0.23920000
1.48160000 4.01750000 -0.98830000
-1.41000000 5.55250000 -0.94250000
1.28070000 3.44720000 -1.12850000
-1.41690000 5.59030000 -1.01670000
-1.47360000 5.59360000 -0.89960000
-1.57830000 5.20850000 0.53890000
1.25100000 4.06480000 -1.13940000
-1.40880000 5.59520000 -1.07350000
-1.48200000 5.66140000 -1.00110000
-1.41620000 5.64160000 -1.10900000
-1.64960000 5.20420000 0.42630000
0.68630000 1.56560000 -1.62840000
-1.66140000 5.27460000 0.44360000
0.71980000 1.62800000 -1.56480000
0.69040000 1.67360000 -1.60370000
0.75880000 1.71200000 -1.54760000
0.76520000 1.76500000 -1.58130000
-1.42680000 5.98700000 -1.13520000
-1.69650000 5.29080000 0.37710000
-1.69040000 5.27950000 0.31190000
-1.28480000 5.80790000 -1.30440000
-1.70210000 5.35160000 0.31120000
0.47510000 1.57020000 -1.71910000
-1.61880000 5.29960000 0.50200000
-1.65220000 5.34780000 0.54800000
0.47170000 1.64610000 -1.69450000
-1.64130000 5.35950000 0.61590000
0.34150000 1.68380000 -1.70420000
0.43880000 1.68670000 -1.70990000
-1.61480000 5.44990000 0.55580000
-1.56730000 5.91340000 -0.88390000
-1.66400000 5.41560000 0.49740000
-1.68100000 5.36820000 0.42080000
0.57110000 1.67230000 -1.66810000
-1.70800000 5.40250000 0.33620000
0.70580000 1.72230000 -1.62770000
0.64210000 1.81040000 -1.68090000
0.55150000 1.74910000 -1.69300000
0.15190000 1.70110000 -1.77540000
-1.02450000 1.09680000 -1.30020000
-1.36830000 5.18810000 1.10160000
-0.91700000 1.21980000 -1.39050000
-0.96740000 1.16850000 -1.33920000
-1.38440000 5.22710000 1.01100000
-1.32230000 5.30330000 1.06580000
-1.07420000 1.22010000 -1.26610000
-1.02590000 1.24300000 -1.32610000
1.62090000 4.25630000 0.86960000
1.66750000 4.05220000 0.76100000
1.63700000 4.20210000 0.79980000
-0.91890000 1.33240000 -1.41570000
-0.80090000 1.26230000 -1.46810000
1.66890000 4.05740000 0.64430000
1.66960000 4.24010000 0.64930000
1.68500000 4.16170000 0.71570000
1.65350000 4.24840000 0.75290000
-0.68730000 1.26780000 -1.50460000
1.67960000 4.26790000 0.73820000
1.68860000 4.35410000 0.70310000
-0.63810000 1.30820000 -1.55250000
1.57830000 4.30210000 0.93950000
-0.74910000 1.30360000 -1.48240000
1.71890000 3.49010000 0.27860000
-0.72070000 1.41680000 -1.51200000
-0.81040000 1.34610000 -1.44860000
1.66710000 4.42900000 0.75370000
1.61980000 4.39110000 0.78140000
1.66650000 4.17180000 0.58820000
-0.77930000 1.41640000 -1.47170000
1.67770000 4.15040000 0.53750000
1.63230000 4.27800000 0.57080000
-0.86770000 1.41810000 -1.45310000
1.63480000 4.42410000 0.59920000
1.70430000 4.17370000 0.51640000
1.64400000 4.37710000 0.56210000
-0.72600000 1.54410000 -1.52420000
-0.57620000 1.53830000 -1.61670000
1.66970000 4.38230000 0.64270000
1.63140000 4.51850000 0.64860000
1.69780000 4.37770000 0.53300000
1.71900000 4.22960000 0.50060000
1.67420000 3.59880000 0.46720000
1.70720000 4.32450000 0.47750000
1.71100000 4.40360000 0.50260000
-1.08680000 1.36980000 -1.32650000
1.62700000 3.64680000 0.57720000
1.66120000 4.51410000 0.68100000
1.68060000 4.49340000 0.52450000
-1.04740000 6.11140000 -1.56670000
-0.83710000 6.13810000 -1.70400000
-1.06480000 1.58380000 -1.34130000
-1.05570000 6.19290000 -1.54700000
1.59580000 4.47750000 0.87250000
1.71660000 3.68850000 0.25740000
1.55380000 4.38860000 1.01710000
-0.94610000 1.53550000 -1.42010000
1.49470000 4.49720000 1.10630000
1.56390000 4.48890000 0.97940000
1.52080000 4.47900000 1.03420000
-0.81330000 1.52780000 -1.46160000
1.58690000 4.59240000 0.94130000
-1.19650000 6.15970000 -1.43490000
1.62340000 4.54520000 0.82910000
-0.87700000 1.54150000 -1.45410000
1.67760000 4.52940000 0.74090000
-1.40130000 6.19320000 -1.19070000
-0.91890000 1.66560000 -1.42130000
1.71340000 3.78500000 0.21940000
1.72950000 3.78110000 0.33490000
-0.85580000 1.70430000 -1.47380000
1.60530000 4.66100000 0.67070000
1.73300000 3.78780000 0.09790000
1.62730000 4.63600000 0.85560000
1.74330000 3.87200000 0.18100000
1.75540000 3.87360000 0.29280000
1.62180000 4.67450000 0.83500000
1.61160000 4.68010000 0.74590000
-0.55200000 1.39810000 -1.60140000
1.77330000 3.61470000 -0.16960000
1.72040000 4.27980000 0.43610000
1.68300000 4.47110000 0.44270000
1.74930000 3.69340000 -0.06070000
1.77750000 3.71280000 -0.07260000
-1.28160000 6.21890000 -1.32390000
1.74740000 4.32680000 0.39680000
1.74630000 4.37010000 0.31960000
1.73740000 4.45390000 0.36470000
-1.12340000 6.29000000 -1.42590000
1.74880000 3.98510000 -0.12540000
1.71100000 4.46710000 0.40040000
1.71710000 4.43290000 0.30530000
-0.39020000 1.52610000 -1.68400000
1.70090000 4.51830000 0.33190000
1.72060000 4.42280000 0.23030000
-0.96510000 6.23160000 -1.58220000
-0.97860000 6.30750000 -1.54460000
-1.19790000 6.33890000 -1.35980000
1.66670000 4.55730000 0.47930000
1.71760000 3.91750000 -0.27400000
-0.31870000 1.46280000 -1.67130000
1.69730000 4.74160000 0.39630000
1.72750000 4.39270000 0.09920000
-0.22010000 1.49800000 -1.65700000
1.69510000 4.72950000 0.18290000
1.63740000 4.58250000 0.55160000
1.76580000 3.83130000 0.07880000
1.76770000 3.91680000 0.04390000
1.62860000 4.77500000 0.62310000
-0.20850000 1.57150000 -1.70600000
-0.25100000 1.64260000 -1.72750000
-0.42400000 1.68930000 -1.69120000
1.76020000 3.94540000 0.14350000
-1.55500000 6.19610000 -0.96010000
-0.67050000 1.62460000 -1.58760000
-0.54440000 1.71510000 -1.65460000
-0.76630000 1.76930000 -1.54650000
1.68790000 4.99450000 0.42470000
1.64670000 3.73350000 0.53170000
1.68540000 4.93850000 0.25730000
1.60990000 3.78640000 0.60790000
1.62000000 3.76420000 0.68930000
1.59180000 3.75530000 0.65190000
1.62940000 3.84950000 0.66740000
-0.61460000 1.84540000 -1.62630000
-1.67100000 6.23190000 -0.71110000
1.50170000 4.55240000 1.04710000
1.69990000 3.77970000 0.42600000
1.68090000 3.77200000 0.54710000
1.54260000 4.65750000 0.99950000
1.66610000 3.80740000 0.58930000
1.71610000 3.81760000 0.56320000
1.63440000 3.87780000 0.62850000
1.72540000 3.85310000 0.51060000
1.69800000 3.85410000 0.58480000
1.72270000 3.88040000 0.55570000
1.72820000 3.83980000 0.44170000
1.65920000 3.87050000 0.59510000
1.47140000 4.68620000 1.13650000
-1.53040000 6.32450000 -0.90390000
1.70910000 3.93940000 0.56280000
1.74570000 3.92570000 0.48820000
1.69890000 4.03890000 0.57220000
1.75060000 3.80930000 0.39730000
1.77830000 3.89300000 0.30930000
-1.65210000 6.31890000 -0.62920000
1.77260000 3.88110000 0.42770000
1.76860000 3.99620000 0.39520000
-0.44590000 1.90740000 -1.68860000
-1.57890000 6.38180000 -0.81410000
-1.44950000 6.35790000 -1.03730000
1.57610000 4.75070000 0.78380000
-0.57920000 1.93770000 -1.61260000
1.54130000 4.80510000 0.93500000
1.79150000 3.93050000 0.24130000
1.78800000 3.98040000 0.27110000
-0.33180000 1.92900000 -1.71540000
1.50350000 4.81950000 1.07080000
-0.42560000 1.96200000 -1.65470000
1.52260000 4.81750000 0.88800000
1.52680000 4.87100000 0.84810000
-1.22090000 1.65490000 -1.08100000
1.79500000 4.06700000 0.28940000
-1.13640000 1.66580000 -1.25600000
1.79460000 4.08530000 0.19860000
1.77600000 4.15240000 0.32090000
-1.09220000 1.71990000 -1.29190000
1.66760000 3.92820000 0.63050000
1.67170000 3.97170000 0.69590000
1.44460000 4.88180000 1.19080000
-1.20890000 1.67020000 -1.14290000
-1.16920000 1.67400000 -1.19050000
-1.15260000 1.74360000 -1.21770000
-1.28960000 6.29320000 -1.26120000
-1.36420000 6.32540000 -1.16060000
-1.00560000 1.71880000 -1.36640000
1.45370000 4.91380000 1.09610000
1.47700000 4.85570000 1.04460000
-1.08360000 1.78110000 -1.27990000
1.41570000 5.00670000 1.13860000
1.46580000 4.86600000 0.96580000
-1.35360000 6.39340000 -1.23770000
1.43860000 4.94620000 1.04940000
1.49710000 5.06150000 1.01460000
1.49190000 4.96030000 0.90990000
-0.95830000 1.84270000 -1.34830000
1.46710000 5.06910000 1.04820000
-0.93650000 1.81190000 -1.40880000
-1.24700000 1.66140000 -1.00630000
-1.20710000 1.72520000 -1.07390000
1.57070000 4.95290000 0.79720000
1.53910000 4.99790000 0.86130000
1.51340000 5.11190000 0.96870000
-1.13600000 6.40400000 -1.49870000
-1.17840000 1.74520000 -1.15630000
1.53420000 5.11490000 0.94180000
1.56930000 5.12470000 0.92810000
-1.16180000 1.80530000 -1.16360000
1.75210000 4.24930000 0.35510000
-1.05940000 1.85840000 -1.21490000
1.76180000 4.04590000 0.13430000
-1.15980000 1.85880000 -1.14620000
-1.18970000 6.55090000 -1.50570000
-1.06240000 6.48870000 -1.61590000
-1.21810000 6.49200000 -1.48250000
-1.38960000 6.46750000 -1.26310000
-1.39220000 6.53010000 -1.28710000
1.66310000 5.04600000 0.58250000
-1.36680000 6.59340000 -1.28930000
-1.17700000 6.62180000 -1.42890000
1.78980000 4.14430000 0.22710000
1.76830000 4.18000000 0.23910000
1.75370000 4.16160000 0.14150000
-0.99070000 1.85150000 -1.27340000
-1.56570000 6.44840000 -0.97080000
1.57720000 5.09510000 0.85930000
1.62000000 5.08710000 0.75950000
-0.89650000 1.91620000 -1.32770000
1.58930000 5.09740000 0.79480000
1.64760000 5.12270000 0.68430000
1.64950000 5.11340000 0.75840000
-1.60270000 6.52280000 -0.98130000
-1.56840000 6.55650000 -1.04000000
-1.51360000 6.58140000 -1.11840000
1.76530000 4.32510000 0.24430000
1.77110000 4.30030000 0.28880000
1.66630000 4.54870000 -0.12300000
1.67920000 4.76100000 0.03380000
1.74080000 4.31720000 0.16440000
1.71100000 4.78500000 0.01830000
1.65950000 4.58700000 -0.20700000
-0.77530000 1.87510000 -1.50880000
-1.41090000 6.63930000 -1.15980000
1.69410000 4.96950000 0.25170000
1.65430000 5.02110000 -0.39190000
1.70740000 4.66260000 -0.53290000
1.59170000 4.78810000 -0.67410000
1.62890000 4.96780000 -0.53090000
-1.20170000 6.70680000 -1.22870000
-0.67550000 1.95270000 -1.48920000
1.54900000 4.21310000 -0.61270000
-0.61730000 2.01290000 -1.49960000
-0.53310000 1.97480000 -1.58600000
-0.46200000 2.01510000 -1.57560000
-0.38010000 1.98530000 -1.62360000
-0.32470000 2.07020000 -1.61790000
1.53510000 5.27410000 -0.82880000
1.56390000 5.15110000 -0.81630000
1.46610000 5.16760000 -0.97700000
1.60830000 4.21480000 -0.37550000
1.42180000 5.35940000 -1.21090000
1.50820000 5.27200000 -1.03400000
1.35700000 5.24210000 -1.29540000
1.30550000 5.38520000 -1.33470000
1.39140000 5.39640000 -1.29360000
1.49320000 5.38330000 -1.10720000
1.16740000 5.37270000 -1.46080000
1.30960000 5.41200000 -1.40420000
1.36040000 5.43140000 -1.38370000
1.46360000 5.41370000 -1.24450000
1.27430000 4.21080000 -1.11640000
1.03730000 5.30730000 -1.57820000
0.99260000 5.41190000 -1.59740000
1.10910000 5.44460000 -1.58650000
1.17520000 5.41130000 -1.48420000
1.19740000 6.08380000 -0.32650000
1.20930000 5.62900000 -0.23480000
1.21600000 5.48910000 -0.04050000
1.21040000 5.47220000 -1.52870000
1.48090000 5.76290000 -1.32560000
1.28500000 5.80320000 -1.51740000
1.07200000 5.53510000 -1.63270000
1.11990000 5.79520000 -1.63390000
1.33860000 4.23510000 -1.11800000
-0.10190000 4.79330000 1.71910000
1.45150000 4.24100000 -0.95530000
-0.10010000 1.54140000 -1.68500000
-0.05640000 1.58770000 -1.73010000
-0.14240000 5.01670000 1.75180000
-0.05280000 4.97820000 1.78780000
0.04940000 1.59300000 -1.71170000
0.19280000 1.80760000 -1.71440000
-0.10000000 5.16580000 1.76980000
0.27650000 1.77810000 -1.71570000
0.22740000 1.80820000 -1.71180000
-0.19860000 5.11380000 1.75380000
0.36910000 1.77650000 -1.70130000
0.36450000 1.81390000 -1.71790000
0.48700000 1.72880000 -1.68240000
0.43540000 1.79030000 -1.73280000
-0.21960000 5.17700000 1.78090000
1.35580000 4.30250000 -1.09730000
0.02190000 5.03830000 1.77710000
0.50020000 1.81090000 -1.72080000
1.45630000 4.41550000 -0.81830000
0.17310000 5.30840000 1.77740000
0.60040000 1.94810000 -1.72670000
1.37790000 4.41070000 -1.02560000
1.33170000 4.38030000 -1.10290000
-0.13370000 1.61690000 -1.75300000
-0.23980000 1.84250000 -1.74740000
1.35150000 4.41510000 -1.11090000
0.05150000 5.37310000 1.77200000
-0.04770000 1.69820000 -1.77260000
1.39960000 4.46320000 -0.93900000
1.44450000 4.47230000 -0.87050000
1.39400000 4.48150000 -0.97800000
1.45860000 4.48160000 -1.10900000
1.48430000 4.54110000 -0.98780000
-0.09320000 1.83700000 -1.76550000
0.36170000 5.14100000 1.78400000
1.43260000 4.51360000 -0.96410000
1.50490000 4.45760000 -0.77300000
1.49520000 4.52450000 -0.92460000
0.35740000 5.22400000 1.77670000
1.55400000 4.60390000 -1.00800000
0.46610000 5.20040000 1.79100000
0.15760000 1.77460000 -1.73830000
0.03450000 1.86940000 -1.77950000
0.56030000 5.24530000 1.75230000
0.11320000 1.91190000 -1.74820000
0.53590000 5.32840000 1.78190000
0.63370000 5.27840000 1.75430000
0.45480000 5.31510000 1.76440000
1.55670000 4.33640000 -0.43050000
1.52000000 4.38070000 -0.59720000
1.56460000 4.39820000 -0.49520000
0.55270000 5.42260000 1.75770000
0.41730000 5.41020000 1.77430000
1.56440000 4.40160000 -0.60120000
1.56320000 4.39280000 -0.41450000
1.61410000 4.47540000 -0.28750000
1.60180000 4.43750000 -0.39260000
1.65030000 4.40010000 -0.60000000
1.63090000 4.39410000 -0.53880000
1.69870000 4.42930000 -0.46430000
-0.09440000 2.02610000 -1.76450000
-0.36190000 1.97000000 -1.67420000
1.70990000 4.43270000 -0.63460000
1.74710000 4.42600000 -0.56880000
-0.28720000 2.01320000 -1.72460000
1.69870000 4.48250000 -0.67640000
1.76730000 4.45570000 -0.56630000
-0.28620000 2.05660000 -1.67160000
1.79060000 4.49150000 -0.43750000
1.78410000 4.53900000 -0.48750000
1.71810000 4.56940000 -0.26070000
0.02690000 2.03410000 -1.75450000
1.78600000 4.56800000 -0.29480000
0.10130000 2.05830000 -1.70080000
0.02540000 2.11760000 -1.70070000
-0.06540000 2.09720000 -1.73630000
-0.18700000 2.09990000 -1.71030000
-0.17080000 2.06850000 -1.74890000
1.16300000 4.90200000 1.41030000
1.14570000 4.92280000 1.45190000
0.35720000 1.85210000 -1.74320000
1.12220000 4.99540000 1.47540000
1.16700000 5.00550000 1.41820000
1.23390000 4.99990000 1.35420000
1.21850000 5.04760000 1.38720000
1.02770000 5.19260000 1.55300000
0.27650000 1.84060000 -1.73590000
0.29330000 1.90490000 -1.72220000
0.19510000 1.95800000 -1.70410000
1.16140000 5.05790000 1.45730000
1.13890000 5.14640000 1.48280000
0.37020000 1.99880000 -1.75090000
0.25440000 1.97040000 -1.73470000
0.46920000 1.91830000 -1.75010000
1.60180000 4.45430000 -0.74050000
1.19720000 5.13160000 1.41090000
1.18300000 5.27630000 1.44250000
1.59980000 4.49310000 -0.80240000
0.39280000 2.05750000 -1.75660000
1.37060000 4.93180000 1.28300000
1.29980000 4.96120000 1.33250000
1.38530000 4.99210000 1.23230000
0.51060000 2.10940000 -1.74650000
0.64000000 2.11720000 -1.71440000
1.56010000 4.58270000 -0.84310000
1.38670000 5.03010000 1.18670000
0.20460000 2.02850000 -1.70270000
0.24070000 2.02930000 -1.73120000
0.18410000 2.08970000 -1.70040000
0.28190000 2.06150000 -1.72610000
1.29250000 5.05160000 1.26350000
1.23610000 5.05190000 1.32780000
0.28420000 2.11760000 -1.73830000
1.40720000 5.03020000 1.08530000
0.06200000 2.19080000 -1.69910000
1.43400000 5.10540000 1.07760000
1.42070000 5.10990000 1.13780000
0.11080000 2.22020000 -1.72480000
1.25980000 5.12630000 1.25820000
1.52360000 4.57410000 -0.91120000
1.34490000 5.11020000 1.20880000
1.33630000 5.20440000 1.21610000
1.53710000 4.63360000 -0.87450000
0.28050000 2.17990000 -1.72720000
1.56050000 4.63390000 -0.91750000
0.18120000 2.20920000 -1.71220000
1.58360000 4.70100000 -0.96620000
1.53380000 4.57770000 -1.08330000
1.60110000 4.67990000 -0.89610000
0.42440000 2.12100000 -1.73630000
0.35260000 2.16190000 -1.72790000
1.56450000 4.70060000 -0.83570000
1.55210000 5.24260000 1.00940000
0.94470000 6.34020000 -0.87880000
0.76020000 5.76340000 -0.99690000
0.94340000 5.68960000 -0.83230000
1.59160000 4.82700000 -0.68470000
1.45480000 5.24470000 1.14310000
1.64270000 4.82120000 -0.80900000
0.37910000 2.23590000 -1.73800000
1.62330000 4.78910000 -0.77560000
1.49680000 5.26530000 1.09120000
1.02030000 5.88260000 -0.74530000
0.27970000 2.25100000 -1.71200000
1.60730000 4.89500000 -0.85590000
0.54340000 2.24600000 -1.72950000
0.56390000 2.17530000 -1.73200000
0.47560000 2.25870000 -1.71280000
0.51790000 2.31010000 -1.71800000
0.42970000 2.25710000 -1.74640000
1.25440000 5.15460000 1.32370000
1.25170000 5.21810000 1.38390000
1.25160000 5.29340000 1.37080000
1.27570000 5.23340000 1.30910000
1.65380000 4.90090000 -0.66520000
-0.07710000 2.15220000 -1.68550000
1.66590000 4.88190000 -0.71680000
-0.10150000 2.30660000 -1.67670000
1.35840000 5.27520000 1.23540000
1.26900000 5.32890000 1.29440000
1.34200000 5.35190000 1.22450000
1.28300000 5.38180000 1.26890000
1.27290000 5.33980000 1.34990000
1.79760000 4.65830000 -0.23210000
1.34230000 5.43080000 1.24890000
-0.37940000 5.04360000 -1.76390000
-0.39210000 5.16420000 -1.74670000
1.77670000 4.77300000 -0.03870000
1.45230000 5.39800000 1.15630000
-0.15520000 2.16810000 -1.66490000
1.78520000 4.77730000 -0.19580000
-0.32420000 5.19140000 -1.78710000
-0.31590000 5.05050000 -1.79150000
1.32010000 5.51350000 1.30560000
1.43820000 5.51890000 1.20380000
-0.05180000 2.49070000 -1.69980000
-0.36850000 5.21070000 -1.80050000
-0.32790000 5.26100000 -1.83670000
1.69810000 5.01570000 -0.63320000
-0.28180000 5.14270000 -1.76850000
-0.25680000 5.01750000 -1.74430000
-0.28070000 5.05950000 -1.78700000
-0.24100000 5.16150000 -1.72780000
-0.21390000 5.00510000 -1.72820000
-0.18220000 5.19300000 -1.73620000
-0.08570000 5.05790000 -1.76550000
-0.25950000 5.20730000 -1.75950000
0.08230000 2.68350000 -1.74420000
0.07460000 2.55870000 -1.78830000
0.05150000 2.67270000 -1.77870000
-0.07260000 2.69660000 -1.76130000
-0.00810000 2.58420000 -1.78300000
-0.00770000 2.45370000 -1.75470000
-0.11780000 2.72330000 -1.70010000
1.01340000 5.28930000 1.57780000
-0.16100000 5.26770000 -1.76250000
-0.10320000 2.83400000 -1.79260000
-0.14660000 2.80650000 -1.76120000
-0.21180000 5.26850000 -1.80060000
-0.01010000 2.75360000 -1.79690000
-0.23330000 5.29660000 -1.85090000
0.82170000 5.29670000 1.67830000
0.87630000 5.31410000 1.63950000
0.69570000 5.34080000 1.72380000
0.08120000 2.78200000 -1.73690000
0.04310000 2.80070000 -1.78330000
0.84480000 5.39290000 1.67160000
0.20060000 2.70990000 -1.71640000
0.20340000 2.59520000 -1.72620000
-0.04320000 5.37310000 -1.84390000
-0.09740000 5.38490000 -1.86940000
0.20630000 2.79750000 -1.71940000
-0.41440000 5.43250000 -1.78990000
0.20110000 2.85620000 -1.76550000
0.32870000 2.80390000 -1.73340000
0.41330000 2.83600000 -1.74970000
0.45670000 2.78850000 -1.73970000
0.34950000 2.83110000 -1.76020000
0.25810000 2.93420000 -1.75670000
0.46200000 2.85440000 -1.72050000
1.14640000 5.36150000 1.47410000
-0.95440000 2.82300000 -1.45290000
-0.98330000 2.86340000 -1.45340000
-0.20080000 2.68260000 -1.66890000
-0.68040000 2.81250000 -1.50300000
0.94150000 5.35480000 1.62180000
-0.01620000 5.30410000 -1.78390000
0.13390000 5.07180000 -1.81240000
-0.87350000 2.85400000 -1.45790000
0.32010000 5.28070000 -1.81320000
0.40240000 2.34790000 -1.71900000
0.45700000 2.35140000 -1.68450000
0.45350000 2.44130000 -1.69770000
0.49010000 2.40120000 -1.69080000
1.11340000 5.40860000 1.51560000
1.00570000 5.42130000 1.58270000
0.06130000 2.27350000 -1.74490000
-0.76630000 2.86010000 -1.44460000
0.12180000 5.38490000 -1.80190000
0.13920000 2.29150000 -1.72770000
-0.78410000 2.98870000 -1.52560000
-0.03170000 5.34710000 -1.80250000
0.08400000 2.38540000 -1.77990000
-1.11970000 2.83970000 -1.35440000
0.23250000 2.29760000 -1.72090000
-1.08620000 2.92730000 -1.36720000
