3.17270000 4.43580000 -0.07870000
3.11330000 4.34550000 -0.00480000
2.66150000 1.40250000 1.51830000
3.08710000 3.36090000 0.96750000
3.07400000 3.42560000 1.09780000
3.08990000 4.43610000 0.04200000
3.08850000 3.41150000 0.90830000
3.07640000 3.56170000 0.92230000
3.33520000 4.51760000 0.01910000
3.32010000 4.42380000 -0.16610000
2.92280000 3.50240000 1.02020000
2.95820000 3.47560000 1.06640000
2.93690000 3.53390000 0.96330000
3.18570000 4.50640000 -0.20210000
3.24650000 4.50750000 -0.21820000
3.28410000 4.54720000 -0.22950000
3.30630000 4.49890000 -0.13970000
2.92840000 3.60560000 1.12560000
3.31120000 4.64170000 -0.27260000
3.31260000 4.70450000 -0.31690000
2.82720000 1.14620000 1.76650000
2.73380000 1.13510000 1.83650000
2.75900000 1.25090000 1.78180000
2.65000000 1.21710000 1.82210000
2.56900000 1.32270000 1.83540000
2.20280000 1.27410000 2.57930000
2.14870000 1.34600000 2.53190000
2.24780000 1.20270000 2.35440000
2.27860000 1.20870000 2.43650000
3.13860000 4.64520000 -0.47010000
3.04160000 4.47560000 -0.02610000
3.12330000 4.50360000 -0.08760000
3.15910000 4.84820000 -0.20310000
3.25600000 4.78940000 -0.22520000
3.22510000 3.69200000 -1.23740000
3.12350000 3.78210000 -1.26000000
3.19750000 3.83880000 -1.17770000
3.26830000 3.87070000 -1.05630000
2.90220000 4.45270000 -1.63240000
3.04780000 0.95310000 -1.08420000
2.93830000 1.03550000 -1.07260000
2.80970000 1.05280000 -1.06520000
2.85870000 1.07520000 -1.04820000
2.91530000 4.69820000 -1.75510000
2.91530000 1.19210000 -1.25430000
3.05090000 1.19610000 -1.33710000
2.98270000 1.14250000 -1.18330000
3.11210000 1.05770000 -1.08400000
3.10070000 1.22680000 -1.23060000
3.17770000 1.28360000 -1.10730000
3.11590000 1.37580000 -1.44110000
2.83490000 1.16420000 -1.23040000
2.85290000 1.42740000 -1.37650000
2.78820000 1.50240000 -1.47840000
2.75590000 1.43650000 -1.20880000
3.00600000 1.47870000 -1.20910000
2.80900000 1.43710000 -1.12330000
2.73490000 1.58070000 -1.16800000
2.74430000 1.50220000 -1.10190000
2.90230000 1.48490000 -1.09370000
2.81280000 1.51110000 -1.04380000
3.04600000 1.47170000 -1.65740000
3.07990000 1.44110000 -1.52290000
2.98760000 1.43730000 -1.51460000
3.03170000 1.45660000 -1.43830000
2.97680000 1.47570000 -1.34290000
3.00470000 1.50150000 -1.59710000
2.77440000 1.63160000 -1.32340000
3.09820000 1.51740000 -1.32140000
3.13430000 1.45850000 -1.35360000
3.17020000 1.48500000 -1.19490000
2.95750000 1.59410000 -1.09490000
2.76060000 1.61140000 -1.05250000
2.80460000 1.65490000 -1.04780000
2.85830000 1.71650000 -1.09860000
3.06910000 1.53040000 -1.14280000
3.17180000 1.61410000 -1.05990000
3.12600000 1.58620000 -1.12260000
3.01860000 1.74950000 -1.16070000
2.90630000 1.84320000 -1.16450000
3.11680000 1.72780000 -1.13680000
3.13500000 1.85940000 -1.15930000
3.15800000 1.86480000 -1.04490000
3.15980000 1.63070000 -0.77030000
3.05610000 1.89060000 -1.25630000
3.12570000 2.04350000 -1.31920000
3.06750000 1.99340000 -1.38040000
2.76370000 1.75320000 -1.16250000
2.78800000 1.80850000 -1.12820000
2.81500000 1.92770000 -1.32850000
2.79940000 1.91160000 -1.19550000
2.84970000 1.90770000 -1.16120000
2.98760000 1.90700000 -1.33220000
2.89430000 1.91950000 -1.26390000
2.92680000 1.95390000 -1.34380000
2.84690000 2.03530000 -1.34820000
2.80400000 2.04130000 -1.39840000
2.79080000 2.09970000 -1.73950000
2.75370000 2.33270000 -1.94860000
2.74840000 2.52900000 -1.78550000
2.76450000 2.25890000 -1.62770000
2.99470000 2.07500000 -1.43330000
2.91460000 2.11730000 -1.38740000
2.77040000 2.22170000 -1.39210000
2.83250000 2.22630000 -1.34770000
3.07330000 2.21240000 -1.44330000
3.09590000 2.35210000 -1.43870000
2.98260000 2.30100000 -1.46240000
2.88740000 2.37640000 -1.39490000
3.01100000 2.43860000 -1.52020000
2.93020000 2.45200000 -1.50030000
2.76120000 2.42330000 -1.41110000
2.82700000 2.40400000 -1.35760000
2.76830000 2.58400000 -1.57970000
2.84770000 2.54890000 -1.47550000
2.78100000 2.54560000 -1.44000000
2.83680000 2.69080000 -1.62640000
2.97810000 2.65520000 -1.68140000
3.05300000 2.59020000 -1.57070000
3.05890000 2.71680000 -1.68270000
2.92050000 2.63510000 -1.65290000
2.75820000 2.72010000 -1.68440000
3.13860000 1.57390000 -0.54670000
3.12030000 1.74250000 -0.69740000
3.18560000 1.77310000 -0.64730000
3.11490000 1.82260000 -0.86780000
3.17610000 1.89730000 -0.74800000
3.11290000 1.95130000 -0.82580000
3.22520000 1.68200000 -0.55980000
3.32060000 1.69960000 -0.51170000
3.28290000 1.82630000 -0.66750000
3.34450000 1.85940000 -0.55970000
3.30130000 1.95180000 -0.67670000
3.17160000 2.22460000 -1.03320000
3.16100000 1.97650000 -0.76370000
3.22470000 2.08210000 -0.69400000
3.30490000 2.10020000 -0.62650000
3.36860000 1.78480000 -0.36250000
3.34970000 2.10410000 -0.54960000
3.33700000 2.22270000 -0.46030000
3.22700000 2.15030000 -0.58410000
3.25230000 2.22910000 -0.49390000
3.14650000 2.45570000 -0.81230000
3.13180000 2.10820000 -0.69320000
3.11010000 2.16980000 -0.69220000
3.14070000 2.19910000 -0.53680000
3.20060000 2.29640000 -0.45270000
3.10760000 2.30240000 -0.41900000
2.96130000 2.30040000 -0.41500000
2.83610000 2.28430000 -0.44090000
2.81670000 2.29350000 -0.35320000
2.98950000 2.33090000 -0.35690000
3.08390000 2.25620000 -0.52580000
3.04830000 2.35080000 -0.46650000
3.11670000 2.45010000 -0.63110000
2.90900000 2.29130000 -0.46500000
2.98060000 2.36630000 -0.47320000
2.91140000 2.51140000 -0.57120000
3.10090000 2.33980000 -0.30700000
2.95140000 2.36820000 -0.29340000
3.05900000 2.48090000 -0.48890000
2.99810000 2.50060000 -0.50080000
3.04840000 2.41100000 -0.30600000
3.00500000 2.45090000 -0.37320000
3.09900000 2.45290000 -0.53300000
3.29090000 2.29020000 -0.46670000
2.75170000 2.35480000 -0.46490000
2.73150000 2.36660000 -0.34810000
2.71570000 2.42800000 -0.43670000
2.81910000 2.33290000 -0.31780000
2.73230000 2.44990000 -0.35120000
2.80700000 2.41490000 -0.31670000
2.84060000 2.45780000 -0.55990000
2.79080000 2.59240000 -0.55460000
2.77230000 2.58780000 -0.42590000
2.80140000 2.70820000 -0.51630000
2.92070000 2.45210000 -0.36050000
2.83260000 2.57600000 -0.37410000
2.88490000 2.73070000 -0.61430000
3.01260000 2.68550000 -0.57740000
2.85970000 2.83160000 -0.59920000
3.12320000 2.63650000 -1.46510000
3.09440000 2.84400000 -1.64630000
3.12110000 2.97250000 -1.55230000
-1.92220000 4.14530000 2.96310000
-1.98760000 4.03610000 2.87400000
-1.91400000 3.93460000 2.92910000
-1.78040000 3.88890000 3.03620000
-1.26390000 1.19100000 3.24270000
-1.41580000 1.54840000 3.29650000
-1.54710000 1.56810000 3.20010000
-2.04530000 4.19290000 2.73300000
-2.01870000 4.17240000 2.80870000
-2.01800000 4.26780000 2.73190000
-1.96870000 4.26240000 2.85100000
-1.87260000 4.25970000 2.92260000
-1.00750000 1.52600000 3.32960000
-0.98040000 1.33400000 3.40710000
-0.83400000 1.36790000 3.44670000
-2.09120000 4.26060000 2.69930000
-2.06150000 4.32940000 2.74800000
-2.15040000 4.25160000 2.70940000
-2.08850000 4.39710000 2.76890000
-2.17460000 4.34320000 2.66610000
-1.94420000 4.50850000 2.86690000
-0.70620000 1.32850000 3.50710000
-2.05130000 4.57110000 2.81240000
-1.82490000 4.12910000 3.00580000
-0.67620000 1.42420000 3.40120000
-0.80430000 1.45980000 3.33090000
-1.69810000 4.33510000 3.07980000
-1.80840000 4.30620000 2.97730000
-1.70890000 4.22720000 3.10560000
-0.63670000 1.44700000 3.25280000
-1.82850000 4.44900000 3.01160000
-0.78540000 3.60250000 3.34670000
-1.18940000 3.31610000 3.36600000
-0.89980000 3.39490000 3.33110000
-0.91820000 1.60680000 3.15030000
-1.14330000 3.50820000 3.37670000
-1.35770000 3.42950000 3.19360000
-1.31010000 3.39720000 3.30530000
-1.17060000 3.68460000 3.26600000
-1.07100000 3.71320000 3.32060000
-0.84090000 1.60210000 3.04550000
-0.84360000 3.75490000 3.33680000
-1.79230000 0.41450000 3.03440000
-0.74200000 2.06930000 3.01910000
-0.94560000 3.86910000 3.26490000
-1.04290000 3.86090000 3.27790000
-1.52650000 0.56050000 3.13340000
-1.61670000 0.52040000 3.10620000
-0.78500000 3.89380000 3.27200000
-0.79770000 3.97890000 3.19450000
-0.87550000 3.96830000 3.19400000
-1.21150000 1.47920000 3.36240000
-1.10820000 1.47300000 3.34040000
-1.84520000 0.66970000 3.07260000
-0.86530000 4.05530000 3.22320000
-1.18040000 3.78060000 3.28040000
-1.26360000 3.67910000 3.18710000
-1.33150000 3.75660000 3.26330000
-1.31180000 3.87640000 3.29700000
-1.12180000 3.99000000 3.31570000
-1.43010000 3.97690000 3.22780000
-1.48010000 3.74710000 3.19020000
-1.06310000 1.24320000 3.41430000
-1.23190000 1.69110000 3.28330000
-1.43390000 1.70970000 3.29720000
-1.39690000 1.81070000 3.30080000
-1.61130000 0.78460000 3.21200000
-1.20020000 1.76950000 3.22110000
-0.95980000 4.01080000 3.25010000
-0.89310000 4.06880000 3.31120000
-2.06080000 1.00130000 2.93520000
-0.69890000 2.57210000 3.03980000
-1.72640000 0.89160000 3.15840000
-0.48160000 2.79570000 3.08280000
-1.30340000 4.07530000 3.30850000
-1.18980000 4.22630000 3.32910000
-1.02020000 4.18820000 3.37270000
-1.32990000 4.20020000 3.29510000
-1.17840000 1.92330000 2.97330000
-0.60210000 3.85040000 3.29410000
-1.18700000 1.85150000 3.04360000
0.13780000 2.37730000 3.16230000
-1.45710000 0.68060000 3.22570000
-0.45670000 4.03920000 3.30560000
-0.49920000 3.72930000 3.29240000
-0.99790000 2.35070000 2.98920000
-0.20120000 2.62680000 3.06970000
-0.69400000 4.01010000 3.26090000
-0.73780000 4.06440000 3.26880000
0.01750000 2.60280000 3.12860000
-1.27080000 0.70160000 3.24800000
-0.87820000 4.12210000 3.36200000
-0.63920000 4.11920000 3.32770000
-0.72170000 4.24050000 3.38900000
-1.29190000 0.90780000 3.25170000
-0.94270000 4.34240000 3.35770000
-1.07630000 4.32980000 3.36790000
-0.77550000 4.27650000 3.37620000
-1.58670000 4.12920000 3.15770000
-1.65280000 3.95030000 3.10310000
-1.53850000 4.19650000 3.15270000
-1.43230000 4.20050000 3.22040000
-0.09350000 2.95440000 3.14530000
0.04410000 2.97130000 3.16200000
-1.70330000 4.10090000 3.06390000
-0.15580000 3.19080000 3.15010000
-1.47200000 4.33620000 3.21680000
-1.56800000 4.45410000 3.12570000
-1.66690000 4.43710000 3.06110000
-1.31780000 4.31900000 3.24910000
-1.43880000 2.72670000 3.14140000
-1.50260000 2.71650000 3.07740000
-1.39860000 2.72330000 2.97260000
-1.81240000 1.13100000 3.05150000
-1.42050000 2.82560000 3.20250000
-1.35220000 2.82610000 3.11460000
-1.72630000 1.26550000 3.12510000
-0.80960000 2.62090000 3.00060000
-1.55060000 1.19870000 3.20980000
-1.43720000 4.43350000 3.23060000
-1.34570000 4.44780000 3.22360000
-1.47440000 4.54530000 3.17080000
-0.95940000 2.83160000 3.04070000
-1.78720000 4.51330000 3.03830000
-1.71320000 4.57410000 3.03360000
-0.86720000 2.93650000 3.04470000
-1.86050000 4.60990000 2.95460000
-1.11000000 2.85380000 3.01370000
-1.33890000 2.51070000 2.89900000
-1.64510000 4.61730000 3.09760000
-1.25780000 2.80780000 2.97110000
-1.57720000 4.61540000 3.17130000
-1.18970000 4.38790000 3.30950000
-1.34910000 2.68380000 2.91830000
-1.33560000 2.78460000 3.02400000
-1.20140000 4.48610000 3.33450000
-1.28480000 4.59890000 3.26390000
-1.20280000 4.57170000 3.34000000
-1.30450000 2.93570000 3.00860000
0.12480000 2.17060000 2.46830000
-0.20650000 1.96230000 2.44850000
-0.11710000 3.98270000 2.44640000
-1.22170000 2.96640000 2.99450000
-1.16860000 3.03490000 3.04740000
-1.01770000 3.01930000 3.08940000
-0.71200000 3.05530000 3.10050000
-0.34360000 3.21490000 3.16480000
-2.15050000 4.48720000 2.75830000
-0.59090000 2.63630000 2.36380000
-0.95800000 3.09070000 3.18960000
-0.84980000 3.16990000 3.17240000
-1.15890000 3.06840000 3.13850000
-1.09590000 3.09500000 3.25100000
-1.67500000 1.55390000 3.12610000
-1.80440000 1.47330000 3.00620000
-1.20250000 3.16500000 3.34140000
-1.06150000 3.19220000 3.33840000
-1.78770000 1.60830000 3.07530000
-0.90740000 3.24270000 3.28510000
-1.68960000 1.82180000 3.15480000
-1.59790000 1.74960000 3.16990000
-0.74500000 3.34010000 3.24950000
-2.16460000 1.21200000 2.84910000
-1.88120000 1.61500000 3.00390000
-1.83870000 1.90470000 3.05050000
-1.92000000 1.76270000 2.91660000
-1.85920000 1.87960000 2.97810000
0.23980000 2.71650000 3.19320000
-1.89970000 1.82640000 2.82330000
-1.86080000 1.96290000 2.90820000
-1.92180000 1.99760000 2.84630000
-2.25230000 1.30460000 2.72110000
-2.04300000 1.26000000 2.89100000
-2.11850000 1.30660000 2.69760000
-2.01950000 1.32570000 2.83470000
-1.93770000 2.10970000 2.93090000
-2.02090000 2.03340000 2.80000000
-1.66340000 2.00800000 3.16920000
0.38880000 2.87570000 3.32510000
-1.59570000 2.06940000 3.10450000
-1.71330000 2.16310000 2.94810000
-1.78090000 2.15540000 2.99770000
-1.87340000 2.13220000 2.99610000
0.77770000 3.30830000 3.45690000
0.70060000 3.33330000 3.43550000
-1.93650000 2.25310000 2.86710000
-1.85030000 2.29220000 2.83120000
-1.63950000 2.21720000 2.91040000
-1.69020000 2.26020000 2.76640000
-1.86070000 2.32570000 2.70920000
-1.74890000 2.35620000 2.60930000
-1.62970000 2.26510000 2.75050000
-1.57570000 2.52620000 2.75260000
-1.34660000 2.23760000 2.87490000
0.29870000 3.33810000 3.25440000
-1.47290000 1.96370000 3.26160000
-1.92150000 1.22570000 2.97590000
0.56810000 3.17630000 3.31800000
0.63190000 3.14130000 3.33290000
-1.44090000 2.08580000 3.16330000
-1.35210000 1.99650000 3.11650000
-1.50480000 2.09800000 3.16140000
-1.30410000 2.10390000 2.91620000
-1.43500000 2.12130000 3.00430000
0.33780000 3.17940000 3.26330000
-1.42360000 2.19390000 2.88050000
0.14970000 3.48410000 3.25090000
0.42030000 3.30360000 3.33350000
-0.51360000 3.30750000 3.19080000
-1.53220000 2.14650000 3.01520000
-0.30080000 3.67140000 3.23040000
-0.65150000 3.39390000 3.29170000
-0.54520000 3.43500000 3.29470000
-0.43090000 3.48450000 3.23910000
-1.79320000 2.67230000 2.53300000
-1.49700000 2.74190000 2.93240000
-1.55190000 2.76680000 3.11690000
-1.63640000 2.84710000 2.97230000
-1.64990000 2.92210000 3.02940000
-1.47400000 2.78330000 3.20480000
-1.55060000 2.95040000 3.19860000
-1.26460000 1.81930000 2.11250000
-1.28190000 3.84860000 2.06060000
-1.01260000 2.33410000 2.22010000
-1.48820000 2.91990000 3.23510000
-1.35540000 2.97230000 3.14130000
-1.45650000 3.04480000 3.22790000
-1.55460000 3.10760000 3.20850000
-1.40070000 3.09660000 2.76670000
-1.42980000 3.11250000 2.86450000
-1.34720000 3.12840000 2.81410000
-1.76630000 2.87920000 2.87790000
-1.61680000 3.06270000 2.98290000
-1.60960000 3.00260000 3.06820000
-1.76450000 3.07570000 2.88840000
-1.65900000 3.16460000 2.88390000
-1.52940000 3.09950000 2.98710000
-1.54250000 3.12210000 2.76600000
-1.56570000 3.15000000 2.89070000
-1.60990000 3.20950000 2.78740000
-1.28930000 3.04270000 3.14300000
-1.36170000 3.11880000 3.24180000
-1.43230000 3.15260000 2.95850000
-1.55200000 3.11530000 3.11860000
-1.46530000 3.20240000 3.25690000
-1.53600000 3.22680000 3.17010000
-1.41400000 3.34690000 3.03140000
-1.45920000 2.69410000 2.85140000
-1.59850000 2.75870000 2.72600000
-1.34030000 3.30640000 2.92260000
-1.31740000 3.20740000 2.76220000
-1.51710000 3.14210000 2.66010000
-1.42550000 3.29090000 2.65770000
-1.58820000 3.15850000 2.66900000
-1.54910000 3.28700000 2.61960000
-1.30770000 3.34580000 2.71340000
-1.30420000 3.24850000 2.86720000
-1.27120000 3.32100000 2.78950000
-1.22760000 3.50490000 2.86500000
-1.24960000 3.45150000 2.76040000
-1.28850000 3.58410000 2.70580000
-1.77770000 3.20330000 2.86680000
-1.64910000 3.27680000 2.80720000
-1.73040000 3.35310000 2.88010000
-1.57160000 3.44790000 2.90750000
-1.92900000 3.26600000 2.86840000
-1.88100000 3.41870000 2.90760000
-1.97900000 3.44630000 2.84960000
-2.37740000 1.47480000 2.58080000
-2.34020000 1.63310000 2.58960000
-2.60790000 1.71500000 2.39030000
-1.67680000 3.43820000 2.92900000
-2.41860000 1.72810000 2.46170000
-1.62510000 3.48510000 3.00230000
-2.57260000 1.86820000 2.32300000
-1.77590000 3.49200000 2.91870000
-1.71990000 3.55360000 2.96600000
-1.73990000 3.57160000 2.87370000
-1.88490000 3.57680000 2.88270000
-1.68990000 3.51370000 3.02640000
-1.71700000 3.61600000 3.05330000
-1.60200000 3.23230000 2.65950000
-1.56030000 3.41730000 2.71480000
-1.53330000 3.45440000 2.66050000
-1.55350000 3.43920000 2.82180000
-1.42820000 3.49610000 2.65290000
-2.17930000 1.73480000 2.59530000
-1.82450000 3.61050000 2.57900000
-1.82850000 3.48140000 2.52730000
-1.82270000 3.50500000 2.59610000
-2.21500000 1.82100000 2.43050000
-1.46220000 3.59010000 2.72540000
-1.32180000 3.65940000 2.74900000
-2.38730000 2.01710000 2.33080000
-1.70040000 3.67360000 2.86850000
-2.18100000 1.98510000 2.31840000
-1.76990000 3.65320000 2.80980000
-1.28150000 3.12400000 3.28410000
-2.11260000 2.08050000 2.20730000
-2.28550000 2.21080000 2.17490000
-2.33780000 2.15550000 2.25480000
-2.53340000 2.10310000 2.25630000
-1.29610000 3.51010000 3.12240000
-2.71380000 2.20210000 2.06670000
-2.62220000 2.31720000 2.12200000
-2.51150000 2.33290000 2.15170000
-2.04460000 1.99280000 2.70710000
-2.06800000 2.12310000 2.73040000
-2.06150000 2.06240000 2.62560000
-2.05150000 2.20730000 2.61110000
-1.99220000 2.15170000 2.50260000
-1.27560000 3.45780000 2.96000000
-1.96450000 2.29450000 2.52060000
-1.27620000 3.57990000 3.09620000
-2.19130000 2.23770000 2.10990000
-1.26090000 3.61840000 2.98780000
-1.24400000 3.63390000 2.81300000
-1.65750000 3.62270000 3.08160000
-1.52340000 3.64270000 3.08810000
-1.60510000 3.75120000 3.07950000
-1.39640000 3.67780000 3.15350000
-1.42490000 3.64770000 2.96460000
-2.68590000 2.43710000 2.01300000
-1.48360000 3.61600000 3.03090000
-1.38130000 3.68330000 2.82630000
-2.32570000 2.38840000 2.09710000
-2.53210000 2.41990000 2.03940000
-1.30200000 3.68970000 2.90030000
-2.28960000 2.45210000 1.97730000
-1.34320000 3.67000000 3.05900000
-2.46400000 2.48500000 1.92850000
-2.34110000 2.49880000 1.85300000
-2.60840000 2.49700000 1.98640000
-2.69090000 2.56030000 1.92510000
-2.51680000 2.61790000 1.86990000
-2.42130000 2.58610000 1.83530000
-2.62700000 2.63040000 1.81920000
-2.19460000 2.48360000 1.96150000
-2.30230000 2.62510000 1.76940000
-2.34750000 2.82910000 1.59620000
-1.57900000 3.88940000 3.09440000
-2.63270000 2.66500000 1.73650000
-2.43200000 2.70780000 1.70950000
-2.51850000 2.76420000 1.68290000
-2.02170000 3.65690000 2.80300000
-1.98090000 3.56060000 2.74130000
-1.96100000 3.66080000 2.87010000
-2.42850000 2.84320000 1.51590000
-2.51400000 2.89290000 1.51450000
-2.01590000 3.82550000 2.87300000
-1.90180000 3.48520000 2.66520000
-2.00620000 3.75900000 2.70040000
-2.07590000 2.21200000 2.15840000
-2.03360000 2.03640000 2.25600000
-1.98940000 2.33680000 2.27250000
-1.96810000 2.03960000 2.32780000
-1.83960000 3.60380000 2.44750000
-1.85690000 3.72740000 2.45310000
-1.88050000 3.74600000 2.55900000
-2.18290000 2.41270000 2.02950000
-2.08080000 3.85240000 2.77750000
-2.20500000 2.70580000 1.90340000
-1.98710000 3.83250000 2.59840000
-1.95600000 3.81800000 2.49070000
-2.02760000 3.78760000 2.48920000
-1.93160000 3.75160000 2.41330000
-2.03140000 2.77670000 2.21690000
-1.93160000 2.29390000 2.39350000
-2.11200000 3.89330000 2.63830000
-1.94790000 2.09600000 2.41140000
-1.87320000 3.70610000 2.84240000
-1.87150000 2.42790000 2.45390000
-1.81260000 3.75910000 2.82420000
-1.73570000 3.75160000 2.81410000
-1.72770000 3.75790000 2.90680000
-1.79760000 3.84070000 2.94350000
-1.89420000 3.81870000 2.90110000
-2.25460000 3.84070000 2.62610000
-2.18490000 3.85280000 2.61620000
-2.29010000 3.93140000 2.59730000
-2.16990000 3.97750000 2.67840000
-2.13820000 3.68670000 2.54790000
-2.21310000 4.09100000 2.63090000
-2.29410000 4.00710000 2.50730000
-2.22200000 4.16960000 2.45720000
-2.25430000 3.97690000 2.40890000
-2.21570000 4.18470000 2.57200000
-2.36740000 3.13550000 1.52390000
-2.10520000 4.07410000 2.77820000
-2.23650000 2.91600000 1.90040000
-2.12910000 2.86440000 2.08060000
-1.73930000 3.74830000 2.99650000
-2.17480000 3.02700000 1.89540000
-2.25390000 3.19360000 1.82380000
-2.10380000 2.98510000 1.97500000
-2.67780000 2.80610000 1.68300000
-2.83720000 2.89080000 1.63450000
-2.89050000 2.87670000 1.58900000
-2.72120000 2.95290000 1.61220000
-2.79620000 3.05800000 1.49660000
-2.60230000 2.88930000 1.60770000
-2.73410000 3.21810000 1.28210000
-2.87780000 3.08710000 1.39360000
-2.38950000 3.48840000 1.61660000
-2.00360000 2.20700000 2.80140000
-1.96200000 2.30750000 2.66160000
-1.87540000 2.34020000 2.53140000
-1.93500000 2.80070000 2.37420000
-1.83730000 2.82860000 2.55560000
-1.96460000 2.85310000 2.51990000
-1.96550000 2.85230000 2.41470000
-2.01660000 1.29480000 2.66560000
-2.02210000 1.30700000 2.56660000
-2.13200000 3.00280000 2.35850000
-2.12520000 2.99620000 2.22480000
-2.04850000 2.91290000 2.24970000
-2.16470000 1.34720000 2.57510000
-2.07530000 2.90750000 2.39140000
-2.01510000 2.89260000 2.55490000
-2.06980000 2.96790000 2.49150000
-2.05560000 1.44560000 2.74720000
-1.98960000 1.33950000 2.68160000
-2.07480000 1.48300000 2.67060000
-1.99900000 1.37390000 2.57350000
-1.91020000 2.89210000 2.64790000
-2.07060000 1.36990000 2.53910000
-2.10110000 1.45920000 2.61000000
-1.96450000 2.96600000 2.64280000
-2.00650000 3.04970000 2.49150000
-2.09200000 3.14940000 2.35090000
-2.27520000 1.36880000 2.62820000
-2.06240000 2.98070000 2.09390000
-2.13170000 3.08080000 2.16980000
-2.15960000 3.12890000 2.26520000
-2.14740000 3.24510000 2.18220000
-2.20760000 1.45840000 2.59750000
-2.00910000 3.08410000 1.91700000
-1.99230000 3.10310000 1.99770000
-2.00110000 3.21600000 2.01000000
-2.17740000 1.60700000 2.66270000
-1.88030000 3.08760000 2.40240000
-1.87920000 3.12500000 2.31210000
-1.99810000 3.12220000 2.38460000
-1.95430000 3.13930000 2.32240000
-2.12910000 3.28290000 2.25900000
-1.93520000 3.22650000 2.31170000
-2.03890000 3.25190000 2.32860000
-2.06580000 3.31820000 2.04930000
-1.80600000 2.90490000 2.65180000
-1.74170000 2.85770000 2.79310000
-1.85240000 2.92550000 2.75990000
-1.73310000 2.85470000 2.63950000
-1.59560000 2.82590000 2.76930000
-1.58860000 2.83130000 2.86870000
-1.97010000 1.48800000 2.87280000
-1.80940000 2.95300000 2.86240000
-1.97690000 1.63740000 2.79890000
-1.90320000 1.64980000 2.89930000
-1.91320000 3.02970000 2.71850000
-1.93370000 3.06880000 2.56730000
-1.93050000 3.09450000 2.66640000
-1.92020000 3.15820000 2.56310000
-2.01470000 3.17860000 2.68410000
-1.99220000 3.21710000 2.54680000
-2.06720000 3.29410000 2.63500000
-2.05380000 3.30650000 2.48510000
-1.89310000 3.07690000 2.79960000
-2.01930000 1.75070000 2.65390000
-1.98130000 3.18210000 2.77990000
-1.97870000 1.83740000 2.65050000
-1.96470000 1.90630000 2.74830000
-2.03400000 3.37250000 2.64640000
-2.00420000 3.26770000 2.79230000
-1.96060000 3.37680000 2.69810000
-1.85010000 3.14460000 2.43080000
-1.84480000 3.15980000 2.35270000
-2.00770000 1.86130000 2.52300000
-2.04140000 1.83810000 2.46590000
-1.91300000 3.25290000 2.38790000
-2.05220000 3.31180000 2.37600000
-1.99400000 1.95560000 2.56280000
-1.95900000 1.91780000 2.40700000
-1.97530000 3.45490000 2.55180000
-1.91830000 3.48280000 2.46910000
-2.12180000 3.37140000 2.28940000
-2.11030000 3.48970000 2.05960000
-2.16070000 3.49300000 2.20220000
-2.16640000 3.41460000 2.39910000
-2.14540000 3.43420000 2.52370000
-2.26860000 3.52050000 2.41190000
-2.22670000 3.56870000 2.30910000
-2.30800000 3.57210000 2.50470000
-2.24640000 3.60340000 2.56790000
-2.30990000 3.73030000 2.58440000
-2.32770000 3.62990000 2.42930000
-2.22550000 3.78030000 2.30110000
-2.11460000 3.51360000 2.55460000
-2.06620000 3.57160000 2.51520000
-2.01090000 3.59040000 2.42320000
-1.93150000 3.62490000 2.40160000
-2.04100000 3.68810000 2.45170000
-2.32770000 3.74360000 2.41540000
-2.34710000 3.82370000 2.52780000
-1.51830000 1.85670000 1.94580000
-1.75140000 2.11940000 1.73700000
-0.91320000 4.92300000 3.41360000
-0.90030000 4.84290000 3.40120000
-0.78120000 4.73490000 3.45050000
-2.27250000 4.51430000 2.36940000
-2.35460000 4.14650000 2.23300000
-2.28370000 4.21550000 2.27920000
-2.43320000 4.39310000 2.32920000
-0.75580000 4.99100000 3.44390000
-0.59760000 4.74930000 3.45980000
-0.63700000 4.96590000 3.42530000
-2.17950000 4.37380000 2.40390000
-0.90790000 5.01800000 3.38620000
-2.32890000 4.58850000 2.36470000
-0.66810000 5.09740000 3.30520000
-0.91220000 5.10400000 3.28740000
-2.48240000 4.63050000 2.39090000
-2.59450000 4.37790000 2.31710000
-2.42550000 4.57550000 2.38840000
-0.56110000 4.98270000 3.34770000
-2.11010000 4.40130000 2.53100000
-2.17850000 4.51830000 2.50660000
-2.15700000 4.40890000 2.61440000
-0.61790000 5.21920000 3.28890000
-0.73390000 5.14080000 3.22120000
-0.97830000 4.31570000 2.22640000
-0.90410000 5.24720000 3.16210000
-1.02770000 5.19120000 3.22350000
-0.75840000 5.24400000 3.18160000
-0.65940000 5.30120000 3.23870000
-2.23440000 4.76560000 2.49030000
-2.33930000 4.84660000 2.43860000
-1.17390000 5.08840000 3.25460000
-1.17170000 5.03150000 3.19250000
-1.12570000 4.94100000 3.27250000
-1.05700000 5.02980000 3.30370000
-1.32720000 5.17870000 3.16120000
-2.31890000 4.78160000 2.04880000
-2.37790000 4.76300000 2.02410000
-2.41670000 4.72820000 2.15510000
-2.31150000 4.81110000 2.13690000
-1.15230000 5.21470000 3.27170000
-2.34580000 4.87100000 1.96800000
-2.28920000 4.93380000 2.06990000
1.74620000 4.86850000 -1.77180000
1.48420000 5.06100000 -2.08150000
-1.20450000 5.21880000 3.26820000
-2.68570000 4.36080000 2.26350000
-2.65750000 4.55280000 2.25980000
-1.31230000 5.29640000 3.20400000
-2.02090000 3.84260000 1.29390000
-2.48430000 4.69230000 2.37400000
-2.61180000 4.63280000 2.21790000
-2.51880000 4.70450000 2.15050000
-2.66170000 4.65660000 2.10400000
-2.48630000 4.69770000 2.29260000
-1.40310000 5.46770000 3.13710000
-2.43510000 4.84610000 2.36270000
-1.24560000 5.46270000 3.23300000
-2.41230000 4.80450000 2.24990000
-0.98660000 5.30780000 3.24140000
-0.94330000 5.36910000 3.20810000
-1.12690000 5.39790000 3.24420000
-1.08820000 5.44470000 3.26850000
-1.04490000 5.46590000 3.29910000
-0.92500000 5.55750000 3.26480000
-2.47370000 4.78480000 2.04800000
-0.84690000 5.40890000 3.20110000
-2.56480000 4.77050000 2.09920000
-2.63430000 4.95070000 2.07710000
-2.56370000 4.90300000 2.05650000
-2.42860000 4.91590000 1.94140000
-1.19420000 5.60030000 3.19600000
-2.50690000 4.93150000 1.97800000
-1.14800000 5.66560000 3.25360000
-0.40350000 4.99180000 3.35650000
-2.32810000 4.99200000 1.98610000
-2.42430000 5.07450000 1.98150000
-0.56890000 5.47940000 3.31190000
-0.31610000 5.43470000 3.38590000
-2.57410000 5.10910000 2.06630000
-2.34330000 4.90850000 2.22370000
-2.42090000 4.96410000 2.29380000
-2.41420000 5.00100000 2.35490000
-2.39310000 5.06320000 2.18490000
-2.30900000 5.00980000 2.14670000
1.77520000 5.14630000 -1.78950000
-2.31230000 5.08630000 2.04870000
-2.34970000 5.12030000 2.12290000
-0.74940000 5.62630000 3.26390000
-2.50080000 5.12690000 2.24750000
-1.04450000 5.64450000 3.28920000
-2.54560000 5.19870000 2.12160000
-2.38110000 5.14570000 2.03500000
-2.45750000 5.17640000 2.13050000
-0.91500000 5.76980000 3.26100000
1.71910000 5.30890000 -1.97110000
-2.20810000 4.52870000 2.68540000
1.96750000 5.36000000 -1.72560000
-2.20880000 4.56760000 2.59070000
-0.65480000 5.72510000 3.31930000
-2.21860000 4.66580000 2.65050000
-2.18380000 4.61320000 2.73770000
-2.19780000 4.73810000 2.57540000
-0.12940000 5.26190000 2.46500000
-0.59540000 5.45470000 2.47030000
-0.31970000 5.49130000 2.53320000
-2.15030000 4.83170000 2.67650000
-2.03570000 3.13810000 1.84300000
-2.14550000 4.97140000 2.56520000
-2.16480000 3.18990000 1.81080000
-2.10170000 4.75300000 2.75470000
-2.04470000 4.82600000 2.83880000
-1.94200000 4.70080000 2.92840000
0.17650000 5.44420000 2.53460000
-0.15920000 5.68080000 2.67590000
-0.44160000 5.75060000 2.70180000
2.24920000 5.24350000 -2.87470000
-2.56160000 3.11530000 1.19820000
-2.08080000 5.00150000 2.78570000
-2.44500000 3.06820000 1.31240000
-2.10680000 5.00320000 2.69000000
-2.00540000 5.09670000 2.75770000
-2.12390000 5.12350000 2.57710000
-1.17750000 5.68170000 2.41850000
-2.32050000 5.25210000 2.44040000
-0.78780000 5.86540000 2.77620000
-2.56790000 3.29810000 0.97580000
-2.74520000 3.44110000 0.96450000
-2.53180000 5.41780000 2.29420000
-2.57110000 5.26140000 2.24610000
1.07650000 4.60310000 -2.32580000
1.24560000 5.09800000 -2.26960000
1.29670000 5.24910000 -2.31190000
-1.82790000 5.09240000 1.55510000
-2.03960000 5.06550000 1.23570000
-2.57030000 3.51130000 0.81380000
-0.19430000 5.88690000 2.89750000
-1.90950000 5.29870000 1.52940000
-2.10740000 5.30330000 1.25080000
-1.60820000 5.09230000 1.78350000
-2.55390000 3.71990000 0.83920000
1.53910000 5.45880000 -2.32380000
1.09580000 5.36980000 -2.53320000
-0.74900000 5.96220000 3.28590000
-2.86850000 3.29320000 1.21120000
-2.08990000 5.58490000 1.59110000
-2.32920000 5.56320000 1.13930000
1.85150000 5.64130000 -2.37060000
1.20510000 5.51160000 -2.66130000
-1.00520000 5.96270000 2.93040000
-1.71240000 5.37720000 1.82040000
-0.24250000 5.96160000 3.05140000
0.40620000 5.03720000 3.36540000
0.26920000 5.18400000 3.45570000
0.24590000 4.90800000 3.40750000
0.06600000 5.21670000 3.49640000
-1.26330000 5.20510000 2.07920000
1.40400000 5.63300000 -2.80170000
-2.89060000 3.62700000 0.88160000
-1.27420000 5.43200000 2.17400000
-1.76840000 5.62990000 1.99440000
-2.79240000 3.58010000 0.80880000
0.03650000 5.07000000 3.51470000
-0.03980000 5.47530000 3.51620000
-0.03400000 4.92190000 3.50670000
0.14300000 5.50880000 3.55440000
-2.11470000 5.80090000 1.92320000
-2.77650000 4.84280000 1.99220000
-2.71890000 4.81690000 2.04860000
-2.71960000 5.09000000 2.01920000
-2.67600000 5.13270000 2.08660000
-2.69580000 5.11850000 1.94340000
-2.75670000 5.06290000 1.86420000
-2.67330000 5.14790000 1.84070000
1.86970000 5.50980000 -2.05540000
-2.66950000 5.29350000 2.06340000
-2.61770000 5.25070000 1.86640000
-2.64200000 5.29520000 2.17270000
-2.66810000 5.36000000 2.00950000
0.68820000 5.50160000 3.28570000
0.62930000 5.14260000 3.24880000
0.76320000 5.25720000 3.28660000
-2.17940000 3.42300000 1.79110000
0.53800000 5.52620000 3.35980000
0.54850000 5.09530000 3.29970000
0.57610000 5.40650000 3.27550000
-2.67930000 5.44760000 2.16560000
-2.35250000 3.52650000 1.72570000
-2.75680000 5.45400000 2.04990000
-2.66850000 5.36100000 1.91810000
0.40590000 5.32860000 3.45320000
-2.45810000 3.66840000 1.28090000
-2.75850000 5.67510000 2.10300000
0.32360000 5.69470000 3.51430000
-2.37850000 5.63270000 2.42550000
2.13650000 5.71200000 -2.62800000
-2.56550000 5.78140000 2.29590000
-2.70570000 5.21000000 1.77510000
-2.65440000 5.30750000 1.80540000
-2.78580000 5.28150000 1.76140000
0.47950000 4.83040000 -2.52570000
0.84480000 5.37910000 3.32230000
0.05490000 5.19800000 -2.61030000
-2.78240000 5.36750000 1.83000000
-2.88910000 5.37330000 1.71260000
-2.84320000 5.42900000 1.89870000
0.80710000 5.67090000 3.36270000
0.88430000 5.50330000 3.38480000
0.63150000 5.72850000 3.34380000
-2.55820000 3.91240000 0.86180000
0.13180000 5.38020000 -2.74280000
0.34490000 5.25800000 -2.65240000
-2.53500000 3.99130000 1.33970000
-2.60960000 4.09460000 0.92900000
0.76470000 5.19060000 -2.53800000
0.73350000 5.81700000 3.36650000
-2.94680000 5.60940000 1.71790000
-3.00480000 5.48690000 1.67270000
-2.86830000 5.51210000 1.94330000
-2.91550000 5.63840000 1.80950000
-2.91150000 5.72220000 1.88020000
0.46470000 5.84770000 3.44850000
-3.09770000 5.67400000 1.59710000
-3.04300000 5.85360000 1.62510000
-2.93990000 5.85980000 1.75030000
0.03240000 5.80750000 3.53040000
0.15950000 5.87350000 3.56200000
-2.86270000 5.83410000 1.95370000
0.33930000 5.97310000 3.51320000
-2.91410000 5.92930000 1.68730000
-2.81700000 5.91520000 1.90780000
-2.62480000 5.92340000 1.95190000
-2.47080000 5.79620000 1.47460000
-2.66810000 5.80760000 1.13230000
-2.85950000 5.88870000 1.32030000
0.65650000 5.34920000 -2.68620000
-2.80380000 3.80940000 0.71580000
-3.05510000 5.88670000 1.37860000
0.57470000 5.92940000 3.41400000
-2.64400000 3.88290000 0.53780000
0.69500000 5.89010000 3.41040000
-2.44650000 5.89900000 1.87700000
0.73870000 5.48610000 -2.82770000
0.77440000 5.58720000 -3.01690000
0.46600000 5.99780000 3.41440000
0.70970000 5.99460000 3.41080000
1.14890000 5.66060000 -3.48480000
-0.36630000 5.77710000 3.38880000
-0.24730000 5.38890000 3.44560000
-0.16890000 5.95170000 3.47410000
0.28330000 5.68600000 2.67630000
-0.48290000 5.99240000 3.29120000
0.37530000 6.00130000 3.15610000
-2.72620000 5.88880000 2.11000000
0.62870000 5.94040000 2.92200000
-0.49680000 5.91100000 3.37080000
-2.52760000 5.92250000 2.27510000
-0.41780000 5.99180000 3.38240000
-1.90760000 4.78870000 2.93600000
-2.00210000 4.99360000 2.86070000
-1.87070000 4.85290000 2.92370000
2.29280000 4.97560000 -0.71380000
-1.83450000 4.95890000 2.92460000
-1.76130000 4.86950000 3.00640000
-1.77210000 5.04340000 2.98800000
-1.70310000 4.87770000 3.05260000
-1.88580000 5.14080000 2.89900000
-1.95690000 5.25610000 2.85430000
-2.00140000 5.15840000 2.71790000
-1.81360000 5.21430000 2.96440000
0.16620000 5.98630000 3.52990000
-1.96890000 3.18120000 1.90970000
-2.14490000 5.45720000 2.56940000
-2.05160000 5.34230000 2.68690000
-2.04490000 3.26500000 1.82780000
0.04250000 5.99800000 3.47600000
-2.05010000 3.44460000 1.94940000
-2.10510000 3.49020000 1.83020000
2.29390000 5.05670000 0.56350000
-2.01410000 5.41150000 2.79780000
-1.88770000 5.38580000 2.90410000
-1.94400000 5.45910000 2.83230000
-2.10560000 5.60920000 2.65760000
-2.07170000 5.50420000 2.76130000
-2.03900000 5.64410000 2.77880000
-2.09030000 5.70760000 2.65140000
-1.60760000 4.99130000 3.04700000
-1.69280000 5.10470000 3.00580000
-1.60090000 5.11520000 2.97220000
-1.64990000 5.21460000 2.91980000
-1.54100000 5.10980000 3.00470000
-1.73200000 5.31720000 2.93380000
-1.49390000 5.26010000 3.11270000
-1.52110000 5.18950000 3.03970000
-1.43520000 5.16650000 3.14120000
-1.57780000 5.23350000 2.87690000
-1.53280000 5.21300000 2.89540000
-1.52410000 5.29280000 2.92910000
-1.66430000 5.37060000 2.91120000
-1.59420000 5.37490000 2.89210000
2.39770000 5.13680000 -0.22010000
-1.80590000 5.44480000 2.89070000
0.60640000 5.22430000 2.39600000
0.16560000 4.46620000 2.45170000
0.14930000 5.20970000 2.45660000
2.37710000 5.11570000 0.11430000
-1.77500000 5.57650000 2.92110000
-1.52690000 5.35200000 3.04910000
2.36660000 5.19850000 -0.57930000
-1.56780000 5.40460000 2.95670000
-1.50660000 5.51970000 3.03710000
-1.63400000 5.51310000 2.97220000
0.48210000 5.45610000 2.49580000
0.94500000 5.36500000 2.30570000
-1.98060000 5.56540000 2.83320000
0.84560000 5.56510000 2.44920000
-1.88240000 5.64640000 2.83750000
-1.94020000 5.72550000 2.77830000
2.37100000 5.33700000 0.55200000
2.49350000 5.38710000 -0.09170000
-1.83500000 5.71320000 2.88590000
-1.70110000 5.68600000 2.96620000
-1.75150000 5.78720000 2.92430000
-1.77400000 5.85330000 2.84970000
-2.30300000 3.57060000 1.77780000
-1.93150000 5.87130000 2.75220000
2.50170000 5.42490000 -0.44260000
-2.21580000 3.70970000 1.81540000
-2.12210000 3.65780000 1.88860000
-2.14800000 3.82280000 2.17860000
2.62630000 5.57630000 -0.14450000
-2.15110000 3.75320000 2.03410000
0.49590000 5.79830000 2.74740000
0.82150000 5.79590000 2.65590000
-1.60220000 5.76920000 2.29230000
-2.20110000 3.82980000 1.98870000
-1.90380000 5.85450000 2.23530000
1.25380000 5.69340000 2.34500000
2.13770000 4.79460000 -1.14780000
-2.40450000 3.74640000 1.74790000
1.16290000 5.91960000 2.68720000
2.01550000 5.09880000 -1.45020000
-2.36760000 3.79830000 1.81720000
-2.68090000 3.77200000 1.96530000
-2.77300000 3.77030000 1.89960000
-2.71910000 3.77150000 1.84280000
-2.54720000 3.76790000 1.84800000
-2.55090000 3.81630000 1.74820000
-2.53520000 3.80520000 1.92300000
-2.63130000 3.86870000 2.00610000
-2.55520000 3.98890000 1.57370000
-2.68690000 4.12510000 1.49230000
-1.27610000 5.87150000 2.62230000
-2.26040000 3.80800000 1.82250000
-2.38170000 3.92720000 1.90680000
-2.46700000 3.88360000 1.91160000
-2.22590000 3.84700000 1.89890000
-2.30440000 3.92700000 1.98290000
-1.90630000 5.93390000 2.45020000
-2.45030000 4.00130000 2.03520000
-2.57410000 4.00160000 2.03200000
2.21590000 5.41050000 -1.36290000
-1.65690000 5.98340000 2.77230000
-2.61760000 4.14740000 1.31980000
-1.85140000 5.95740000 2.78200000
1.60000000 5.98470000 2.63070000
2.25180000 5.25310000 -1.05650000
-2.16390000 3.91560000 2.13090000
-2.23100000 3.89210000 2.07210000
-2.23830000 5.87070000 2.56260000
-2.43440000 5.85490000 2.41760000
-2.22340000 4.05700000 2.16450000
-2.28630000 4.02000000 2.13220000
-2.41340000 4.01650000 2.14500000
-2.53870000 4.14400000 2.24070000
2.29270000 5.58230000 -1.55280000
2.39490000 5.41170000 -0.91410000
-2.27510000 5.94860000 2.43370000
-2.19110000 4.02880000 2.33230000
-2.18340000 4.08070000 2.25410000
2.51730000 5.60450000 -1.11870000
-2.22490000 4.16930000 2.32070000
2.27560000 5.65580000 -1.81730000
-1.78360000 5.98660000 2.77330000
2.33010000 5.58730000 2.51730000
2.37340000 5.89220000 2.47080000
2.09460000 5.09330000 2.71490000
1.96510000 5.71470000 2.85630000
2.47330000 5.73500000 -1.90810000
2.58200000 5.74430000 2.24020000
2.46580000 5.51420000 2.31330000
2.60640000 5.54220000 2.11310000
-2.27630000 5.39220000 0.99520000
2.81320000 5.73020000 1.91680000
2.74220000 5.88550000 2.02010000
-2.52940000 5.71030000 1.09630000
2.30250000 5.99800000 2.51790000
-3.16580000 5.76570000 1.44220000
-3.13000000 5.85640000 1.40330000
2.89400000 5.71700000 -2.12000000
2.96520000 5.77140000 -1.85110000
3.04710000 5.79610000 -1.53800000
2.72520000 5.74790000 -2.20550000
-2.45540000 5.50330000 -0.73580000
1.76840000 5.20220000 2.98120000
1.63710000 5.94920000 3.09290000
2.04220000 5.96670000 2.77580000
-2.76780000 5.80500000 -1.01010000
-2.84530000 5.80580000 -0.97680000
-2.78890000 5.77450000 -0.79990000
1.36910000 5.52670000 3.24350000
1.14910000 5.92780000 3.35440000
1.13990000 5.99740000 3.33960000
0.88450000 3.63610000 3.40860000
2.66270000 5.63620000 -0.56930000
1.09070000 3.73230000 3.32440000
1.16310000 3.80620000 3.12820000
0.62030000 3.59960000 3.34860000
0.46500000 3.53780000 3.34300000
0.22540000 3.94980000 3.34790000
0.51850000 3.79820000 3.38180000
0.73590000 3.64470000 3.43190000
0.74020000 3.74600000 3.39290000
0.65760000 3.96190000 3.39670000
2.30440000 5.97300000 2.08310000
2.07580000 5.98890000 2.63150000
-0.57160000 4.29230000 2.37630000
2.70940000 5.73140000 -1.20480000
2.83490000 5.75310000 -0.29970000
2.86570000 5.76750000 -1.21120000
2.99090000 5.81080000 -0.48600000
0.83940000 3.94120000 3.40660000
0.88350000 4.08250000 3.33730000
0.95620000 4.09530000 3.20290000
3.17000000 5.82650000 -0.80550000
3.14210000 5.78870000 -1.22710000
0.73420000 4.17570000 3.39660000
1.27250000 4.03900000 3.04130000
1.27310000 4.24810000 3.01440000
1.29620000 4.46200000 3.04030000
1.11770000 4.05630000 3.14130000
1.09700000 4.31920000 3.16620000
1.58420000 6.00150000 3.02530000
1.55600000 4.27030000 3.00480000
1.09350000 5.51060000 3.35090000
0.83620000 4.30690000 3.20940000
0.92930000 5.72540000 3.42850000
0.81650000 5.91540000 3.45210000
3.29370000 5.83130000 -0.72920000
0.88110000 5.98250000 3.44870000
0.85930000 4.46500000 3.22260000
0.88860000 4.88900000 3.24920000
-2.87390000 3.89600000 0.79020000
-2.97820000 3.91720000 0.85960000
-3.08550000 4.01540000 0.79810000
-0.00860000 3.71350000 3.26120000
0.32100000 4.09730000 3.41810000
0.53150000 4.06630000 3.46600000
-2.82480000 4.05490000 1.59640000
-2.83710000 4.21020000 1.41220000
-2.94010000 4.23750000 1.44620000
-0.12770000 4.17550000 3.36470000
-0.24760000 4.09650000 3.30790000
-2.81190000 4.39140000 1.23860000
-3.18020000 4.47220000 1.10890000
-3.06480000 4.37440000 1.19260000
-3.07820000 4.35870000 1.38780000
-3.02560000 4.32460000 1.59050000
-2.89040000 4.10080000 1.62140000
-0.14640000 4.51710000 3.40340000
-2.96210000 4.35620000 1.18750000
-2.86810000 4.52770000 1.10960000
-3.13800000 4.44660000 1.44250000
0.22080000 4.46840000 3.49020000
-3.19750000 4.56730000 1.23790000
0.59830000 4.22890000 3.41450000
-2.78790000 4.03560000 0.47220000
0.70910000 4.29830000 3.28440000
0.52830000 4.25010000 3.47390000
0.31180000 4.50610000 3.49380000
0.59200000 4.38350000 3.31500000
-2.93280000 4.03840000 0.80210000
0.59350000 4.52350000 3.23100000
-2.99730000 4.14380000 0.75310000
-2.82080000 4.07590000 0.61470000
0.54000000 4.46920000 3.38410000
0.38550000 4.61640000 3.43560000
-2.90830000 4.16290000 0.68380000
-2.86740000 4.24800000 0.47530000
2.21010000 5.13270000 0.87910000
-2.67210000 4.40470000 0.74550000
-2.71330000 4.03850000 0.37640000
-2.75940000 4.01630000 0.39750000
-2.66260000 4.21380000 0.37580000
2.04690000 5.10200000 1.20060000
0.51400000 4.68480000 3.28030000
-2.73530000 4.37200000 0.14300000
-2.62400000 4.27240000 0.56240000
-2.61720000 4.41510000 0.37460000
2.25130000 5.41600000 1.00780000
-2.63860000 4.66090000 0.42290000
2.01290000 5.37110000 1.37500000
-3.06400000 4.16840000 0.70350000
-3.06130000 4.25590000 0.54890000
-2.98420000 4.29500000 0.54340000
0.65020000 4.55010000 3.20160000
2.30960000 5.59890000 1.14440000
-2.92950000 4.42400000 0.30190000
0.75650000 4.83300000 3.25240000
1.97080000 5.56170000 1.59030000
0.63220000 4.81020000 3.21260000
-0.11980000 3.65570000 3.21960000
2.45230000 5.58980000 0.80200000
-3.01920000 4.45680000 0.32240000
2.58030000 5.79870000 1.02460000
-2.68070000 4.38040000 0.99710000
2.64970000 5.70330000 0.48180000
-0.26460000 3.91170000 3.28690000
1.84250000 4.50140000 2.89170000
2.51290000 5.50470000 0.30330000
1.48670000 4.53170000 3.10050000
-2.71000000 4.37450000 1.10810000
0.52640000 2.12310000 2.41300000
1.37590000 4.53330000 3.09190000
1.41750000 5.00530000 3.18130000
1.24720000 4.91480000 3.22770000
2.87260000 5.84950000 0.43600000
-3.15090000 4.48610000 1.03510000
-2.99130000 4.65450000 0.99970000
-3.13060000 4.60430000 0.96030000
-2.76660000 4.51240000 1.10180000
-2.79820000 4.89790000 0.84110000
-2.87660000 4.87810000 0.93990000
2.20080000 5.74700000 1.53300000
0.96800000 5.03450000 3.22200000
-2.75060000 4.81060000 0.67170000
-2.72640000 4.91410000 0.52160000
1.12010000 4.96360000 3.20780000
2.66080000 5.88070000 1.14180000
1.05650000 5.13290000 3.29980000
2.74400000 5.49760000 1.93870000
-3.08870000 4.45990000 1.56610000
-3.15290000 4.64660000 1.38090000
-3.20980000 4.70880000 1.29410000
-3.19910000 4.61550000 0.99400000
-3.24190000 4.60100000 1.10180000
1.07430000 5.24510000 3.34120000
-3.20050000 4.83100000 0.95130000
-3.10720000 4.94730000 0.87730000
-3.27170000 4.86360000 1.09770000
3.04940000 5.85400000 1.49320000
-3.26160000 5.01190000 1.18650000
-2.95970000 5.21170000 0.78430000
-3.20350000 5.10450000 0.87080000
-3.13920000 5.24620000 0.77810000
-3.30430000 5.37980000 1.00370000
-3.27040000 5.20130000 0.97110000
2.69380000 5.93300000 1.36460000
2.26020000 5.90440000 1.82820000
-3.28830000 5.39130000 0.80830000
-3.24540000 5.37430000 0.73470000
-3.07520000 5.40690000 0.64430000
-3.32660000 5.53750000 0.68260000
-2.77880000 3.85700000 1.78050000
-2.78630000 3.84510000 1.98190000
-2.88930000 4.03750000 1.76730000
-2.89390000 3.95850000 1.89080000
2.77550000 5.97380000 1.70800000
-2.91730000 4.04510000 1.91540000
-2.81350000 4.12150000 2.06480000
-2.90120000 4.13920000 1.95560000
-2.71670000 3.99370000 2.04370000
-2.65290000 4.10420000 2.12020000
-2.87350000 4.22260000 1.93720000
-2.80060000 4.31550000 2.06140000
-2.79640000 4.25730000 1.91970000
3.11480000 5.89540000 0.29880000
-3.01180000 4.27020000 1.75780000
-2.95320000 4.32600000 1.80040000
-2.18270000 4.24350000 2.38840000
-2.90620000 4.42380000 1.76260000
-3.01160000 4.50350000 1.63630000
-2.12640000 4.28940000 2.48730000
-2.85990000 4.29370000 1.82270000
-2.13850000 4.30300000 2.56030000
-2.75880000 4.30000000 1.84700000
-2.83780000 4.36660000 1.77940000
-2.75410000 4.36460000 1.93850000
-2.77090000 4.42700000 1.83820000
-3.07300000 4.60680000 1.43940000
-3.02390000 4.70090000 1.43840000
1.84340000 4.90770000 1.50570000
-2.90150000 4.51810000 1.77170000
-2.92800000 4.65030000 1.71400000
3.04920000 5.94860000 1.40820000
3.19370000 5.93110000 0.97660000
-2.65580000 4.21330000 2.24090000
1.70470000 5.16960000 1.68200000
-2.72550000 4.49630000 2.13090000
-2.75380000 4.49810000 2.00370000
-2.79900000 4.58250000 1.91090000
-2.61430000 4.71350000 1.64380000
-2.68960000 4.72260000 1.56600000
-2.68940000 4.70210000 1.72190000
-2.64580000 4.78240000 1.80090000
-2.60760000 4.73980000 1.73070000
-2.57790000 4.83330000 1.68520000
-2.77250000 4.70890000 1.83630000
-2.83180000 4.70870000 1.76360000
-2.88370000 4.74760000 1.66840000
-2.75290000 4.75470000 1.87460000
-2.76750000 4.73780000 1.55830000
-2.76790000 4.73050000 1.70440000
-2.81430000 4.78040000 1.59920000
-2.82280000 4.84970000 1.56920000
-2.77910000 4.82230000 1.90490000
-2.70810000 4.86190000 1.81330000
-2.61730000 4.89070000 1.75870000
-2.76250000 4.95150000 1.78230000
-2.70720000 4.97750000 1.70930000
-0.54320000 4.20320000 3.30960000
0.89200000 5.09260000 2.28620000
-0.54500000 4.33620000 3.32450000
0.98270000 2.00100000 2.24010000
-0.66760000 4.35210000 3.38740000
-0.82760000 4.37530000 3.34130000
-2.70150000 4.80590000 1.48710000
-2.77580000 4.82710000 1.49570000
1.33640000 5.21110000 2.03070000
-0.79190000 4.53760000 3.42020000
-0.94570000 4.49740000 3.37520000
1.28720000 5.44120000 2.14280000
-2.60040000 4.80680000 1.57030000
-2.68720000 4.88980000 1.50630000
-2.74810000 4.95260000 1.55650000
-2.60650000 4.90580000 1.58420000
-2.67690000 4.98210000 1.59740000
-2.62330000 4.96180000 1.67440000
-2.21920000 5.16100000 0.92600000
1.62930000 5.39580000 1.84070000
-2.97910000 4.91680000 1.37950000
-3.00460000 4.77170000 1.52860000
-2.92150000 4.80980000 1.60180000
-2.95740000 4.89380000 1.58230000
-2.97210000 5.03700000 1.57660000
-2.84570000 4.94720000 1.60400000
-2.79100000 4.98320000 1.85750000
-2.81530000 5.03990000 1.69320000
-2.82700000 5.14430000 1.77360000
-2.90180000 5.08870000 1.67780000
-3.04580000 4.93600000 1.24870000
-3.14510000 4.83790000 1.28720000
1.91270000 4.47220000 2.80170000
1.92480000 4.46540000 2.69830000
2.00030000 4.45170000 2.65770000
-2.99590000 4.92870000 1.28050000
1.87720000 4.56300000 2.71260000
-3.18470000 4.98550000 1.26110000
1.94900000 4.55480000 2.59280000
2.06000000 4.60770000 2.57520000
-3.07240000 5.06140000 1.23530000
1.85240000 4.58740000 2.63050000
1.90140000 4.60710000 2.80780000
1.90880000 4.64580000 2.70610000
2.81430000 5.96660000 1.84670000
1.92470000 4.64550000 2.60040000
1.97110000 4.72950000 2.71460000
-2.98470000 5.03830000 1.48060000
2.03020000 4.70260000 2.64320000
1.84400000 4.66480000 2.64000000
-0.50150000 5.19340000 2.40220000
-2.92220000 5.17150000 1.39540000
-2.95260000 5.07770000 1.23360000
-2.90720000 5.11250000 1.28260000
-2.97500000 5.17260000 1.24350000
-3.08860000 5.19370000 1.29450000
1.94160000 4.71280000 2.80270000
1.91050000 4.81140000 2.85410000
-1.74650000 4.69970000 2.99130000
-2.93190000 5.22510000 1.30330000
-1.48050000 4.66350000 3.16370000
-3.01830000 5.26000000 1.36250000
-1.57620000 4.70050000 3.12910000
-1.64590000 4.74860000 3.05070000
-1.50890000 4.77480000 3.06640000
-1.58610000 4.89410000 3.04610000
-1.36720000 4.58030000 3.18980000
-2.92610000 5.37820000 0.67350000
-1.35340000 4.69080000 3.26700000
-1.02680000 4.61270000 3.37930000
-1.11510000 4.63750000 3.31830000
-3.25110000 5.35240000 1.18310000
-0.93080000 4.63070000 3.43370000
-0.94340000 4.73430000 3.38570000
-1.12070000 4.73990000 3.32030000
-1.24880000 4.76330000 3.29810000
-1.19440000 4.84460000 3.26780000
-1.08600000 4.91240000 3.36260000
-1.07650000 4.82050000 3.38050000
-3.14800000 5.29480000 1.27710000
-1.15640000 4.91890000 3.17770000
-1.40210000 4.72500000 3.21990000
-1.39960000 4.80090000 3.14800000
-3.10000000 5.32960000 1.42020000
-3.19490000 5.52840000 1.30870000
-1.41870000 4.85270000 3.02440000
-1.48180000 4.88160000 3.00530000
-1.44580000 4.92930000 3.06020000
-1.39600000 4.89530000 3.12270000
-1.50320000 5.00570000 3.09120000
-1.31580000 4.82820000 3.27650000
-1.33640000 5.53310000 3.20730000
-1.28720000 4.87890000 3.20930000
-1.30350000 4.94240000 3.17800000
-1.40500000 5.04830000 3.17690000
-1.44170000 5.66490000 3.11690000
-1.61390000 5.76930000 2.95270000
-1.34300000 5.07780000 3.17900000
-1.54670000 5.80000000 3.03890000
-1.20470000 4.98940000 3.14300000
-1.34660000 5.69790000 3.16890000
-1.31710000 5.76740000 3.11430000
-1.22920000 5.75510000 3.10820000
-1.11560000 5.83760000 3.17310000
-2.95310000 5.21690000 1.62260000
-1.47190000 5.80540000 3.11980000
-3.01850000 5.29020000 1.54990000
-1.42630000 5.93070000 3.06330000
