3.39290000 -5.49400000 -2.24730000
3.38560000 -5.45960000 -2.02060000
3.36480000 -5.44250000 -2.06920000
3.38290000 -5.32930000 -2.10790000
3.34480000 -5.25560000 -2.00570000
3.41020000 -4.79660000 -2.23530000
2.81000000 -5.45010000 -2.90370000
2.96910000 -4.61410000 -2.74980000
-3.60320000 -3.44750000 -1.66810000
-3.39170000 -3.05620000 -2.03760000
-3.75520000 -2.32170000 -1.33620000
-3.51070000 -1.60890000 -1.89940000
-3.66010000 -0.72350000 -1.66990000
-3.34720000 -0.74030000 -2.19040000
3.58560000 -5.48640000 -1.86910000
3.50810000 -5.22970000 -1.88910000
3.66070000 -5.17830000 -1.67250000
3.55840000 -4.98070000 -1.77850000
3.63280000 -5.04030000 -1.64700000
3.74160000 -5.06270000 -1.42740000
4.00050000 -2.05490000 -0.89200000
4.06160000 -1.16860000 -0.59620000
4.03350000 -2.37280000 -0.68340000
3.68760000 -4.97660000 -1.36470000
3.64350000 -5.02260000 -1.51130000
3.21160000 -3.16280000 -2.46670000
3.32530000 0.89500000 -2.31840000
3.38900000 -2.48370000 -2.24000000
3.39070000 -5.15500000 -1.95470000
3.41280000 -5.14460000 -2.15380000
3.38920000 -5.06620000 -2.03580000
3.44900000 -4.98420000 -1.90710000
3.42890000 -4.92160000 -1.95770000
3.48420000 -4.88540000 -2.03360000
3.56330000 -4.60820000 -1.98750000
3.58970000 -4.90050000 -1.51890000
3.54490000 -4.89610000 -1.63540000
3.52220000 -4.82120000 -1.75470000
3.52350000 -4.63930000 -1.70160000
3.62780000 -4.80410000 -1.49240000
3.95210000 -2.19130000 -0.43560000
3.96280000 -2.50660000 -0.54210000
4.02230000 -2.37160000 -0.58640000
3.98740000 -2.03940000 -0.47760000
4.05280000 -1.82970000 -0.50630000
3.69400000 -4.70510000 -1.40080000
3.73170000 -4.64720000 -1.26150000
3.97300000 -1.59910000 -0.30690000
4.04840000 -1.19650000 -0.31560000
3.75680000 -4.52060000 -1.18990000
3.70570000 0.64010000 -1.70690000
3.81110000 0.85170000 -1.48080000
3.84500000 -0.73250000 -1.42060000
3.68510000 -4.51900000 -1.40620000
3.70480000 -4.44420000 -1.28450000
3.59230000 1.28270000 -1.89510000
3.80910000 -4.27890000 -1.18590000
3.58380000 -4.57530000 -1.60640000
3.60470000 -4.39000000 -1.49360000
3.52520000 -4.46160000 -1.61010000
3.49750000 -4.73470000 -1.82770000
3.52480000 -4.63990000 -1.83830000
3.57270000 -4.34530000 -1.98900000
3.60760000 -4.48250000 -1.85320000
3.57400000 -4.47090000 -1.77420000
3.51340000 -4.41530000 -1.65930000
3.56820000 -4.34620000 -1.73060000
3.71220000 -4.33290000 -1.25670000
3.56020000 -4.28060000 -1.51020000
3.63980000 -4.19200000 -1.41670000
3.74890000 -4.21020000 -1.26290000
3.73370000 -4.12250000 -1.34260000
3.60990000 -4.20440000 -1.52610000
3.71240000 -4.12490000 -1.51030000
3.54280000 -4.28180000 -1.64100000
3.63480000 -4.20230000 -1.74340000
3.62490000 -4.22600000 -1.62440000
3.72140000 -4.07140000 -1.57760000
3.70890000 -3.88680000 -1.61360000
3.67570000 -3.79800000 -1.71670000
3.69940000 -3.50400000 -1.73020000
3.71720000 -2.20520000 -1.70850000
3.79750000 -3.95480000 -1.24650000
3.81180000 -3.84740000 -1.03620000
3.84270000 -3.79240000 -1.35140000
3.72090000 -3.53290000 -1.61510000
3.83470000 -3.23910000 -1.42150000
3.88610000 -2.36340000 -1.28010000
3.95060000 -1.15600000 -1.06910000
4.00360000 -1.15410000 -0.18440000
4.09210000 -0.89210000 -0.34080000
4.07060000 -0.31010000 -0.03830000
3.58730000 -1.24080000 -1.93810000
4.10850000 -0.08030000 -0.23850000
4.01840000 0.12430000 0.08950000
4.09770000 0.25960000 -0.04160000
3.96550000 -0.13700000 -0.91960000
4.04650000 0.36520000 -0.63480000
4.07310000 0.40700000 0.00180000
3.97420000 0.58790000 0.10700000
3.99630000 0.60130000 0.04380000
4.08150000 0.57050000 -0.02230000
2.95080000 -3.22580000 -2.74200000
3.86460000 -3.69250000 -1.10440000
3.81980000 -3.67670000 -1.03350000
3.88520000 -3.13440000 -0.78600000
3.89670000 -3.33350000 -0.92410000
3.91130000 -3.62750000 -1.13460000
3.96020000 -3.21910000 -1.03960000
3.94400000 -3.37630000 -0.98460000
3.98910000 -2.91880000 -0.82750000
3.94000000 -2.96780000 -0.79510000
3.98740000 -2.67480000 -0.64970000
2.58910000 -0.89650000 -3.05470000
4.10390000 0.42350000 -0.26260000
4.11050000 0.65000000 -0.09720000
4.05750000 0.71850000 -0.39460000
3.91790000 0.36070000 -1.21360000
3.97220000 0.66230000 -0.91400000
3.94630000 0.67430000 -1.11600000
3.94460000 0.80410000 -0.74910000
3.91710000 0.76100000 -0.85810000
3.87760000 0.83040000 -1.01170000
3.88100000 0.88040000 -1.22030000
3.83950000 0.90690000 -1.37180000
3.34170000 0.94200000 -0.34550000
3.35350000 -0.16320000 0.07070000
3.34120000 1.81850000 0.17990000
4.02990000 0.73580000 -0.05100000
4.07820000 0.80120000 -0.16680000
4.00710000 0.99330000 -0.29730000
3.95840000 0.95930000 -0.58770000
3.96180000 0.89010000 -0.08610000
3.95050000 1.15280000 0.09950000
3.93230000 1.11090000 -0.25660000
3.34360000 2.53090000 -0.10270000
3.94200000 1.40540000 -0.06330000
3.14580000 0.45880000 -1.13270000
3.24350000 0.52100000 -0.86190000
3.17310000 1.78000000 -1.04650000
2.97070000 1.18370000 -1.49990000
3.24920000 1.53410000 -0.80720000
3.85730000 0.88270000 -0.93230000
3.89190000 0.95100000 -0.81370000
3.94840000 1.04840000 -0.69530000
3.89890000 0.99750000 -0.93610000
2.93320000 1.06090000 -2.76710000
3.95250000 1.11940000 -0.49060000
3.92690000 1.27750000 -0.32850000
3.96510000 1.31550000 -0.37470000
4.01810000 1.23250000 -0.53140000
3.98780000 1.11630000 -0.80330000
4.03640000 1.24320000 -0.66900000
3.82100000 0.97700000 -1.16900000
3.85880000 1.09620000 -1.16720000
3.77150000 0.98640000 -1.41730000
3.99860000 1.32200000 -0.90600000
3.91070000 1.34220000 -1.17300000
4.00880000 1.76930000 -0.89370000
1.83900000 1.67770000 -3.55810000
2.27710000 0.66680000 -3.28940000
2.71880000 1.96050000 -1.86330000
2.95730000 0.12630000 -1.49810000
2.79250000 -0.06530000 -1.74960000
3.71840000 1.08930000 -1.53130000
3.72400000 1.21600000 -1.55370000
3.81040000 1.43880000 -1.47040000
3.69140000 1.59090000 -1.70430000
3.55230000 1.51370000 -1.90540000
3.03290000 1.93270000 -1.36000000
3.88740000 1.83850000 -1.28090000
3.64840000 2.41530000 -1.82470000
3.43230000 1.81700000 -2.16430000
3.51170000 1.75940000 -1.96480000
3.53040000 2.17080000 -1.97590000
3.25530000 2.10360000 -2.42290000
3.35750000 2.10050000 -2.24250000
3.36560000 2.15950000 -2.15050000
3.90960000 1.50390000 0.57180000
3.95200000 1.59270000 0.28600000
3.96960000 1.59270000 0.09280000
3.95160000 1.58070000 -0.10080000
4.03610000 1.72470000 -0.06490000
4.01750000 1.67390000 0.06630000
4.07600000 1.44850000 -0.43780000
3.97250000 1.55670000 -0.17120000
4.04200000 1.44320000 -0.32850000
4.07050000 2.08280000 -0.53260000
4.08480000 1.81110000 -0.11020000
0.90570000 5.16630000 -3.98050000
-3.80550000 1.36680000 0.98650000
-3.70640000 1.27100000 1.21160000
-3.76480000 1.49660000 0.92680000
-3.62550000 1.29100000 1.25190000
-1.59780000 0.28510000 3.57470000
-1.52820000 -0.00530000 3.61430000
-1.43660000 0.04230000 3.60820000
-1.80200000 0.21340000 3.50350000
-3.54800000 1.40990000 1.05760000
-1.75140000 0.34100000 3.50640000
-3.49340000 -2.06970000 1.59040000
-3.21530000 -2.11160000 1.70180000
-3.31790000 -2.05940000 1.50880000
-1.63210000 0.36330000 3.52480000
-1.64820000 0.41680000 3.42840000
-1.47980000 0.27450000 3.51080000
-1.47500000 0.33690000 3.40270000
-1.36580000 0.23280000 3.36120000
-3.92110000 1.71140000 0.57920000
-3.88150000 1.13360000 0.81060000
-1.92400000 -2.46540000 3.46330000
-3.57630000 1.62420000 0.80910000
-3.77840000 1.76790000 0.66950000
-1.95120000 0.47850000 3.39480000
-1.79420000 0.45300000 3.44650000
-3.86560000 1.72700000 0.66870000
-2.53730000 -0.32100000 2.92740000
-2.39220000 -0.49700000 3.04430000
-2.51400000 -0.20620000 3.00980000
-3.61730000 2.41360000 1.02790000
-3.53440000 2.26350000 0.81790000
-3.53790000 2.35980000 1.12580000
-3.45430000 2.26510000 0.94570000
-1.47840000 -2.53780000 3.61400000
-2.74020000 -2.05010000 1.80630000
-2.77180000 -2.09110000 1.65830000
-2.75320000 -2.13320000 1.87220000
-1.54170000 -2.27430000 3.63500000
-2.63360000 1.87460000 2.40900000
-2.60860000 1.72150000 2.19170000
-2.08800000 1.81930000 2.70150000
-1.68420000 -2.09380000 3.58060000
-1.36640000 -2.29260000 3.68270000
-1.30680000 -1.93170000 3.71440000
-0.85450000 -1.86660000 3.75900000
-1.12810000 -1.32390000 3.65870000
-1.41800000 -1.58350000 3.65010000
-0.56170000 -1.88960000 3.70450000
-0.43850000 -1.94270000 3.76680000
-0.64330000 -1.85330000 3.68100000
-0.41870000 -1.75190000 3.70500000
-2.83250000 2.03770000 2.38930000
-2.30680000 2.05790000 2.81880000
-2.58240000 2.19590000 2.70340000
-2.82950000 1.90070000 2.26270000
-2.59270000 0.13330000 2.97190000
-2.65670000 -0.01930000 2.86590000
-2.36010000 0.07650000 3.15680000
-2.61680000 -2.00760000 2.96370000
-2.89190000 -1.70040000 2.67920000
-2.80510000 -2.45870000 2.78270000
-2.99830000 1.80650000 1.62640000
-2.74800000 1.69550000 1.95360000
-2.90620000 1.81340000 1.97290000
-3.33700000 -2.79800000 2.12940000
-2.63740000 0.26120000 2.87480000
-2.67320000 0.20850000 2.78130000
-3.19650000 2.01410000 1.77850000
-3.07320000 2.01390000 2.05080000
-2.48270000 0.39910000 3.04130000
-2.24210000 0.41990000 3.23840000
-2.08490000 -1.59240000 3.33980000
-1.75570000 -1.90940000 3.51680000
-1.94180000 -1.40330000 3.37000000
-1.74350000 -1.34530000 3.46290000
-1.96040000 -0.05600000 3.42650000
-2.06020000 0.52950000 3.30130000
-2.91560000 2.24460000 2.41260000
-2.00850000 0.60170000 3.15040000
-1.83990000 0.58440000 3.20530000
-1.93030000 0.63290000 2.99110000
-2.62070000 0.15400000 2.51490000
-2.50550000 0.15300000 2.35880000
-2.45260000 -0.16380000 2.33340000
-2.57830000 2.34640000 2.75860000
-2.96200000 2.51780000 2.41250000
-3.25430000 2.22350000 1.92270000
-3.02810000 2.12400000 2.22040000
-2.11190000 -1.15680000 3.30940000
-3.21180000 2.54950000 2.11170000
-2.31970000 -2.13880000 3.19940000
-2.38740000 -1.69360000 3.12830000
-1.24840000 0.15880000 2.99300000
-1.37520000 0.31310000 3.07560000
-1.22850000 0.07340000 3.16200000
-1.94720000 1.93750000 2.95360000
-3.15530000 -2.79220000 2.32320000
-3.24500000 -2.41100000 2.09320000
-1.56200000 0.45190000 3.20240000
-2.72400000 -0.91900000 2.84990000
-2.28350000 2.20780000 2.93480000
-2.46060000 -1.09360000 3.07290000
-2.24610000 -1.41250000 3.20810000
-1.50960000 0.49340000 2.76190000
-1.82780000 0.52600000 3.37430000
-1.71660000 0.51540000 3.31050000
-1.73470000 0.58270000 3.06130000
-3.53960000 -2.22530000 1.76290000
-1.66340000 0.58280000 2.78910000
-3.66400000 -2.24040000 1.55370000
-2.53690000 -0.87760000 2.99360000
-1.91590000 3.28910000 2.28870000
-1.54620000 2.03180000 2.51340000
-1.83630000 1.82480000 2.34000000
-3.67770000 -2.10420000 1.45040000
-2.33340000 -0.71400000 3.16500000
-2.95000000 -1.50460000 2.57510000
-3.00070000 -2.39860000 2.44570000
-2.99030000 -2.37170000 2.52650000
-2.93390000 -1.33450000 2.48390000
-1.85480000 0.62840000 2.66200000
-2.07700000 0.63990000 2.72430000
-2.52390000 0.43950000 2.95860000
-2.57350000 0.45010000 2.81720000
-2.95600000 -2.04280000 2.37660000
-2.85750000 -1.40210000 2.29570000
-2.84680000 -1.94530000 2.21790000
-2.75720000 -1.70610000 2.09810000
-2.47230000 0.55930000 2.79290000
-2.36160000 0.53070000 3.07110000
-2.26390000 0.50160000 3.19410000
-2.24570000 0.56990000 3.10360000
-2.19390000 0.62830000 2.89360000
-2.63930000 0.33830000 2.65650000
-2.54230000 0.57710000 2.61870000
-2.59210000 0.50680000 2.55010000
-2.56300000 0.45000000 2.43580000
-2.07670000 2.36750000 3.10080000
-2.20540000 2.62380000 3.05390000
-2.64380000 2.60280000 2.73350000
-2.40080000 0.62240000 2.67350000
-2.37490000 0.62270000 2.55640000
-2.77480000 -1.15890000 2.16910000
-1.54460000 1.72520000 2.93670000
-1.28120000 1.60440000 2.88410000
-1.18640000 1.57140000 3.08620000
-2.53020000 4.23400000 2.85410000
-1.43990000 1.74790000 3.11990000
-1.52270000 1.67440000 2.76360000
-3.83180000 -2.27020000 1.12740000
-2.86640000 -0.86570000 2.68840000
-1.56570000 1.97230000 3.23450000
-2.25190000 3.53100000 3.03970000
-3.74770000 -0.88660000 1.35660000
-3.74350000 -1.17890000 1.30850000
-3.68180000 -0.92440000 1.47830000
-3.59400000 -0.80360000 1.63950000
-3.59340000 -0.91920000 1.56860000
-3.63010000 -0.42640000 1.56420000
-2.92230000 -0.96480000 2.60770000
-2.89860000 -0.86060000 2.52810000
-3.46900000 -0.86870000 1.67600000
-3.34500000 -0.95820000 1.53890000
-3.38650000 -0.78700000 1.76380000
-2.81610000 -0.79320000 2.37910000
-3.21000000 -0.93230000 1.61110000
-3.50610000 -0.78230000 1.76170000
-3.54190000 -0.65710000 1.76340000
-3.47960000 -0.66510000 1.81890000
-3.13600000 -0.83520000 1.66360000
-3.36710000 -0.61570000 1.82730000
-3.03630000 -0.46740000 1.71170000
-3.49440000 -0.97430000 1.51270000
-3.46510000 -0.25080000 1.82280000
-3.28460000 -0.34120000 1.85120000
-3.36100000 -0.17990000 1.88050000
-3.95410000 -2.26360000 0.61080000
-3.87740000 -2.08550000 0.90770000
-3.92170000 -2.05110000 0.63580000
-3.00830000 1.81030000 1.38640000
-3.18720000 1.92570000 1.25350000
-3.97020000 -1.93570000 0.35480000
-3.86540000 -0.88340000 0.97300000
-3.84070000 -1.09080000 1.09270000
-3.27580000 2.02690000 1.50370000
-2.74290000 -1.02510000 2.18410000
-2.69080000 -1.07660000 2.11990000
-3.78880000 -0.52510000 1.20040000
-3.33250000 2.10030000 1.29970000
-3.87470000 -0.48720000 0.86890000
-2.66340000 -0.58600000 2.21150000
-2.71580000 -0.83430000 2.21930000
-3.59250000 0.30850000 1.56280000
-1.51970000 -1.55670000 3.58540000
-1.24370000 -1.39450000 3.66130000
-3.23430000 2.02980000 1.12150000
-3.15840000 1.91260000 1.15390000
-3.86480000 -0.38790000 1.02430000
-3.79950000 -0.34480000 1.23250000
-2.81010000 1.75390000 1.37190000
-2.96640000 1.92330000 1.08710000
-2.76240000 1.82410000 1.36320000
-3.99750000 -1.92100000 0.02480000
-0.85740000 -1.47480000 3.64630000
-3.72840000 -0.20200000 1.34910000
-1.08580000 -1.09620000 3.59250000
-0.33010000 -1.52560000 3.31720000
-0.16740000 -1.78460000 3.28270000
-0.45500000 -1.38730000 3.45920000
-3.79580000 -0.06120000 1.12780000
-3.77040000 0.55870000 1.16300000
-3.31800000 2.18180000 1.01520000
-3.16920000 2.04280000 1.01610000
-0.55890000 -1.31370000 3.52810000
-0.72560000 -1.42380000 3.62870000
-0.81470000 -1.09680000 3.54020000
-3.98440000 -1.77250000 -0.34680000
-3.61100000 -2.04020000 1.47150000
-3.52440000 -2.13300000 1.69960000
-3.51050000 -1.96750000 1.41630000
-3.73130000 -1.97170000 1.28410000
-3.65110000 -1.88130000 1.34530000
-3.69210000 -1.78330000 1.29060000
-3.51840000 -1.86980000 1.34700000
-3.58270000 -1.75820000 1.31860000
-3.80620000 -1.98880000 1.12970000
-0.37230000 -1.37800000 3.19670000
-0.21400000 -1.64720000 3.18350000
-3.78140000 -1.91140000 0.96950000
-0.57180000 -1.05080000 3.21180000
-3.74120000 -1.75980000 1.17560000
-3.66190000 -1.61680000 1.29990000
-3.75040000 -1.51690000 1.10180000
-3.72570000 -1.58440000 1.23850000
-3.82060000 -1.96900000 0.74230000
-3.41610000 2.26150000 1.55810000
-3.91570000 -1.86180000 0.48180000
-3.87160000 -1.91590000 0.56990000
-3.72530000 -1.67840000 0.98550000
-3.72890000 -1.80170000 0.78520000
-3.37010000 2.44890000 1.84070000
-3.77220000 -1.83240000 0.62770000
-3.76420000 -1.66170000 0.63200000
-3.11610000 0.04100000 1.86190000
-3.54250000 2.44780000 1.38940000
-3.72490000 -1.65470000 0.76820000
-3.23270000 0.05040000 1.90660000
-3.67170000 2.62750000 1.20780000
-2.82770000 -0.00410000 1.67900000
-3.46240000 2.28760000 1.21320000
-3.32940000 0.19930000 1.90430000
-3.74550000 -1.44300000 0.92880000
-0.55680000 -0.91810000 3.07000000
-0.71770000 -0.88470000 3.33970000
-3.76610000 -1.45440000 0.74370000
-3.79590000 -1.34360000 1.12410000
-3.81900000 -1.32690000 0.92230000
-3.22280000 0.30550000 1.90700000
-3.87760000 -1.32430000 0.67410000
-3.91970000 -1.19220000 0.74420000
-2.99420000 0.24010000 1.79430000
-1.59170000 -1.26210000 3.53350000
-2.01920000 -1.02560000 3.30270000
-3.93850000 -1.59510000 0.37070000
-3.97260000 -1.68440000 0.04110000
-1.56050000 -1.03710000 3.50560000
-3.86680000 -1.63430000 0.51250000
-1.38400000 -1.28050000 3.61100000
-1.46060000 -1.11650000 3.61130000
-3.84950000 -1.47290000 0.57550000
-3.94450000 -1.38450000 0.42960000
-1.28540000 -0.97140000 3.56600000
-1.39850000 -0.97770000 3.62250000
-1.48640000 -0.99850000 3.59970000
-1.50200000 -0.84750000 3.52410000
-1.32580000 -0.84910000 3.58500000
-3.98340000 -1.16870000 0.30240000
-3.94700000 -1.64640000 -0.21570000
-1.43530000 -0.84040000 3.63930000
-3.97030000 -0.62250000 0.44950000
-1.37640000 -0.81070000 3.64850000
-1.41770000 -0.70970000 3.63840000
-1.32520000 -0.64620000 3.62660000
-1.37910000 -0.56470000 3.66770000
-1.50210000 -0.61670000 3.53120000
-3.90320000 -1.41650000 -0.59220000
-1.46840000 -0.48670000 3.62280000
-3.92050000 -1.34040000 -0.34590000
-3.87640000 -0.16230000 0.89570000
-3.96050000 -0.01610000 0.55130000
-3.98630000 -1.26820000 0.03800000
-3.97290000 -0.96400000 -0.31610000
-1.84330000 -0.75540000 3.35870000
-2.22130000 -0.81010000 3.23050000
-2.15720000 -0.76500000 3.21310000
-1.93170000 -0.61600000 3.34310000
-1.75280000 -0.61000000 3.44340000
-2.09260000 -0.63460000 3.24770000
-1.92000000 -0.53590000 3.41260000
-1.65820000 -0.45920000 3.56860000
-4.01040000 -0.51370000 0.10370000
-1.53870000 -0.53360000 3.54460000
-3.07920000 3.33610000 2.33300000
-2.90850000 -3.02170000 2.63340000
-4.03790000 0.18890000 0.14020000
-2.80340000 -2.87420000 2.73490000
-4.01260000 0.31170000 0.42200000
-0.76320000 -0.64420000 3.16740000
-2.27350000 -2.84470000 3.16960000
-1.15660000 -0.62360000 3.44460000
-2.48330000 -2.85020000 2.99960000
-0.90260000 -0.65030000 3.35980000
-2.24100000 -2.79820000 3.23860000
-1.02690000 -0.57130000 3.37640000
-0.77820000 -0.51090000 3.09470000
-1.30670000 -0.47850000 3.63920000
-1.40430000 -0.36250000 3.66930000
-2.40550000 -2.65310000 3.13710000
-1.36940000 -0.23190000 3.65330000
-2.65640000 -2.78470000 2.91150000
-1.23480000 -0.60480000 3.49520000
-1.24320000 -0.39740000 3.52130000
-1.16090000 -0.45590000 3.39590000
-1.01330000 -0.40220000 3.24620000
-3.39860000 0.45450000 1.83120000
-3.29280000 0.45950000 1.87660000
-1.14280000 -0.26650000 3.28070000
-0.99710000 -0.32140000 3.12120000
-3.15810000 0.44290000 1.84180000
-1.27740000 -0.30900000 3.59230000
-3.51520000 0.86380000 1.62520000
-1.26530000 -0.04210000 3.41970000
-2.98310000 -2.83330000 2.51680000
-2.97270000 -2.67670000 2.57280000
-2.85860000 -2.75650000 2.71470000
-3.38690000 0.64420000 1.79540000
-3.23820000 0.63270000 1.77710000
-0.84590000 -0.40160000 3.06300000
-2.92950000 4.64910000 2.53980000
-3.04710000 -2.61300000 2.32990000
-3.42420000 0.86610000 1.66760000
-0.98410000 -0.28460000 2.99430000
-1.05910000 -0.19750000 2.97260000
-3.01590000 -2.68690000 2.44710000
-3.06860000 -2.03060000 1.43490000
-3.28940000 -1.96730000 1.33300000
-2.89440000 0.46090000 1.63080000
-3.09600000 -1.94240000 1.30240000
-2.99200000 -2.47660000 2.36180000
-3.37520000 -1.84160000 1.26480000
-3.12280000 -1.85990000 1.24840000
-3.36730000 -1.72050000 1.21930000
-3.12050000 -1.68470000 1.22420000
-3.34940000 0.95450000 1.56130000
-3.48950000 -1.71910000 1.26140000
-3.47520000 -1.55490000 1.22670000
-3.25990000 -1.58440000 1.20130000
-3.59770000 -1.58540000 1.29760000
-3.45980000 -1.26810000 1.26700000
-3.95280000 0.54390000 0.61620000
-3.36540000 -1.48530000 1.18080000
-3.11350000 -1.36740000 1.23640000
-3.20720000 -1.27480000 1.25300000
-3.29860000 -1.29540000 1.20990000
-3.35790000 -1.24540000 1.20750000
-3.45700000 2.82040000 1.78250000
-3.73610000 2.95220000 1.23060000
-3.68040000 -1.30350000 1.33080000
-3.58150000 -1.32520000 1.33150000
-3.62410000 -1.13270000 1.41480000
-2.05190000 -2.26490000 3.36450000
-4.00270000 0.69240000 0.16260000
-3.54710000 -1.04970000 1.45920000
-3.43190000 -1.08430000 1.34170000
-3.32200000 3.36700000 2.03850000
-3.22340000 -1.02490000 1.48000000
-3.26350000 -1.10730000 1.33010000
-3.13820000 -1.13270000 1.36100000
-3.33280000 -1.01420000 1.40110000
-3.09430000 -0.96840000 1.57190000
-3.97880000 1.09720000 0.34260000
-3.33290000 -1.11850000 1.24720000
-3.69000000 3.44720000 1.43510000
-2.95340000 -0.88600000 1.55510000
-2.98400000 -2.34820000 2.25500000
-3.53840000 4.51550000 1.78250000
-3.01160000 -2.28500000 2.19610000
-3.27630000 -2.21150000 1.92790000
-3.06570000 -2.18720000 2.01110000
-2.91660000 -2.20790000 2.26370000
-2.93010000 -2.23460000 2.22540000
-2.53720000 -0.65550000 3.01210000
-2.44290000 -0.61780000 3.08030000
-2.86720000 -0.72170000 2.59640000
-3.68480000 0.96020000 1.33760000
-2.90810000 -2.18670000 2.07390000
-2.82450000 -2.16190000 2.07400000
-2.76630000 -2.06020000 2.08940000
-2.80920000 -0.63660000 2.71980000
-2.78680000 -0.56000000 2.59840000
-2.80120000 -0.60580000 2.48890000
-2.75070000 -2.11670000 1.99680000
-3.60310000 1.14330000 1.43120000
-3.49030000 1.17000000 1.41180000
-2.56420000 -0.55820000 2.95500000
-2.72210000 -0.56440000 2.81010000
-2.47530000 -0.50800000 2.94420000
-2.35690000 -0.58180000 3.10030000
-2.61150000 -0.52480000 2.84200000
-2.53630000 -0.48640000 2.84170000
-2.58790000 -0.44990000 2.60370000
-2.71020000 -0.51850000 2.66890000
-2.54990000 -0.40970000 2.68190000
-2.53850000 -0.39920000 2.80850000
-2.66010000 -0.49200000 2.41850000
-2.63810000 -0.17620000 2.78330000
-2.59700000 -0.25550000 2.70160000
-2.67930000 -0.53550000 2.27630000
-3.25820000 1.15380000 1.27540000
-2.52460000 -0.34350000 2.53490000
-2.52300000 -0.40150000 2.41010000
-2.39140000 -0.39060000 2.28990000
-2.44780000 -0.37000000 2.42340000
-2.43960000 -0.27780000 2.41510000
-2.55960000 -0.45950000 2.19290000
-2.47620000 -0.43590000 2.21990000
-2.53140000 -0.19250000 2.50030000
-2.69590000 0.04490000 2.72370000
-2.67390000 0.04680000 2.62700000
-2.92420000 2.87110000 1.07450000
-2.74240000 3.86120000 1.44240000
-2.63480000 2.56780000 1.56270000
-2.47870000 4.30660000 1.78770000
-2.45380000 2.86260000 1.80110000
-2.20650000 -0.58400000 3.22170000
-2.16660000 3.29870000 2.08110000
-2.27630000 -0.48020000 3.19380000
-2.10330000 -0.48890000 3.29830000
-1.95160000 -0.41020000 3.42680000
-3.25540000 1.36300000 0.96210000
-2.67960000 4.11190000 1.51660000
-3.38410000 1.68190000 0.66240000
-1.61400000 -0.17180000 3.60060000
-1.34930000 -0.05620000 3.58380000
-2.63080000 1.65430000 1.94110000
-2.36550000 1.64170000 2.04470000
-2.24370000 1.68480000 2.33540000
-2.73400000 1.67230000 1.60720000
-2.21840000 1.72740000 2.05140000
-2.43340000 1.62440000 1.87600000
-2.49770000 1.65330000 1.75840000
-3.24820000 5.44150000 2.23150000
-1.81610000 1.70120000 2.60990000
-1.53240000 1.60610000 2.63010000
-2.65750000 5.71850000 1.59970000
-2.07720000 1.76740000 2.15220000
-2.43250000 1.72480000 1.79980000
-1.44570000 1.65070000 2.57350000
-1.79990000 1.69830000 2.41080000
-1.63110000 2.53620000 3.36270000
-1.76880000 3.76130000 3.31270000
1.91650000 4.45100000 3.36110000
2.10680000 4.22300000 3.28690000
2.14470000 4.27140000 3.24180000
0.59170000 2.92880000 3.72220000
0.92690000 1.53850000 3.69580000
1.03040000 2.95250000 3.64020000
1.61040000 4.18990000 3.55320000
1.86770000 3.93650000 3.47140000
1.61550000 4.36430000 3.55900000
1.83230000 4.12360000 3.43000000
1.49820000 4.41320000 3.62380000
1.96650000 4.18650000 3.36090000
0.43630000 -0.92920000 3.44670000
1.75650000 4.51630000 3.47820000
2.30170000 4.24500000 3.18220000
2.00550000 4.41500000 3.25350000
2.04670000 4.39720000 3.18690000
2.22220000 4.29160000 3.15720000
2.14760000 4.35410000 3.11220000
0.78090000 -0.27130000 3.69240000
2.03260000 4.47160000 3.15470000
2.10490000 4.52930000 3.10770000
2.20090000 4.40280000 3.05910000
1.88310000 4.58060000 3.24280000
1.94890000 4.60380000 3.20850000
2.08780000 4.61030000 3.16510000
-0.91270000 2.10020000 2.81110000
-1.21570000 4.66030000 2.69310000
-0.93620000 5.79280000 2.80350000
1.83120000 4.55720000 3.33020000
-0.64600000 4.41320000 2.88610000
2.04940000 4.68620000 3.25030000
2.26390000 4.30850000 3.07340000
2.24890000 4.48680000 3.05470000
2.39470000 4.32990000 2.97100000
2.33020000 4.48670000 3.01930000
2.45770000 4.51740000 2.91500000
2.36410000 4.66960000 3.06800000
2.48530000 4.67450000 2.98970000
2.57230000 4.56580000 2.93290000
2.61620000 4.61290000 2.94490000
2.51580000 4.55660000 2.89950000
2.56900000 4.76140000 2.98660000
2.16780000 4.63380000 3.20090000
2.26960000 4.68580000 3.16990000
2.12780000 4.79340000 3.26170000
2.24940000 4.86960000 3.17190000
1.56480000 2.66050000 3.52770000
1.52960000 2.63090000 3.51080000
1.62680000 2.59020000 3.53400000
1.57890000 2.81090000 3.49010000
1.49670000 2.02490000 3.51570000
1.39900000 3.02360000 3.54020000
1.67940000 2.64300000 3.55700000
1.64910000 2.73600000 3.50700000
2.39400000 4.92500000 3.05480000
2.48840000 4.92910000 3.01880000
1.73350000 2.69380000 3.47560000
1.69460000 2.86370000 3.43500000
1.81630000 2.76880000 3.45430000
1.72050000 2.93570000 3.45610000
1.56110000 3.03290000 3.48790000
0.66860000 -0.56020000 3.63930000
0.50340000 -0.59960000 3.56290000
1.70550000 2.99590000 3.54070000
1.55840000 3.08890000 3.58390000
1.62890000 3.09410000 3.61200000
1.41750000 3.18490000 3.57190000
1.86660000 2.82530000 3.47910000
2.00590000 2.99470000 3.37360000
1.91330000 2.97060000 3.48490000
2.04770000 2.91500000 3.37090000
1.75850000 3.01080000 3.54320000
1.99020000 2.80440000 3.44790000
1.79290000 3.06880000 3.50140000
1.98660000 3.09100000 3.42700000
1.90840000 3.11460000 3.45170000
2.01880000 3.09510000 3.33980000
2.02350000 3.19920000 3.39030000
1.69630000 3.12430000 3.58570000
1.73520000 3.16140000 3.48090000
1.77890000 3.12780000 3.42230000
1.85480000 3.21530000 3.37260000
1.73700000 3.27560000 3.53530000
1.65940000 3.24030000 3.60230000
1.72610000 3.33180000 3.42660000
0.35370000 -0.54920000 3.40160000
1.95580000 3.23080000 3.39140000
0.37660000 -0.93820000 3.34360000
1.46640000 3.25810000 3.64610000
1.53680000 3.26760000 3.63090000
1.31550000 3.36630000 3.59800000
1.66360000 4.71240000 3.47130000
1.64090000 4.69440000 3.53090000
1.58760000 4.79670000 3.42990000
1.43890000 4.67740000 3.62930000
1.27980000 4.56760000 3.69290000
1.44770000 4.78180000 3.58890000
1.36060000 4.85390000 3.54180000
1.69340000 4.74780000 3.35280000
1.90440000 4.76970000 3.24800000
1.75780000 5.04470000 3.30290000
1.87580000 4.91670000 3.24450000
1.99610000 4.77970000 3.26970000
2.04410000 4.88300000 3.25370000
2.12540000 4.98200000 3.19130000
1.97880000 4.92760000 3.21780000
2.20350000 5.08500000 3.09550000
0.33510000 -0.26930000 3.53600000
0.22510000 -0.25840000 3.35300000
2.35970000 5.13170000 3.06140000
2.27920000 5.20110000 3.06820000
0.51090000 -0.28810000 3.64450000
1.36180000 3.34240000 3.64110000
1.97780000 5.09560000 3.15570000
0.41000000 0.07540000 3.70430000
1.95090000 5.18200000 3.15230000
0.28230000 -0.52960000 3.27830000
1.42840000 3.37880000 3.65640000
1.43670000 3.44610000 3.61510000
2.06740000 5.23770000 3.16040000
2.22940000 5.29100000 3.13300000
1.88990000 5.27310000 3.21090000
1.23200000 3.48050000 3.59190000
2.03730000 5.36890000 3.31360000
2.70570000 4.69020000 2.87850000
2.68880000 4.84410000 2.89150000
1.35830000 3.46660000 3.63610000
1.50260000 3.36490000 3.55570000
1.44210000 3.50430000 3.53630000
2.45610000 5.12240000 3.08230000
2.53520000 5.08570000 3.05130000
1.33910000 3.57180000 3.57000000
1.58370000 3.41370000 3.52250000
1.62700000 3.37700000 3.56350000
1.71160000 3.37600000 3.56110000
1.70030000 3.43380000 3.47180000
1.57550000 3.56710000 3.46280000
1.64700000 3.49670000 3.49820000
-1.07780000 1.48150000 2.76600000
0.92790000 0.04500000 3.69290000
1.28190000 0.43410000 3.61030000
0.08710000 0.22220000 3.60920000
-0.00630000 0.24710000 3.51880000
-0.03640000 0.21030000 3.36460000
2.82890000 4.70400000 2.80780000
2.70080000 4.58400000 2.83520000
2.79060000 5.00070000 2.84420000
2.88920000 5.04870000 2.77120000
2.96040000 4.67330000 2.69730000
2.97100000 4.90540000 2.65440000
0.05470000 0.45430000 3.68780000
2.99360000 5.02540000 2.62580000
2.63590000 4.98090000 2.90180000
0.25730000 0.62890000 3.75800000
2.63630000 5.05880000 2.93650000
2.68510000 5.15080000 2.94250000
-1.02970000 4.40030000 3.58950000
-0.68200000 3.69190000 3.66760000
-0.70660000 4.16910000 3.66090000
-0.75840000 4.28560000 3.67510000
2.79870000 5.35240000 2.83370000
-0.88050000 4.49400000 3.63770000
3.14600000 5.11390000 2.50510000
3.19760000 5.00570000 2.38340000
-0.77860000 4.34840000 3.73370000
-0.78970000 4.45200000 3.70440000
3.11890000 5.30970000 2.54980000
-0.73150000 4.43160000 3.78770000
-0.81190000 4.57500000 3.67560000
2.99430000 5.47270000 2.64730000
3.34740000 4.98840000 2.24160000
3.40380000 5.24490000 2.19200000
3.27280000 5.59970000 2.35820000
3.14930000 5.57080000 2.44610000
3.05910000 5.57400000 2.51290000
3.25980000 5.75630000 2.31450000
2.59500000 5.23600000 3.01900000
2.44820000 5.33090000 3.07240000
2.54780000 5.42680000 2.99830000
2.75380000 5.43750000 2.82220000
2.57670000 5.53240000 2.96280000
0.58940000 1.02630000 3.75880000
2.22010000 5.40920000 3.20940000
2.46750000 5.69280000 3.08560000
2.76380000 5.63890000 2.83740000
-1.62970000 3.92450000 2.48120000
-2.00780000 4.84820000 2.22230000
2.87350000 5.57840000 2.71510000
2.62330000 5.76180000 2.93910000
2.85450000 5.73470000 2.75330000
2.74440000 5.84440000 2.77220000
3.01390000 5.66880000 2.52670000
2.96040000 5.69180000 2.63200000
2.19660000 2.39170000 3.16820000
2.31890000 2.49980000 3.07990000
2.25270000 2.47980000 3.23940000
2.97420000 5.79840000 2.55100000
2.34600000 2.61590000 3.15740000
3.09530000 5.68230000 2.39280000
2.47550000 2.59970000 2.93940000
3.10690000 5.79640000 2.34910000
3.17500000 5.85370000 2.29540000
3.03430000 5.82400000 2.43870000
3.08270000 5.94740000 2.46030000
3.17550000 5.97850000 2.30830000
2.85690000 5.86370000 2.63930000
2.93340000 5.93310000 2.58880000
3.03230000 6.05510000 2.53370000
1.23310000 4.85400000 3.66620000
1.32170000 4.92780000 3.52470000
-0.48590000 0.93690000 3.41770000
1.35490000 5.11310000 3.49730000
1.53660000 5.35370000 3.40000000
2.25830000 2.65280000 3.27490000
2.39240000 2.75740000 3.19440000
2.40270000 2.77140000 3.08420000
2.43410000 2.81640000 2.99230000
2.32800000 2.93690000 3.24740000
2.68280000 2.96860000 2.74710000
2.10790000 2.91710000 3.30000000
2.14510000 2.82240000 3.35280000
2.23390000 2.91950000 3.27420000
2.14700000 3.08290000 3.21700000
2.24100000 3.06930000 3.24710000
1.18560000 5.49380000 3.52960000
1.71570000 5.31540000 3.29250000
1.77650000 5.34860000 3.29540000
1.93390000 5.33190000 3.29080000
1.64390000 5.52700000 3.36430000
1.80790000 5.40610000 3.38120000
1.89490000 5.40540000 3.39880000
1.93000000 5.58500000 3.41280000
2.15130000 5.65470000 3.29760000
1.66890000 5.62070000 3.47270000
1.75930000 5.51430000 3.45910000
1.73800000 5.66860000 3.50260000
1.55600000 5.53970000 3.36500000
1.28620000 2.52070000 2.79440000
1.47590000 0.03680000 2.72310000
1.20810000 -0.40310000 2.85650000
1.47280000 5.52500000 3.40310000
1.53920000 2.72430000 2.68390000
0.79790000 2.64810000 2.91760000
0.81900000 0.57210000 2.91750000
1.01510000 5.25710000 3.61290000
1.35130000 5.60500000 3.46550000
1.46830000 5.61530000 3.44160000
1.41370000 5.65480000 3.51620000
0.78100000 5.33730000 3.66000000
0.93510000 5.63590000 3.58930000
1.12580000 5.68660000 3.51280000
0.96520000 5.72480000 3.59100000
1.24650000 5.73860000 3.68450000
1.39340000 5.68810000 3.61810000
1.37500000 5.72690000 3.66680000
1.24830000 5.74220000 3.57790000
1.18450000 5.73170000 3.51860000
1.21930000 5.86730000 3.72730000
0.30800000 4.06450000 2.98410000
0.38340000 0.31880000 2.99440000
-0.02100000 0.64320000 2.98690000
1.12210000 5.79270000 3.68500000
1.16550000 5.81810000 3.72870000
1.12700000 5.79930000 3.62850000
1.61180000 5.68280000 3.51030000
1.53320000 5.70850000 3.56790000
1.53950000 5.81690000 3.61150000
1.77840000 5.86600000 3.50830000
1.38250000 6.03850000 3.67990000
2.03770000 5.91610000 3.35000000
1.90310000 5.99000000 3.39540000
1.72690000 6.03970000 3.53670000
1.91570000 6.09280000 3.40310000
1.84570000 6.14410000 3.46820000
2.05630000 6.08680000 3.33390000
1.68160000 6.26080000 3.54600000
1.79050000 6.26520000 3.49960000
1.95990000 6.25610000 3.39190000
1.06770000 3.93960000 3.60550000
1.48290000 3.79760000 3.47630000
1.03630000 5.58420000 2.84410000
1.38710000 5.83410000 2.72470000
1.88280000 3.78470000 2.47010000
1.65030000 4.09550000 3.45670000
1.80880000 3.84770000 3.38030000
1.84250000 3.86020000 3.44300000
1.42660000 4.15670000 3.45540000
1.74310000 3.73700000 3.36460000
1.78920000 3.79210000 3.34780000
1.58800000 4.12100000 3.43060000
1.17620000 4.15950000 3.55430000
1.51070000 4.25180000 3.55480000
1.34380000 4.27160000 3.51030000
2.05910000 3.05200000 3.23720000
2.02640000 3.19930000 3.27830000
2.12790000 3.25510000 3.17090000
0.74540000 4.18570000 3.66400000
0.55800000 3.97420000 3.70330000
0.65140000 4.21250000 3.75950000
0.80350000 4.30680000 3.67210000
1.12040000 4.29010000 3.54000000
0.95420000 4.35320000 3.60930000
0.86680000 4.38150000 3.75420000
1.08720000 4.35850000 3.57470000
1.27810000 4.36330000 3.62060000
1.31930000 4.42490000 3.66650000
1.06250000 4.44960000 3.70610000
0.97260000 4.51170000 3.78780000
0.13480000 4.25690000 3.72200000
-0.10180000 4.17640000 3.71870000
0.27800000 4.10250000 3.71410000
-0.30540000 2.35330000 2.95390000
-0.39600000 6.38200000 2.92150000
0.09980000 4.11020000 2.98620000
-0.46280000 4.41650000 3.79040000
-0.29050000 4.45320000 3.80140000
-0.34780000 4.50310000 3.72570000
-0.56130000 4.54110000 3.78660000
-0.46980000 4.51430000 3.72380000
-0.37970000 4.63890000 3.70200000
-0.23970000 4.57230000 3.76600000
-0.79560000 4.65490000 3.75990000
-0.80420000 4.80870000 3.69890000
-0.61460000 4.70350000 3.69110000
-0.37510000 4.91000000 3.70010000
-0.24680000 4.81040000 3.83130000
-0.18520000 4.67840000 3.84930000
-0.28180000 4.77180000 3.72580000
-0.26480000 4.81990000 3.76790000
-0.18550000 4.99480000 3.86120000
-0.10290000 4.69980000 3.87690000
0.10310000 4.90340000 3.89340000
0.05380000 5.34310000 3.88170000
0.30940000 4.71650000 3.85630000
0.55420000 4.62460000 3.86970000
0.63810000 4.81560000 3.83260000
1.04860000 4.65940000 3.78280000
0.56030000 4.41380000 3.84810000
0.86860000 4.79400000 3.82100000
1.09730000 4.83190000 3.76220000
1.01960000 4.97530000 3.65580000
0.87530000 4.91680000 3.82170000
1.01980000 4.94540000 3.75260000
0.82620000 4.99870000 3.80270000
0.91210000 5.00350000 3.73890000
0.88620000 5.07870000 3.65020000
0.29210000 4.89860000 3.82340000
0.46030000 4.87450000 3.78100000
0.57950000 4.87990000 3.78960000
0.61210000 4.99280000 3.72010000
0.56430000 5.09120000 3.70210000
0.33680000 5.06550000 3.81420000
0.37500000 5.31030000 3.86810000
0.47600000 5.23830000 3.81020000
0.57950000 5.23500000 3.72400000
0.70310000 4.96730000 3.80730000
0.74210000 5.04010000 3.71610000
0.66540000 5.41270000 3.71380000
0.62010000 5.45510000 3.80830000
2.05520000 3.41430000 3.20750000
1.80980000 3.33590000 3.35810000
0.63700000 7.01870000 2.91020000
2.26510000 5.88550000 3.21170000
2.38300000 5.88880000 3.09020000
2.52390000 5.89240000 2.95290000
2.17490000 6.03300000 3.19630000
2.20690000 6.04530000 3.11680000
2.37680000 5.99180000 3.05830000
2.36230000 6.08430000 3.05040000
2.66800000 5.97400000 2.83320000
2.54410000 6.09450000 2.95160000
2.43590000 6.17190000 2.98160000
2.59550000 6.20720000 2.85460000
2.80680000 6.03750000 2.66700000
2.91410000 6.06970000 2.59470000
2.74050000 6.05520000 2.77670000
2.78680000 6.11930000 2.61100000
2.70530000 6.18870000 2.75730000
2.72470000 6.19520000 2.68580000
2.85280000 6.17300000 2.52190000
3.04130000 6.13840000 2.47190000
3.03240000 6.20360000 2.35920000
2.74010000 6.21110000 2.57860000
2.88430000 6.28330000 2.44910000
2.54280000 6.27230000 2.81100000
2.69740000 6.31350000 2.62960000
2.55430000 6.37100000 2.77040000
2.86100000 6.71590000 2.56560000
2.05050000 6.17640000 3.22490000
2.02520000 6.23530000 3.29340000
2.04970000 6.16590000 3.14240000
2.27360000 6.15520000 3.00620000
2.11810000 6.13540000 3.06940000
2.09410000 6.21960000 3.07040000
2.29840000 6.30980000 2.95480000
1.94410000 6.35450000 3.23380000
1.95030000 6.34600000 3.35760000
2.27250000 6.86110000 3.08040000
1.89260000 6.43160000 3.24620000
2.63900000 7.07630000 2.85420000
3.14730000 6.05590000 2.40670000
3.15740000 6.12700000 2.31230000
0.96810000 5.86230000 3.79070000
0.84220000 5.72980000 3.75840000
1.01180000 5.80580000 3.75430000
0.63370000 5.70950000 3.84240000
0.76210000 6.00020000 3.83560000
0.75770000 5.58890000 3.71550000
0.98760000 5.77680000 3.65040000
1.05180000 6.21600000 3.75710000
0.85040000 6.20500000 3.79010000
1.50930000 6.17890000 3.62840000
1.24880000 6.24480000 3.70170000
1.55780000 6.22590000 3.58470000
1.61760000 6.26760000 3.55150000
1.39880000 6.30300000 3.64020000
1.17610000 6.33940000 3.67700000
1.25150000 6.35280000 3.59860000
1.11500000 6.39250000 3.60440000
1.22160000 6.46290000 3.51620000
1.31240000 6.40290000 3.51840000
1.38500000 6.37660000 3.57390000
1.56870000 6.40780000 3.60610000
1.49690000 6.45970000 3.56840000
1.39950000 6.47180000 3.47500000
1.53790000 6.51170000 3.49680000
0.64890000 6.11880000 3.83890000
0.60810000 6.19440000 3.79800000
0.39910000 5.97720000 3.83710000
0.59790000 6.24660000 3.73150000
0.43390000 6.08260000 3.73690000
0.70510000 6.35880000 3.75950000
0.46840000 6.17550000 3.68540000
0.55870000 6.37790000 3.68220000
0.91650000 6.31730000 3.74060000
0.99570000 6.38490000 3.75380000
0.85840000 6.37680000 3.75910000
0.80060000 6.44710000 3.71130000
0.99140000 6.44500000 3.71350000
0.93970000 6.48060000 3.65770000
0.67230000 6.53440000 3.67870000
0.16690000 6.74100000 3.78070000
1.02000000 6.52220000 3.60100000
0.76360000 7.06740000 3.74320000
1.16860000 6.67390000 3.56940000
1.76350000 6.37960000 3.46000000
1.67180000 6.43480000 3.54200000
1.57070000 6.49160000 3.57230000
1.62710000 6.49880000 3.46190000
1.48780000 6.57010000 3.44250000
1.57800000 7.01510000 3.47050000
1.20070000 7.42510000 2.77070000
1.85450000 6.39340000 3.37280000
1.73610000 6.43810000 3.38270000
1.69740000 6.51510000 3.34310000
1.71600000 6.60700000 3.33890000
1.87520000 7.10870000 3.36100000
2.04560000 7.65520000 3.36410000
2.41240000 7.48260000 3.11260000
-0.11470000 7.57000000 3.89190000
-0.26490000 7.05130000 3.82710000
0.56610000 7.54770000 3.85830000
0.97070000 7.50990000 3.78460000
1.32290000 7.48980000 3.67350000
0.55700000 7.51340000 2.92920000
0.90130000 7.51560000 2.86790000
1.33330000 7.58160000 2.74200000
1.02380000 7.70250000 2.91740000
0.76520000 7.74260000 3.83270000
0.35900000 7.72470000 3.88090000
0.04010000 7.46400000 2.96430000
0.23990000 7.62610000 2.99210000
-0.26960000 7.61240000 2.97230000
0.08210000 7.71310000 3.04470000
0.60300000 7.66980000 2.97490000
0.67550000 7.76350000 3.06820000
0.02550000 7.77250000 3.12580000
0.24490000 7.81830000 3.29340000
0.12480000 7.82660000 3.41520000
1.26690000 7.81600000 3.10710000
1.59790000 7.65020000 3.59110000
1.77170000 7.73400000 3.51200000
2.07970000 7.76850000 3.33260000
1.57880000 7.79690000 3.56910000
1.90470000 7.80700000 3.39840000
1.69740000 7.82830000 3.43920000
1.76430000 7.77060000 2.70520000
1.21300000 7.77390000 2.95800000
2.25460000 7.81250000 2.93960000
1.52100000 7.82180000 3.28100000
2.11550000 7.82320000 3.22750000
1.91020000 7.80760000 2.78470000
1.21250000 7.72190000 3.73000000
1.20440000 7.77570000 3.71970000
1.30740000 7.81370000 3.65540000
0.98420000 7.77980000 3.77650000
0.72500000 7.82370000 3.75380000
1.00610000 7.83090000 3.66890000
0.44430000 7.82040000 3.63280000
1.05340000 7.81560000 3.72730000
1.17520000 7.82890000 3.56840000
2.85840000 7.65170000 2.77410000
2.43810000 7.70670000 3.11090000
2.64400000 7.74610000 2.95200000
2.37900000 7.80260000 3.11490000
2.72100000 7.81840000 2.82280000
2.38690000 7.83200000 3.00830000
-3.23240000 6.43740000 2.28810000
-3.07630000 6.40320000 2.46690000
-3.00250000 6.47710000 2.54740000
-2.95380000 7.06760000 2.63060000
-2.72480000 6.66180000 2.82390000
-3.13170000 6.60830000 2.33630000
-3.14850000 6.75570000 2.40060000
-2.89340000 7.59020000 2.69970000
-2.40440000 6.32450000 3.03190000
-2.47890000 7.57580000 3.04750000
-1.99680000 7.55500000 3.35450000
-2.42400000 7.71060000 3.06440000
-2.70790000 7.65930000 2.85810000
-2.50840000 7.75740000 2.94600000
-2.30740000 7.79180000 2.95480000
-2.96910000 7.77190000 2.50700000
-1.50830000 7.34670000 3.57570000
-1.80790000 6.53790000 3.38300000
-1.44480000 6.43170000 3.52650000
-1.12330000 7.50630000 3.72060000
-0.99130000 6.66600000 3.67640000
-0.69960000 7.55550000 3.82220000
-0.68260000 6.60570000 3.73510000
-0.59290000 7.71240000 3.84300000
-0.12320000 7.75250000 3.88320000
-0.37310000 7.77870000 3.85840000
-1.30130000 7.40420000 2.65680000
-1.70000000 6.35460000 2.44600000
-1.58820000 7.69580000 3.55480000
-1.28270000 7.73660000 3.66420000
2.00830000 0.20130000 2.41320000
2.03260000 2.05330000 3.25820000
2.53490000 0.08580000 1.96740000
2.63130000 2.21780000 1.86520000
2.24390000 2.22390000 2.24900000
2.33750000 -0.24740000 2.18230000
2.39270000 2.28410000 2.11300000
3.11390000 1.94120000 2.30550000
3.37970000 0.96830000 2.10590000
3.49060000 1.04290000 2.08190000
3.57940000 1.16110000 1.99950000
3.59560000 1.15140000 1.88280000
3.40500000 1.22060000 2.05850000
3.53540000 1.29600000 2.04090000
3.45020000 1.38310000 2.05630000
3.28730000 1.31130000 2.11870000
3.33660000 1.45360000 2.06140000
3.29020000 1.69410000 2.09860000
3.55150000 1.41440000 1.76200000
2.78270000 4.57380000 1.63710000
2.92610000 2.81530000 2.48180000
-0.61110000 7.50260000 2.88980000
-0.80810000 7.36330000 2.83570000
-0.97750000 7.63420000 2.83000000
-0.53440000 7.71570000 3.00210000
-1.00890000 7.73230000 2.88670000
-0.63530000 7.77280000 3.06410000
-0.65060000 7.81500000 3.19470000
-0.98270000 7.75580000 3.74650000
-1.22310000 7.80000000 3.60350000
-0.72530000 7.80070000 3.77030000
-0.66790000 7.81950000 3.63770000
-1.57120000 7.80850000 3.29010000
-1.42430000 7.81560000 3.03730000
0.02070000 7.82200000 3.79810000
-1.22070000 7.77090000 2.86880000
-1.52720000 7.79100000 2.80620000
-1.91440000 7.74260000 3.38470000
-2.18620000 7.72080000 3.22990000
-1.58280000 7.77770000 3.52060000
-1.73340000 7.80100000 3.39720000
-2.04150000 7.79250000 3.26170000
-2.38240000 7.79960000 2.46000000
0.43220000 7.79720000 3.84150000
-0.31600000 0.85980000 3.58240000
-0.08090000 0.85140000 3.71810000
-0.27680000 1.36410000 3.71950000
-0.05620000 1.48190000 3.76370000
0.30050000 1.44670000 3.77540000
-0.46250000 0.88430000 3.05450000
-0.16530000 0.38350000 3.19640000
-0.51690000 0.94650000 3.29730000
-0.61140000 1.06560000 3.13730000
-0.77460000 1.27920000 3.30130000
-0.75820000 1.34520000 3.43330000
-0.62100000 1.46430000 3.60330000
-0.77510000 1.25640000 3.06780000
-0.47670000 0.98640000 2.93570000
-0.71560000 1.26810000 2.88050000
1.97040000 3.30490000 3.29880000
1.73350000 3.50500000 3.39260000
2.00560000 3.55310000 3.27300000
3.61650000 1.46490000 1.92300000
3.59680000 1.53620000 1.84210000
3.47620000 1.63640000 2.07100000
3.57590000 1.60270000 2.00820000
3.37090000 1.69190000 2.06210000
3.42370000 1.98400000 2.09360000
3.52640000 1.81810000 2.06100000
3.54270000 1.93890000 1.71800000
3.55240000 1.83580000 1.78300000
3.61390000 1.79760000 1.90700000
3.59320000 2.05350000 1.81820000
3.55480000 2.03720000 2.03090000
3.60280000 2.10960000 1.93330000
3.86840000 1.88380000 1.04720000
3.77320000 1.93500000 1.19440000
3.81530000 1.80720000 1.03800000
3.81960000 1.97670000 1.19040000
3.67400000 2.12620000 1.41880000
3.92900000 1.95210000 1.02760000
3.90940000 1.95570000 1.13250000
3.89740000 2.03240000 1.10690000
3.85110000 2.04960000 1.25920000
3.83590000 2.10980000 1.14690000
3.77870000 2.10700000 1.34320000
3.84030000 2.15540000 1.35210000
3.78740000 2.23630000 1.43410000
3.67410000 2.25610000 1.46540000
3.71220000 2.30700000 1.49120000
3.77690000 2.37730000 1.39850000
3.82610000 2.15110000 1.29220000
3.77350000 2.25540000 1.28850000
3.82610000 2.21320000 1.15270000
3.80120000 2.32470000 1.24810000
3.89600000 2.24230000 1.11530000
3.88170000 2.34100000 1.12990000
3.28160000 2.05150000 2.09890000
3.32310000 2.16720000 2.07950000
3.49130000 2.19570000 2.09670000
3.39920000 2.32790000 2.12060000
3.53880000 2.27450000 1.73330000
3.26090000 2.45630000 2.11870000
3.61320000 2.25470000 1.85280000
3.46590000 2.54540000 2.14680000
3.56450000 2.45520000 1.85250000
3.55700000 2.38930000 1.64580000
3.56460000 2.60080000 1.97500000
3.52520000 2.56070000 1.79440000
3.61290000 2.45390000 1.61990000
3.64210000 2.50740000 1.64280000
3.55940000 2.69950000 1.74890000
3.72960000 2.46440000 1.53770000
3.79230000 2.61530000 1.47330000
3.81440000 2.47000000 1.29550000
3.80770000 2.46090000 1.15490000
3.78980000 2.54510000 1.21690000
3.81070000 2.65240000 1.29240000
3.66960000 2.60210000 1.66170000
3.72290000 2.65790000 1.60120000
3.76490000 2.75930000 1.45920000
3.74660000 2.87830000 1.43880000
3.39340000 2.56580000 2.17560000
3.31070000 2.61520000 2.16360000
3.15470000 2.70460000 2.20380000
3.20770000 2.73950000 2.17770000
3.50120000 2.94450000 2.09470000
3.36850000 2.79230000 2.25690000
3.52840000 2.89810000 1.96660000
3.49650000 2.82830000 1.89090000
3.49250000 2.90700000 1.84400000
3.26430000 2.78830000 2.23270000
3.25500000 2.86390000 2.30110000
3.40750000 3.10090000 2.23170000
3.64310000 2.83510000 1.66110000
3.64630000 2.95530000 1.70030000
3.72640000 3.01840000 1.56740000
3.79880000 2.94940000 1.36530000
3.53390000 3.04080000 1.80730000
3.55010000 3.19700000 1.78900000
3.69190000 3.19210000 1.60270000
3.85930000 3.04850000 1.31560000
3.78890000 3.27710000 1.48240000
2.93590000 3.08050000 2.48580000
3.08230000 3.10620000 2.35200000
3.05890000 3.18140000 2.48460000
2.93210000 3.16140000 2.58880000
2.45010000 2.91640000 3.12290000
2.63580000 3.03150000 2.81620000
2.52960000 2.98380000 2.98720000
2.59060000 3.08770000 3.02460000
2.68730000 3.08230000 2.93630000
2.65820000 3.05390000 2.88420000
2.75260000 3.19880000 2.89830000
2.40520000 3.05950000 3.17600000
2.32130000 3.17680000 3.21280000
2.47370000 3.16860000 3.10580000
2.50370000 3.36000000 3.10770000
2.62800000 3.41140000 3.02070000
2.79910000 3.16920000 2.66940000
2.75720000 3.17840000 2.80200000
2.81920000 3.26060000 2.73160000
2.68460000 3.47870000 2.96170000
2.72560000 3.38040000 2.83610000
2.93320000 3.31770000 2.68180000
3.11070000 3.39320000 2.48540000
2.92300000 3.48440000 2.71750000
3.05480000 3.57160000 2.58140000
2.76510000 3.50600000 2.78970000
2.69820000 3.54530000 2.82660000
2.82250000 3.62820000 2.74200000
2.94200000 3.75220000 2.63620000
3.07310000 2.95040000 2.28650000
3.16490000 2.96060000 2.28330000
3.24920000 2.98940000 2.34270000
3.33800000 2.98000000 2.31780000
3.12720000 3.04480000 2.28970000
3.29870000 3.10100000 2.32060000
3.30100000 3.37010000 2.34320000
3.49900000 3.21520000 2.02850000
3.45620000 3.17280000 1.94580000
3.50530000 3.46060000 2.07190000
3.05710000 3.06700000 2.31700000
3.22020000 3.19370000 2.33580000
3.15040000 3.22370000 2.38300000
3.38480000 3.64270000 2.25010000
3.21080000 3.48980000 2.37990000
2.98360000 4.86210000 1.32850000
3.45810000 3.16500000 1.86490000
3.49480000 3.32270000 1.88920000
3.11390000 3.62940000 2.45610000
3.28210000 3.74960000 2.35850000
3.17460000 3.69390000 2.38260000
3.09820000 3.75330000 2.45500000
3.03480000 3.85880000 2.56650000
2.59990000 5.82090000 1.84450000
3.52740000 3.38050000 1.98230000
3.69380000 3.39320000 1.64630000
3.57960000 3.45720000 1.77250000
3.76390000 3.55490000 1.49920000
3.68940000 3.68800000 1.59310000
3.52500000 3.54970000 1.99800000
3.51090000 3.51080000 1.89000000
3.59990000 3.68130000 1.73340000
3.57360000 3.65830000 1.86590000
3.59580000 3.80440000 1.90270000
3.65940000 3.96290000 1.75210000
3.62180000 3.82900000 1.67930000
3.21680000 3.82340000 2.40000000
3.30420000 4.02680000 2.33160000
3.18560000 3.97810000 2.41840000
3.42360000 4.21840000 2.16230000
3.52480000 4.31750000 2.02420000
3.66680000 3.94410000 1.66980000
3.69720000 4.35360000 1.67660000
0.13200000 2.69610000 3.75210000
-1.07540000 1.59420000 3.32380000
-0.92820000 1.40340000 3.17620000
-1.11330000 1.86160000 3.46260000
-1.06080000 1.47910000 2.97570000
-0.92860000 1.35510000 2.93470000
-0.80710000 2.20010000 3.64040000
-1.38090000 2.22020000 3.42820000
-0.44230000 3.06010000 3.71230000
1.96910000 2.32640000 3.28880000
1.99730000 2.38370000 3.30510000
2.17220000 2.43010000 3.25830000
1.78890000 2.40910000 3.39260000
1.64680000 2.46830000 3.45370000
