-62.35810000 40.95100000 58.14590000
-58.41800000 47.39520000 62.21550000
-49.09150000 38.36810000 69.70500000
-54.32110000 38.04200000 65.59160000
-53.17180000 45.86190000 67.04690000
65.41750000 19.77570000 69.34150000
65.44040000 20.54230000 69.67830000
60.02940000 21.60830000 74.84240000
78.97260000 46.71290000 15.70620000
77.82560000 45.71220000 21.02750000
78.71670000 53.77550000 17.25900000
77.88850000 53.90270000 20.86580000
76.43980000 53.69880000 26.03250000
-79.97920000 35.04450000 -21.81060000
-80.93450000 42.71120000 -18.38950000
-80.72230000 53.17110000 -19.28550000
-80.69030000 69.63730000 -20.01310000
-58.72940000 103.53470000 62.77380000
-60.80640000 115.93200000 61.14590000
-58.04900000 115.77140000 63.68190000
-52.04850000 107.53230000 68.29490000
-55.43050000 102.29780000 65.54550000
-93.75100000 -54.50600000 -26.12410000
-94.55420000 -58.26930000 -23.74090000
-93.83340000 -50.34070000 -25.39070000
56.60350000 42.73830000 77.09690000
55.94230000 43.57570000 76.13870000
-92.61600000 42.06110000 15.55990000
-93.66090000 28.96910000 8.78540000
73.98650000 -68.39490000 61.00900000
77.04650000 -69.27250000 56.68320000
76.42490000 -67.63250000 57.69960000
51.97800000 27.65330000 78.52210000
53.06320000 31.91420000 79.91230000
54.73710000 32.72470000 77.70730000
56.05770000 33.89280000 77.98600000
90.41720000 68.15310000 -14.51840000
92.73970000 100.90660000 -10.55650000
91.90090000 91.81370000 -12.67460000
54.16090000 -20.37130000 -70.48620000
56.19880000 -11.96350000 -68.85420000
-90.64140000 113.05080000 -31.63490000
-91.78680000 107.34190000 -27.54950000
-92.04200000 112.98040000 -27.22200000
-92.26240000 116.21760000 -29.08710000
88.77180000 117.21450000 34.86790000
91.32650000 120.15190000 30.56320000
89.52770000 119.86830000 35.48990000
84.45240000 121.85000000 46.38220000
86.35550000 121.02500000 43.44700000
88.33940000 121.82520000 38.35990000
52.56110000 -76.57230000 -76.02500000
50.25910000 -75.42130000 -77.67770000
42.37820000 -75.21010000 -82.65330000
37.39250000 -72.83230000 -85.07070000
41.51810000 -72.52490000 -82.64900000
14.89940000 11.55200000 94.42790000
15.72840000 11.71210000 95.82840000
37.57930000 -70.60100000 89.10030000
37.42430000 -66.41110000 89.39980000
35.15690000 -65.22110000 89.53360000
-45.22990000 -63.84640000 87.93950000
-46.70360000 -65.34360000 87.07920000
32.27780000 -73.60650000 2.49340000
29.83360000 -74.10330000 18.19390000
26.39370000 -73.69390000 8.81760000
9.88950000 -72.64320000 -10.46620000
16.76870000 -72.81730000 -17.12480000
17.19340000 43.92560000 -90.57930000
13.61990000 38.35690000 -90.76430000
14.00260000 43.68570000 -90.54660000
16.06610000 45.24590000 -90.54920000
15.09890000 49.28340000 -90.49390000
-92.44510000 -77.35540000 -7.05530000
-96.51380000 -77.36490000 4.59250000
-97.78750000 -76.30390000 -5.77530000
-98.23110000 -75.75340000 3.32150000
-98.48270000 -73.72990000 0.00370000
23.75910000 -73.35250000 3.27480000
35.66730000 -73.54630000 -8.87890000
43.24610000 -73.82360000 -13.12730000
53.00560000 -74.34270000 -17.85100000
46.14610000 -74.10660000 -2.07580000
50.16590000 2.22570000 77.62670000
50.56110000 3.85020000 77.56540000
55.13490000 -16.93650000 76.97930000
55.97690000 -15.42080000 74.88010000
54.43080000 -15.14490000 74.87410000
66.08890000 -63.94320000 69.10270000
67.62120000 -65.24670000 68.36480000
67.29870000 -60.54570000 67.91270000
64.07760000 -68.82870000 71.29320000
66.82380000 -67.02490000 69.30940000
65.47730000 -66.43680000 70.04440000
-73.34920000 117.61620000 -60.46030000
-69.96950000 118.66750000 -64.52480000
-82.22590000 -77.07890000 36.60220000
-77.89550000 -76.77850000 42.72000000
-75.25630000 -77.32830000 50.87690000
-85.81730000 -77.05430000 25.65540000
-86.17400000 -76.27910000 16.63930000
-84.87480000 -76.30010000 23.06950000
-96.87740000 -49.71340000 1.94200000
-97.69040000 -54.78460000 0.80760000
86.32080000 -63.89350000 -25.62620000
87.74660000 -69.74640000 -23.70850000
86.78470000 -70.77420000 -24.67720000
38.76140000 95.28060000 -68.67510000
40.20840000 111.69580000 -68.31290000
36.39800000 111.72340000 -70.39720000
47.51770000 109.76250000 -63.46640000
-76.61060000 -76.70830000 44.41640000
-83.09830000 -76.79710000 21.53810000
-52.48990000 11.35300000 -75.93680000
-47.24180000 27.33530000 -80.31140000
-47.32540000 26.05390000 -78.95740000
-48.26610000 28.25490000 -78.61800000
87.44260000 -71.53890000 32.60410000
88.85760000 -75.21740000 32.02130000
89.11360000 -72.98810000 30.37960000
88.11740000 -71.66800000 30.88850000
86.30920000 -70.41750000 31.89270000
-83.63270000 100.72150000 13.76980000
-83.96810000 101.93710000 10.00680000
-84.32220000 112.94810000 10.19290000
-82.93150000 111.81320000 20.19130000
-82.85400000 98.97530000 18.42960000
-83.66980000 112.27880000 16.51490000
-35.13060000 106.14500000 78.06760000
-36.62730000 97.88770000 77.23530000
-40.32040000 106.60080000 75.62930000
-32.91610000 96.66530000 78.75920000
-41.37970000 24.60210000 87.21420000
-35.99790000 23.39420000 89.45000000
-39.88790000 28.73060000 87.96730000
78.45220000 -21.93310000 52.76610000
78.40510000 -22.95740000 52.48190000
77.46010000 -34.34070000 -47.45120000
78.96700000 -39.14860000 -44.24190000
75.15590000 -37.88480000 -48.51060000
75.68240000 -37.04950000 -49.35460000
-50.49800000 71.47660000 68.97360000
-44.54340000 83.58080000 72.91440000
-48.87760000 110.00980000 71.34480000
-75.94330000 70.15740000 -57.34540000
-78.20480000 73.57220000 -54.19700000
-80.27030000 74.34540000 -52.29580000
73.11740000 -23.36610000 57.92730000
74.70990000 -23.11730000 57.74620000
74.38580000 -21.82050000 56.24180000
73.20470000 -12.19960000 57.04910000
-36.07310000 32.12220000 92.52700000
-37.23070000 31.25340000 91.77360000
-39.44390000 38.73490000 90.25530000
16.68410000 -66.72730000 -89.04210000
-38.03140000 35.17640000 91.62370000
-36.52910000 35.90530000 90.23990000
-36.25570000 37.84610000 91.13730000
-32.75450000 36.57000000 91.05310000
-34.59850000 37.18960000 90.52180000
82.00570000 -1.80580000 -40.49980000
80.07840000 -0.82370000 -42.39830000
81.49620000 -0.29140000 -41.91880000
-24.96980000 21.35560000 -89.53690000
-26.08820000 21.31710000 -89.06190000
50.09210000 23.37890000 66.60490000
50.89150000 40.38000000 65.36410000
45.74940000 15.33820000 70.04510000
88.36330000 -76.98780000 -24.79560000
87.96300000 -74.10490000 -25.74040000
87.08470000 -78.24990000 -28.06540000
85.11560000 -77.86200000 -33.55710000
87.84390000 -76.99300000 -28.00060000
-1.74710000 -63.82690000 98.41490000
-7.06960000 -67.51100000 98.39800000
0.22270000 -63.66700000 98.81540000
2.09890000 -58.07180000 98.12110000
3.50950000 -58.82650000 98.62360000
4.30680000 -52.34660000 98.02860000
-59.80420000 -76.55890000 -74.21620000
-65.65350000 -76.37170000 -69.61660000
-60.96110000 -75.44710000 -74.54750000
-65.81500000 -74.56710000 -69.75110000
-68.20420000 -74.83390000 -66.84500000
-66.33980000 -74.10890000 -67.74010000
40.35100000 19.35170000 85.68010000
40.37520000 20.38030000 87.58280000
40.10350000 17.78510000 85.64030000
1.51110000 28.06080000 95.61010000
3.18710000 29.60100000 97.14760000
88.82410000 -25.08020000 27.49300000
87.39430000 -23.82410000 28.18360000
86.36180000 -16.19210000 31.21690000
-66.72330000 86.84460000 -64.99090000
-69.28290000 72.61200000 -61.86180000
-70.22470000 88.20440000 -61.45050000
-66.34830000 69.61040000 -64.70660000
-21.72790000 104.97570000 -77.50370000
-6.59160000 117.78020000 -80.19420000
0.55550000 118.33980000 -80.64020000
-5.44510000 120.41190000 -81.18320000
-97.03560000 -14.06360000 15.75810000
-96.54300000 -14.25620000 18.97470000
-96.20480000 -7.81860000 20.22750000
-97.02650000 -17.49110000 13.36790000
32.24280000 122.23700000 92.67000000
31.06670000 108.14280000 91.48030000
33.96190000 120.84000000 92.42080000
91.91250000 -41.71370000 6.71620000
90.65130000 -37.80270000 10.01050000
91.92920000 -37.77480000 10.82240000
92.13180000 -37.31970000 11.91490000
91.85580000 -38.51940000 12.31510000
-90.79860000 63.07780000 32.94030000
-90.04240000 79.01820000 36.19740000
-91.35680000 81.08140000 32.41720000
-92.52710000 56.41620000 24.25290000
-92.25360000 46.98130000 25.15520000
-91.97570000 66.50700000 29.01990000
-20.94830000 119.89450000 -78.16380000
-16.32990000 120.87560000 -79.61190000
-12.47870000 119.52820000 -79.91530000
-96.57760000 -23.50520000 18.46030000
-94.11340000 -33.10770000 26.52850000
-95.13050000 -28.81020000 25.13410000
-95.00420000 -32.84340000 22.49070000
28.27100000 85.80590000 89.92710000
52.34950000 -24.11890000 80.43210000
54.75230000 -22.66240000 78.61170000
54.49230000 -22.68020000 75.42430000
8.91020000 120.52840000 87.70330000
10.65930000 119.55660000 86.83180000
3.53210000 119.97390000 87.26150000
21.43190000 -73.31260000 94.55110000
26.73970000 -73.70660000 93.19240000
24.60920000 -72.71810000 92.44200000
21.20040000 -65.55650000 93.16910000
-95.76150000 -9.76580000 21.60300000
-94.99670000 -11.01060000 23.28920000
-94.81370000 -7.06430000 23.56640000
-95.17870000 -0.61720000 18.14140000
-94.55400000 -1.68660000 22.19420000
49.58770000 26.64560000 -72.60350000
53.96240000 35.82770000 -68.73660000
53.90640000 47.25790000 -69.26660000
77.98950000 118.25860000 -42.82260000
78.10080000 119.10560000 -39.73310000
81.65800000 120.45740000 -39.64870000
-94.95710000 -7.34490000 25.53190000
-93.99000000 -2.39150000 26.87370000
92.54280000 -49.21370000 -4.99100000
92.89800000 -50.93100000 -5.96770000
93.23380000 -49.83840000 0.01920000
93.06940000 -47.60670000 0.04470000
19.45640000 7.88190000 95.78570000
21.10040000 7.91760000 94.37260000
19.54170000 10.97980000 95.49260000
18.34800000 8.50360000 96.05470000
17.73560000 14.16860000 96.16390000
-19.92440000 120.69610000 -84.11610000
-18.42220000 122.12770000 -87.13270000
-31.42450000 121.57660000 -82.50350000
53.93100000 -31.48130000 -70.65840000
49.41740000 -40.46780000 -74.06870000
49.65690000 -34.66730000 -73.73030000
48.95820000 -34.10200000 -73.87730000
0.51260000 40.83610000 95.83110000
0.52840000 44.04630000 97.15530000
-1.09700000 45.42950000 95.74180000
0.92470000 39.43860000 95.96730000
1.17800000 36.73960000 97.74050000
8.26870000 39.68590000 84.23670000
8.88470000 55.07250000 84.03050000
13.98900000 54.96090000 83.13200000
9.40150000 80.53730000 84.18970000
4.14770000 61.43840000 84.56640000
5.08790000 78.11950000 84.57470000
87.14820000 -69.15790000 29.29760000
85.89910000 -61.23310000 33.31670000
57.50750000 86.76900000 -68.26340000
56.78780000 92.82120000 -69.79250000
59.99370000 96.64250000 -66.93430000
53.39090000 94.02880000 -72.81210000
-87.59130000 22.00920000 -32.98870000
-88.54330000 13.51630000 -30.37820000
-88.22920000 33.90220000 -31.93380000
-86.95840000 31.29180000 -34.89180000
52.70230000 -76.95450000 55.21720000
67.87520000 -76.25270000 32.16680000
76.61810000 -76.27970000 27.57350000
-78.51350000 122.15070000 43.31910000
-81.98540000 121.74900000 35.61790000
-78.83530000 122.86460000 45.96020000
-79.34990000 120.52210000 38.20780000
85.12070000 -35.44760000 34.04470000
-19.59830000 1.90160000 -88.93630000
-14.36780000 -3.63030000 -91.53580000
-15.41910000 -3.89500000 -90.02090000
29.81450000 73.43710000 89.12940000
-75.56640000 37.38930000 38.87590000
-77.22080000 39.20560000 35.42560000
-29.17440000 -73.34680000 -17.73200000
-17.27920000 -72.95880000 -0.10410000
-34.37930000 -73.58030000 -10.20120000
80.84240000 98.61250000 8.45650000
80.57980000 84.58800000 1.41740000
-9.62170000 -25.74260000 95.68280000
-9.78930000 -31.66440000 96.99340000
-9.12660000 -30.89940000 95.68800000
-12.53470000 -28.53840000 95.66690000
-83.22290000 -0.53810000 15.34490000
-83.93190000 0.63110000 7.82870000
-27.21330000 44.64190000 -87.12620000
-26.44050000 44.01500000 -89.57960000
-27.77900000 43.83820000 -87.28930000
-25.81030000 44.21680000 -87.86520000
-27.96040000 120.33110000 95.90700000
-30.65050000 122.08980000 94.83520000
-28.36250000 122.69800000 94.53250000
-95.27940000 48.11290000 5.68390000
-95.12880000 58.40050000 7.51280000
-95.37700000 55.54000000 3.44810000
-94.60370000 55.58400000 7.86120000
-95.08320000 51.63000000 7.13450000
-93.55390000 52.55520000 7.95810000
50.02200000 120.75890000 73.85030000
48.86410000 119.33180000 72.53260000
52.32550000 119.04140000 69.27100000
-81.31760000 46.73530000 -46.34930000
-84.31040000 47.18660000 -45.35330000
-83.02600000 49.46760000 -46.50130000
-83.20000000 51.34460000 -43.71270000
-60.80820000 121.19850000 79.27090000
-57.53530000 121.88630000 81.55590000
-53.61290000 120.91310000 84.17430000
-51.43990000 122.32440000 85.24030000
13.81060000 -73.69800000 -59.42760000
18.36970000 -73.00260000 -27.27520000
31.53670000 -73.56850000 -35.91330000
25.97190000 -73.18330000 -24.36260000
90.39090000 47.55590000 -18.67590000
90.53600000 49.40200000 -18.56750000
88.31290000 38.16920000 -27.55400000
90.48010000 45.95060000 -22.41360000
89.96690000 44.87020000 -21.05000000
-91.03860000 120.25350000 -21.19400000
-94.66590000 121.83850000 -13.15890000
-92.25620000 123.00360000 -17.26750000
-96.00620000 122.73110000 -9.22160000
-88.56730000 61.86930000 -38.33120000
-87.84590000 63.41590000 -37.70380000
-86.26180000 60.66340000 -40.42700000
-88.05280000 61.39540000 -39.05430000
-87.43480000 62.80320000 -40.34250000
72.33120000 39.26480000 59.25830000
74.41470000 41.75240000 58.67270000
72.70160000 39.49940000 61.19230000
-28.40260000 -20.81670000 -89.61490000
-30.25010000 -22.04210000 -88.19090000
-93.36330000 66.41320000 -17.37340000
-97.38970000 66.52000000 -6.05710000
-96.00160000 67.44950000 -10.86390000
42.25270000 -48.89070000 84.50460000
-77.60280000 13.63280000 -29.49420000
-79.06390000 10.44260000 -25.53900000
-77.66060000 5.50350000 -29.69630000
-77.46700000 -5.94200000 -29.93250000
-76.76790000 -0.73450000 -31.46350000
-94.88800000 114.31750000 -9.35100000
-95.52160000 105.27480000 -9.25320000
-94.50430000 99.04170000 -3.93120000
-94.20730000 105.20600000 -8.57670000
12.87660000 12.05810000 -88.82020000
7.14800000 11.28240000 -89.83010000
4.69330000 9.44680000 -89.97360000
-41.36110000 -72.07470000 90.52660000
-38.20170000 -69.69110000 91.20870000
-43.66250000 -75.90720000 88.91590000
-47.06320000 -76.25260000 87.90240000
55.61120000 86.91400000 61.94740000
53.57110000 65.48650000 63.25960000
53.20650000 79.07990000 63.85170000
-80.94950000 115.88040000 29.36980000
-83.39000000 117.23590000 21.40810000
-83.47710000 115.19930000 19.02410000
-84.60630000 116.50590000 13.73270000
57.95050000 113.28050000 73.99680000
53.28320000 109.89040000 77.22740000
55.18450000 115.23820000 76.65120000
-20.88420000 -72.18110000 96.91640000
-8.80090000 -70.04650000 98.95720000
-13.66560000 -70.50020000 97.96000000
-7.53320000 -70.15990000 98.89820000
-77.87700000 34.52170000 62.37410000
-76.95740000 32.66410000 63.58480000
-77.71740000 42.06190000 60.27850000
-53.31310000 -12.97470000 83.81940000
-56.54150000 -23.89340000 81.65810000
-57.65240000 -28.38920000 80.85770000
-25.67280000 -54.90250000 -91.42970000
-18.55630000 -59.24110000 -91.41300000
-20.00840000 -59.62400000 -92.08700000
-21.07420000 -55.39340000 -90.99100000
-95.41180000 91.13940000 6.40120000
-94.44990000 91.87980000 0.84340000
-94.24780000 80.48800000 5.59300000
-95.10140000 93.28590000 2.93550000
-38.22560000 -75.21090000 91.90470000
-30.68640000 -72.51540000 94.41040000
-32.11300000 -73.85960000 94.43480000
-19.65470000 -71.33770000 96.77910000
-95.85110000 -69.17250000 -5.07810000
-98.14320000 -69.29330000 -3.52320000
-97.46920000 -67.38740000 -3.77190000
-98.03240000 -74.75130000 -7.55490000
-98.30640000 -73.51710000 -2.66250000
49.91360000 25.84530000 -61.36640000
46.24980000 -0.40020000 -64.66180000
45.65400000 -5.94200000 -64.98370000
50.48350000 -5.94200000 -61.07420000
49.87140000 0.17840000 -61.71500000
43.72960000 45.35810000 86.16110000
45.70680000 45.23120000 86.27860000
44.45110000 46.67910000 86.27470000
47.48220000 47.60430000 85.32350000
-95.70980000 -72.10690000 -7.84740000
-97.42720000 -73.50110000 -9.75930000
-97.98510000 -72.54690000 -6.26230000
-94.98810000 -69.09180000 -6.60920000
-96.64990000 -68.11070000 -6.33650000
-97.06950000 -69.38300000 -9.49150000
21.41860000 55.98430000 93.01480000
25.43290000 56.18480000 91.38410000
27.99320000 40.38930000 90.40110000
30.45620000 36.87250000 89.84390000
28.48910000 45.70250000 90.72190000
53.61690000 2.76680000 63.91190000
50.79810000 -5.94200000 66.31380000
50.01340000 0.86910000 66.96510000
45.92850000 -5.94200000 70.13840000
45.02280000 0.43090000 70.79290000
-69.68960000 -33.98790000 71.26940000
-68.65150000 -30.54170000 71.74180000
-69.94760000 -47.98530000 70.74510000
-68.38090000 -45.59010000 72.15920000
-69.82120000 -45.19240000 71.36550000
33.42590000 -77.96270000 -85.02670000
19.54650000 -77.90130000 -90.03920000
25.76100000 -77.63450000 -88.85010000
15.01290000 -75.99340000 -92.46260000
18.54800000 -77.24840000 -91.04060000
11.71480000 -77.38650000 -92.30120000
-81.18450000 23.82890000 52.00330000
-78.93820000 23.50450000 55.67280000
-76.61350000 15.48830000 58.89900000
-76.50420000 26.92560000 59.33240000
34.07000000 30.55300000 88.63680000
35.13040000 30.38100000 88.90520000
35.25960000 31.19780000 87.37770000
32.49980000 33.76880000 87.70590000
30.71790000 38.52610000 88.13290000
31.12800000 36.76940000 88.96490000
9.11150000 18.69210000 -90.56480000
8.24810000 18.18490000 -92.33370000
7.26200000 18.92500000 -90.79380000
8.97630000 20.36060000 -89.70900000
11.59520000 22.13040000 -89.24350000
-97.00200000 -72.79970000 -14.53760000
-97.08810000 -72.25720000 -11.19190000
-95.78400000 -72.11470000 -9.19790000
-49.30710000 50.02710000 -64.34850000
-54.07190000 106.58480000 -61.96730000
-49.68730000 105.69550000 -65.04800000
-50.12690000 109.06420000 -65.20340000
73.98550000 52.86700000 33.32910000
73.78890000 62.29590000 34.28080000
72.15160000 37.01760000 37.69010000
24.20890000 28.16880000 -87.88030000
-51.37290000 41.65210000 84.68180000
-48.12650000 42.89550000 86.50780000
-47.90030000 43.49770000 84.61900000
-52.22320000 39.64050000 84.45450000
83.37740000 115.64100000 15.76920000
83.28210000 117.22120000 21.79160000
83.47410000 112.11580000 5.12790000
83.05220000 112.99960000 9.49990000
84.95200000 115.42510000 3.68410000
20.46430000 28.69260000 -86.87450000
21.15840000 28.17690000 -87.00610000
91.80380000 -45.10220000 1.87840000
90.62420000 -42.37250000 2.24280000
92.38130000 -42.94350000 2.53430000
82.23060000 -18.61520000 -36.70520000
82.27770000 -8.01730000 -39.48230000
82.11470000 -3.87220000 -39.33670000
83.01440000 -2.83510000 -38.44240000
29.22230000 46.29770000 88.72980000
28.35980000 49.49190000 90.50210000
29.46210000 42.59860000 89.85750000
28.40640000 53.13290000 89.24220000
29.16490000 59.37150000 89.00120000
-18.40710000 -33.25330000 94.29950000
-21.71360000 -24.75290000 94.77260000
-20.06360000 -24.04810000 94.15220000
-20.19790000 -23.59250000 95.53790000
-92.96630000 -50.23050000 -18.99070000
-93.16730000 -57.08860000 -18.18930000
-93.66370000 -48.80040000 -15.62160000
-94.16840000 -56.29510000 -20.00320000
-80.16810000 82.90040000 -49.12960000
-81.62850000 105.14130000 -48.28710000
-83.33980000 95.57290000 -44.38670000
-2.10020000 37.54170000 84.86750000
3.03780000 56.00380000 84.58530000
-91.68330000 -45.00890000 -22.84590000
-93.35310000 -45.03840000 -16.37650000
-92.82560000 -38.45910000 -17.84120000
-93.65200000 -38.77500000 -17.01540000
-94.39100000 -38.32060000 -16.81130000
-90.53930000 -73.72240000 41.94210000
-38.12600000 51.42780000 -84.04930000
-88.87770000 -76.96200000 -2.37100000
-91.28710000 -77.30890000 -1.96910000
59.42150000 -54.88290000 70.56410000
60.60490000 -51.09290000 70.98330000
60.36850000 -46.05920000 71.08640000
58.72110000 -58.84180000 70.89030000
26.39490000 81.47610000 91.72450000
28.04540000 82.58390000 91.83910000
26.57440000 85.77950000 92.20940000
28.56300000 74.85480000 91.14220000
82.13390000 115.74900000 22.58250000
82.65720000 118.59850000 28.46800000
81.22740000 117.74220000 28.90200000
81.35650000 119.07400000 33.02280000
-18.07300000 -26.33280000 94.46170000
-18.83970000 -29.20950000 95.88280000
-19.59580000 -30.55360000 94.11700000
-18.74530000 -27.20720000 94.13960000
-21.09770000 -27.99860000 93.80600000
-24.54670000 7.86400000 81.92200000
88.66940000 -67.47860000 -22.63760000
88.32540000 -61.30790000 -25.29030000
88.45590000 -62.43080000 -23.30340000
90.27750000 -68.55000000 -19.02240000
89.31290000 -72.87490000 -21.71410000
89.73440000 -68.33860000 -21.86900000
30.64470000 -55.89120000 90.18380000
27.77640000 -52.14170000 91.17530000
30.22350000 -53.52140000 90.91550000
29.89390000 -51.28640000 92.54650000
51.36310000 -1.92800000 -72.30200000
-35.56660000 54.77050000 -87.81740000
-38.02760000 54.26040000 -86.67490000
-31.39360000 52.42240000 -86.26950000
-32.58000000 52.93100000 -87.72390000
-31.88000000 53.81200000 -87.15020000
32.78700000 -54.88590000 91.15520000
32.38770000 -50.75330000 92.08700000
30.80150000 -50.81300000 92.83790000
26.92860000 -45.42400000 93.05430000
29.88100000 -46.62490000 92.07580000
29.41780000 -45.48110000 90.38800000
-58.78690000 121.83860000 -75.58680000
-65.74540000 121.87300000 -69.84060000
-63.70300000 122.62110000 -71.14610000
-68.72740000 122.59070000 -66.59350000
-69.51110000 122.08950000 -66.25300000
-74.57020000 122.46630000 -60.62760000
92.97250000 -54.85520000 10.29860000
93.00990000 -52.70150000 9.21690000
93.33790000 -55.47800000 2.24010000
92.31040000 -52.87160000 1.15190000
93.05900000 -52.90920000 6.19180000
-33.73160000 56.88290000 -85.39720000
-34.56800000 58.71880000 -86.57430000
-33.05170000 60.40300000 -85.54630000
-31.81700000 54.60210000 -86.41500000
-34.68630000 55.27940000 -87.52590000
-35.22170000 56.28800000 -86.21520000
-96.59250000 -46.89460000 -5.51030000
-42.99410000 24.52250000 88.98190000
-43.00690000 25.76240000 86.83670000
-44.15900000 25.44190000 87.70470000
-42.67860000 26.43730000 86.59580000
89.21500000 36.86770000 22.96930000
90.16590000 35.92750000 17.91180000
90.76660000 11.40010000 21.79940000
90.91550000 13.69410000 18.90170000
90.61920000 13.42530000 20.62780000
-0.83930000 51.57640000 -92.64150000
-1.94130000 50.08220000 -90.70810000
-0.23790000 53.25900000 -90.89310000
-2.94070000 49.72420000 -90.40910000
-4.58900000 60.68680000 -90.44300000
-10.03860000 6.40110000 -79.92320000
-5.61660000 5.19470000 -80.39570000
-6.92720000 16.32840000 -80.04270000
-44.88820000 15.84500000 88.35220000
-43.29610000 16.37430000 86.63740000
-43.95860000 18.20780000 87.98920000
-46.49350000 18.49010000 87.27660000
-48.26690000 20.31430000 86.55050000
91.84900000 -54.84130000 9.02030000
93.35410000 -63.62470000 5.96190000
93.30230000 -68.46900000 4.21150000
93.37980000 -63.51600000 4.01920000
-90.27380000 -35.25280000 35.85250000
-91.72160000 -36.13850000 36.36040000
-89.12700000 -34.91740000 37.94860000
-90.67860000 -30.21570000 37.77210000
-89.37180000 -31.07930000 37.83080000
-90.58390000 -26.30330000 38.34970000
-23.17990000 96.86480000 94.65180000
-21.22000000 82.39760000 94.73790000
-19.08850000 95.65580000 95.49320000
-22.83610000 102.66300000 94.99800000
-28.28920000 106.77570000 93.72410000
-61.71190000 23.15080000 77.22090000
-61.18410000 29.36110000 78.42920000
-64.91380000 21.06790000 74.02240000
-64.00090000 19.66680000 75.25930000
-63.55500000 23.35300000 75.98770000
91.17310000 -61.67540000 8.91800000
92.11200000 -62.83840000 7.51370000
91.38160000 -62.43970000 5.73630000
93.16440000 -56.13090000 2.87720000
93.20810000 -54.16920000 6.18430000
92.18590000 -55.28980000 7.56180000
-75.00440000 37.77400000 -57.07570000
-77.26550000 38.40090000 -55.12360000
-75.17660000 39.64640000 -57.25300000
92.16460000 -56.94810000 4.35800000
-21.66870000 -74.11920000 -73.55290000
-18.28040000 -74.08880000 -80.21660000
-10.09830000 -74.12540000 -77.11010000
-29.28570000 -74.56660000 -77.81900000
-60.61710000 19.03130000 78.94290000
-56.16570000 18.57740000 81.62820000
-60.02510000 21.49960000 78.91070000
59.86560000 60.85420000 72.78200000
55.87300000 71.57450000 76.50840000
-84.76470000 122.93230000 51.35570000
-83.82420000 122.47270000 54.46780000
-78.92710000 122.86090000 60.39250000
-81.83160000 121.59170000 57.83810000
-80.36660000 119.71260000 60.13000000
-80.01190000 122.31670000 59.90560000
-14.76960000 106.79030000 96.65420000
-10.62530000 100.00030000 96.87150000
-9.26990000 108.50250000 97.39000000
-4.47860000 115.36870000 97.99790000
-6.20140000 99.57160000 97.24460000
92.71690000 -61.22370000 12.10090000
92.97180000 -62.02790000 9.83970000
92.61250000 -61.90580000 9.31010000
92.76860000 -58.12770000 10.94130000
56.80800000 84.30680000 76.43720000
61.35270000 100.27320000 73.51630000
57.08750000 94.79640000 76.43390000
50.27520000 90.37760000 80.39300000
-59.13120000 16.76300000 80.12690000
-64.39250000 13.24490000 75.68910000
95.69090000 121.03610000 6.52110000
94.80450000 121.22330000 14.85680000
95.84570000 120.39250000 0.72990000
51.93710000 -13.25560000 77.02230000
50.59460000 -1.50910000 77.48690000
-41.68370000 21.11530000 87.81410000
-40.77250000 21.19470000 87.58910000
57.63970000 41.23510000 76.27680000
54.52700000 40.67440000 78.52400000
54.06890000 -56.15330000 74.91940000
92.67330000 85.07870000 0.64030000
92.24160000 72.49030000 1.39280000
92.41990000 85.20580000 -4.30020000
91.99790000 67.48780000 6.72670000
91.80430000 60.83510000 1.97620000
92.73710000 84.30630000 4.90060000
-82.55980000 114.70970000 22.90330000
-80.52900000 72.55750000 27.43130000
-80.92320000 60.80490000 25.70860000
-52.43840000 17.44800000 84.27220000
-52.92650000 14.53260000 84.01900000
-50.17880000 17.09330000 85.51590000
-56.93300000 16.01650000 81.37840000
74.89140000 121.24430000 62.33090000
70.60940000 120.20660000 67.24810000
61.22400000 115.36120000 72.96220000
56.63500000 -60.18380000 72.75530000
57.13380000 -55.30740000 72.77150000
78.87850000 43.02570000 54.09930000
80.10610000 44.07940000 52.28280000
73.72410000 43.12220000 60.61110000
-48.28080000 16.15130000 86.81010000
-44.25450000 14.75640000 87.33780000
-95.02460000 -23.21860000 7.66670000
-96.99310000 -23.28490000 9.46250000
-97.31610000 -20.80530000 8.00030000
-95.06840000 -29.18050000 14.85100000
-96.70540000 -29.29100000 16.36260000
-96.94780000 -28.54610000 14.55040000
64.05290000 -62.65620000 68.27810000
66.04940000 -59.64970000 68.55270000
64.53140000 -64.00340000 68.21580000
-13.31790000 115.56820000 84.56220000
-11.57200000 101.49050000 84.51120000
-15.75980000 102.84550000 83.84190000
-10.96900000 71.12300000 84.37430000
-15.53960000 84.35690000 83.70680000
-94.58510000 -30.15430000 13.42550000
-94.48420000 -29.86780000 14.69670000
-96.57850000 -28.73070000 13.12070000
-95.12550000 -29.29080000 13.13350000
-86.63430000 -17.03850000 -40.27850000
-84.47830000 -16.56200000 -45.26010000
-88.41080000 -14.98190000 -36.27740000
67.74220000 -55.73460000 65.06920000
69.52080000 -55.17030000 64.69930000
70.48090000 -53.75710000 63.41540000
64.81680000 -59.55950000 67.83210000
-72.00110000 106.09010000 47.47220000
-75.52000000 114.59500000 41.90080000
-72.86000000 115.92500000 46.67220000
-67.78930000 102.64460000 53.09430000
-70.72370000 113.98080000 49.69410000
-68.76080000 117.21860000 52.51370000
56.68560000 93.33060000 -54.96280000
64.13030000 112.83010000 -47.63940000
65.46580000 106.25390000 -45.32000000
67.76170000 113.38480000 -42.66170000
-14.20320000 66.26840000 -89.81620000
-19.12680000 86.81120000 -89.58030000
-48.96750000 -18.92330000 -78.13170000
-47.40370000 -21.77180000 -79.19590000
-44.72050000 -24.10870000 -80.75950000
-50.75990000 -23.46600000 -77.11390000
82.08310000 4.38830000 -41.61240000
81.30110000 3.48000000 -42.58730000
80.21750000 4.41480000 -42.04520000
79.40500000 2.98510000 -42.45460000
-89.06820000 122.13170000 -38.24470000
-91.12900000 120.80460000 -32.49630000
-88.31610000 122.19710000 -36.36700000
-86.29020000 122.85170000 -41.66130000
-47.11620000 2.00830000 -80.59990000
-45.19530000 5.01640000 -81.70950000
-43.49770000 14.10370000 -82.91630000
73.34790000 -49.95710000 57.68200000
69.38080000 -53.12040000 62.71490000
73.71250000 -75.93610000 13.40300000
70.55850000 -76.05580000 22.94820000
-67.65480000 1.15050000 -63.34620000
-63.42930000 3.27120000 -67.43630000
-65.67910000 2.19470000 -65.40080000
-4.54020000 -63.92610000 96.48030000
-1.93890000 -61.28810000 96.29430000
-5.01110000 -55.85390000 96.31510000
0.18910000 -46.11190000 96.11430000
14.31960000 -27.32600000 95.95640000
15.65910000 -33.97340000 94.66770000
15.50740000 -24.67790000 94.60220000
15.86170000 -22.90730000 94.62630000
-83.35850000 -51.62570000 -44.07280000
-17.32560000 -59.32790000 -90.26900000
-13.43530000 -63.50820000 -91.30630000
57.18960000 29.79980000 -67.94520000
58.67940000 43.21930000 -67.02390000
57.61480000 38.61960000 -67.45810000
4.45440000 -74.81690000 99.03160000
1.38700000 -73.42410000 98.69720000
3.72760000 -71.40020000 97.44070000
44.01310000 6.28380000 82.42770000
41.92840000 6.60150000 83.43740000
42.70550000 8.46800000 82.95070000
-72.68540000 76.50980000 -58.24940000
-71.73270000 81.06750000 -59.57450000
-72.69500000 65.52370000 -57.71140000
-72.47010000 72.56920000 -58.26100000
-87.00110000 -45.36560000 -35.88620000
-88.71340000 -49.50910000 -36.86170000
-89.22990000 -46.12040000 -34.86470000
-96.95900000 -39.20360000 -11.11200000
81.12660000 -13.04290000 -41.76920000
78.99540000 -16.21090000 -43.97450000
-43.42830000 -77.55220000 64.97630000
-31.43510000 -77.48620000 68.12410000
-25.12870000 -77.99410000 78.73240000
-94.26900000 25.63260000 11.93020000
-93.96220000 38.65590000 16.97890000
80.01000000 94.49630000 -9.12990000
76.83260000 -62.09080000 -49.88760000
76.32350000 -64.17420000 -51.62890000
74.85670000 -53.63560000 -53.49460000
43.91820000 3.56940000 83.16220000
44.35340000 5.34340000 83.30360000
55.71260000 -31.58630000 73.82020000
56.82560000 -24.02000000 72.38080000
-45.05170000 23.65460000 -82.27670000
-45.80840000 23.97660000 -80.04020000
-85.38100000 -11.33380000 45.67360000
-84.53630000 -14.62510000 47.17220000
-85.61910000 -8.77580000 45.35890000
-74.73760000 116.92570000 65.23850000
-74.67200000 114.43810000 64.67050000
-74.41710000 84.55620000 63.21580000
49.30000000 33.55250000 83.73070000
49.34180000 34.32660000 83.17060000
55.18530000 20.47300000 76.41410000
56.15390000 20.79660000 77.54790000
55.11910000 21.82440000 77.53890000
83.52730000 40.02210000 44.96410000
82.34650000 39.12650000 43.95260000
83.56260000 40.44050000 43.12090000
81.28960000 29.36340000 44.72200000
82.64130000 34.66730000 42.31110000
-13.05550000 -15.03600000 -90.18700000
-14.03040000 -14.66210000 -92.03080000
-13.59710000 -13.84630000 -90.46480000
-10.38930000 -8.10030000 -90.25080000
-12.66170000 -13.64960000 -90.04840000
-80.55730000 -9.25840000 56.67070000
-84.46390000 -8.46210000 51.90830000
91.69170000 -41.61330000 -6.08960000
89.38320000 -43.80320000 -12.51970000
26.88580000 17.51980000 92.63270000
28.47850000 15.05430000 93.09710000
28.12570000 14.18220000 91.06230000
-44.97260000 96.12550000 -81.26920000
-50.47570000 95.18030000 -78.10440000
-47.80510000 111.12090000 -80.67660000
-47.21770000 73.91520000 -79.18810000
-46.27820000 78.84010000 -79.82570000
84.10620000 41.63340000 43.84600000
82.84740000 43.54330000 47.21550000
89.66060000 -43.05060000 -11.61990000
89.82800000 -41.63860000 -10.69650000
91.77280000 -41.64550000 -10.01150000
92.98730000 -44.95230000 -4.62280000
92.42280000 -44.74330000 -6.00080000
92.60500000 -42.80010000 -6.41080000
28.71240000 0.02590000 -74.62040000
28.41820000 -5.94200000 -74.66440000
33.16250000 -5.94200000 -72.48750000
32.82960000 0.38800000 -72.73130000
33.98330000 15.48100000 -72.22310000
32.25730000 30.64640000 -72.49510000
91.69180000 -43.42130000 -11.04540000
89.63130000 -49.34380000 -11.03150000
-78.70420000 48.68600000 -49.97600000
-81.05420000 50.01820000 -46.64660000
-74.11050000 -21.76810000 65.80560000
-16.57270000 38.98120000 94.59820000
-11.76590000 34.55540000 95.18600000
-13.39280000 39.59680000 94.96470000
90.28860000 -48.56950000 -9.94190000
91.71400000 -44.94240000 -11.01130000
92.57640000 -45.53200000 -9.06760000
92.17550000 -44.06440000 -8.09280000
92.68460000 -45.28580000 -7.37690000
-84.96400000 50.08650000 -44.91110000
-85.49320000 47.66680000 -44.20400000
-84.96830000 49.62570000 -43.27620000
-84.00520000 51.24090000 -45.57000000
71.14910000 44.09220000 64.07110000
70.17750000 45.55830000 66.01400000
32.68140000 -36.87500000 -82.73890000
29.00500000 -44.32040000 -84.48570000
25.26650000 -40.14630000 -85.64660000
29.78520000 -38.74320000 -84.09940000
49.39940000 62.22330000 -72.36780000
51.09980000 56.58980000 -71.46450000
47.81850000 69.08580000 -73.81330000
-60.41570000 -67.90560000 76.76030000
-60.48380000 -71.66450000 77.97130000
-59.90060000 -62.26100000 78.92190000
-66.21100000 -73.09540000 72.75160000
-62.24270000 -72.45610000 75.49490000
-65.84960000 -72.48070000 72.10530000
91.69420000 -13.54810000 -15.38600000
91.56520000 -19.56780000 -13.65850000
91.68570000 -16.57830000 -14.35860000
-74.55360000 120.74820000 -48.69730000
-78.38260000 120.86780000 -43.28580000
19.37620000 22.49240000 95.03110000
20.92990000 26.16350000 93.40180000
22.32350000 26.77450000 94.37350000
15.98440000 -0.53750000 83.46420000
14.53240000 -5.94200000 83.73320000
12.28030000 3.02620000 84.24680000
92.09770000 -46.27460000 -9.83220000
91.52760000 -48.87870000 -8.24350000
91.31060000 -50.97900000 -8.48970000
89.67840000 -53.39190000 -10.79050000
89.96000000 -50.31500000 -8.96910000
89.67620000 -24.98670000 -10.79330000
91.28180000 -26.70460000 -11.19460000
90.89820000 -24.39510000 -12.22500000
90.95130000 -34.24100000 -13.58560000
91.52570000 -32.12300000 -11.68770000
62.23600000 -64.84340000 -64.61710000
66.38900000 -58.26570000 -62.99320000
-64.03400000 -63.46290000 -68.14310000
34.41270000 8.76020000 90.07070000
36.68920000 6.87330000 90.17240000
37.33420000 9.62610000 89.07090000
31.73340000 6.16970000 92.22520000
-62.12870000 -75.13100000 77.63620000
-59.71740000 -76.90250000 78.23060000
-60.33410000 -75.44880000 78.48280000
-66.38230000 -77.68680000 70.75160000
-64.85460000 -77.21020000 74.44710000
9.23790000 -73.61280000 -93.39800000
0.13110000 -70.75600000 -93.46390000
12.19490000 -72.29460000 -92.33930000
-2.90070000 -69.47900000 -92.99830000
73.63500000 75.76080000 -29.60530000
72.86630000 32.16590000 -30.37900000
90.21410000 -28.26700000 -4.82700000
89.82680000 -28.62540000 -9.11830000
-59.08410000 -76.30350000 80.45870000
-57.01270000 -77.50180000 77.75750000
34.25690000 19.87350000 90.00850000
35.47710000 22.09340000 90.33420000
31.95380000 22.37000000 89.91650000
33.70670000 16.67820000 91.03710000
35.57180000 19.16930000 90.29630000
32.09640000 18.85230000 90.24580000
36.58560000 -74.22830000 -71.71520000
51.16030000 -74.53760000 -62.00450000
56.80210000 -74.90540000 -57.37050000
-82.93990000 120.96930000 -23.71480000
-80.65070000 116.83460000 -23.61210000
-79.87890000 118.63200000 -27.30430000
-81.63480000 119.51510000 -24.33370000
53.47170000 23.15360000 63.63260000
52.35580000 8.17900000 64.98250000
51.06270000 17.79850000 65.92360000
62.32420000 24.74110000 53.53910000
58.66570000 16.63520000 58.38110000
57.52650000 27.74600000 59.29930000
-54.09040000 118.09480000 70.98110000
-52.19460000 116.30330000 71.17240000
-53.36720000 118.67430000 70.12160000
-45.25720000 117.30040000 76.44460000
83.69420000 120.74220000 -40.19970000
89.34560000 122.05800000 -27.76330000
86.33630000 121.60020000 -35.53620000
86.03230000 121.95120000 -34.32000000
61.02370000 -74.81710000 -52.20180000
46.32740000 -74.51670000 -60.81130000
70.21340000 -75.21090000 -34.20520000
73.49620000 -75.47770000 -15.85240000
82.05810000 114.35810000 -45.67370000
81.50620000 113.06600000 -44.33250000
-82.01710000 76.39510000 -15.01550000
-84.45220000 113.67400000 -1.67930000
-83.73840000 108.59980000 -7.80730000
-84.15660000 114.17280000 -5.47330000
-95.36460000 -61.99400000 9.80040000
-94.77220000 -59.67880000 14.82330000
-96.94640000 -70.30820000 9.99130000
-95.78490000 -69.14050000 9.86020000
-10.66720000 36.83620000 84.40550000
-10.70080000 29.83630000 84.61200000
-3.22900000 -2.25930000 85.47950000
-3.48070000 -5.94200000 85.47120000
-6.44390000 -5.94200000 85.40000000
-8.52300000 3.43360000 85.31120000
61.38920000 119.73380000 -55.68740000
-82.73980000 102.84110000 -13.47370000
-81.98590000 101.16290000 -16.43870000
-82.40230000 106.16450000 -15.31930000
-81.51830000 104.72520000 -18.00950000
-94.75430000 -20.66360000 5.52650000
91.92810000 -41.04870000 14.85690000
91.68400000 -40.21820000 13.63440000
91.46840000 -37.70270000 17.35400000
90.00080000 -30.33950000 24.74340000
82.73660000 54.31520000 43.26120000
84.44020000 53.96330000 43.24790000
84.03640000 54.62150000 39.64940000
83.60610000 51.32430000 44.24570000
82.88080000 51.00610000 42.53920000
85.42470000 52.20720000 40.53800000
-95.68290000 -33.80130000 19.45510000
-93.21970000 -35.02110000 29.49690000
-94.08370000 -34.72880000 26.18640000
-94.43290000 -36.08310000 27.83720000
65.07420000 3.70460000 66.72140000
65.09390000 14.58680000 67.01670000
85.65220000 52.72160000 39.94010000
90.63870000 -24.20800000 21.87090000
88.54880000 -24.46120000 23.52550000
88.41210000 -18.62620000 24.65810000
-79.16540000 -5.94200000 31.36420000
-79.94700000 -5.94200000 28.83100000
-79.84290000 -1.07930000 28.76370000
-79.36110000 2.18220000 30.26260000
32.30100000 44.00270000 88.07590000
35.72120000 42.08060000 86.66900000
33.22970000 50.13480000 87.90290000
-1.80980000 -11.14300000 98.14010000
-8.25310000 -12.07180000 97.94180000
-3.31520000 -12.16150000 98.26200000
-8.24800000 -10.86700000 97.26250000
-91.35180000 0.53020000 34.66970000
-89.51010000 0.54180000 35.44320000
-90.75260000 1.33580000 30.51170000
-13.91880000 -36.94260000 97.64260000
-12.48600000 -38.84130000 97.68370000
-12.63550000 -36.88090000 97.42610000
-5.43920000 -35.66860000 98.34840000
-6.62790000 -31.71310000 97.67250000
-8.31830000 -33.36590000 97.89370000
-76.53920000 40.11690000 -55.33580000
-75.09520000 41.25630000 -56.76750000
1.43530000 45.99760000 -92.42500000
-1.20030000 36.12340000 -93.32270000
-1.78910000 43.38480000 -93.34600000
1.11880000 52.61820000 -92.49010000
0.08640000 52.85330000 -92.25520000
1.01880000 55.11420000 -90.44900000
20.14850000 -2.61950000 82.47450000
86.61260000 -28.18560000 -25.10210000
87.72580000 -29.15770000 -26.46120000
87.76060000 -24.71760000 -25.87820000
87.53280000 -23.95310000 -22.86640000
88.70890000 -23.35630000 -23.25440000
14.92250000 33.37270000 -91.19270000
12.12690000 33.05020000 -91.15110000
-84.35210000 -76.57310000 13.16160000
-85.63190000 -76.12030000 -6.47540000
-71.32880000 24.91560000 -40.53420000
-18.25470000 -31.06930000 94.78080000
-16.17550000 -31.37540000 96.13060000
-18.77840000 -30.47470000 95.65690000
-19.05530000 -30.15560000 94.57800000
88.32730000 -20.90460000 -26.32340000
87.69620000 -22.99760000 -27.49060000
87.98190000 -19.42010000 -27.38650000
88.70450000 -18.91330000 -25.73890000
87.56780000 -17.54420000 -25.24930000
12.83900000 37.34950000 -91.18590000
12.44330000 38.78400000 -92.25050000
13.43580000 41.16880000 -90.88440000
8.24300000 27.75700000 -91.69890000
11.61970000 33.91050000 -91.26080000
-44.27880000 4.51930000 88.10310000
-43.85260000 9.39270000 88.30610000
-47.85730000 4.43130000 86.95910000
-47.45680000 0.44590000 86.04670000
-44.26320000 1.22890000 87.34030000
-94.92610000 -23.04030000 27.06010000
-95.96750000 -26.41090000 21.42480000
-9.34010000 -41.57670000 95.89360000
-7.81160000 -38.95350000 95.95190000
-9.15520000 -39.77970000 97.90610000
-3.38970000 -38.55600000 97.47550000
0.80170000 25.26150000 -92.15840000
-4.60360000 14.51760000 -91.86200000
-2.35630000 21.90180000 -92.21070000
-4.99920000 18.40760000 -91.93800000
-6.93230000 20.35410000 -92.87270000
0.99950000 76.83090000 96.48500000
-8.22170000 -38.67590000 97.31280000
-6.01370000 -37.70560000 97.19270000
-8.12810000 -34.60490000 97.95470000
39.10330000 -62.39880000 -79.00040000
39.53180000 -55.79450000 -79.39910000
42.58680000 -55.88280000 -76.87630000
35.73370000 -61.46960000 -80.78050000
37.28480000 -61.16090000 -80.33470000
-0.83910000 25.82030000 -92.46110000
1.76710000 34.83720000 -92.36880000
-14.53730000 -39.15200000 96.87820000
-13.33340000 -39.64790000 97.59690000
-9.97550000 -41.41030000 97.26300000
-48.62700000 1.68500000 86.20840000
-52.32090000 6.52730000 84.01080000
-51.63740000 8.66230000 84.84820000
-53.89740000 9.69560000 82.89840000
-38.80190000 33.09360000 91.49700000
-37.01570000 34.22930000 91.95110000
91.63940000 -59.09200000 4.21530000
93.06140000 -60.55310000 3.09200000
93.15280000 -62.47040000 3.95390000
-8.26200000 -51.03250000 95.98330000
-13.82840000 -45.50670000 95.33360000
-13.65000000 -45.12240000 96.65690000
-15.24720000 -45.05730000 95.05630000
-61.65840000 -2.82940000 -69.16520000
-63.44140000 -2.54170000 -69.39580000
-65.28560000 -1.99790000 -68.85700000
59.04650000 -62.12000000 75.70200000
57.75320000 -61.74360000 74.31530000
60.07090000 -66.30670000 75.02830000
59.61090000 -62.70610000 75.66210000
13.69200000 16.64660000 -78.95540000
-91.08270000 71.81990000 -32.62310000
-90.93840000 58.55840000 -33.26120000
-91.76970000 59.94870000 -30.31160000
-92.41600000 66.23410000 -29.94460000
-26.46880000 35.03320000 92.63130000
-27.43030000 41.49080000 92.50710000
-33.90920000 40.45010000 90.52910000
-32.21100000 39.94380000 91.10970000
-31.01650000 42.65410000 91.52680000
-14.59620000 -37.26590000 95.22120000
-14.32510000 -36.58260000 97.34050000
-17.08970000 -42.34950000 94.69710000
-15.55600000 -37.68400000 94.85160000
-28.86250000 17.43470000 -89.23600000
-30.42560000 17.84730000 -88.92650000
-27.05350000 21.69240000 -89.04420000
-29.49180000 16.05000000 -88.64980000
-31.28230000 15.98630000 -88.59090000
33.40060000 21.90260000 -84.26040000
35.91920000 21.50410000 -84.18260000
29.27890000 26.80360000 -86.43400000
25.80850000 25.62860000 -86.75330000
22.96830000 27.51820000 -88.29710000
79.22450000 -24.47150000 -42.84310000
76.06520000 -18.89850000 -47.32420000
79.97360000 -22.50880000 -44.67530000
59.32820000 -65.55170000 72.90320000
63.23820000 -65.39430000 69.08450000
58.97990000 -64.80650000 73.94070000
-16.21560000 -40.54570000 94.95760000
-14.99910000 -43.28110000 96.95230000
-95.73490000 106.80020000 -10.83470000
-94.95750000 113.24530000 -18.23850000
-94.38660000 116.54480000 -24.32320000
91.74200000 -64.64920000 -3.24330000
91.65660000 -58.17680000 -2.46410000
91.57430000 -69.64370000 -7.31160000
91.37880000 -68.58700000 -5.63630000
49.49970000 121.52910000 76.62960000
41.50720000 120.84330000 79.87480000
41.01690000 121.76760000 83.52970000
39.27410000 121.24810000 82.27750000
31.94060000 121.78180000 86.85520000
-53.36370000 -5.94200000 -61.95030000
-46.34940000 -5.94200000 -67.19420000
-48.21200000 -2.98780000 -65.86690000
-53.28670000 -2.94570000 -61.98240000
-82.79680000 121.42490000 44.33570000
-86.49280000 120.40580000 40.64470000
-87.70660000 121.70200000 43.63820000
-84.75250000 121.12900000 43.10150000
92.64830000 -60.00030000 15.45790000
91.38420000 -60.05530000 22.00960000
92.10470000 -56.76000000 17.70830000
-87.79940000 -0.00420000 -32.90980000
-89.50410000 -0.84110000 -34.17900000
-88.74970000 1.45410000 -30.00010000
68.61380000 15.70450000 66.30470000
68.38720000 17.87200000 66.65220000
70.93970000 13.00440000 63.53190000
62.88210000 120.17100000 67.75040000
62.77870000 121.81960000 68.06100000
60.73790000 121.14100000 71.10390000
-96.03550000 -58.76100000 -2.08570000
-96.03350000 -62.77290000 -1.72630000
-97.18140000 -63.47200000 -1.59920000
-67.65410000 -30.60340000 71.97680000
-65.84590000 -33.57190000 71.90060000
-66.59800000 -27.02300000 71.16200000
-62.39320000 -31.53260000 74.76030000
42.39390000 121.60550000 -76.23480000
48.24610000 121.01330000 -71.13340000
63.60710000 25.99970000 72.70230000
66.47580000 24.26420000 68.12820000
65.87460000 24.26700000 67.12100000
64.86480000 26.50070000 68.06250000
4.81960000 -77.57930000 88.82260000
-2.65360000 -77.87300000 90.84540000
-8.88760000 -77.47780000 88.44270000
0.62950000 -77.92970000 86.39750000
9.34710000 -77.62450000 86.49450000
-0.50370000 -77.65160000 87.45760000
-69.22660000 8.78250000 71.07870000
-66.72400000 10.63580000 72.82330000
-68.69860000 11.82260000 71.71640000
-72.44160000 2.25030000 67.98280000
-71.58910000 -2.41440000 67.80110000
-70.61180000 1.72830000 68.81240000
-3.81790000 35.58560000 97.05140000
58.44150000 116.29250000 61.30020000
55.09840000 114.50340000 64.00390000
54.79750000 117.11810000 65.42240000
58.01820000 91.43060000 59.85900000
57.03840000 103.32620000 61.18710000
60.76770000 101.43130000 57.18190000
67.30150000 17.67190000 67.44450000
65.44720000 21.71550000 70.62240000
66.60610000 20.64310000 68.66470000
66.54420000 22.13410000 69.64930000
-49.71360000 -33.30760000 -77.83010000
-35.75790000 -44.61510000 -85.13080000
-43.50120000 -31.12950000 -81.36830000
43.45780000 39.02010000 86.54440000
44.16280000 41.05400000 86.97920000
42.85550000 41.68720000 87.37920000
42.34740000 38.45780000 86.24990000
5.74720000 -48.50710000 98.06800000
4.90340000 -41.47610000 97.09820000
-70.96670000 48.54610000 -60.08450000
-71.91290000 48.11960000 -61.49400000
-94.02600000 5.87210000 -6.66240000
-94.43850000 21.95500000 -5.35000000
-94.15230000 15.85720000 -3.85330000
89.24260000 0.04030000 -24.99830000
87.14680000 -0.16970000 -28.83940000
88.07280000 2.60270000 -28.34920000
85.53170000 7.14080000 -31.27340000
85.93100000 48.91020000 -29.17380000
85.30050000 59.69940000 -31.53200000
87.33840000 68.42400000 -26.55100000
86.90070000 76.76720000 -28.59930000
75.21570000 -50.01990000 -50.53070000
74.62930000 -49.40300000 -49.75190000
-71.67970000 -9.06430000 67.65570000
-71.17110000 -12.67950000 67.92060000
91.36440000 100.82000000 22.78290000
92.19830000 114.84590000 21.90450000
74.14080000 72.04570000 57.25100000
75.79330000 84.78490000 56.08890000
77.96000000 53.74100000 50.81200000
79.35200000 65.29450000 49.03110000
-65.85100000 43.18710000 -67.54550000
-67.98720000 42.05860000 -64.47850000
-65.31910000 43.62150000 -65.86650000
-68.03920000 43.47560000 -62.61960000
83.58360000 4.47830000 -36.64070000
81.94220000 8.59850000 -36.76190000
-88.90640000 -14.89480000 42.97090000
-89.07690000 -11.59900000 41.95780000
-94.81770000 47.83720000 -9.85250000
-70.58230000 18.68460000 -61.25660000
-71.98070000 21.81190000 -60.02390000
-71.35060000 22.01750000 -62.53080000
-72.06690000 25.53050000 -61.88560000
-73.84230000 -76.44120000 66.32560000
-72.23260000 -76.40670000 66.89130000
-73.67000000 -75.38870000 66.53230000
86.10900000 -8.28540000 -26.51790000
89.93000000 -12.97510000 -19.02270000
88.21980000 -15.76700000 -19.58130000
88.18690000 -11.19940000 -19.84340000
-58.86470000 37.88570000 -74.41880000
29.68850000 108.43760000 -86.69750000
26.13830000 111.84670000 -88.06930000
26.70370000 111.41680000 -84.74440000
19.24960000 116.34170000 -91.31780000
24.47720000 112.97990000 -89.09110000
90.51190000 -76.38770000 25.63440000
85.79110000 -78.32240000 35.25430000
81.64310000 -65.93030000 -37.13250000
81.74620000 -57.87730000 -36.59030000
82.59650000 -66.80970000 -36.77940000
59.81990000 35.16240000 74.54660000
59.69800000 36.15890000 74.75400000
60.88690000 37.07900000 72.42570000
90.94760000 -3.51470000 -17.65700000
89.39820000 -6.31760000 -19.68810000
89.86050000 -10.25730000 -19.55040000
88.55990000 -8.32130000 -21.42330000
77.34600000 -66.59190000 -45.62120000
40.04550000 22.45190000 73.67470000
38.17850000 33.94260000 74.33390000
-33.60430000 119.05330000 -75.36730000
-31.75890000 120.67560000 -75.85270000
-29.25730000 120.87880000 -75.78360000
42.43790000 -78.01360000 -80.54880000
52.90580000 -77.90230000 -74.70680000
53.33380000 -78.11310000 -73.29430000
60.00370000 -77.12100000 -69.22900000
58.18600000 -76.62580000 -70.96420000
58.79110000 -73.87000000 -70.56390000
58.70090000 35.39500000 76.03030000
60.40000000 38.28690000 75.76790000
56.94060000 35.39150000 78.40010000
21.71790000 9.60070000 92.48330000
25.46460000 7.52740000 92.93740000
23.00820000 7.70890000 93.33880000
89.56310000 50.44300000 -18.44090000
-26.47340000 -37.31190000 -89.53160000
-25.43640000 -31.02730000 -88.55580000
