1.77350000 2.48260000 -0.18360000
1.73080000 2.38230000 -0.31740000
-1.39850000 4.66140000 1.39060000
1.65350000 2.26150000 -0.38520000
-0.10650000 3.01460000 1.86000000
-0.16930000 3.04370000 1.84650000
-0.09260000 3.05250000 1.85480000
-0.11440000 3.11050000 1.84820000
-1.16860000 4.56080000 1.55110000
-0.16770000 3.11450000 1.77420000
1.59430000 2.49480000 -0.34970000
1.55820000 2.54770000 -0.40420000
1.48390000 2.55000000 -0.35180000
-0.06070000 3.08030000 1.87510000
-0.03620000 3.13170000 1.88000000
-0.02180000 3.18390000 1.81160000
-0.09480000 3.15700000 1.66360000
1.77170000 2.40420000 -0.56430000
-0.89110000 4.63590000 1.72370000
0.01390000 3.21690000 1.65820000
1.60820000 2.28170000 -0.74890000
1.72730000 2.51500000 -0.68960000
1.28090000 5.41650000 -0.71600000
1.17600000 5.34800000 -1.01700000
1.10590000 5.38250000 -1.00790000
1.58430000 2.67830000 -0.85920000
-0.09800000 3.09330000 1.34770000
-0.13450000 3.09600000 1.31010000
-0.20840000 3.10570000 1.30660000
-0.14610000 3.17420000 1.32580000
-0.07560000 3.13390000 1.32910000
1.66100000 2.44410000 -0.45830000
1.69090000 2.36500000 -0.38800000
1.64840000 2.40190000 -0.40900000
0.99410000 5.44600000 -1.07000000
1.15560000 5.43740000 -0.90270000
-0.03630000 3.15480000 1.39020000
-0.03410000 3.21050000 1.37540000
-0.09520000 3.25020000 1.37610000
1.37530000 5.05650000 -1.32040000
-1.66630000 3.88130000 0.92670000
0.00500000 3.21890000 1.46670000
-1.60240000 3.95430000 1.05810000
-1.62960000 4.01670000 0.97420000
-1.66790000 3.95940000 0.86880000
1.75540000 2.64320000 -0.56830000
1.76880000 2.44840000 -0.30990000
1.22800000 5.16310000 -1.47160000
1.43770000 5.10620000 -1.27700000
-1.56720000 4.04790000 1.08030000
0.08880000 3.30450000 1.58160000
0.12830000 3.33340000 1.74460000
-1.66740000 4.08270000 0.81940000
-1.69260000 3.95570000 0.71680000
1.73480000 2.48910000 -0.31710000
1.64950000 5.13180000 -0.93300000
0.06410000 3.28380000 1.44700000
1.58650000 5.19620000 -1.08630000
1.68650000 5.19430000 -0.89530000
0.09120000 3.30700000 1.40880000
0.06910000 3.28180000 1.39170000
1.67100000 2.72360000 -0.49680000
-0.12420000 3.35370000 1.45180000
-0.03200000 3.32330000 1.42550000
1.69040000 5.25320000 -0.86200000
0.00320000 3.28280000 1.38760000
1.76090000 5.22830000 -0.70060000
0.06570000 3.29810000 1.37430000
0.05160000 3.33380000 1.40850000
1.75590000 2.88690000 -0.64810000
0.11320000 3.36520000 1.55070000
0.08730000 3.34900000 1.47320000
0.02840000 3.36590000 1.46810000
-1.75750000 4.25030000 0.72090000
-1.80140000 4.18850000 0.52490000
0.06450000 3.42400000 1.53400000
1.67400000 5.31320000 -0.70870000
1.52830000 5.28920000 -1.02900000
-1.65420000 4.28450000 0.94360000
1.53480000 5.07060000 -1.14150000
1.55560000 5.13340000 -1.12260000
1.49920000 5.12120000 -1.19550000
-0.32760000 3.11640000 1.27120000
-0.42520000 3.23490000 1.28640000
-0.28070000 3.23020000 1.32550000
-0.48810000 3.17160000 1.25530000
1.49040000 5.16250000 -1.22020000
1.41180000 5.20920000 -1.30200000
1.55490000 5.24810000 -1.10190000
-0.91720000 3.16880000 1.35710000
-0.83830000 3.14060000 1.32370000
-0.77850000 3.20960000 1.36530000
-0.77600000 3.18720000 1.42630000
-0.74370000 3.11930000 1.29030000
-0.71700000 3.22260000 1.31030000
-0.60320000 3.30250000 1.30920000
-0.49080000 3.37900000 1.38800000
-1.64360000 4.48800000 1.04440000
-0.70720000 3.29040000 1.30690000
-0.60930000 3.13380000 1.24850000
-0.75000000 3.20110000 1.44700000
1.39710000 5.26100000 -1.25870000
1.24240000 5.24290000 -1.42400000
-0.78170000 3.26260000 1.47280000
-1.77090000 4.43820000 0.80680000
-0.79490000 3.29120000 1.35920000
1.11570000 5.28900000 -1.39130000
1.45090000 2.08870000 -0.89800000
1.45680000 2.15200000 -0.84250000
1.45620000 5.34300000 -0.79640000
1.44990000 1.95720000 -1.09560000
1.25570000 2.07020000 -1.28900000
-1.86400000 4.36620000 0.51990000
1.36050000 2.11860000 -1.10220000
-1.84490000 4.56520000 0.66320000
-1.85960000 4.25970000 0.34760000
1.24670000 2.23830000 -1.26750000
1.20270000 2.30330000 -1.25080000
1.37680000 2.15380000 -1.01640000
1.44470000 2.20090000 -0.92780000
1.38420000 2.37080000 -1.07440000
-1.91510000 4.59290000 0.40410000
-0.14200000 3.47040000 1.52760000
1.41750000 2.37290000 -0.99800000
1.44340000 2.28670000 -0.89260000
1.42120000 1.85650000 0.73070000
1.25620000 2.33140000 -1.15000000
1.29430000 2.49830000 -1.19330000
1.25610000 2.23740000 -1.14190000
0.94430000 4.91640000 -1.62650000
1.22270000 1.86940000 0.68860000
1.36820000 1.84920000 0.58620000
1.24470000 1.84350000 0.51000000
0.98700000 5.00150000 -1.61750000
1.11240000 1.89300000 0.88400000
1.22410000 1.86510000 0.86150000
1.06090000 1.88420000 0.80400000
-1.73150000 4.69210000 0.95060000
0.79810000 4.98430000 -1.70830000
1.06390000 1.78050000 1.06210000
1.11700000 1.84690000 1.14670000
1.08940000 1.86780000 1.06520000
1.13170000 1.91060000 1.13220000
1.11420000 1.89610000 1.03440000
1.08410000 2.42440000 -1.39830000
1.00940000 5.10910000 -1.61820000
1.03800000 2.26850000 -1.45040000
1.13850000 5.03590000 -1.53210000
1.01280000 1.85850000 0.97260000
-1.85780000 4.80280000 0.69590000
1.14440000 2.39380000 -1.26360000
1.05230000 5.22890000 -1.56420000
0.84800000 5.16790000 -1.69460000
0.83770000 5.24990000 -1.65300000
-1.56680000 4.64550000 1.19470000
0.97780000 1.80520000 0.90100000
0.99630000 1.78830000 0.97130000
1.01250000 1.88790000 0.89130000
1.00440000 1.86060000 0.83340000
1.13790000 2.56890000 -1.32190000
1.09630000 2.50440000 -1.31810000
0.92420000 2.62560000 -1.51590000
1.03220000 2.54250000 -1.39960000
1.53340000 1.86550000 0.65570000
0.57910000 5.11770000 -1.79260000
1.55920000 2.42670000 -0.81550000
1.09480000 1.93770000 1.18820000
1.11390000 2.02010000 1.19880000
1.06060000 2.06060000 1.20660000
-1.63590000 4.83780000 1.16800000
1.01890000 1.99820000 1.26740000
1.38250000 2.52260000 -0.99230000
1.04570000 2.16720000 1.21730000
0.97780000 2.16440000 1.20310000
1.07390000 2.28070000 1.31600000
0.37630000 5.17600000 -1.82900000
0.12570000 5.08680000 -1.85920000
1.35660000 2.59900000 -1.11230000
1.14710000 2.36590000 1.44180000
0.84220000 2.19730000 1.15990000
0.88340000 2.10750000 1.27910000
0.93990000 2.27670000 1.11170000
0.98660000 2.32160000 1.17690000
0.65140000 5.21030000 -1.75750000
0.54920000 5.25980000 -1.72270000
1.33890000 2.91100000 -1.11450000
1.34360000 2.70740000 -1.05790000
0.85970000 2.29730000 1.08020000
0.81290000 2.24580000 1.09320000
0.91360000 2.38360000 1.08840000
0.92730000 2.50410000 1.15230000
1.01150000 2.50760000 1.33980000
0.94100000 2.57930000 1.26250000
0.60790000 5.31060000 -1.49690000
1.80900000 2.34630000 0.75380000
1.66720000 3.03330000 -0.81810000
-1.76570000 4.90120000 0.95810000
0.17240000 5.22670000 -1.82770000
1.74500000 2.56100000 0.89930000
1.83960000 2.48220000 0.63280000
1.76790000 2.65190000 0.79840000
0.22310000 5.28150000 -1.71390000
1.65820000 2.76390000 1.02320000
1.28240000 2.71820000 -1.24520000
1.28150000 2.79790000 -1.22180000
0.75730000 2.26290000 1.08670000
0.77530000 2.38740000 1.07260000
1.18040000 2.74850000 -1.34370000
0.87180000 2.54860000 1.14250000
0.77290000 2.65360000 1.20830000
1.27170000 2.85140000 -1.17640000
1.87880000 2.16820000 0.51270000
1.90360000 2.09330000 0.34560000
1.01970000 2.80090000 -1.46560000
1.04880000 3.03190000 -1.45970000
1.89550000 2.32600000 0.37530000
-1.87340000 5.07810000 0.69470000
1.17570000 3.01830000 -1.32170000
1.11630000 3.05630000 -1.40190000
-1.70390000 5.10130000 1.07740000
-1.81520000 5.15730000 0.82850000
1.90960000 2.23200000 0.17340000
1.90720000 2.42140000 0.11830000
1.82220000 2.36060000 0.02140000
1.21410000 3.02020000 -1.24060000
1.15190000 3.09490000 -1.31640000
1.85790000 2.51820000 0.13580000
-1.47480000 0.42600000 -0.46650000
-1.42280000 0.40430000 -0.63570000
-1.54040000 0.39020000 -0.38870000
-1.40220000 0.46350000 -0.61300000
-1.75380000 5.24750000 0.51740000
-1.42880000 5.27090000 1.06660000
-1.38590000 5.30550000 0.89540000
-1.66580000 0.29110000 -0.57230000
-1.41060000 5.40540000 0.65560000
-1.52130000 5.34280000 0.37280000
-1.56720000 5.30340000 0.46790000
-1.61500000 0.34160000 -0.61640000
-1.68630000 0.32040000 -0.46670000
-1.53680000 0.37730000 -0.58700000
-1.64230000 0.35610000 -0.48840000
-1.64130000 0.35130000 -0.37670000
0.35750000 5.44590000 -1.12170000
0.32200000 5.11950000 -1.09660000
0.50530000 5.24770000 -1.03600000
0.75470000 5.15960000 -0.87140000
0.76060000 5.42620000 -0.91420000
0.56180000 5.50770000 -1.05470000
1.90370000 2.57850000 0.32630000
1.89230000 2.60150000 0.24680000
1.83600000 2.61640000 0.22130000
-1.63060000 0.35190000 -0.25230000
1.77130000 2.48760000 -0.01190000
1.75260000 2.45260000 -0.12810000
-0.30860000 4.66590000 1.91000000
-0.38280000 4.39750000 1.82200000
-1.48480000 0.48030000 -0.37400000
-1.57440000 0.41040000 -0.23360000
1.75840000 2.55080000 0.09400000
-1.52760000 0.50090000 -0.28700000
1.80520000 2.67730000 0.03670000
-1.62740000 0.56030000 -0.27710000
0.67430000 5.40560000 -1.28980000
0.81320000 5.35260000 -1.27430000
0.47970000 5.38770000 -1.37260000
1.50280000 2.56110000 -0.30800000
-0.59770000 4.79950000 1.87710000
1.68780000 2.66290000 -0.19320000
1.50710000 2.65680000 -0.24170000
-1.44240000 0.50220000 -0.48990000
-1.36610000 0.62550000 -0.48540000
-1.43910000 0.56900000 -0.35660000
1.77990000 2.53690000 0.12380000
1.76980000 2.68740000 0.13460000
-1.51610000 0.60360000 -0.33710000
-1.39970000 0.65180000 -0.36070000
-0.31180000 4.86310000 1.94690000
-1.35780000 0.63460000 -0.42400000
1.76670000 2.66990000 0.26010000
-1.27410000 0.72370000 -0.39140000
1.72710000 2.70170000 0.24020000
1.62180000 2.80710000 -0.13180000
1.52240000 2.75330000 -0.24040000
-1.38440000 0.58310000 -0.60070000
-1.36310000 0.67880000 -0.56690000
1.83870000 2.57460000 -0.15690000
-1.37190000 0.41320000 -0.76790000
1.82400000 2.58570000 -0.20160000
-1.36900000 0.45380000 -0.73020000
-0.44200000 5.05970000 1.94350000
-1.34120000 0.53110000 -0.83550000
-1.35630000 0.56350000 -0.79670000
1.82840000 2.73550000 -0.07640000
-0.90210000 4.76480000 1.74760000
-0.83860000 4.85220000 1.80280000
-1.28860000 0.70750000 -0.93090000
-1.38480000 0.55270000 -0.73710000
0.85920000 5.42380000 -1.18020000
-1.36380000 0.61170000 -0.68010000
-1.38190000 0.64260000 -0.74660000
-0.72370000 4.97330000 1.86880000
-1.30110000 0.70870000 -0.87830000
-1.36730000 0.73120000 -0.80900000
-1.34210000 0.83740000 -0.84670000
1.86730000 2.81180000 0.08660000
1.87210000 2.72830000 -0.04030000
-1.18210000 0.88830000 -0.95680000
0.67470000 5.48930000 -1.26780000
0.48270000 5.45790000 -1.33720000
-1.24960000 0.75140000 -0.47090000
-1.28350000 0.76940000 -0.53310000
0.86100000 5.53620000 -1.18030000
0.71010000 5.57780000 -1.28010000
-1.30960000 0.79010000 -0.66220000
1.02860000 5.51540000 -1.04320000
-1.35440000 0.73080000 -0.73530000
-1.13010000 4.78850000 1.63410000
0.80030000 5.64590000 -1.24500000
1.77410000 2.86500000 0.01760000
-1.27820000 0.87150000 -0.59950000
-1.23830000 0.84420000 -0.90330000
-1.22260000 0.93500000 -0.90190000
1.70960000 2.87620000 -0.01930000
-1.31890000 0.88800000 -0.72690000
1.65050000 2.91980000 -0.19380000
-1.28580000 0.80970000 -1.09850000
1.70580000 2.94540000 -0.03670000
1.77120000 3.05630000 -0.08110000
-1.01660000 4.98730000 1.73780000
-1.31780000 4.94490000 1.52840000
0.43960000 5.34170000 -1.43830000
0.05430000 5.33860000 -1.48250000
0.20360000 5.38820000 -1.42370000
-1.21730000 0.91170000 -1.04020000
-1.28460000 0.87690000 -0.87450000
-1.35900000 0.88440000 -0.79330000
-0.23650000 5.29660000 -1.61630000
1.80930000 2.69300000 0.67280000
-1.35860000 0.96450000 -0.79190000
-1.31950000 1.01300000 -0.82160000
0.20710000 5.49350000 -1.38730000
1.87160000 2.72090000 0.49170000
-1.28330000 1.05630000 -0.86800000
-0.06070000 5.45410000 -1.38890000
-1.22310000 1.05720000 -0.91500000
1.86530000 2.71810000 0.37620000
-1.49320000 0.72300000 -0.36640000
-1.32410000 0.73890000 -0.34440000
-1.41580000 0.77200000 -0.35490000
-1.71610000 0.58910000 -0.22460000
-1.08220000 5.14560000 1.69300000
-1.70360000 0.67390000 -0.28410000
-1.61700000 0.71300000 -0.34750000
1.79710000 2.76280000 0.37790000
-0.82350000 5.13870000 1.82790000
-1.67720000 0.79660000 -0.32930000
0.13500000 5.40480000 -1.16060000
0.10840000 5.15200000 -1.13170000
-1.80510000 0.84790000 -0.15290000
-1.74360000 0.83900000 -0.25800000
1.75740000 2.85040000 0.72930000
1.80360000 2.85900000 0.59640000
1.73370000 2.91760000 0.66950000
-0.07650000 5.19370000 -1.13820000
-0.06440000 5.41520000 -1.17070000
1.86430000 2.88480000 0.48720000
1.87860000 2.82300000 0.44860000
1.84040000 2.82900000 0.40580000
1.88330000 2.91490000 0.39820000
1.85830000 2.90660000 0.33110000
1.79800000 2.85570000 0.37110000
0.11320000 5.56180000 -1.19580000
-1.54720000 0.84500000 -0.35870000
-1.34930000 0.87920000 -0.31350000
1.77750000 2.95790000 0.54170000
1.86600000 2.97890000 0.39950000
-1.65030000 0.90490000 -0.31590000
-0.29150000 5.24120000 1.94080000
1.88020000 2.97420000 0.31510000
1.73260000 2.79920000 0.28650000
0.42600000 5.62800000 -1.16100000
1.73380000 2.74660000 0.33570000
1.73540000 2.80340000 0.36050000
-1.76180000 0.95440000 -0.03590000
-0.58570000 5.20700000 1.89410000
-1.70070000 1.00930000 -0.08970000
-1.75280000 0.94400000 -0.17540000
-1.45100000 0.96070000 -0.32320000
-1.54850000 0.96930000 -0.32140000
-1.47570000 1.00250000 -0.35280000
-1.65340000 0.99110000 -0.23920000
-1.56520000 1.07250000 -0.27840000
-1.52880000 1.03460000 -0.35050000
-1.56310000 1.26660000 -0.41030000
-1.52690000 1.08570000 -0.43500000
-1.60680000 1.06130000 -0.07990000
-1.57860000 1.06750000 -0.18930000
-1.53100000 1.08590000 -0.12670000
-1.58520000 1.29070000 -0.28120000
1.77180000 2.83020000 0.24430000
-1.56640000 1.19090000 -0.21100000
1.83330000 2.86920000 0.22560000
1.77710000 2.86720000 0.32900000
-1.21560000 0.88770000 -0.52450000
-0.53410000 5.28350000 1.84890000
1.79590000 3.01780000 0.34580000
1.69850000 3.01540000 0.48220000
1.57380000 2.98380000 0.72090000
1.48870000 3.02920000 0.58310000
1.64340000 3.08370000 0.39920000
1.76200000 3.01910000 0.23360000
1.72920000 3.05250000 0.27900000
1.85520000 2.88430000 0.09450000
-0.79710000 5.24450000 1.80050000
0.48880000 5.54750000 -1.34630000
-1.26570000 0.95420000 -0.64940000
1.87060000 2.93380000 0.21590000
1.81770000 2.98330000 0.20770000
0.56400000 5.63290000 -1.35030000
1.75330000 2.98010000 0.11440000
-1.29280000 0.99250000 -0.67810000
-1.25960000 1.01460000 -0.60150000
-1.18770000 0.97330000 -0.49510000
0.53600000 5.68270000 -1.34020000
0.27010000 5.70790000 -1.34850000
0.66540000 5.70670000 -1.25550000
-1.28010000 1.07300000 -0.53040000
-0.95530000 5.26180000 1.68590000
-0.74450000 5.31140000 1.60300000
0.29110000 5.59140000 -1.40470000
-1.28240000 0.94620000 -0.30140000
-1.35020000 0.99790000 -0.31190000
-1.22100000 1.08440000 -0.32640000
-1.31010000 1.03920000 -0.35090000
1.78540000 3.06940000 0.06730000
-0.94370000 5.21540000 1.75100000
-1.39930000 1.05000000 -0.36050000
0.27730000 5.66330000 -1.41210000
-1.31530000 1.07960000 -0.41650000
-1.49690000 1.02530000 -0.40250000
-1.43910000 1.06340000 -0.45430000
-1.47620000 1.06890000 -0.48560000
1.80970000 3.16990000 -0.17940000
1.63630000 2.97360000 -0.28600000
-1.17700000 5.22020000 1.58780000
-1.38500000 1.10350000 -0.47440000
-1.30180000 5.25290000 1.38870000
-1.33530000 1.10630000 -0.50220000
1.86090000 3.18950000 -0.01170000
1.88080000 3.27870000 -0.08620000
-1.29600000 1.07600000 -0.47900000
1.85230000 3.00520000 0.31250000
-0.50000000 5.36410000 1.53260000
-1.02330000 5.31640000 1.31050000
1.75130000 3.14020000 0.24580000
-1.34190000 1.00070000 -0.72070000
-1.34970000 1.08360000 -0.67750000
-1.35140000 1.15710000 -0.68210000
1.84950000 3.24650000 0.15810000
-1.30170000 1.16580000 -0.76940000
-1.30160000 1.15360000 -0.84800000
-1.31660000 1.18170000 -0.88680000
-1.54160000 4.94210000 1.30950000
-1.36810000 1.14030000 -0.58110000
1.89360000 3.31280000 0.05260000
-1.48470000 1.15770000 -0.56940000
-1.53980000 1.19930000 -0.50120000
-1.42790000 1.12590000 -0.54850000
-1.64120000 3.61460000 -0.71230000
-1.64700000 3.71900000 -0.82050000
-1.55520000 3.59170000 -0.82930000
-1.51920000 1.21830000 -0.57630000
-1.74860000 3.72900000 -0.65120000
-1.48000000 3.61580000 -0.91760000
-1.60930000 3.82120000 -0.87740000
1.43690000 2.63420000 -0.30480000
-1.71640000 3.97370000 -0.78730000
1.45900000 2.67360000 -0.36000000
-1.53000000 1.36380000 -0.58760000
-1.72490000 3.63850000 -0.50610000
1.49010000 2.79800000 -0.34320000
-1.85460000 3.79150000 -0.39980000
-1.38550000 1.21870000 -0.61610000
-1.82440000 3.92080000 -0.54180000
-1.33110000 1.22120000 -0.66500000
-1.78090000 4.38320000 -0.69620000
-1.30990000 1.27300000 -0.68870000
-1.29080000 1.25010000 -0.74550000
1.53590000 2.83540000 -0.42220000
-1.43540000 1.25660000 -0.63260000
-1.29670000 5.13800000 1.53950000
-1.49510000 5.09880000 1.36030000
-1.49230000 1.29320000 -0.63770000
-1.39690000 1.31460000 -0.67800000
-1.35740000 1.31750000 -0.74110000
-1.46590000 5.19370000 1.34350000
-1.42290000 1.37130000 -0.78260000
-1.35890000 1.29500000 -0.82110000
-1.46380000 1.37230000 -0.70110000
1.74040000 2.88950000 -0.57250000
-1.41400000 1.45750000 -0.80820000
-1.38410000 1.32960000 -0.85470000
-1.43520000 1.58350000 -0.74700000
-1.61110000 3.91290000 -0.89600000
-1.90790000 4.17410000 -0.24920000
-1.89810000 3.90640000 -0.20240000
-1.87070000 3.78240000 -0.28760000
-0.98230000 1.11460000 -0.95190000
-0.89110000 1.14790000 -0.96790000
-0.99500000 1.09290000 -1.02370000
-0.92850000 1.30640000 -1.16240000
-0.81800000 1.23480000 -1.02630000
-1.90200000 4.10360000 -0.00060000
-1.83720000 3.92100000 -0.11890000
-1.93000000 4.21520000 -0.01130000
1.54630000 2.96830000 -0.40580000
-1.15910000 5.35100000 1.09210000
1.63930000 2.98590000 -0.50170000
-1.85540000 4.47090000 -0.50560000
1.57140000 3.15490000 -0.44250000
-0.90890000 5.36840000 1.28910000
1.73730000 3.05660000 -0.59190000
1.56240000 3.13010000 -0.49860000
-1.17260000 1.05600000 -1.16130000
-1.65370000 4.55090000 -0.94670000
-1.14500000 1.02030000 -1.21960000
-0.89860000 5.43080000 1.24680000
-1.12800000 5.42950000 1.06280000
-1.15680000 0.97130000 -0.93500000
-1.32540000 5.37380000 0.84600000
-1.06660000 1.20540000 -1.18530000
-1.12480000 1.06420000 -0.91070000
-1.07720000 1.03110000 -0.96560000
-1.12710000 1.13350000 -0.88500000
-1.15990000 1.20750000 -0.90390000
-1.06930000 1.10540000 -0.91840000
-1.70080000 5.21050000 0.95370000
-1.91950000 4.32170000 0.23140000
-1.03360000 1.23610000 -1.28100000
-1.94960000 4.68720000 0.10980000
1.11520000 2.56980000 1.45820000
1.19500000 2.60960000 1.49110000
1.26800000 2.66700000 1.48740000
-0.69660000 1.19280000 -1.49850000
-1.94290000 4.82090000 -0.13060000
-1.90820000 4.76990000 -0.34290000
-1.25610000 5.47330000 0.91160000
-0.61340000 1.36260000 -1.52970000
1.10000000 2.75300000 1.50060000
1.34740000 2.73080000 1.43800000
-0.85330000 1.37070000 -1.41520000
-0.76980000 1.44700000 -1.50090000
-1.00350000 1.33740000 -1.30750000
-1.03110000 1.37370000 -1.29470000
-1.01100000 1.38450000 -1.35780000
1.10770000 2.89100000 1.57490000
1.19890000 2.96010000 1.55670000
1.34540000 3.04470000 1.44350000
-0.96910000 1.42750000 -1.42440000
-1.11020000 1.43330000 -1.34120000
-1.06930000 1.40830000 -1.38050000
-1.08710000 1.48390000 -1.42060000
0.98200000 2.69080000 1.39580000
-0.92620000 1.54760000 -1.50810000
-0.87390000 1.50120000 -1.49710000
0.94710000 2.78030000 1.44790000
1.01510000 2.85400000 1.55040000
-0.69520000 1.52960000 -1.58230000
-1.00230000 1.22460000 -0.80480000
-1.01020000 1.17000000 -0.87540000
-1.06950000 1.19330000 -0.83850000
-0.95620000 1.22040000 -0.87570000
-1.04280000 1.23540000 -0.79190000
-1.02150000 1.25940000 -0.79840000
-0.91710000 1.17040000 -0.92020000
-0.83500000 1.23060000 -0.96380000
1.71690000 2.72080000 0.92980000
-1.36360000 3.56570000 -1.10390000
-1.45370000 3.70490000 -1.11630000
-1.31080000 3.39370000 -1.21680000
-0.75990000 1.31090000 -1.00550000
1.70310000 2.82660000 0.88240000
-0.75300000 1.35500000 -1.06630000
1.50070000 2.94020000 1.27570000
-0.77820000 1.39170000 -1.01650000
-0.86820000 1.32200000 -0.95300000
-0.74430000 1.40870000 -1.05450000
-0.75790000 1.44320000 -1.11080000
1.62160000 2.87630000 1.00760000
-1.34070000 3.54650000 -1.26990000
1.60840000 2.91660000 0.94230000
1.64050000 2.93000000 0.82800000
1.53550000 2.97570000 0.89090000
1.44930000 2.99940000 0.73510000
1.38930000 3.03290000 0.83520000
1.45750000 3.10200000 0.95800000
-1.24530000 1.29360000 -0.95550000
-1.16570000 3.36990000 -1.42200000
-1.25100000 3.96950000 -1.36610000
-1.32340000 1.29510000 -0.91450000
-1.50860000 3.85710000 -1.09770000
-1.07740000 1.26950000 -0.85400000
-1.03160000 1.28170000 -0.84550000
-1.30450000 1.23840000 -0.80640000
-1.16100000 1.35590000 -0.95020000
-0.97840000 3.67500000 -1.55210000
1.57160000 2.95320000 1.11080000
1.55270000 2.96500000 1.19370000
-1.06720000 1.34730000 -0.91090000
-0.99140000 1.27630000 -0.86880000
-1.10950000 1.46400000 -0.98910000
-1.01110000 1.42900000 -0.97480000
1.56000000 2.98080000 0.99570000
1.52790000 3.07020000 1.05730000
-1.27720000 1.44330000 -0.96500000
-1.20720000 1.45450000 -1.00260000
1.54880000 3.15040000 1.18640000
1.54250000 3.16780000 1.11990000
1.50720000 3.18380000 1.06280000
-1.32500000 1.52750000 -0.91690000
0.81280000 2.69880000 1.22250000
0.86040000 2.72690000 1.28380000
-1.32050000 1.69560000 -0.93730000
-1.24580000 1.58090000 -1.03130000
-1.18490000 1.54840000 -1.05230000
-1.34640000 3.55910000 -0.99540000
-1.48070000 3.73750000 -0.98520000
-1.08090000 1.60100000 -1.06090000
0.74970000 2.77220000 1.28610000
-0.91020000 1.50110000 -1.02970000
-1.23270000 1.80750000 -1.04390000
-1.14100000 1.69030000 -1.09210000
-1.14770000 1.82110000 -1.09800000
-0.84660000 1.43870000 -1.18210000
-1.61570000 4.02430000 -0.95440000
-1.00760000 1.42620000 -1.26860000
-0.87380000 1.56090000 -1.20960000
1.35320000 3.02800000 0.73410000
-0.74760000 1.55460000 -1.14440000
-0.78290000 1.47360000 -1.06510000
-0.74830000 1.51940000 -1.11410000
1.29420000 3.09940000 0.80270000
1.34610000 3.05130000 0.70220000
-1.50080000 4.12580000 -1.13060000
-0.77870000 1.55650000 -1.08690000
1.45250000 3.09860000 0.59670000
1.35530000 3.13330000 0.91160000
1.28020000 3.17290000 0.89560000
-1.08070000 1.48240000 -1.30740000
-1.12750000 1.49480000 -1.35820000
1.35270000 3.30930000 1.00590000
-1.02300000 1.57070000 -1.29960000
-1.08850000 1.55760000 -1.35570000
1.48310000 3.37620000 1.11190000
1.23870000 3.43100000 1.01930000
1.25110000 3.29190000 0.91430000
1.37900000 3.34760000 0.80190000
-0.83430000 1.71850000 -1.21020000
-1.00890000 1.61830000 -1.33550000
-1.03740000 1.60490000 -1.40410000
-0.93740000 1.65140000 -1.38500000
-0.93120000 1.73720000 -1.32610000
-0.93470000 1.69720000 -1.34930000
1.22660000 3.47110000 0.98560000
-0.83320000 1.60320000 -1.55170000
-0.90210000 1.64090000 -1.49150000
-0.85340000 1.67250000 -1.44880000
-0.73890000 1.69380000 -1.49360000
-0.81610000 1.72780000 -1.42390000
-0.86280000 1.80090000 -1.42020000
-0.66650000 1.63720000 -1.09150000
-0.70540000 1.57010000 -1.11260000
-0.68840000 1.58370000 -1.08150000
-0.72830000 1.62530000 -1.06560000
-0.66160000 1.64920000 -1.05370000
-0.69900000 1.73070000 -1.11250000
-0.65260000 1.71520000 -1.05880000
-0.68610000 1.70600000 -1.04590000
-0.70270000 1.77410000 -1.06460000
-0.76520000 1.73270000 -1.07130000
-0.82890000 1.68230000 -1.08100000
-0.68170000 1.83070000 -1.07940000
-0.68840000 1.84750000 -1.14340000
-1.31870000 4.58700000 -1.34740000
-0.97030000 1.65800000 -1.06720000
-1.04070000 1.81190000 -1.10310000
0.92930000 3.22380000 1.73290000
1.15840000 3.20850000 1.59950000
1.10820000 3.37830000 1.62260000
-1.12120000 4.66420000 -1.50250000
-0.84430000 1.82470000 -1.27900000
-1.49180000 4.62900000 -1.17340000
-0.73330000 1.91190000 -1.27420000
-1.09990000 1.55020000 -1.40200000
1.41930000 3.25560000 1.37020000
-1.02050000 1.57870000 -1.46790000
1.55040000 3.28490000 1.15540000
-0.86220000 1.86380000 -1.43520000
-0.84810000 1.88630000 -1.39440000
1.53700000 3.31280000 1.21780000
1.48040000 3.31450000 1.25760000
1.41050000 3.32130000 1.32570000
1.43120000 3.36100000 1.23890000
-0.86890000 4.54640000 -1.64310000
-0.66610000 3.50850000 -1.69040000
1.47980000 3.37420000 1.21830000
-1.36610000 1.17090000 0.26610000
1.29490000 3.35120000 1.49630000
1.34300000 3.36130000 1.42900000
-1.31350000 1.19610000 0.22710000
-1.22880000 1.12090000 0.20490000
-0.58350000 4.53080000 -1.75320000
1.32120000 3.38770000 1.40190000
1.35270000 3.38160000 1.33160000
-1.70420000 1.03130000 0.00380000
-1.81800000 1.06390000 0.09260000
-1.75950000 1.05980000 0.04100000
1.27590000 3.47970000 1.47880000
-0.42360000 4.07450000 -1.77230000
-1.69900000 1.15480000 0.00250000
-1.61090000 1.09740000 -0.02940000
1.46930000 3.47070000 1.23660000
1.49780000 3.50980000 1.23920000
-1.79270000 1.16560000 0.05850000
-1.52520000 1.10070000 -0.06010000
-1.53680000 1.18190000 -0.01340000
-1.47370000 1.13670000 -0.07250000
-1.48630000 1.13570000 -0.13070000
-1.45440000 1.23150000 -0.05520000
-1.53280000 1.13330000 -0.16900000
-1.50520000 1.23410000 -0.13950000
-1.46720000 1.24170000 0.00190000
-1.43170000 1.32900000 -0.06090000
-1.62860000 1.22170000 0.00830000
1.34410000 3.51270000 1.11780000
-1.53910000 1.28300000 0.04990000
-1.69360000 1.27090000 0.06370000
1.24000000 3.78950000 1.08920000
1.28600000 3.46220000 1.39180000
1.36280000 3.44680000 1.28740000
1.27370000 3.52050000 1.42750000
1.31580000 3.55330000 1.35550000
1.41900000 3.44810000 1.22570000
1.36330000 3.51220000 1.27640000
-1.55560000 1.25450000 0.42780000
-1.47450000 1.29890000 0.40740000
1.39600000 3.53620000 1.27110000
1.42160000 3.58370000 1.30370000
1.42960000 3.63070000 1.30310000
1.26440000 3.61560000 1.17030000
1.44530000 3.58070000 1.21380000
-1.28330000 1.25900000 0.24450000
1.17720000 3.59160000 1.10560000
-1.36900000 1.35340000 0.31160000
1.14280000 3.66940000 1.11150000
-1.41500000 1.33750000 0.05390000
-1.42620000 1.36730000 0.17620000
-1.31990000 1.41570000 0.15670000
-1.35990000 1.39410000 0.24770000
-1.83150000 1.21280000 0.16130000
-1.69880000 1.31990000 0.43420000
1.12000000 3.67310000 1.16540000
1.19390000 3.68530000 1.23190000
-1.78360000 1.27790000 0.16370000
-1.73190000 1.35590000 0.32050000
-1.69250000 1.34180000 0.20500000
-1.56080000 1.34990000 0.16420000
1.71190000 2.91190000 0.75640000
1.67660000 2.96570000 0.67970000
-1.49520000 1.34130000 -0.11740000
-1.43440000 1.38030000 -0.10060000
-1.35940000 1.41380000 -0.09720000
-1.37470000 1.44160000 -0.13560000
-1.51720000 1.41290000 -0.09180000
-1.55130000 1.38270000 -0.13040000
-1.42070000 1.48830000 -0.14350000
-1.32160000 1.50480000 -0.12890000
-1.35710000 1.50070000 -0.15830000
-1.32220000 1.55020000 -0.17540000
-1.29900000 1.61080000 -0.08220000
-1.33870000 1.60990000 -0.18020000
-1.58390000 1.42590000 -0.09330000
-1.61000000 1.44040000 -0.20470000
1.60960000 3.20970000 0.48640000
-1.57200000 1.47800000 -0.06810000
-1.61880000 1.50130000 -0.10330000
-1.59430000 1.54940000 -0.08680000
-1.56220000 1.34180000 -0.19290000
-1.59110000 1.45340000 -0.39380000
-0.29490000 4.70400000 -1.82080000
-1.63640000 1.55950000 -0.37240000
1.67750000 3.54410000 0.62400000
1.78180000 3.38030000 0.39280000
-1.57900000 1.62240000 -0.54530000
-1.63870000 1.68860000 -0.46560000
-1.54590000 1.50080000 -0.54450000
-1.49090000 1.65570000 -0.67430000
-0.70240000 4.89210000 -1.72650000
-1.53170000 1.71950000 -0.67210000
-1.59180000 1.76070000 -0.57850000
-1.50840000 1.55450000 -0.11530000
-1.65800000 1.59520000 -0.24940000
1.88440000 3.49510000 0.24500000
-1.56010000 1.60900000 -0.12070000
-1.49240000 1.72060000 -0.20250000
-1.63400000 1.62740000 -0.16670000
-1.58890000 1.68780000 -0.17970000
1.87150000 4.10450000 0.25020000
-1.39940000 1.67420000 -0.19730000
-1.35380000 1.69560000 -0.14590000
1.82670000 3.63340000 0.48840000
-1.69230000 1.73820000 -0.36660000
1.83640000 3.92350000 0.51460000
-1.63480000 1.88600000 -0.48360000
-1.66970000 1.71160000 -0.28530000
-1.63280000 1.79840000 -0.28110000
-1.68220000 1.85700000 -0.34700000
1.52770000 3.43730000 1.18760000
-1.63290000 1.31000000 0.45600000
-1.57090000 1.40760000 0.50900000
-1.62800000 1.43690000 0.52470000
-1.66440000 1.45660000 0.49460000
-1.48590000 1.40700000 0.45040000
-1.46760000 1.47180000 0.43370000
-1.41040000 1.42070000 0.32780000
-1.46820000 1.48800000 0.40140000
-1.47900000 1.44040000 0.31490000
1.49830000 3.83000000 0.92070000
-1.51120000 1.52940000 0.47080000
-1.70750000 1.39380000 0.42060000
-1.64490000 1.48100000 0.42360000
-1.61890000 1.41150000 0.30280000
-1.57050000 1.48910000 0.38330000
-1.61970000 1.51660000 0.51300000
-1.56690000 1.51570000 0.51690000
-1.55140000 1.53990000 0.45490000
-1.37860000 1.74910000 0.03110000
-1.44160000 1.77000000 0.01990000
-1.35970000 1.69650000 -0.05220000
-1.41850000 1.87020000 0.08930000
-1.30540000 1.79010000 0.07220000
-1.30430000 1.68230000 -0.00160000
-1.25750000 1.72880000 0.10380000
1.68460000 3.96820000 0.81200000
1.79220000 3.90450000 0.64760000
-1.32760000 1.92870000 0.11230000
-1.43020000 2.01070000 0.12570000
-1.26490000 1.92350000 0.18910000
-1.20770000 1.77790000 0.29480000
-1.22900000 1.89230000 0.36160000
-1.25340000 1.95950000 0.29060000
-1.31160000 2.05040000 0.22190000
-1.46200000 1.79660000 -0.02020000
-1.39110000 1.75500000 -0.10420000
-1.40730000 1.88130000 -0.08450000
-1.59910000 1.94790000 0.08530000
-1.51510000 1.96130000 -0.01740000
-1.54260000 1.92290000 0.10920000
-1.60110000 1.96670000 0.04180000
-1.38530000 1.78120000 -0.18680000
-1.37950000 1.84070000 -0.14000000
-1.39660000 1.80990000 -0.23530000
-1.40820000 1.87530000 -0.28820000
-1.35700000 1.87890000 -0.26540000
-1.35190000 1.90710000 -0.23180000
-1.35370000 1.96510000 -0.30520000
-1.40060000 2.07480000 -0.06420000
-1.34520000 2.03790000 -0.18610000
-1.53040000 1.87190000 -0.30000000
-1.41730000 4.98870000 -1.25920000
-1.61630000 2.01620000 -0.35510000
-1.49290000 2.04320000 -0.35250000
1.80750000 4.50600000 0.53100000
-1.50450000 2.14280000 -0.36360000
-1.57880000 2.05020000 0.17870000
-1.50520000 2.16160000 0.17920000
-1.52930000 2.10530000 0.01070000
-1.39320000 2.09760000 0.14400000
-1.50840000 2.22450000 0.03450000
-1.39660000 2.23980000 -0.05390000
-1.73920000 2.13570000 0.14110000
-1.64130000 2.08620000 0.05930000
-1.35120000 1.85170000 -0.88060000
-1.43950000 1.80590000 -0.78830000
-0.62470000 1.86860000 -1.06830000
-0.59470000 1.91810000 -1.09170000
-1.76770000 4.97200000 -0.74670000
-0.84890000 2.10370000 -1.15010000
-0.73790000 2.06910000 -1.11260000
-0.82100000 2.03230000 -1.09750000
-0.93520000 2.05200000 -1.09920000
-0.95860000 2.11390000 -1.09600000
-0.89470000 2.13170000 -1.11630000
-1.59260000 5.02710000 -1.04290000
-0.80200000 2.13410000 -1.18520000
-0.87640000 2.16970000 -1.21430000
-1.41490000 2.03280000 -0.34900000
-1.33940000 2.02040000 -0.27100000
-1.36190000 2.10400000 -0.28070000
-1.40580000 2.12570000 -0.33540000
-1.42890000 2.12940000 -0.35910000
-1.88120000 5.03510000 -0.44630000
-1.44020000 2.21160000 -0.33130000
-1.57810000 2.22850000 -0.36080000
-1.36340000 2.27020000 -0.24460000
-1.46830000 2.30140000 -0.29340000
-1.38400000 2.33970000 -0.20260000
-1.01580000 5.19420000 0.72520000
-1.13390000 5.14860000 0.51570000
-1.16920000 5.43740000 0.55970000
-1.04070000 5.40480000 0.74550000
-1.20880000 5.33500000 0.38570000
-1.38470000 1.94520000 0.79190000
-1.56160000 1.84530000 -0.64150000
-1.33070000 1.94640000 0.73480000
-1.19170000 5.14420000 0.33490000
-1.38790000 1.92930000 0.84670000
-1.67960000 1.96890000 -0.39600000
-1.48590000 5.40830000 0.36760000
-1.30720000 1.97130000 0.66730000
-1.45950000 5.49950000 0.53020000
-1.34150000 2.10240000 0.70550000
-1.36790000 2.04580000 0.75420000
-1.23350000 5.19060000 0.15050000
-1.25740000 5.37330000 0.20850000
-1.40100000 2.02190000 0.91220000
-1.79680000 5.16110000 -0.64640000
-1.67150000 5.17820000 -0.88080000
-1.66290000 2.07390000 -0.44400000
-1.25780000 5.47780000 0.32050000
-1.42170000 2.07460000 0.84250000
-1.63870000 2.10710000 -0.50260000
-1.60360000 2.02600000 -0.51610000
-1.40520000 2.10950000 0.79000000
-1.57070000 2.10990000 -0.59090000
-1.46040000 2.16040000 0.85980000
-1.23550000 5.54210000 0.48730000
-1.28740000 5.57550000 0.34690000
-1.65830000 2.17960000 -0.40550000
-1.67130000 2.20570000 -0.47280000
-1.65110000 2.19060000 -0.54510000
-1.32770000 1.97950000 0.56000000
-1.27620000 1.92760000 0.45270000
-1.47990000 5.16810000 -1.16210000
-1.68230000 2.32710000 -0.40050000
-1.64380000 2.32840000 -0.34550000
-1.69110000 2.30250000 -0.45870000
-1.70160000 2.41160000 -0.37190000
-1.25100000 5.10150000 -1.39990000
-1.73210000 2.37950000 -0.18050000
-1.71280000 2.39310000 -0.29760000
-1.60500000 2.36580000 -0.23230000
-1.57210000 2.33300000 -0.30420000
-1.77910000 2.50090000 -0.34180000
-1.69420000 2.48230000 -0.40960000
-1.52790000 5.23350000 -1.00670000
-1.27600000 5.23010000 -1.30950000
-1.50780000 1.85120000 -0.71350000
-1.29960000 2.04780000 0.34270000
-1.39790000 1.87700000 -0.86500000
-1.46560000 1.94360000 -0.77000000
-1.41790000 5.29060000 -0.73140000
-1.25670000 5.35030000 -0.78430000
-1.14530000 5.31380000 -1.02440000
-1.42170000 1.91720000 -0.84880000
-1.36070000 2.09970000 0.47520000
-1.25320000 1.93890000 -1.02310000
-1.36570000 2.07060000 0.59820000
-1.32930000 2.15630000 0.36450000
-1.18910000 5.27520000 -1.20570000
-1.33780000 2.21730000 0.41920000
-1.33480000 2.01340000 -0.93880000
-1.27670000 2.01720000 -0.99070000
-1.32570000 2.18470000 0.30050000
-1.53170000 2.00200000 -0.64620000
-1.36210000 2.18140000 0.60240000
-1.59470000 5.26140000 -0.67010000
-1.76470000 5.22310000 -0.56910000
-1.35660000 2.17360000 0.74670000
-1.48060000 2.05790000 -0.74640000
-1.39930000 2.05180000 -0.86620000
-1.46000000 2.18070000 -0.78470000
-1.33140000 2.30280000 0.49610000
-1.33890000 2.11180000 -0.96020000
-1.36820000 2.18250000 -0.93350000
-1.35710000 2.24920000 0.68040000
-1.34920000 2.28860000 0.59050000
-1.31310000 2.23540000 0.36480000
-1.32630000 2.26680000 0.33000000
-1.32120000 2.30860000 0.39550000
-0.42150000 4.97900000 -1.81420000
-1.29580000 2.35980000 0.45130000
-1.31470000 2.38370000 0.42360000
-1.29850000 2.39170000 0.47680000
-1.39770000 2.27190000 -0.91030000
-1.34920000 2.40360000 0.48030000
-1.70730000 2.10900000 0.20880000
-1.78730000 2.28340000 0.29010000
-1.79380000 2.21910000 0.23020000
-1.83430000 2.34360000 0.27000000
-1.16260000 1.98150000 -1.10400000
-1.61430000 2.20650000 0.24080000
-1.69110000 2.18980000 0.25980000
-1.04280000 1.96510000 -1.11360000
-1.09130000 2.09390000 -1.13300000
-1.25850000 2.15510000 -1.05890000
-1.20590000 2.10100000 -1.10850000
-1.58670000 2.29790000 0.23690000
-1.37540000 2.19450000 0.22240000
-1.17120000 2.19530000 -1.13330000
-1.47130000 2.24460000 0.18250000
-1.02990000 2.21000000 -1.11030000
-1.45250000 2.29370000 0.23070000
-0.86520000 2.23250000 -1.24890000
-0.90990000 2.23660000 -1.21150000
-0.07550000 5.45330000 1.24570000
-0.08130000 5.17120000 1.21120000
-0.14220000 5.34910000 1.22790000
-1.13790000 2.31070000 -1.11860000
-1.29830000 2.19140000 -1.00430000
-1.67960000 2.21440000 0.08910000
-1.81120000 2.30730000 0.13220000
0.24130000 5.48370000 1.20620000
0.20430000 5.22390000 1.18270000
-1.83520000 2.31170000 0.19580000
-1.04270000 2.40500000 -1.06210000
-1.79650000 2.35710000 0.07710000
-1.65820000 2.28670000 0.07910000
-1.68710000 2.34530000 0.05060000
-1.12750000 2.45350000 -1.07630000
-0.96440000 5.06310000 -1.60630000
-1.50810000 2.30900000 0.01140000
-1.23190000 2.32050000 -1.09780000
-1.61180000 2.36660000 -0.13260000
-1.55390000 2.34880000 -0.03640000
-1.68630000 2.35770000 -0.04580000
-1.54830000 2.37870000 -0.11260000
-1.47330000 2.37570000 -0.09230000
-1.49440000 2.39130000 -0.14610000
-1.36160000 2.32280000 -0.95800000
-1.55780000 2.31230000 0.06050000
-1.58430000 2.34680000 0.02850000
-1.65210000 2.35480000 0.02170000
-1.32460000 2.42230000 -1.00780000
-1.45400000 2.40000000 0.45980000
-1.55870000 2.36720000 0.56620000
-1.55550000 2.39770000 0.39270000
-1.63040000 2.39540000 0.49800000
-1.06770000 5.20440000 -1.51090000
-1.67470000 2.39960000 0.40360000
-1.38680000 2.34340000 0.33930000
-1.51720000 2.35390000 0.25290000
-0.82370000 5.20000000 -1.65710000
-1.47670000 2.39900000 0.33860000
-1.61350000 2.17270000 -0.60310000
-1.54650000 2.20980000 -0.69390000
-1.37980000 2.39860000 0.41510000
-1.73940000 2.33100000 0.31240000
-1.65800000 2.31560000 -0.54500000
-1.66420000 2.36280000 0.32810000
-1.75150000 2.40710000 0.37830000
-1.58120000 2.36680000 0.28870000
-1.61590000 2.27020000 -0.63470000
-1.85810000 2.47090000 0.23210000
-1.72770000 2.42680000 0.49670000
-1.51880000 2.36160000 -0.76670000
-1.78480000 2.46720000 0.47580000
-1.62060000 2.40290000 -0.60420000
-1.82350000 2.46650000 0.35840000
-1.48770000 2.29820000 -0.79210000
-1.42050000 2.36220000 -0.87830000
-0.52140000 5.16160000 -1.78150000
-0.75280000 5.11060000 -1.70900000
-1.42530000 2.14160000 0.91520000
-1.46700000 2.50350000 -0.81120000
-1.53440000 2.41460000 -0.71510000
-1.41500000 2.22960000 0.97960000
-1.56360000 2.44010000 -0.64770000
-1.47620000 2.20340000 0.96670000
-1.53970000 2.19450000 0.98060000
-0.27940000 5.40230000 1.21460000
-0.26040000 5.19060000 1.18960000
-0.49240000 5.29640000 1.13420000
-0.44650000 5.48060000 1.19060000
-0.60700000 5.46000000 1.12040000
-1.52820000 2.29090000 1.07400000
-1.41930000 2.31460000 1.07110000
-1.47310000 2.36250000 -0.21060000
-1.33850000 2.27590000 1.01440000
-1.34040000 2.32250000 1.04570000
-0.84930000 5.25800000 -1.55850000
-0.61060000 5.23910000 -1.71930000
-1.59360000 2.21890000 0.96890000
-1.57200000 2.19390000 0.90690000
-1.66680000 2.30900000 0.85600000
-1.64650000 2.33360000 0.92500000
-1.59390000 2.29070000 1.03360000
-1.49260000 2.51020000 -0.54470000
-1.45350000 2.54260000 -0.62020000
-1.52810000 2.47700000 -0.59950000
-1.51680000 2.20400000 0.82350000
-1.40830000 2.65960000 -0.57470000
-1.49500000 2.56650000 -0.51720000
-1.61710000 2.24830000 0.84260000
-1.69560000 2.37940000 -0.48460000
-1.42350000 2.21410000 0.76310000
-1.66500000 2.44210000 -0.50870000
-1.57460000 2.27370000 0.73440000
-1.68040000 2.31730000 0.76610000
-1.59980000 2.46420000 -0.54810000
-1.69240000 2.42900000 -0.43990000
-1.43730000 2.32990000 0.61190000
-1.60940000 2.48210000 -0.47820000
-1.58640000 2.52030000 -0.46480000
-1.62350000 2.54140000 -0.45040000
-1.74650000 2.61890000 -0.44200000
-1.67230000 2.62520000 -0.48720000
-0.65260000 5.30360000 -1.44120000
-0.39370000 5.26350000 -1.73600000
-1.23400000 2.34240000 1.06640000
-1.50190000 2.49970000 -0.70460000
-1.44950000 2.58460000 -0.70600000
-1.41020000 2.38800000 1.16300000
-1.52880000 2.43900000 1.13750000
-1.42310000 2.62990000 -0.80380000
-1.57920000 2.60860000 -0.50680000
-1.43500000 2.65460000 -0.53480000
-1.40140000 2.65640000 -0.71340000
-1.38330000 2.70580000 -0.67070000
-1.37810000 2.45380000 1.22150000
-1.11480000 2.58290000 -1.03600000
-1.67450000 2.43720000 0.92670000
-0.04290000 5.38180000 1.61210000
-1.59630000 2.55950000 1.05810000
-1.67300000 2.58450000 0.90780000
-1.23870000 2.54750000 -1.04480000
-1.50520000 2.73970000 1.17240000
-1.40710000 2.70120000 1.27590000
-1.37740000 2.53180000 -0.94660000
-1.37460000 2.63990000 -0.90790000
-1.29120000 2.64910000 -0.97740000
-0.16980000 5.44970000 1.51150000
0.11900000 5.43630000 1.51750000
-1.35510000 2.35060000 0.56190000
-1.02940000 2.62680000 -1.00090000
-1.10450000 2.67380000 -1.04660000
-1.20150000 2.67320000 -1.01190000
-0.98510000 2.65330000 -1.04210000
-1.03670000 2.69980000 -1.09030000
-1.10880000 2.72030000 -1.09220000
-1.29860000 2.76740000 0.65280000
-1.33380000 2.77580000 0.74490000
-1.26450000 2.82800000 0.71940000
-1.35430000 2.83070000 0.82930000
-1.66520000 2.35850000 0.67750000
-0.72200000 5.38970000 -0.94790000
-0.73200000 5.20080000 -0.90440000
-0.53170000 5.20460000 -1.02650000
-1.19880000 2.75140000 -1.04890000
-1.66810000 2.39630000 0.60490000
-1.28660000 2.72180000 -0.96410000
-1.36410000 2.72240000 -0.87720000
-1.75250000 2.44300000 0.63880000
-1.31770000 2.78490000 -0.98890000
-1.38990000 2.78170000 -0.84650000
-1.40550000 2.80280000 -0.93150000
-1.71020000 2.42300000 0.78400000
-1.76050000 2.52820000 0.70010000
-1.36670000 2.75480000 -0.75910000
-0.86810000 5.47470000 -0.87090000
-0.90090000 5.28940000 -0.78220000
-1.45110000 2.81690000 -0.83500000
-1.38060000 2.78920000 -0.69510000
-0.53620000 5.50020000 -1.08250000
-1.81860000 2.56010000 0.48760000
-1.81000000 2.67120000 0.56170000
-1.28540000 2.84280000 -1.05160000
-1.52020000 2.85040000 -0.85530000
-1.51370000 2.90440000 -0.91260000
-1.74280000 2.59080000 0.77270000
-1.49530000 2.97560000 -0.94160000
-1.38200000 2.93950000 -1.00420000
-1.71350000 2.67470000 0.76600000
-1.61240000 2.69370000 0.87960000
-1.57640000 2.69650000 1.01710000
0.37620000 5.45660000 1.44320000
0.11540000 5.49450000 1.47710000
0.26590000 5.52200000 1.43750000
-0.81450000 5.34350000 -1.23130000
-0.41710000 5.34970000 -1.39730000
-1.16850000 2.89140000 -1.10870000
-1.63620000 2.74220000 0.73090000
-0.55900000 5.41790000 -1.28840000
-0.32790000 5.41110000 -1.36250000
-1.76160000 2.68450000 0.65270000
-1.23640000 2.97470000 -1.01510000
0.25590000 5.59570000 1.44170000
0.54190000 5.52490000 1.33030000
0.51130000 5.60170000 1.34460000
-1.34840000 3.02260000 -0.95150000
-0.03560000 5.56720000 1.48840000
-1.84530000 2.74600000 0.43320000
-1.84840000 2.61490000 0.29310000
-1.57600000 2.75440000 0.23320000
-1.46830000 2.69900000 0.16710000
-1.65330000 2.72190000 0.15120000
-1.43720000 2.73790000 0.25270000
-0.39120000 1.26830000 -1.60480000
-1.51270000 2.81030000 0.28180000
-1.70640000 2.77540000 0.27750000
-0.27380000 1.28750000 -1.66180000
0.05750000 5.62410000 1.28700000
0.39960000 5.60220000 1.18610000
-1.52670000 2.73700000 0.79930000
-1.45460000 2.76140000 0.83070000
-1.42640000 2.75620000 0.68360000
-0.35810000 1.56510000 -1.70460000
-1.53320000 2.78190000 0.62920000
-0.33320000 5.36310000 -1.11910000
-0.26210000 5.17670000 -1.11260000
-1.27920000 2.80680000 0.60020000
-1.31630000 2.77630000 0.56440000
-1.32170000 2.82490000 0.52400000
-1.39690000 2.79200000 0.53880000
0.37160000 5.67430000 1.43070000
0.12570000 5.66070000 1.49290000
-1.42360000 2.85680000 0.48830000
-1.37980000 2.89140000 0.49680000
-0.08650000 5.67680000 1.51430000
-0.23320000 5.52380000 -1.17090000
-1.27810000 2.91140000 0.68870000
-1.32440000 2.93890000 0.57790000
0.27500000 5.73260000 1.45720000
-0.76430000 5.43000000 -1.17710000
0.40840000 5.78130000 1.36080000
0.06120000 5.75120000 1.47380000
-1.84040000 2.82690000 0.48350000
-1.75770000 2.77220000 0.59250000
-0.55540000 5.51790000 -1.28310000
-1.79490000 2.85880000 0.53220000
-0.76760000 5.49920000 -1.17200000
-1.66960000 2.80760000 0.60550000
0.09550000 5.76550000 1.40850000
0.34620000 5.75140000 1.30890000
0.12000000 5.72720000 1.34510000
-1.54830000 2.85230000 0.53940000
-1.71780000 2.88430000 0.54650000
-1.62440000 2.93780000 0.51410000
-1.72430000 2.98820000 0.50300000
-0.54400000 5.42710000 1.43800000
-0.69430000 5.38690000 1.40210000
-0.33180000 5.48610000 -1.34840000
-1.45050000 2.95210000 0.47150000
-0.35700000 5.59990000 -1.37550000
-1.39910000 2.99600000 0.50660000
-1.52010000 2.93990000 0.48160000
-1.48440000 3.03230000 0.49040000
-0.33710000 5.62280000 -1.19940000
-1.57720000 3.00990000 0.49070000
-0.45570000 5.48350000 1.44960000
-1.34950000 2.35410000 -0.16040000
-1.30570000 2.34020000 -0.15430000
-1.38230000 2.33800000 -0.11090000
-1.29300000 2.33140000 -0.19830000
-0.53500000 5.64120000 -1.32310000
-0.29650000 5.66670000 -1.38830000
-0.50250000 5.69730000 -1.28990000
-1.41700000 2.38130000 -0.13410000
-0.30610000 5.55630000 1.48400000
-0.57040000 5.58580000 1.43110000
-1.39240000 2.70720000 -0.02640000
-1.42340000 2.69010000 -0.07240000
-1.48960000 2.67800000 0.01210000
-1.48580000 2.69020000 -0.10030000
-0.16390000 2.18750000 -1.76350000
-1.42640000 2.68980000 0.03230000
-1.41890000 2.70240000 0.10430000
-1.39080000 2.72990000 0.04950000
-1.30150000 2.68220000 0.23950000
-1.34870000 2.68770000 0.18720000
-1.35520000 2.68380000 0.23340000
-1.30640000 2.72380000 0.21050000
-1.31010000 2.71110000 0.26700000
-1.32000000 2.76130000 0.25250000
-1.37090000 2.76760000 0.28230000
-0.80700000 5.62530000 1.33680000
-0.77350000 5.51630000 1.32080000
-0.42980000 1.45090000 -1.62800000
-0.59690000 5.60130000 1.17470000
-1.41790000 2.83030000 0.25580000
-1.53160000 2.90130000 0.21730000
-1.53010000 2.93420000 0.15550000
-1.37350000 2.81670000 0.18160000
-1.40910000 2.89520000 0.13000000
-1.59250000 2.88780000 0.25770000
-1.37130000 2.83990000 0.06650000
-1.42350000 2.97770000 0.04910000
-0.57280000 5.70100000 1.27370000
-0.28850000 5.60150000 1.27290000
-0.18500000 5.71110000 1.35760000
-0.36130000 5.64370000 1.49810000
-0.61040000 1.58050000 -1.60820000
-0.47370000 1.61190000 -1.59820000
-1.80110000 2.38890000 -0.05840000
-0.99980000 5.36820000 -1.04510000
-0.54620000 5.67200000 1.45220000
-0.25440000 5.71440000 1.50130000
-0.49530000 5.71980000 1.44110000
-1.84990000 2.44560000 -0.03940000
-0.38460000 1.55040000 -1.64290000
-0.29050000 5.74430000 1.43830000
-0.75970000 5.69130000 1.34290000
-0.70480000 5.72140000 1.30870000
-1.84680000 2.54970000 -0.05020000
-1.83850000 2.52620000 -0.19680000
-0.53950000 2.05710000 -1.69620000
-0.96670000 5.44340000 -1.02940000
-0.45370000 1.76250000 -1.62140000
-1.80710000 2.43050000 -0.20880000
-0.66610000 1.64820000 -1.56710000
-0.91370000 5.54830000 -1.09330000
-1.79790000 2.68360000 -0.36640000
-1.78620000 2.63570000 -0.11360000
-1.80840000 2.64590000 -0.22960000
-1.74640000 2.67630000 -0.20660000
0.27110000 5.68240000 1.26900000
-1.86360000 2.46140000 0.10110000
-1.86190000 2.58340000 0.08680000
-0.74900000 5.60090000 -1.21890000
-0.65600000 5.66690000 -1.26480000
-1.84020000 2.65700000 0.12460000
-0.14940000 4.93450000 -1.85280000
-1.58960000 2.72470000 -0.18250000
-1.67450000 2.71330000 -0.19160000
-1.69920000 2.68370000 -0.08380000
-1.60160000 2.69470000 -0.04320000
-1.77550000 2.71210000 0.18280000
-1.77020000 2.68140000 0.02730000
-1.83130000 2.62770000 -0.01550000
-0.57070000 1.69100000 -1.53460000
-0.45460000 1.73980000 -1.56740000
-0.47580000 1.70470000 -1.54710000
-0.56380000 1.77020000 -1.51370000
-1.81530000 2.69670000 0.26700000
-1.80980000 2.76330000 0.34610000
-0.13890000 5.14780000 -1.85170000
-1.84830000 2.87650000 0.34680000
-1.71180000 2.83950000 0.29250000
-1.79590000 2.88730000 0.29500000
-0.72920000 1.82060000 -1.48180000
-0.61720000 1.88090000 -1.49450000
-0.47380000 2.46040000 -1.72880000
-0.50890000 1.86250000 -1.51120000
-1.87210000 2.95440000 0.37990000
-0.50030000 1.92590000 -1.52980000
-1.82630000 2.96800000 0.47170000
-0.60960000 2.13520000 -1.59850000
-0.35440000 5.22450000 -1.80290000
-1.80530000 3.04160000 0.49460000
-0.44190000 1.98730000 -1.34320000
-0.46940000 1.93790000 -1.44010000
-0.51850000 1.92400000 -1.43200000
0.87150000 5.51380000 0.83650000
0.84220000 5.22470000 0.82050000
0.69150000 5.26670000 0.96400000
-0.44710000 2.01440000 -1.39360000
-0.52140000 1.96970000 -1.31600000
-0.47430000 2.01450000 -1.28890000
0.78050000 5.58300000 0.94310000
-0.66630000 1.93260000 -1.40630000
-1.85970000 3.07670000 0.45570000
-1.64230000 2.95060000 0.20270000
-1.75940000 2.95720000 0.21660000
-0.77710000 1.87390000 -1.48370000
-0.76310000 1.90630000 -1.46860000
-1.85140000 2.99650000 0.25330000
-1.69600000 2.99830000 0.14910000
0.58850000 5.50910000 1.06370000
0.82570000 5.69480000 0.95190000
-0.57590000 1.96860000 -1.23900000
-1.88640000 3.07900000 0.26110000
-1.86800000 3.17200000 0.41790000
-0.10120000 5.25300000 -1.79550000
-1.81750000 3.03790000 0.13520000
-1.87720000 3.09880000 0.14750000
-1.68160000 3.06660000 0.09990000
-1.88120000 3.21180000 0.17610000
-1.82750000 3.13460000 0.09390000
-1.75900000 3.22320000 0.08480000
-1.86490000 3.24100000 0.11280000
-0.53800000 2.08880000 -1.48350000
-1.87710000 3.17010000 0.25030000
-1.83180000 3.22070000 0.31890000
1.03610000 5.51580000 0.58860000
0.97330000 5.22770000 0.65300000
-1.83590000 3.23410000 0.24080000
-1.82530000 3.28800000 0.23680000
-1.88270000 3.32730000 0.18020000
-0.52040000 2.17410000 -1.37430000
1.12110000 5.47080000 0.38780000
