49.08670000 48.83840000 9.96240000
34.84630000 56.41910000 32.98870000
39.05740000 61.27530000 28.93780000
41.80600000 57.56570000 25.35050000
44.15670000 61.20440000 22.08440000
45.61800000 58.44930000 19.53660000
47.21280000 58.66980000 16.25380000
31.60070000 53.42270000 35.74920000
30.48140000 57.55630000 36.64610000
32.18940000 61.38380000 35.61710000
34.99610000 60.03730000 33.16320000
36.42950000 59.94130000 31.73480000
29.62230000 52.52900000 37.16450000
29.31360000 54.74730000 37.44410000
24.68970000 54.01330000 40.17110000
29.00300000 62.63950000 37.89860000
32.00240000 64.20550000 35.84000000
35.59850000 61.91470000 32.63210000
27.54090000 29.71360000 38.89520000
24.42130000 28.72750000 40.70180000
19.54990000 34.69980000 43.24680000
18.99030000 49.77780000 43.12020000
20.06240000 54.75700000 42.58390000
17.69000000 59.13170000 43.52890000
18.82780000 61.16860000 43.16820000
22.07280000 62.85720000 41.82650000
24.12690000 60.94420000 40.78780000
25.84870000 62.98080000 39.77390000
12.49270000 29.12770000 45.52480000
11.61420000 30.91860000 45.95580000
14.09130000 45.23130000 44.86760000
7.62790000 29.12480000 46.59840000
4.28970000 35.82860000 47.12960000
6.63570000 36.20900000 47.04390000
25.41510000 66.15350000 40.62080000
29.55410000 66.49710000 38.24640000
37.16990000 66.98900000 32.55780000
36.84240000 63.90050000 31.53980000
19.17280000 66.28120000 43.64670000
21.44750000 67.77480000 43.51720000
24.27400000 69.74640000 43.62400000
33.07630000 70.61160000 39.49320000
39.59840000 70.03280000 33.86540000
38.19620000 65.99080000 30.89350000
17.64640000 63.74930000 43.78100000
17.35400000 65.90900000 44.33220000
14.51290000 68.65230000 46.74400000
16.76350000 69.05520000 46.57090000
19.12810000 67.76720000 44.28430000
21.31740000 70.51890000 46.23260000
15.59500000 63.40780000 44.29800000
13.16400000 64.20220000 45.13180000
12.56320000 66.29660000 45.71710000
8.20550000 68.93970000 48.38080000
16.52920000 70.77820000 48.28300000
15.12400000 59.04370000 44.51290000
11.05270000 62.52550000 45.67160000
7.86900000 65.88510000 46.61580000
-0.75220000 68.71930000 48.81760000
4.12860000 71.45040000 51.49470000
22.05110000 71.50050000 48.47220000
16.98000000 58.00980000 43.96820000
17.39920000 55.96670000 43.75840000
12.31930000 55.40140000 45.18240000
7.14020000 61.04460000 46.58900000
3.96710000 64.58400000 46.85230000
4.78770000 50.04260000 46.40350000
4.60710000 58.82120000 46.76970000
1.15650000 61.96270000 47.01530000
4.39290000 62.48210000 46.94930000
2.47380000 63.30220000 46.67880000
-2.43660000 65.49880000 47.07870000
-0.31680000 42.54940000 46.89220000
-3.17470000 51.67960000 46.44840000
-2.36400000 60.90000000 46.81150000
-3.38520000 64.15480000 46.67820000
0.62820000 38.37170000 47.05600000
-2.43910000 39.68870000 47.03330000
-10.00910000 45.07970000 45.50000000
-7.97430000 58.99980000 46.13270000
-9.95670000 63.85280000 45.73410000
-8.05970000 65.96300000 46.63040000
-0.67140000 33.09250000 47.40520000
-8.87360000 29.11310000 46.22170000
-13.07440000 29.10990000 45.64740000
-16.14280000 29.10730000 44.60650000
-20.53520000 38.47650000 42.73780000
-19.02540000 46.37440000 42.89200000
-19.30380000 52.89720000 42.64950000
-13.50160000 56.17110000 44.89210000
1.94150000 29.12110000 47.06770000
-2.12930000 29.11830000 47.19150000
-10.54890000 71.20400000 50.11930000
-3.49490000 71.13180000 50.91390000
2.29420000 71.64660000 57.20390000
16.37280000 71.76250000 53.29860000
-21.96300000 70.44700000 45.71190000
-15.47520000 71.58610000 50.49330000
-12.44230000 71.90610000 54.92170000
-14.19240000 67.69480000 46.19050000
-19.04730000 67.82470000 44.62820000
-27.00850000 67.70680000 41.07810000
-29.54750000 70.72290000 42.39050000
-24.63760000 71.36070000 46.37210000
-33.95820000 71.45250000 46.99870000
-17.96920000 65.51710000 44.04720000
-23.11940000 65.50030000 41.79260000
-29.22920000 64.89250000 38.09870000
-33.21590000 67.75170000 37.09390000
-34.55030000 70.34740000 38.65210000
-34.11150000 71.35940000 40.85130000
-16.22180000 63.39850000 44.19590000
-20.43260000 62.94510000 42.47850000
-24.08560000 64.13880000 40.61970000
-26.30060000 63.34980000 39.54140000
-18.98850000 61.07180000 43.27140000
-23.29850000 57.58450000 41.05610000
-26.22500000 55.35010000 39.29620000
-30.15420000 62.73220000 37.12420000
-32.61010000 65.23410000 35.90520000
-32.14970000 66.03250000 37.01890000
-10.71900000 61.19890000 45.78590000
-22.81000000 49.41320000 41.16990000
-26.80860000 46.75360000 39.00880000
-33.10860000 55.37740000 34.73620000
-22.25900000 45.39340000 41.62240000
-25.45030000 39.41000000 40.26040000
-29.45990000 42.04510000 37.68190000
-34.11790000 47.98610000 33.96330000
-38.99240000 65.93820000 30.25890000
-40.86590000 68.08150000 29.50490000
-43.57310000 71.21390000 30.60570000
-37.47670000 71.06210000 36.79240000
-34.33020000 63.33710000 33.98830000
-38.69690000 64.27110000 29.86530000
-42.45780000 66.67310000 26.16860000
-44.91280000 70.02590000 26.29850000
-46.73410000 71.34510000 27.78690000
-37.71640000 58.07020000 30.87000000
-39.52420000 60.84350000 28.72550000
-41.33660000 63.77810000 26.31410000
-40.93990000 64.92970000 27.60560000
-38.40070000 53.79380000 29.89760000
-40.52980000 57.42890000 27.49020000
-41.37070000 60.67540000 26.54750000
-44.51920000 63.70630000 21.39280000
-38.55460000 48.70860000 29.89700000
-41.74650000 52.38190000 25.86390000
-41.65890000 55.54160000 26.04550000
-43.55780000 57.93120000 23.14130000
-44.51120000 60.74670000 21.79110000
-37.67070000 44.01570000 30.99110000
-40.91660000 42.89360000 27.06010000
-44.90940000 55.08610000 20.69700000
-33.38470000 41.05020000 34.83240000
-37.51390000 37.93640000 31.48390000
-38.97880000 42.42710000 29.59780000
-28.90750000 36.90970000 38.28610000
-37.61830000 29.08570000 31.07610000
-27.64390000 38.64110000 38.89190000
-25.94960000 35.82690000 40.32920000
-32.08310000 29.09190000 35.74660000
40.04850000 65.76380000 28.90160000
43.97070000 65.32710000 23.17240000
43.20660000 67.77740000 26.54370000
47.01450000 69.06700000 22.07080000
48.09320000 66.43670000 16.10920000
46.77300000 62.88810000 17.56320000
45.93660000 61.81470000 19.47570000
46.16200000 60.68580000 18.87630000
39.35280000 71.17750000 35.98030000
44.52640000 69.82460000 27.78110000
44.96430000 70.95570000 29.80310000
48.78990000 70.62090000 22.55690000
52.14370000 70.89800000 15.52280000
51.13410000 69.96100000 14.29620000
34.44500000 71.29360000 40.34200000
45.13570000 71.57090000 37.11320000
44.99080000 71.24870000 32.07920000
33.00560000 71.72960000 47.02780000
44.04630000 71.06960000 40.70970000
45.23260000 71.40170000 38.36370000
47.66110000 70.84370000 37.47950000
50.55490000 71.24110000 32.64140000
25.06500000 71.62270000 51.38630000
29.46680000 71.36290000 50.63670000
29.94510000 70.68550000 51.11860000
36.34760000 71.16430000 46.98630000
19.10400000 71.49740000 54.27980000
23.96920000 70.96020000 53.70690000
26.35450000 70.65660000 52.74780000
15.64430000 71.47240000 54.98650000
18.43980000 70.76180000 54.96140000
19.87590000 70.86930000 55.07970000
21.30780000 70.58430000 54.83430000
14.84100000 71.39110000 56.13830000
15.00960000 70.98830000 56.58370000
16.21590000 69.35550000 56.20940000
18.44040000 68.47070000 55.49390000
21.88980000 68.33090000 53.96870000
24.93010000 68.30130000 52.82200000
11.76820000 70.77170000 57.31800000
13.69800000 67.83010000 56.41730000
15.08510000 66.42850000 56.69100000
20.71730000 65.16730000 55.24210000
22.37270000 64.34540000 53.39740000
1.67150000 70.85890000 58.53410000
10.43060000 68.25980000 57.71940000
11.15000000 64.01610000 57.13130000
14.67130000 62.90420000 56.60390000
19.45820000 60.47580000 55.13820000
21.36430000 62.30960000 54.54100000
-7.78860000 70.59300000 58.04550000
1.81470000 69.73620000 58.59890000
6.46950000 69.11310000 58.05970000
5.43180000 66.16060000 58.38360000
6.64460000 64.19410000 58.00070000
-12.87250000 71.49940000 56.12230000
-18.25070000 70.77560000 55.72060000
-13.83570000 65.87700000 55.99520000
-8.01550000 63.55270000 56.64630000
-31.18680000 71.28580000 49.42250000
-26.03340000 69.92240000 52.96490000
-21.41180000 69.55280000 54.77030000
-22.88800000 63.10530000 52.87250000
-14.84960000 59.77310000 55.01670000
-33.80700000 71.02800000 48.06570000
-31.30460000 70.69600000 50.08820000
-33.74080000 69.71550000 48.89800000
-38.04070000 56.70520000 43.38800000
-31.56620000 57.67790000 48.12170000
-36.23630000 70.34790000 46.49950000
-38.93370000 71.12130000 44.70010000
-38.63120000 68.99630000 45.58560000
-36.98330000 66.95020000 45.98080000
-37.64670000 71.64390000 43.74460000
-45.03140000 71.63230000 34.89500000
-47.62490000 71.53570000 35.02610000
-45.14430000 70.59280000 39.75720000
-41.75410000 69.98740000 43.28340000
-41.91230000 60.13430000 40.25420000
-50.80420000 71.61850000 29.51510000
-48.32780000 70.98220000 35.83860000
-51.51680000 70.25300000 32.20560000
-45.14460000 69.57320000 40.07540000
-50.16530000 71.47060000 24.12670000
-53.44900000 71.18960000 26.66310000
-53.22450000 70.70660000 29.06020000
-53.06790000 69.71240000 29.88840000
-45.12970000 60.66480000 37.17370000
-47.89070000 70.55580000 22.59410000
-51.36310000 71.28140000 17.77580000
-55.14960000 71.46640000 22.70470000
-56.10390000 70.58520000 24.29870000
-54.10720000 70.65570000 26.87750000
-45.60370000 68.07290000 22.55170000
-48.30670000 69.47040000 19.11270000
-51.62530000 70.75440000 13.56280000
-55.38590000 71.64220000 7.04250000
-58.94260000 71.57210000 10.06690000
-59.75740000 70.83150000 13.89260000
-46.92100000 67.27840000 19.08580000
-50.06240000 68.01660000 10.87890000
-52.06540000 69.83870000 5.66470000
-53.64080000 71.03930000 4.22400000
-53.77470000 71.14540000 -4.30730000
-60.20120000 71.48270000 0.92210000
-48.02540000 64.03180000 12.83560000
-49.99070000 65.93950000 5.40290000
-51.81130000 69.33340000 0.83650000
-52.16550000 70.53630000 -7.63630000
-52.94220000 71.49240000 -12.70290000
-57.59110000 71.63760000 -11.63690000
-46.89270000 61.49620000 16.81110000
-47.39850000 58.43750000 15.43730000
-48.86230000 61.23950000 9.02730000
-49.42580000 62.77810000 3.67940000
-50.25040000 66.48320000 -1.63050000
-51.26400000 69.17280000 -4.26190000
-44.94320000 59.27730000 20.57070000
-46.10630000 60.00530000 17.86910000
-47.52990000 53.66800000 14.57300000
-49.00990000 56.87840000 7.26310000
-44.68450000 57.65560000 21.51960000
48.04640000 61.09120000 14.37320000
48.72050000 58.96890000 11.97160000
49.74440000 51.79480000 7.56760000
-4.39440000 29.08640000 -45.74670000
-4.13470000 44.24030000 -44.96180000
3.46960000 41.28070000 -44.90100000
1.16910000 28.53800000 -45.89230000
37.76210000 39.27740000 -28.99130000
36.35050000 28.51090000 -30.77390000
40.62800000 34.05670000 -25.72470000
33.07810000 32.76080000 -33.68180000
28.44990000 31.36510000 -36.91000000
32.83250000 27.28420000 -33.82690000
41.35950000 40.64270000 -24.65740000
44.69990000 38.94490000 -19.23380000
47.28120000 36.42540000 -12.84640000
44.58870000 27.38310000 -19.89650000
47.30230000 42.68030000 -13.34120000
46.29360000 42.10540000 -16.37730000
46.48150000 46.55890000 -15.96930000
43.49070000 47.64450000 -21.38500000
48.21040000 28.59850000 -9.75220000
49.24540000 38.16900000 -5.77590000
49.54330000 44.20810000 -5.60240000
49.05590000 50.82360000 -8.89620000
50.33610000 43.19750000 -0.30750000
50.72440000 47.53770000 0.03130000
50.30640000 50.61130000 0.14830000
50.36650000 47.21980000 3.50930000
49.90300000 59.75690000 7.16290000
50.26270000 60.69510000 -0.42440000
49.26750000 61.68530000 10.79480000
49.23110000 64.17220000 10.84010000
50.12680000 64.92990000 6.66390000
48.55280000 63.74020000 12.91260000
49.44220000 66.32780000 11.75210000
50.91340000 67.36570000 6.42770000
50.88060000 66.39140000 2.09930000
50.38440000 64.51220000 2.92760000
53.58750000 70.78600000 6.79010000
52.41650000 69.31660000 3.07320000
50.79470000 66.38110000 -0.29750000
50.27560000 64.17190000 -0.52500000
55.31610000 71.31160000 7.53820000
54.25130000 70.92810000 2.87490000
52.52700000 69.43190000 -1.24760000
50.71790000 66.15940000 -3.05570000
50.00170000 63.68690000 -4.32730000
49.59890000 57.63340000 -6.33250000
50.80900000 71.39280000 22.08430000
54.99750000 71.40890000 24.69490000
59.46500000 71.30400000 12.94600000
60.22140000 71.34180000 -4.96730000
55.22140000 71.32690000 -5.01880000
53.64230000 70.87020000 -5.59770000
53.13640000 70.63770000 30.78230000
56.43060000 70.25890000 26.02320000
57.78610000 71.04020000 21.16330000
60.46060000 70.65770000 14.13960000
49.24030000 70.13430000 36.32470000
52.58230000 69.46880000 32.24490000
54.45240000 68.57160000 29.87300000
56.76140000 68.77060000 25.40980000
57.28950000 70.24230000 23.51790000
46.38690000 68.48500000 38.73800000
49.90170000 66.21520000 35.98000000
51.33620000 66.34190000 34.14120000
52.22300000 66.53780000 31.19880000
53.18040000 68.08240000 30.87320000
55.71590000 63.01630000 27.54350000
46.52560000 70.22260000 39.14340000
45.44050000 69.09570000 40.39070000
44.22120000 66.78360000 39.76980000
45.49200000 64.00680000 37.74960000
48.50410000 65.17420000 37.01550000
44.73000000 70.19510000 40.73750000
44.44940000 67.62510000 40.75300000
43.98350000 65.10610000 40.64280000
44.40210000 63.16620000 38.59700000
42.45930000 70.43690000 42.79410000
42.42010000 65.61760000 42.94660000
44.08580000 67.45640000 41.57580000
41.23610000 70.75780000 43.26630000
41.61050000 68.52000000 43.53740000
41.45530000 65.61410000 43.36180000
41.47420000 63.83330000 43.06330000
39.34240000 70.51610000 45.23050000
40.21420000 69.27420000 44.90330000
39.27470000 67.54870000 45.58960000
37.54220000 64.35240000 44.65640000
38.40070000 63.28560000 44.30790000
36.23070000 70.57070000 47.64920000
36.82660000 68.22290000 46.71000000
32.51470000 70.14170000 49.72080000
31.91320000 66.75570000 48.69030000
34.58760000 63.99870000 46.67790000
30.97870000 69.44010000 50.93860000
30.35140000 66.64760000 49.77020000
29.86420000 62.94510000 49.21380000
29.32200000 69.75610000 51.66100000
28.16840000 68.60560000 52.16520000
28.05380000 66.15530000 50.47160000
26.42410000 67.20170000 52.70700000
26.83510000 66.25430000 52.06010000
24.28320000 60.50490000 51.65520000
29.92940000 55.55590000 49.08200000
31.29780000 61.17280000 48.92290000
31.91240000 62.38740000 48.50870000
24.88560000 65.08000000 53.11800000
25.92190000 65.06380000 52.75130000
20.66000000 59.28600000 55.06240000
21.74290000 58.32000000 52.55340000
19.67840000 59.78430000 55.26410000
19.05150000 57.39870000 55.12650000
19.57760000 55.73070000 53.42980000
21.51830000 52.50110000 52.93310000
16.69980000 60.15480000 55.46510000
17.38000000 58.89400000 54.63830000
15.62150000 56.40680000 55.49290000
15.46980000 55.70280000 56.16230000
17.49500000 54.60930000 55.07020000
11.97130000 59.22320000 57.45030000
10.92240000 62.65600000 57.64680000
8.96560000 58.70470000 57.46940000
11.90820000 57.12420000 56.87460000
11.42100000 55.73240000 57.02910000
14.06530000 54.48620000 57.00980000
9.05520000 62.21280000 57.29700000
6.51950000 59.42560000 56.25250000
6.44020000 56.97230000 56.16520000
7.91990000 55.61520000 56.29750000
7.43220000 54.40020000 57.25540000
9.45040000 53.96760000 57.75830000
7.32540000 63.13340000 58.02850000
4.39600000 61.68990000 56.64730000
3.95650000 57.53100000 56.34090000
5.68750000 56.39370000 56.25070000
3.20310000 54.92650000 57.85840000
6.83190000 52.26020000 57.27350000
4.71740000 62.96170000 57.41960000
4.24630000 65.03620000 58.22440000
1.69160000 64.17570000 57.25770000
4.03710000 65.87750000 58.14290000
4.59240000 66.93550000 57.75270000
-0.05810000 64.46600000 57.03210000
-5.01310000 57.78610000 56.51590000
1.07340000 55.07830000 56.67510000
2.84900000 56.16320000 56.68900000
2.99000000 68.03720000 57.83260000
-10.08130000 44.67000000 55.18480000
-4.28880000 51.84180000 55.95950000
-2.48370000 54.08060000 56.40030000
-0.66590000 53.96640000 57.32800000
-1.90330000 49.81440000 56.00810000
0.42280000 51.99020000 57.84510000
3.17810000 53.83030000 58.18200000
-1.71480000 46.47680000 55.83930000
1.02840000 46.99460000 57.12010000
2.78010000 49.23090000 57.50890000
5.47500000 50.50190000 57.23250000
5.00450000 48.73830000 57.81030000
7.78750000 50.41320000 58.03950000
-5.71780000 44.29320000 55.60790000
-0.82140000 36.76730000 55.70330000
0.67530000 38.97680000 55.85330000
-0.63070000 44.07390000 56.19040000
-0.61010000 45.57060000 56.03560000
-9.58270000 42.77370000 55.88420000
-6.60820000 41.81280000 55.31840000
-12.15100000 42.21590000 55.61620000
-15.10370000 37.51590000 55.14240000
-13.10070000 37.53010000 54.38670000
-14.61870000 34.47330000 54.12120000
-5.34700000 34.65700000 55.67490000
-12.04650000 44.05350000 54.76610000
-14.18440000 40.91390000 55.16370000
-16.12900000 38.04940000 54.67780000
-18.13730000 34.19740000 53.88570000
-15.92600000 35.26940000 54.71360000
-21.61110000 50.54290000 52.47640000
-17.02360000 39.33850000 53.59590000
-18.74540000 34.19830000 53.32110000
-19.75350000 32.41020000 54.08310000
-16.51160000 33.69960000 54.94110000
-26.19600000 49.04630000 50.59140000
-24.89180000 37.76670000 50.67500000
-23.42280000 36.32590000 51.57930000
-36.04200000 48.80000000 44.54580000
-31.01400000 36.85970000 47.64130000
-26.58330000 35.89310000 50.21750000
-25.10490000 34.78780000 51.97490000
-38.50740000 52.74180000 43.20090000
-41.23180000 47.07880000 40.53790000
-36.52240000 36.61490000 43.97070000
-30.40640000 32.18240000 47.77330000
-38.49500000 54.70920000 43.24900000
-41.07510000 52.24580000 43.13200000
-43.66680000 49.03610000 41.26780000
-39.41660000 55.79580000 42.85570000
-40.80780000 54.05760000 43.47210000
-42.34390000 53.69830000 42.66820000
-40.91250000 57.11680000 41.21140000
-41.86340000 55.29880000 42.60810000
-43.44310000 55.58030000 41.39730000
-45.71280000 54.96000000 39.37650000
-48.79430000 44.66670000 36.09450000
-45.94290000 43.45460000 36.51460000
-42.51360000 58.01310000 39.55040000
-43.76440000 57.32340000 38.74920000
-47.25660000 56.75960000 34.32810000
-47.87590000 54.98210000 36.72790000
-45.75470000 56.15790000 38.46190000
-48.46110000 55.44550000 32.66200000
-50.18930000 53.47690000 33.85580000
-50.14680000 58.37060000 30.48590000
-50.14700000 54.79550000 30.49900000
-53.56230000 50.55540000 28.70090000
-53.95330000 46.98480000 28.56150000
-53.79320000 62.47630000 25.83210000
-52.97650000 53.49250000 25.35920000
-51.27420000 53.09030000 29.20430000
-52.57760000 52.21420000 27.18980000
-55.67130000 48.17930000 25.00050000
-54.58560000 42.89760000 27.10650000
-54.54240000 65.28110000 25.88110000
-55.83660000 64.51140000 23.09190000
-56.53930000 62.06230000 20.03200000
-56.05410000 50.34170000 18.40060000
-55.49160000 68.95900000 25.35140000
-57.31730000 69.50850000 22.18420000
-58.02360000 66.59160000 18.85510000
-57.86190000 62.75240000 16.59420000
-57.95270000 58.38500000 15.68900000
-57.52170000 70.18380000 21.29740000
-58.46210000 69.14850000 19.34090000
-59.26700000 62.63160000 10.78250000
-58.97100000 60.12130000 12.04660000
-58.38580000 59.56590000 14.61340000
-59.44520000 70.18300000 16.21960000
-61.03940000 68.71430000 9.44550000
-60.33830000 63.66630000 4.15720000
-59.21290000 56.70330000 10.00570000
-59.68800000 58.37370000 12.40970000
-61.28790000 70.30160000 7.16320000
-61.54870000 68.75590000 5.06370000
-59.51570000 62.00510000 -5.80800000
-59.38950000 56.12360000 5.19570000
-61.43730000 70.67120000 0.34480000
-61.27510000 69.92550000 -4.13390000
-60.06090000 70.91850000 -9.33020000
-59.74170000 68.98960000 -12.11610000
-56.73880000 71.09830000 -20.42260000
-58.37140000 70.22430000 -16.90680000
-57.89780000 63.95240000 -14.29950000
-55.13600000 71.68640000 -14.50730000
-55.25300000 71.72900000 -20.16550000
-54.51010000 70.67710000 -25.43770000
-55.67360000 69.58810000 -23.57080000
-55.95250000 67.78330000 -22.19500000
-57.91200000 69.47930000 -18.51670000
-50.20930000 70.96330000 -16.21940000
-47.04110000 71.33170000 -25.12870000
-51.26900000 71.48720000 -27.60170000
-49.31970000 71.09350000 -32.82940000
-51.76570000 69.75910000 -30.30450000
-48.59230000 69.33730000 -15.60780000
-44.38680000 70.12050000 -25.14850000
-43.26870000 70.74200000 -28.73880000
-45.56560000 71.53780000 -30.14530000
-36.90360000 71.53710000 -38.53560000
-35.20970000 71.55960000 -43.21800000
-46.93970000 66.50230000 -15.47550000
-42.20390000 67.10570000 -24.47740000
-41.42200000 69.73400000 -28.60310000
-35.83500000 69.54510000 -34.33360000
-35.99560000 70.69760000 -35.82940000
-50.52530000 69.28480000 -7.92840000
-49.05100000 65.92680000 -8.20140000
-48.25440000 64.08440000 -9.54180000
-46.74460000 64.13490000 -13.93740000
-43.38470000 63.75930000 -20.55730000
-50.14530000 67.99100000 -5.81880000
-49.50960000 63.95750000 -3.17390000
-48.98210000 63.85150000 -6.19930000
-48.26520000 59.56460000 -9.13210000
-47.41040000 61.76530000 -12.66830000
-49.32660000 55.67410000 0.62470000
-49.17840000 60.63890000 -4.79670000
-48.94220000 53.99950000 -5.41250000
-47.78160000 51.58070000 -10.68550000
-46.31040000 58.33440000 -15.25660000
-48.77580000 51.78140000 8.27290000
-49.46160000 44.69470000 3.21110000
-49.42860000 46.21570000 -2.77050000
-47.64640000 50.01730000 14.49960000
-48.35870000 47.14550000 11.06130000
-48.79970000 39.19370000 8.06620000
-48.92190000 48.46270000 -6.42960000
-45.67420000 46.20030000 18.99510000
-47.05230000 47.63920000 16.00980000
-47.50770000 44.08670000 14.29810000
-46.98720000 36.89520000 14.94340000
-49.44750000 32.84820000 5.27250000
-44.33850000 37.31710000 21.55830000
-44.32020000 32.19470000 21.98390000
-47.44290000 27.32030000 14.58700000
-49.54240000 28.19520000 5.17020000
-43.65890000 61.22020000 -20.61710000
-39.50260000 64.71320000 -26.69720000
-39.92730000 67.83240000 -28.29820000
-41.37680000 58.41470000 -24.43390000
-36.33040000 58.46760000 -29.98560000
-34.86880000 63.24020000 -31.23570000
-37.07710000 65.32620000 -29.56080000
-29.91290000 64.21150000 -35.34250000
-31.64910000 66.28570000 -34.47200000
-30.84940000 68.73240000 -36.92260000
-32.47800000 71.15440000 -39.37480000
-26.71910000 63.73970000 -37.46150000
-26.03330000 66.50520000 -38.49900000
-29.83970000 66.68740000 -36.22250000
-27.95520000 68.53530000 -38.73090000
-24.96260000 70.59770000 -42.63740000
-24.63880000 61.70750000 -38.77200000
-21.55150000 64.95680000 -40.38430000
-22.14310000 67.91360000 -41.41650000
-22.27190000 59.36510000 -39.91590000
-22.03540000 62.33820000 -40.06660000
-19.82040000 63.59740000 -40.90360000
-18.68200000 65.99790000 -41.82270000
-23.02720000 70.01740000 -42.66510000
-21.94420000 55.07110000 -40.17150000
-20.00410000 59.38420000 -41.03670000
-17.53510000 61.58250000 -42.04990000
-15.84150000 64.04660000 -42.55740000
-14.11430000 66.19020000 -43.50590000
-19.87050000 69.21370000 -43.32910000
-20.81940000 52.34620000 -40.67530000
-20.03570000 54.96970000 -41.05460000
-16.86620000 55.22660000 -42.16850000
-13.96210000 63.64440000 -43.00170000
-16.85220000 47.52220000 -42.45670000
-14.30570000 51.11020000 -43.14130000
-11.04720000 56.61040000 -43.88380000
-10.44970000 63.12240000 -44.04120000
-15.05770000 45.30130000 -43.00340000
-11.58510000 49.70040000 -44.00600000
-7.96500000 56.81380000 -44.63210000
-4.95670000 63.84470000 -44.82790000
-2.90970000 66.63380000 -45.63030000
-7.53390000 66.56750000 -45.21270000
-9.82490000 47.12270000 -44.41860000
-10.09300000 49.60030000 -44.45380000
-6.59690000 54.88750000 -44.78220000
-0.87750000 57.58160000 -45.05820000
1.18390000 61.30280000 -45.11350000
1.05660000 63.45930000 -44.91540000
-4.75460000 51.78110000 -44.96540000
1.07630000 53.18470000 -44.91560000
2.33070000 49.06350000 -44.74760000
3.95760000 52.46650000 -44.62700000
5.86250000 55.19820000 -44.46160000
4.33980000 59.35790000 -44.83710000
6.26980000 63.75200000 -44.76270000
6.50080000 66.60530000 -45.37320000
6.91330000 50.52260000 -44.11060000
11.10390000 56.25610000 -43.41230000
8.31530000 58.51860000 -44.27350000
8.67750000 61.42840000 -44.38650000
11.64700000 63.91640000 -43.89730000
10.54960000 66.30550000 -44.61930000
9.83150000 45.20570000 -43.63990000
12.33670000 51.41800000 -42.84280000
14.67930000 55.27250000 -42.28950000
15.32570000 58.05860000 -42.32130000
14.86000000 60.54050000 -42.69710000
11.48580000 60.53400000 -43.71350000
8.87760000 36.09920000 -44.34600000
11.84720000 40.94020000 -43.49790000
14.53530000 46.83660000 -42.32690000
16.90720000 52.93660000 -41.42210000
18.09900000 57.17570000 -41.25620000
18.92640000 60.90990000 -41.21060000
4.91980000 33.52290000 -45.27390000
6.28330000 26.01840000 -45.26650000
11.92490000 27.12240000 -43.89240000
11.23570000 33.79000000 -43.83340000
11.32180000 36.95060000 -43.75220000
18.42420000 25.59730000 -42.08420000
16.74980000 32.65030000 -42.25180000
13.41660000 33.28700000 -43.24100000
12.97880000 36.61060000 -43.32280000
12.53970000 38.67180000 -43.40240000
22.76960000 29.78170000 -40.11460000
21.45950000 33.50640000 -40.43660000
20.41960000 39.85200000 -40.57470000
15.87620000 37.74300000 -42.36980000
14.21020000 40.87600000 -42.84520000
24.97310000 32.83380000 -38.74780000
24.81040000 35.54100000 -38.71000000
23.81800000 38.69400000 -39.11700000
26.92880000 33.37350000 -37.61440000
25.98950000 34.27070000 -38.06330000
26.77310000 35.94700000 -37.57460000
25.84860000 38.13470000 -38.08300000
26.24760000 40.94640000 -37.78470000
24.32500000 43.54270000 -38.64760000
28.14660000 34.70620000 -36.79140000
30.97850000 37.69300000 -34.90000000
27.73530000 38.38710000 -36.94990000
26.82630000 38.07570000 -37.51520000
26.66330000 39.12640000 -37.58970000
35.75370000 44.57580000 -30.68550000
31.57960000 45.96350000 -34.12980000
28.45720000 42.49170000 -36.42850000
39.66650000 45.89500000 -26.61220000
37.60700000 47.35360000 -28.87180000
36.69630000 52.48260000 -29.49460000
30.53430000 52.14620000 -34.68450000
28.27430000 47.25360000 -36.33540000
26.49020000 44.68440000 -37.50330000
40.07210000 41.66090000 -26.47600000
41.75000000 54.73540000 -23.80110000
1.55700000 45.63240000 57.98130000
2.70940000 45.16040000 58.28330000
7.74380000 47.00470000 57.45340000
7.90880000 48.57760000 57.84740000
12.58030000 49.84810000 57.32020000
2.54980000 41.11240000 57.60900000
5.20750000 42.93540000 57.94450000
7.90030000 42.73270000 57.63150000
9.81790000 47.68980000 56.86490000
2.58440000 38.93210000 55.78440000
6.34670000 40.88420000 55.57120000
8.88790000 41.50790000 55.45440000
9.67530000 42.49220000 56.43050000
9.66000000 43.85160000 57.00400000
9.11250000 40.41400000 54.95640000
12.09300000 40.84120000 55.85040000
12.93920000 41.81970000 56.21820000
14.43250000 46.85310000 56.29840000
12.46620000 47.87820000 56.69010000
7.92680000 29.10650000 55.03830000
11.10290000 37.63150000 54.54780000
12.00640000 39.66340000 54.76970000
15.93650000 42.65700000 53.85240000
15.00520000 44.45280000 55.94720000
-1.54050000 32.19260000 55.64070000
5.15360000 28.58360000 55.26950000
6.93870000 27.33520000 55.78550000
9.10400000 24.34390000 55.05810000
9.45650000 26.35730000 54.59960000
10.67060000 32.12330000 54.43370000
11.82870000 36.93530000 54.65710000
-5.23360000 33.12250000 56.34770000
-3.41570000 28.00070000 55.97650000
-2.13090000 21.82980000 55.23530000
-6.89460000 32.78590000 56.46820000
-6.51140000 29.76990000 55.41160000
-5.29470000 27.25950000 55.52350000
-9.58610000 32.86400000 55.35270000
-9.83390000 31.08140000 56.77780000
-7.67070000 28.94710000 55.51830000
-14.24400000 32.35880000 56.47880000
-12.06380000 31.36500000 56.93760000
-10.37970000 28.88570000 56.88970000
-8.28080000 26.72300000 57.51740000
-15.64870000 31.64240000 56.48960000
-15.22020000 27.93570000 56.78070000
-10.98810000 25.82470000 57.49140000
-8.61800000 25.73890000 57.61590000
-7.49920000 24.20860000 56.59830000
-18.26340000 32.32330000 55.34010000
-19.08790000 27.52830000 55.50870000
-16.22550000 25.95260000 55.76520000
-12.89640000 23.63610000 56.49500000
-11.44100000 21.56890000 56.43460000
-10.24200000 23.53720000 56.72180000
-20.57980000 30.43470000 54.50120000
-22.08790000 28.69920000 54.38360000
-22.99970000 26.19360000 53.42750000
-22.08050000 24.25800000 53.61030000
-18.48910000 24.20780000 54.74180000
-22.02150000 32.22920000 52.96900000
-24.11000000 30.69140000 51.04010000
-23.41070000 29.40450000 53.14210000
-23.91710000 26.63790000 52.76770000
-25.98530000 23.06830000 52.17840000
-24.56810000 22.34520000 53.45000000
-23.75710000 33.32730000 52.31900000
-24.27080000 32.47350000 51.26860000
-27.22120000 24.01910000 49.26960000
-26.07950000 33.47990000 51.42020000
-29.83180000 26.86310000 47.69390000
-32.25440000 23.02620000 46.05690000
-27.62080000 21.89650000 48.99870000
-25.99220000 21.06030000 50.64370000
-28.95780000 31.18970000 49.62030000
-30.81840000 29.30630000 47.48030000
-32.95180000 28.71970000 46.27490000
-32.11290000 26.66930000 46.59380000
-32.55300000 24.30010000 46.28270000
-36.01560000 32.93200000 44.65450000
-36.64230000 29.87450000 46.53260000
-34.46090000 28.19180000 47.01900000
-33.16650000 26.39150000 46.57320000
-38.12870000 35.29380000 42.88040000
-37.97700000 32.72160000 45.26910000
-37.31110000 29.01690000 46.44050000
-35.48070000 25.35880000 47.42180000
-34.28160000 26.18580000 47.32110000
-41.25380000 36.98210000 40.86400000
-43.00810000 35.94070000 41.56750000
-39.84040000 33.05070000 44.49590000
-40.60310000 25.34040000 43.95790000
-37.73320000 24.83210000 46.09780000
-43.50350000 38.70590000 38.30200000
-43.91460000 37.91650000 38.58840000
-47.27410000 37.09460000 37.34280000
-44.87450000 33.03770000 40.21970000
-43.16290000 32.28330000 41.77540000
-44.94940000 38.46730000 36.81540000
-50.14900000 38.40540000 32.58230000
-50.27700000 37.05150000 33.73290000
-46.52370000 31.51120000 38.37850000
-44.22580000 30.92770000 39.86970000
-42.29640000 26.07060000 41.63440000
-46.64480000 40.10540000 34.73040000
-49.90300000 40.16910000 32.98300000
-51.23100000 38.10000000 31.29640000
-55.81690000 33.16810000 24.97910000
-49.26650000 21.16510000 34.57570000
-48.28410000 24.00950000 36.47250000
-54.87670000 39.51400000 26.16440000
-55.53250000 35.07970000 23.87230000
-56.70390000 32.38650000 21.63130000
-58.95420000 17.02380000 17.30360000
-56.06810000 18.45990000 24.50510000
-56.50180000 39.43360000 23.01370000
-57.34530000 38.76120000 21.61340000
-58.02540000 34.34520000 19.21060000
-59.64590000 24.53600000 14.99240000
-59.39530000 16.33040000 14.66040000
-55.17050000 43.17440000 25.15730000
-55.15750000 42.26500000 22.25340000
-57.68610000 43.20920000 20.10980000
-58.31840000 42.28430000 19.20550000
-58.99370000 40.02010000 17.28770000
-55.16510000 47.25990000 21.56060000
-55.36200000 46.64720000 20.26830000
-55.69170000 44.75410000 20.71840000
-55.87090000 46.51680000 18.90820000
-56.98900000 45.79180000 17.20440000
-58.24030000 43.63300000 17.35180000
-54.85270000 49.75850000 21.50930000
-57.44930000 51.10380000 16.38130000
-56.69500000 47.79440000 17.58240000
-58.55840000 47.60530000 16.59920000
-58.48750000 44.94570000 16.14770000
-59.07330000 44.02080000 15.17490000
-59.51430000 42.44320000 13.76190000
-58.48470000 51.68510000 15.95110000
-59.16360000 50.03600000 15.12460000
-59.43860000 56.99980000 14.39520000
-59.68450000 52.45990000 14.37980000
-59.57230000 49.83050000 13.89860000
-59.66950000 48.11430000 14.86680000
-59.91110000 57.10840000 13.67410000
-59.69140000 55.07350000 13.98720000
-60.00050000 51.40600000 12.97070000
-59.45410000 48.29100000 12.59800000
-59.71940000 46.01820000 12.90010000
-59.95890000 56.08600000 12.03520000
-59.49760000 53.29570000 11.88090000
-58.81600000 50.37940000 9.18510000
-58.66320000 47.72310000 10.83990000
-58.89010000 53.66600000 10.15410000
-59.11210000 43.11720000 3.90090000
-58.63390000 45.23240000 9.90080000
-58.62580000 42.71990000 11.55290000
-59.27540000 44.42190000 13.16590000
-59.01150000 47.65200000 -0.98860000
-59.46510000 45.60400000 -1.05510000
-59.64650000 42.80370000 2.78800000
-58.39130000 39.35640000 9.34710000
-58.65420000 40.06430000 11.06660000
-59.55710000 41.55080000 12.90450000
-58.66230000 50.06970000 -5.64070000
-59.31160000 47.55520000 -5.70210000
-60.35980000 46.08580000 -4.07650000
-61.22290000 42.90270000 0.09760000
-60.96810000 39.69750000 4.63300000
-59.12070000 39.50650000 6.83600000
-58.37220000 49.78200000 -10.02350000
-60.18370000 47.39690000 -8.63110000
-61.38530000 42.01030000 -2.18640000
-61.29280000 39.07230000 4.01580000
-60.01440000 38.42530000 6.98500000
-56.47170000 57.90870000 -16.59670000
-57.31380000 51.45360000 -13.42770000
-56.96610000 50.99100000 -16.15900000
-58.71880000 48.90750000 -13.77790000
-59.84280000 47.82410000 -11.21150000
-60.35200000 42.63760000 -7.62270000
-55.29390000 62.17810000 -20.79840000
-52.61590000 50.38840000 -25.16330000
-54.81470000 52.02800000 -20.44380000
-56.41290000 50.12140000 -21.04540000
-58.25170000 49.71370000 -15.89360000
-58.51030000 47.37910000 -16.45830000
-50.34930000 63.15500000 -30.43390000
-45.93320000 62.02980000 -35.90930000
-51.81070000 47.73950000 -27.49920000
-53.61320000 47.69750000 -26.58260000
-54.71550000 47.74820000 -25.58790000
-48.18420000 68.30950000 -34.87980000
-47.46540000 70.13990000 -35.82320000
-41.97950000 67.53150000 -41.00520000
-41.86120000 65.73970000 -40.56350000
-41.95940000 70.77590000 -40.64500000
-39.22880000 69.46020000 -43.25790000
-34.92200000 65.06120000 -45.91480000
-31.84990000 57.62090000 -47.24410000
-33.04990000 50.05640000 -46.73960000
-43.62920000 58.55970000 -38.26160000
-36.40200000 70.85080000 -44.67080000
-35.89050000 70.58050000 -45.53460000
-35.37290000 69.02150000 -45.99440000
-30.98430000 67.38290000 -48.67700000
-26.41290000 61.37080000 -50.08850000
-34.27120000 71.71010000 -44.54120000
-32.34560000 70.89790000 -47.71060000
-32.66390000 69.95440000 -47.88290000
-27.23890000 67.96030000 -50.58530000
-28.61900000 71.39860000 -43.48280000
-24.60670000 71.73730000 -49.28190000
-20.45150000 71.05670000 -52.76230000
-26.12080000 70.62310000 -51.05260000
-18.65070000 69.16750000 -53.99130000
-17.96460000 63.47730000 -53.30470000
-17.90800000 71.11230000 -46.25500000
-3.60250000 71.44710000 -50.40870000
-10.49380000 71.61310000 -53.37510000
-12.46680000 70.92630000 -55.08930000
-19.45790000 70.38760000 -53.62410000
-18.03740000 70.19170000 -44.59650000
-15.10900000 69.44180000 -45.19730000
-7.37230000 70.60990000 -48.10610000
7.18090000 71.48140000 -50.21700000
8.24340000 71.51750000 -53.96320000
-7.03940000 71.04480000 -55.73650000
-6.11300000 68.50330000 -46.36700000
8.20180000 70.87860000 -48.40940000
15.04730000 70.74640000 -46.52100000
18.17860000 71.09610000 -46.41530000
15.87970000 71.53100000 -48.62650000
8.22800000 69.48420000 -46.81320000
13.84720000 68.04090000 -44.55280000
18.02050000 69.60060000 -44.31830000
16.13400000 66.43380000 -43.06630000
25.68710000 69.17540000 -40.69870000
26.59310000 70.71890000 -41.86260000
24.56810000 71.35630000 -44.72380000
34.80120000 71.59080000 -44.12790000
19.35920000 71.67830000 -50.54470000
14.25860000 63.01780000 -43.09370000
19.50570000 64.68350000 -41.30540000
26.72650000 67.58070000 -38.92820000
33.24870000 69.81440000 -36.71480000
34.04790000 71.07100000 -38.11060000
34.12630000 71.55930000 -40.22120000
24.30060000 63.40000000 -38.77610000
26.54820000 65.32310000 -37.86540000
30.53650000 66.01320000 -35.67440000
34.69910000 67.96800000 -33.77870000
38.17670000 70.52480000 -33.45670000
40.62840000 71.40040000 -33.79380000
22.78080000 59.45940000 -39.42120000
26.62520000 62.85600000 -37.55180000
28.66740000 63.44430000 -36.17480000
30.20800000 63.46510000 -35.39430000
33.67020000 63.17530000 -32.60190000
35.71090000 65.98410000 -31.46880000
20.64350000 55.55510000 -40.08800000
24.13330000 56.52770000 -38.62000000
26.12100000 59.17820000 -37.78220000
27.98530000 61.03360000 -36.77880000
30.00060000 58.63930000 -35.29760000
19.89400000 52.86190000 -40.20670000
22.71730000 53.23050000 -38.99830000
26.51240000 54.21820000 -37.23180000
26.59400000 57.10450000 -37.42950000
18.69570000 49.68280000 -40.70930000
21.10240000 51.30110000 -39.65670000
22.24200000 51.22710000 -39.15130000
22.98420000 51.17080000 -38.82810000
24.61210000 51.00230000 -38.11760000
17.72730000 44.22310000 -41.37810000
22.28850000 47.85510000 -39.27450000
25.64660000 47.72390000 -37.75680000
27.14320000 50.51790000 -36.85960000
24.57500000 46.28710000 -38.38450000
25.42700000 45.63310000 -38.03760000
16.44950000 70.75210000 -53.95010000
5.95630000 70.88620000 -55.84750000
-1.83310000 69.78400000 -56.61640000
-6.43680000 69.68330000 -56.44610000
24.08800000 70.93510000 -51.25070000
23.29740000 70.19310000 -51.84710000
19.48800000 68.94960000 -53.32950000
10.41920000 70.39960000 -55.43260000
36.23180000 71.02550000 -45.00510000
28.67660000 70.57570000 -49.39480000
29.89090000 68.98370000 -48.90720000
26.21960000 61.90770000 -49.86190000
20.48280000 64.35360000 -52.20580000
13.26420000 63.75460000 -54.26510000
37.34110000 70.89810000 -44.49990000
38.68980000 61.17130000 -42.39050000
33.78420000 64.72730000 -46.14070000
34.68010000 69.37940000 -46.30750000
43.32080000 70.99620000 -39.39100000
44.24110000 69.90830000 -38.99620000
39.78290000 69.39850000 -42.86120000
39.21530000 64.01160000 -42.01440000
44.49100000 71.56250000 -36.50130000
51.67900000 70.51110000 -29.98540000
47.46290000 70.54330000 -35.44980000
46.72800000 69.08450000 -36.41920000
41.97880000 63.35810000 -39.77630000
42.32140000 55.95730000 -39.62620000
50.39730000 71.52510000 -21.83600000
49.35370000 71.43500000 -30.56720000
41.86860000 71.31820000 -31.27050000
49.09760000 71.06230000 -20.83760000
55.46140000 71.58310000 -19.04780000
57.35320000 70.83330000 -19.94900000
55.05040000 70.80790000 -23.14180000
52.67000000 70.63460000 -28.47310000
39.81940000 70.23390000 -30.88060000
46.41380000 69.79510000 -22.51390000
51.91020000 70.64850000 -12.02440000
53.29210000 71.49440000 -15.88410000
58.66490000 70.58980000 -17.59650000
41.07450000 67.72510000 -27.16220000
42.91970000 66.50410000 -23.73420000
46.30110000 67.83000000 -19.68120000
50.26860000 68.89270000 -12.54260000
40.24020000 63.75350000 -26.05260000
43.95780000 62.16010000 -21.02700000
47.20120000 64.97930000 -15.76450000
50.10690000 68.46570000 -10.96490000
35.41130000 61.18420000 -31.19590000
37.67940000 59.86900000 -28.86400000
44.34220000 57.44100000 -20.17540000
45.93380000 61.53680000 -17.60200000
34.14640000 56.91250000 -32.01200000
51.65750000 69.84060000 -9.01540000
51.27020000 68.14290000 -5.21760000
49.87190000 66.19120000 -8.15690000
48.49330000 64.10630000 -11.57680000
49.49250000 60.32570000 -7.99360000
48.84850000 55.81100000 -9.61410000
49.23990000 54.57990000 -8.56580000
46.95160000 62.23270000 -15.25770000
48.00430000 58.15430000 -12.71060000
47.84370000 52.21010000 -13.01330000
45.97240000 54.90420000 -17.17990000
43.93600000 53.56860000 -20.77210000
50.08060000 65.39830000 -31.68990000
47.47830000 55.07530000 -33.70090000
43.33220000 57.77160000 -38.37420000
51.89840000 63.23440000 -28.14140000
49.80660000 63.85880000 -31.38200000
52.29210000 69.22980000 -29.41220000
53.79500000 63.39700000 -25.02480000
52.56340000 53.31980000 -27.29280000
49.21150000 56.64650000 -31.96550000
55.53140000 66.96060000 -23.21760000
55.51050000 62.62600000 -21.28870000
57.04840000 56.96430000 -17.81080000
54.55220000 47.63230000 -23.75240000
57.33490000 70.03590000 -20.69660000
58.03240000 65.24240000 -15.90680000
56.41930000 61.06150000 -19.60820000
58.32970000 68.71110000 -17.86350000
59.74120000 65.27920000 -14.75740000
58.66610000 63.94240000 -15.17550000
58.52470000 60.64390000 -17.01350000
60.86210000 69.83330000 -11.02550000
60.91560000 66.56870000 -11.33570000
59.88600000 63.60170000 -12.38040000
59.31860000 60.44440000 -13.16960000
59.16260000 57.45930000 -13.41850000
58.33390000 56.78070000 -16.12610000
61.16820000 70.39840000 -8.93920000
61.57910000 69.11540000 -7.72790000
60.38210000 65.03800000 -7.97230000
60.39380000 63.68200000 -10.51920000
60.47180000 61.58320000 -11.48500000
59.30120000 58.50090000 -11.01980000
61.30350000 70.82020000 -5.31280000
62.09720000 69.07140000 -3.34020000
61.32120000 64.46990000 -4.98880000
61.26590000 61.01080000 -5.57830000
61.35030000 60.33570000 -6.70730000
60.81200000 58.68860000 -9.44330000
62.02540000 70.56010000 0.82700000
62.29100000 68.63380000 0.38540000
61.47380000 66.94620000 -1.26280000
61.95000000 61.98930000 -3.26660000
60.95660000 59.66780000 -3.80760000
60.20620000 57.55680000 -9.07020000
61.45620000 70.59580000 8.26000000
62.24850000 66.88080000 5.31710000
62.32810000 67.09480000 2.95620000
61.62810000 64.33860000 2.41130000
62.10440000 61.82920000 1.87060000
61.59870000 69.25120000 10.17330000
61.41470000 68.07970000 8.27120000
60.99220000 63.74030000 6.53370000
61.18680000 64.24870000 3.89170000
61.29610000 60.96050000 4.92730000
61.03130000 62.70420000 12.85580000
60.18550000 60.24000000 11.78490000
60.65930000 64.76880000 8.48180000
60.55810000 61.29440000 9.80880000
61.05500000 60.07670000 6.78130000
60.63360000 67.55410000 13.64060000
60.67090000 61.96460000 14.47400000
60.04030000 54.20220000 14.66890000
58.64740000 55.89250000 12.29150000
58.63210000 58.03650000 10.29520000
59.10120000 67.75570000 15.68930000
58.78740000 64.30700000 15.52660000
59.96870000 61.51870000 16.27800000
59.11690000 58.98780000 18.85240000
58.27000000 57.22540000 21.05450000
59.65490000 46.41030000 17.03780000
59.50540000 70.43150000 17.64980000
58.71830000 65.83310000 16.86040000
59.22110000 62.47770000 18.20030000
58.72180000 62.94910000 19.48340000
56.70570000 60.03380000 20.85750000
57.77290000 59.12130000 20.35600000
58.21330000 70.09730000 21.61310000
59.07240000 68.16340000 19.98230000
59.16380000 64.58690000 19.42160000
56.85840000 67.11090000 22.87910000
56.39600000 66.06510000 22.80650000
56.79700000 64.83120000 25.33760000
56.96480000 63.12500000 24.28370000
56.21940000 62.46950000 22.19330000
56.35810000 61.90490000 20.93320000
56.40350000 61.72220000 26.06970000
57.02020000 60.90070000 23.91740000
55.49820000 59.64170000 26.61060000
57.12970000 55.57640000 24.40310000
57.84520000 58.16630000 21.70630000
51.65560000 63.77730000 29.45770000
53.59040000 58.13800000 26.74790000
56.79370000 52.72020000 24.10490000
50.94960000 64.00410000 30.32450000
50.85540000 61.66780000 30.06980000
53.81460000 53.33580000 25.84540000
55.02270000 48.51550000 23.86790000
57.59520000 50.69150000 22.99150000
49.80780000 63.21050000 32.48230000
46.39340000 61.04640000 35.87550000
46.23630000 55.79530000 36.18050000
45.09050000 53.21080000 37.35140000
51.55430000 65.14850000 33.08400000
46.94130000 63.24150000 35.76510000
32.49040000 56.92660000 -46.66320000
27.61560000 56.63260000 -49.09140000
24.57090000 56.54730000 -50.54140000
37.46760000 56.12110000 -43.36570000
33.84560000 52.56720000 -46.04290000
31.95410000 54.02890000 -47.77770000
28.83960000 53.89380000 -49.08670000
27.89790000 52.23110000 -49.83360000
26.01550000 52.00350000 -50.07340000
40.65580000 54.00790000 -40.88360000
37.36850000 54.06280000 -43.32290000
35.45930000 53.84830000 -44.97980000
35.81850000 52.63410000 -45.27080000
33.87490000 50.79780000 -46.07230000
31.85250000 49.78740000 -47.15390000
43.42820000 51.53200000 -39.39730000
41.60400000 48.65000000 -40.79880000
40.11070000 50.78080000 -42.11870000
38.86250000 50.38430000 -42.63140000
43.70140000 52.57340000 -39.37830000
44.80440000 52.76770000 -36.54040000
44.87350000 48.57760000 -38.34050000
42.56620000 46.17160000 -39.84780000
40.58960000 47.32260000 -42.03370000
47.76810000 50.84550000 -34.38070000
46.95380000 48.90160000 -34.69860000
46.20090000 47.42490000 -35.64860000
44.71060000 44.06750000 -38.46630000
42.03930000 43.94810000 -39.69170000
40.35310000 44.68950000 -41.29010000
48.49710000 53.84700000 -32.77750000
48.96300000 53.12510000 -33.02630000
49.65350000 51.03660000 -32.69820000
49.54390000 49.21780000 -32.54270000
47.88160000 46.65980000 -34.78260000
49.55670000 53.65100000 -31.49580000
50.42690000 50.57690000 -31.13430000
51.64480000 48.95030000 -29.90190000
50.10260000 47.16160000 -31.27620000
50.49470000 43.57860000 -31.11380000
48.68920000 43.89290000 -34.17140000
51.27890000 54.45540000 -29.32390000
51.68480000 50.44430000 -30.08630000
53.61980000 45.64540000 -25.44530000
52.82010000 46.70210000 -28.51290000
51.82900000 44.42730000 -29.81370000
52.45800000 29.32700000 -28.08990000
51.78570000 41.22870000 -28.85330000
55.83750000 29.52140000 -20.60790000
53.57050000 27.97590000 -25.89160000
51.25700000 28.42870000 -29.60660000
52.04630000 30.54810000 -29.91170000
51.51020000 37.08630000 -30.12600000
57.77060000 33.50500000 -14.12530000
56.66310000 20.57000000 -18.83550000
55.84880000 24.89520000 -20.28590000
54.90330000 24.71210000 -23.04590000
52.82810000 23.14450000 -27.72510000
52.20710000 26.73690000 -28.03860000
57.57570000 53.90030000 -14.86580000
59.20800000 51.84000000 -7.34310000
59.18910000 49.99810000 -4.78560000
58.85720000 17.42560000 -8.94270000
57.88320000 56.09340000 -15.74000000
58.74120000 55.98710000 -10.46950000
59.26120000 54.89190000 -9.48740000
60.43270000 52.48810000 -5.61070000
59.65000000 51.76770000 -5.02510000
60.33470000 55.50350000 -8.63000000
60.91550000 53.93470000 -6.46740000
61.05090000 54.04630000 -3.60830000
59.73840000 53.28330000 -2.23900000
59.39310000 44.86680000 -1.06280000
61.21360000 58.25530000 -2.23190000
61.29170000 55.72300000 -4.47930000
60.98980000 57.36220000 -1.28500000
59.95250000 56.20570000 -0.67800000
61.66470000 57.84960000 -0.86870000
61.55970000 58.10980000 -0.07030000
59.87560000 56.84610000 0.49490000
60.67260000 59.29060000 1.50220000
59.89510000 58.93420000 1.76830000
59.22360000 58.03960000 4.27080000
59.88280000 59.08640000 5.18490000
59.19440000 56.61080000 6.88090000
58.85970000 54.94350000 7.01540000
60.30480000 57.81670000 7.70270000
60.27260000 58.10660000 8.59600000
58.89930000 56.15460000 8.81950000
58.37660000 49.86400000 10.46300000
58.00290000 40.76070000 12.95690000
59.30470000 27.65280000 0.60700000
58.24580000 47.02700000 13.67650000
58.06830000 33.18530000 12.71400000
58.04140000 31.22330000 11.95850000
58.40920000 31.22690000 7.88890000
59.62040000 48.88370000 15.32550000
59.63010000 36.82350000 14.80910000
60.03930000 30.71150000 14.65230000
59.07900000 30.61830000 13.10700000
59.06870000 29.46660000 11.92430000
58.22640000 30.67080000 9.99970000
59.55800000 39.08200000 17.46890000
60.12660000 21.15260000 14.06830000
59.48320000 27.90020000 12.13990000
60.46500000 28.94650000 8.19200000
57.50330000 40.38060000 22.01000000
58.16920000 32.49210000 20.66390000
58.86730000 29.30250000 19.04860000
55.05500000 38.75680000 22.85020000
55.08010000 35.78500000 22.12410000
56.32840000 33.64990000 21.98630000
56.27190000 31.31970000 22.43000000
57.67630000 30.43050000 20.94770000
52.15060000 39.41740000 27.33240000
53.25470000 35.67860000 25.21040000
54.68260000 34.64930000 22.68720000
55.80590000 32.93840000 22.82190000
45.77180000 47.09380000 36.32710000
48.95360000 27.57140000 31.92350000
51.96490000 33.56630000 27.71870000
54.79820000 33.31370000 26.17520000
46.06230000 49.07470000 36.43870000
45.40850000 49.33630000 39.35920000
44.42580000 45.45220000 37.51800000
46.01620000 30.49200000 35.15670000
44.88260000 51.55790000 39.59010000
43.93300000 51.56660000 40.68840000
42.95770000 47.15960000 41.66360000
43.69050000 45.73620000 40.38320000
44.63880000 53.66920000 38.66680000
43.68200000 54.24110000 40.27430000
42.58940000 53.74430000 41.43430000
40.95240000 51.31110000 42.94490000
41.12460000 48.31530000 42.99130000
42.51680000 44.61720000 40.89770000
45.33340000 56.44320000 39.88090000
42.23210000 55.34950000 42.57270000
41.48010000 52.64040000 43.33800000
39.32220000 50.61900000 43.42620000
38.57450000 46.70310000 43.08970000
40.39190000 46.02030000 41.79500000
45.68370000 57.45420000 37.18650000
45.95240000 59.24140000 38.95230000
45.13830000 59.16030000 40.21560000
42.21460000 58.87290000 41.83800000
40.65910000 57.90800000 44.11190000
46.13700000 59.48250000 36.58470000
45.38010000 61.39040000 37.87950000
45.06790000 60.93890000 39.80640000
43.36460000 62.05900000 41.22210000
40.38440000 60.04710000 43.83630000
45.49850000 62.22930000 37.44260000
43.65920000 63.13450000 40.50820000
42.89980000 63.96240000 41.21830000
