2.50760000 -4.45840000 2.07310000
2.63040000 -4.39170000 2.05060000
2.12860000 -4.12610000 1.92090000
1.35810000 -4.52080000 1.85980000
1.24760000 -4.48880000 1.93450000
1.50770000 -3.91480000 1.74440000
1.33160000 -4.27880000 1.89310000
1.26610000 -4.35510000 1.97240000
1.19470000 -4.46880000 2.02050000
1.66850000 -3.86430000 1.71580000
1.39950000 -3.93210000 1.81250000
1.25390000 -4.41420000 2.10000000
1.27300000 -4.41090000 2.17680000
1.27000000 -4.32130000 2.21460000
1.29520000 -4.28250000 2.03180000
1.35290000 -4.27090000 2.13180000
1.36870000 -4.17390000 2.16790000
1.37150000 -4.13440000 2.11600000
1.32460000 -4.08650000 2.03110000
1.33940000 -3.98340000 2.06850000
1.32560000 -4.03840000 2.18370000
1.36440000 -4.00940000 2.15010000
1.32910000 -3.92570000 2.12680000
1.30800000 -4.03610000 1.93340000
1.00450000 -3.84720000 2.22280000
1.27740000 -3.90060000 1.96910000
1.23980000 -3.73280000 1.90890000
1.19290000 -3.75070000 1.95930000
1.24110000 -3.82800000 2.04550000
1.24350000 -3.86430000 2.17120000
1.15630000 -3.76660000 2.11530000
1.08810000 -3.68940000 2.02580000
1.06270000 -3.77040000 2.18120000
0.98510000 -3.68220000 2.08210000
0.87090000 -3.75000000 2.18080000
-1.72670000 -5.84620000 -0.75140000
-1.60440000 -5.80500000 -1.17030000
-1.73420000 -5.80020000 -0.85020000
-1.61710000 -5.65330000 -1.22230000
-1.73100000 -5.69800000 -0.90930000
-1.60760000 -5.30920000 -1.09710000
-1.76370000 -5.87530000 -0.47490000
-1.87580000 -5.73100000 -0.41390000
-1.75810000 -5.54650000 -0.68500000
-2.06310000 -5.86730000 -0.25190000
-1.90520000 -5.84030000 -0.35410000
-1.84630000 -5.82040000 -0.44300000
-2.00600000 -5.81700000 -0.31720000
-1.93290000 -5.61030000 -0.32120000
-2.11940000 -5.83330000 -0.28780000
-2.29950000 -5.83860000 -0.18300000
-2.16330000 -5.75370000 -0.29620000
-2.24650000 -5.71660000 -0.20380000
-2.10100000 -5.59600000 -0.31320000
-2.30840000 -5.65340000 -0.12740000
-2.42330000 -5.75410000 -0.11480000
-2.39030000 -5.56280000 -0.08420000
-2.60700000 -5.34260000 -0.04660000
-2.23810000 -5.42140000 -0.14450000
-2.18370000 -5.46980000 -0.28070000
-2.49650000 -4.96310000 -0.01350000
-2.30390000 -5.28410000 -0.05650000
-1.72120000 -5.21530000 -0.56200000
-1.94550000 -5.38680000 -0.32630000
-1.83760000 -5.43880000 -0.38290000
-1.85100000 -5.11010000 -0.38350000
-2.23360000 -5.11040000 -0.17070000
-2.15450000 -5.21930000 -0.39490000
-2.22930000 -5.14080000 -0.34450000
-2.00780000 -5.17140000 -0.38280000
-2.27100000 -5.02590000 -0.06300000
-1.50000000 -5.08220000 -1.22560000
-1.40690000 -4.70990000 -1.38850000
-1.58320000 -4.82070000 -0.90760000
-1.40400000 -4.68520000 -1.68980000
-1.43310000 -4.22850000 -1.16280000
-1.78460000 -4.88030000 -0.40740000
-1.66160000 -4.69650000 -0.49000000
-2.08360000 -4.95300000 -0.50570000
-2.00760000 -4.81460000 -0.48170000
-1.85990000 -4.72840000 -0.39180000
-1.58780000 -4.43230000 -0.74040000
-1.91760000 -4.38750000 -0.42890000
-1.71960000 -4.54820000 -0.40110000
-1.67380000 -4.28970000 -0.43830000
-1.79060000 -4.28700000 -0.38740000
-0.55490000 -5.96450000 2.43600000
-0.39260000 -5.95920000 2.45430000
-0.98980000 -5.90160000 2.73890000
-0.84100000 -5.98000000 2.58150000
-0.73930000 -5.94380000 2.59210000
-0.48250000 -5.89910000 2.50060000
-0.63630000 -5.86080000 2.54250000
-0.85220000 -5.80670000 2.70570000
-0.73670000 -5.61770000 2.63510000
-1.24720000 -5.96550000 2.73990000
-0.32310000 -5.72640000 2.49240000
-0.59330000 -5.58500000 2.51520000
-0.44640000 -5.50310000 2.49340000
-0.74110000 -5.19880000 2.57430000
-0.32700000 -5.15050000 2.42070000
-0.61310000 -5.22350000 2.46840000
-0.64940000 -4.84860000 2.33650000
0.37900000 -4.92360000 2.00850000
0.29690000 -5.03670000 2.09240000
0.16900000 -5.01300000 2.22100000
0.08180000 -5.00800000 2.25240000
-0.09060000 -4.97970000 2.26670000
0.07200000 -4.91010000 2.29850000
0.13140000 -4.91240000 2.31160000
0.23380000 -4.90430000 2.19540000
-0.12650000 -4.86570000 2.22490000
-0.03500000 -4.87540000 2.24650000
-0.04030000 -4.76090000 2.32700000
-0.13480000 -4.75550000 2.24770000
-0.44550000 -4.85000000 2.30620000
-0.28580000 -4.68510000 2.20890000
-0.54170000 -4.68180000 2.23430000
-0.42930000 -4.66370000 2.21480000
-0.39070000 -4.61470000 2.25460000
-0.28460000 -4.59830000 2.38240000
-0.62310000 -4.54600000 2.35450000
-0.66480000 -4.54760000 2.29260000
-0.67300000 -4.60710000 2.25090000
-2.35270000 -4.99240000 -0.01630000
-2.51000000 -5.00730000 1.67800000
-2.58640000 -4.60810000 1.27810000
-2.54020000 -4.65460000 1.50480000
-2.68100000 -4.43050000 0.90230000
-2.56530000 -3.92560000 1.01340000
-2.45570000 -3.63900000 1.25210000
-1.62300000 -4.19890000 -0.53300000
0.38320000 -4.77910000 2.00700000
0.27540000 -4.76250000 2.30580000
0.35540000 -4.75230000 2.12600000
0.46030000 -4.79320000 1.94440000
0.49010000 -4.71470000 1.96010000
0.19760000 -4.85520000 2.32020000
0.16000000 -4.76190000 2.38490000
0.06050000 -4.72210000 2.38540000
0.15480000 -4.60900000 2.41750000
-0.01770000 -4.63030000 2.38310000
-0.12920000 -4.62650000 2.37880000
-0.12790000 -4.53320000 2.45080000
0.08630000 -4.50450000 2.38590000
0.27520000 -4.51650000 2.33640000
0.19230000 -4.43140000 2.31100000
0.11590000 -4.38520000 2.39300000
-0.21550000 -4.65520000 2.29300000
0.35920000 -4.39870000 2.28320000
0.23430000 -4.23740000 2.35550000
0.31490000 -4.22260000 2.27820000
0.21380000 -4.19490000 2.43040000
0.31100000 -4.07380000 2.27030000
0.25450000 -4.03720000 2.31530000
0.25480000 -4.08940000 2.40040000
0.55950000 -3.89180000 2.23330000
0.24370000 -3.94250000 2.26580000
0.30080000 -3.88250000 2.21110000
0.67610000 -3.76210000 2.13250000
0.35570000 -3.80050000 2.07330000
0.38820000 -3.81080000 2.13140000
0.42530000 -3.83750000 2.19840000
0.18570000 -3.85770000 2.20780000
0.03780000 -3.79450000 2.21210000
0.04250000 -3.79780000 2.07980000
0.22720000 -3.77070000 2.03840000
-0.09890000 -3.74520000 2.06670000
-0.03840000 -3.67200000 2.00930000
0.27210000 -3.66870000 2.00930000
0.22820000 -3.42380000 1.99370000
-0.01310000 -3.57420000 2.01380000
0.65530000 -3.70020000 1.99810000
0.54100000 -3.67700000 1.95870000
0.64660000 -3.60520000 1.96290000
0.82820000 -3.63110000 2.03540000
0.95740000 -3.59450000 2.02260000
0.79760000 -3.39260000 2.00530000
0.58560000 -3.43350000 1.97290000
0.20620000 -3.26880000 1.97450000
-0.07640000 -3.72690000 2.02290000
-0.15500000 -3.65060000 2.02980000
-0.11660000 -3.62850000 2.00370000
2.64570000 -4.81340000 -1.50070000
2.76790000 -4.15790000 -0.78280000
2.82610000 -4.05410000 -1.06690000
3.01090000 -4.96740000 -0.51790000
3.24910000 -4.95350000 -0.26070000
3.28440000 -4.59900000 -0.24840000
3.51380000 -5.07350000 0.22530000
3.55010000 -4.79410000 0.31200000
3.64390000 -4.75110000 0.09870000
3.68460000 -4.58840000 0.15900000
3.71870000 -4.31930000 0.21010000
3.54270000 -4.24580000 -0.01830000
2.75600000 -4.57330000 -0.74420000
3.03480000 -4.45160000 -0.49960000
2.80310000 -4.19880000 -0.64830000
2.88390000 -4.16410000 -0.57350000
3.25960000 -4.18610000 -0.23430000
3.09130000 -3.92470000 -0.41280000
2.84020000 -3.76570000 -1.14040000
3.73940000 -4.26760000 0.10810000
3.72570000 -4.09930000 0.07360000
3.65180000 -4.00190000 0.04440000
3.41380000 -4.02370000 -0.05370000
2.85150000 -3.46620000 -0.96220000
3.22760000 -3.58380000 -0.12850000
2.83130000 -3.38430000 -0.78920000
2.84780000 -3.57470000 -0.62050000
3.15810000 -3.26950000 -0.23060000
3.05000000 -3.24550000 -0.42290000
2.96720000 -3.12650000 -0.51310000
2.55680000 -4.79890000 -1.77630000
2.19680000 -4.55770000 -1.87940000
2.48470000 -4.49660000 -1.86230000
2.61170000 -4.44420000 -1.75590000
2.67270000 -4.36020000 -1.50090000
2.54850000 -4.25170000 -1.82620000
2.36380000 -4.32520000 -1.87620000
1.69880000 -4.24270000 -1.84930000
1.16890000 -4.26840000 -1.92490000
1.57720000 -4.11670000 -1.87430000
1.32880000 -4.18900000 -1.94770000
1.96810000 -4.01000000 -1.87560000
1.58020000 -3.96920000 -1.94120000
1.64070000 -3.94820000 -1.88130000
1.35630000 -4.08260000 -2.05730000
1.25760000 -4.14400000 -2.06200000
1.47580000 -3.93360000 -2.03150000
1.71690000 -3.78790000 -1.86800000
1.56840000 -3.78960000 -1.95430000
1.44950000 -3.69710000 -2.01990000
2.39520000 -3.95170000 -1.82710000
2.66260000 -4.14510000 -1.59530000
2.61920000 -4.05900000 -1.71100000
2.78860000 -3.93410000 -1.26870000
2.68880000 -3.94110000 -1.41430000
2.51930000 -3.93450000 -1.77820000
2.54220000 -3.60510000 -1.65700000
2.44050000 -3.64890000 -1.75510000
2.60950000 -3.65940000 -1.55260000
2.12830000 -3.20200000 -1.82060000
1.57280000 -3.67970000 -1.89870000
2.32410000 -3.28380000 -1.77610000
2.73820000 -3.77640000 -1.30870000
2.85390000 -3.31800000 -1.16440000
2.66940000 -3.33210000 -1.36710000
2.76720000 -3.31960000 -1.25340000
2.44000000 -2.85540000 -1.65280000
1.54750000 -3.51030000 -1.87410000
1.71770000 -3.27960000 -1.87300000
1.86600000 -2.74600000 -1.82100000
0.83840000 -4.25060000 -2.03080000
0.97850000 -4.17650000 -2.02860000
1.06280000 -4.14850000 -2.07790000
0.96950000 -4.04560000 -2.16780000
0.70250000 -4.10220000 -2.16240000
0.65410000 -3.97480000 -2.23820000
0.62640000 -3.78720000 -2.28920000
0.88900000 -3.85080000 -2.21020000
1.22880000 -3.83430000 -2.12980000
-0.03800000 -3.59760000 -2.72700000
0.05430000 -3.57320000 -2.65150000
-0.11160000 -3.74490000 -2.65410000
0.74110000 -3.57880000 -2.34310000
0.65800000 -3.59580000 -2.40190000
0.69970000 -3.55630000 -2.46400000
0.59050000 -3.60650000 -2.36960000
0.52140000 -3.52320000 -2.41760000
0.60520000 -3.53110000 -2.51230000
0.74930000 -3.49560000 -2.45010000
0.77170000 -3.50770000 -2.34550000
0.73070000 -3.39540000 -2.46590000
0.68610000 -3.47550000 -2.54320000
0.44270000 -3.46920000 -2.51810000
0.51820000 -3.42980000 -2.57190000
0.34830000 -3.45390000 -2.59490000
0.60340000 -3.43260000 -2.57760000
0.38540000 -3.35540000 -2.65630000
0.16560000 -3.47900000 -2.67810000
0.12650000 -3.40860000 -2.72920000
0.24710000 -3.13520000 -2.72280000
0.47870000 -3.92060000 -2.23600000
0.93910000 -3.59870000 -2.18170000
0.77810000 -3.63300000 -2.26960000
0.66550000 -3.64870000 -2.32520000
1.21680000 -3.62010000 -2.10600000
1.09840000 -3.55540000 -2.06940000
0.91360000 -3.48910000 -2.15690000
0.79740000 -3.48130000 -2.26520000
0.73640000 -3.38380000 -2.19800000
0.26430000 -3.80680000 -2.29040000
0.53000000 -3.77870000 -2.29050000
0.47030000 -3.67690000 -2.27130000
0.36330000 -3.68530000 -2.25990000
-0.19890000 -3.90560000 -2.68910000
-0.06880000 -3.65270000 -2.53700000
0.20610000 -3.55810000 -2.30950000
0.09800000 -3.53960000 -2.54110000
0.01330000 -3.54450000 -2.42350000
-0.00030000 -3.58350000 -2.37830000
0.09450000 -3.50280000 -2.36610000
0.50580000 -3.57660000 -2.31170000
0.41900000 -3.55710000 -2.26550000
0.42860000 -3.48280000 -2.33140000
0.39600000 -3.46880000 -2.42490000
0.26140000 -3.45970000 -2.37510000
0.27560000 -3.48460000 -2.32000000
0.74120000 -3.39920000 -2.34120000
0.25720000 -3.48260000 -2.49890000
0.13770000 -3.48140000 -2.41680000
0.63690000 -3.31410000 -2.56500000
0.50390000 -3.23480000 -2.63380000
1.28830000 -3.52970000 -2.01150000
1.42800000 -3.53320000 -1.91800000
1.24670000 -3.42930000 -1.92580000
1.08040000 -3.48940000 -1.99290000
1.02060000 -3.40170000 -1.96470000
0.99320000 -3.30700000 -1.96730000
1.22690000 -3.30540000 -1.92080000
1.41110000 -3.23160000 -1.88640000
1.36460000 -3.15750000 -1.95390000
1.17690000 -3.18890000 -1.98780000
0.87040000 -3.40720000 -2.07210000
0.71620000 -3.32000000 -2.11930000
0.79430000 -3.29170000 -2.04620000
0.76640000 -3.21770000 -2.08370000
0.94600000 -3.16480000 -2.03120000
0.87620000 -3.11030000 -2.13020000
1.01520000 -3.01740000 -2.17450000
1.45380000 -3.00290000 -2.11730000
1.45440000 -3.06330000 -2.05410000
1.30770000 -3.11810000 -2.06060000
1.29910000 -3.04070000 -2.12590000
1.55280000 -3.04190000 -1.89470000
1.48690000 -3.03990000 -1.95990000
1.52740000 -2.93440000 -2.08590000
1.41370000 -2.92560000 -2.13900000
1.49610000 -2.85940000 -2.13730000
1.54700000 -2.87510000 -1.98320000
1.60110000 -2.78780000 -1.90460000
1.29420000 -2.96090000 -2.13530000
1.08510000 -2.93110000 -2.19700000
1.28180000 -2.85910000 -2.10270000
1.08900000 -2.84570000 -2.16570000
1.40370000 -2.66970000 -2.12760000
1.34810000 -2.72380000 -2.09950000
1.18130000 -2.80140000 -2.02690000
1.26960000 -2.76600000 -2.02820000
0.83190000 -2.84150000 -2.33110000
0.95530000 -2.77010000 -2.08140000
0.69550000 -2.80870000 -2.33890000
1.17640000 -2.73670000 -1.93680000
1.22640000 -2.64890000 -1.89960000
1.12670000 -2.61800000 -1.89740000
0.93260000 -2.67930000 -2.01300000
0.68480000 -2.45470000 -2.12790000
0.68340000 -3.30300000 -2.34910000
0.67180000 -3.31660000 -2.21120000
0.66490000 -3.22300000 -2.46800000
0.61110000 -3.14000000 -2.54490000
0.68340000 -3.21020000 -2.32570000
0.68510000 -3.21700000 -2.17550000
0.78460000 -3.09760000 -2.26640000
0.64690000 -3.01820000 -2.52250000
0.71710000 -3.07860000 -2.40810000
0.82360000 -2.98440000 -2.35140000
0.45770000 -3.00840000 -2.64890000
0.22180000 -2.94670000 -2.60600000
0.27600000 -3.00490000 -2.66660000
-0.00390000 -3.07650000 -2.76360000
0.56640000 -2.88540000 -2.54540000
0.77770000 -2.90920000 -2.40730000
0.39150000 -2.92240000 -2.64350000
0.41940000 -2.84790000 -2.57270000
0.34830000 -2.86790000 -2.48750000
0.48260000 -2.83430000 -2.36190000
0.01560000 -2.97960000 -2.53620000
0.12090000 -2.90870000 -2.40290000
0.69130000 -2.76070000 -2.21440000
0.03380000 -2.85960000 -2.38780000
0.60430000 -2.68510000 -2.18520000
0.20890000 -2.56130000 -2.32060000
0.65250000 -2.27350000 -2.15500000
0.03390000 -2.43880000 -2.40510000
2.85450000 -2.67220000 -1.18550000
2.60150000 -2.83110000 -1.48600000
2.74080000 -2.87720000 -1.28380000
2.94740000 -2.48280000 -0.97910000
2.95740000 -2.80330000 -0.61820000
2.93010000 -2.62410000 -0.83970000
2.91550000 -2.65630000 -1.11320000
2.77890000 -1.82600000 -1.18800000
2.32040000 -2.62880000 -1.69970000
2.43250000 -2.51030000 -1.64160000
2.22780000 -2.55340000 -1.73590000
2.36630000 -2.43070000 -1.73490000
2.14630000 -2.45670000 -1.81130000
2.33270000 -2.30250000 -1.77590000
2.54610000 -2.35860000 -1.55050000
2.51310000 -2.26300000 -1.66980000
1.78940000 -2.61000000 -1.84280000
1.87470000 -2.51550000 -1.86710000
2.09860000 -2.30360000 -1.87190000
1.93080000 -2.39840000 -1.94820000
2.19030000 -2.04540000 -1.82340000
2.98660000 -1.64950000 -0.94570000
2.59220000 -2.11250000 -1.52190000
2.72000000 -1.69570000 -1.27780000
2.54800000 -2.04330000 -1.63350000
2.54890000 -1.87870000 -1.55580000
2.40010000 -1.94310000 -1.71390000
2.12000000 -1.80440000 -1.84200000
2.68340000 -1.56620000 -1.39930000
2.58300000 -1.54080000 -1.53850000
2.38510000 -1.68500000 -1.64010000
2.14790000 -1.72100000 -1.76150000
2.20680000 -1.64220000 -1.68650000
2.59370000 -0.84690000 -1.62170000
1.54830000 -2.81250000 -2.07750000
1.48880000 -2.60550000 -2.10360000
1.53630000 -2.63040000 -2.03030000
1.53230000 -2.66760000 -1.96490000
1.29070000 -2.59830000 -2.01480000
1.32950000 -2.43590000 -2.10520000
1.42410000 -2.40120000 -2.11020000
1.56770000 -2.54050000 -1.94760000
1.63240000 -2.46330000 -1.96620000
1.24950000 -2.58020000 -1.91970000
1.20440000 -2.36340000 -1.98070000
1.15670000 -2.47910000 -1.89390000
1.01460000 -2.36700000 -1.95280000
1.50500000 -2.36920000 -2.04820000
1.26630000 -2.38920000 -2.05670000
1.19150000 -2.20340000 -2.11100000
1.12690000 -2.30730000 -1.94940000
1.03140000 -2.24540000 -1.98120000
1.73650000 -2.43260000 -1.99760000
1.62240000 -2.27520000 -2.06850000
1.74970000 -2.17900000 -2.05080000
1.58310000 -2.35590000 -2.03310000
1.92870000 -1.96010000 -1.97790000
1.49700000 -2.17800000 -2.07720000
1.25110000 -2.16450000 -2.12410000
1.43520000 -2.01120000 -2.09100000
1.28150000 -2.00660000 -2.07630000
1.58910000 -2.05570000 -2.09490000
1.35840000 -1.78790000 -2.06060000
1.08540000 -2.16690000 -2.06870000
0.96480000 -2.10500000 -2.12270000
0.88670000 -2.16630000 -2.07150000
0.66800000 -2.17320000 -2.23230000
0.81040000 -2.11130000 -2.23470000
0.31090000 -2.17610000 -2.37700000
0.47140000 -2.10890000 -2.36430000
0.73560000 -2.08120000 -2.33960000
0.52160000 -2.07010000 -2.43990000
0.61380000 -1.99900000 -2.47050000
1.09680000 -2.07290000 -2.16580000
1.18200000 -1.95690000 -2.07880000
1.07410000 -1.97910000 -2.16340000
0.96320000 -1.98860000 -2.27020000
0.91960000 -1.82710000 -2.30340000
1.18400000 -1.41970000 -2.10440000
1.01700000 -1.83300000 -2.18260000
1.07960000 -1.84680000 -2.10210000
1.03320000 -1.58720000 -2.15020000
0.68180000 -1.62090000 -2.49730000
0.84090000 -1.93650000 -2.33990000
0.55190000 -1.90800000 -2.54470000
0.89950000 -1.54290000 -2.34300000
1.69810000 -1.84880000 -2.06230000
1.87180000 -1.71970000 -1.97480000
1.95790000 -1.66460000 -1.87210000
1.60550000 -1.74000000 -2.02290000
1.77470000 -1.60640000 -1.97550000
1.59840000 -1.34590000 -2.04420000
2.00210000 -1.58600000 -1.74950000
1.90800000 -1.56200000 -1.87640000
1.80610000 -1.45100000 -1.97460000
1.89980000 -1.41770000 -1.90770000
1.78940000 -1.30710000 -1.99720000
0.97720000 -1.51770000 -2.23610000
0.86470000 -1.33560000 -2.31710000
0.80490000 -1.38930000 -2.42400000
3.11450000 -4.50630000 1.69290000
2.97440000 -4.56550000 1.83970000
3.13320000 -4.35290000 1.81310000
3.18030000 -4.23690000 1.76100000
3.14390000 -4.19620000 1.59410000
3.21030000 -3.99250000 1.71010000
3.14030000 -3.99390000 1.55050000
3.11950000 -4.88450000 0.60670000
3.46830000 -4.48640000 0.40720000
3.33540000 -4.01820000 0.52220000
3.09070000 -4.65650000 0.70030000
3.16010000 -4.48930000 0.61360000
3.21030000 -4.17800000 0.65590000
3.21850000 -4.10680000 0.74020000
3.02360000 -4.48730000 1.19220000
3.18280000 -4.15420000 0.88860000
3.15440000 -3.92620000 0.92400000
2.99680000 -3.90540000 1.09010000
3.00290000 -4.19780000 1.26080000
2.94470000 -3.75400000 1.16100000
3.02950000 -4.16310000 1.39810000
2.91570000 -3.60930000 1.28030000
2.96890000 -3.67250000 1.38150000
3.04220000 -3.64610000 1.46370000
3.66470000 -4.19860000 0.28520000
3.71900000 -4.05930000 0.21890000
3.52570000 -3.81280000 0.37880000
3.25140000 -3.79820000 0.72790000
3.73340000 -4.01550000 0.13140000
3.64380000 -3.82310000 0.11250000
3.67670000 -3.86120000 0.18850000
3.57460000 -3.70880000 0.30890000
3.49420000 -3.68910000 0.05170000
3.34810000 -3.47050000 0.01650000
3.51290000 -3.47530000 0.20820000
3.37100000 -3.48980000 0.52980000
2.99830000 -3.47360000 1.02970000
3.16870000 -3.73300000 1.60570000
3.23470000 -3.18480000 0.69180000
3.12510000 -3.30940000 0.88480000
3.13680000 -3.06940000 0.78770000
2.86260000 -3.13890000 1.12330000
2.83640000 -3.06610000 1.19750000
2.91180000 -3.00110000 1.07620000
2.82230000 -4.45980000 1.94970000
2.85260000 -4.24580000 1.90380000
3.04810000 -4.36130000 1.86860000
3.01840000 -4.13140000 1.89440000
3.13590000 -4.07460000 1.86000000
3.18870000 -4.01230000 1.81220000
3.04090000 -3.83050000 1.86940000
3.21510000 -3.82990000 1.72380000
3.16540000 -3.80470000 1.80820000
3.17200000 -3.67130000 1.69260000
2.65050000 -3.98810000 1.94350000
2.43540000 -4.07390000 1.99600000
2.85790000 -3.90110000 1.88920000
2.86900000 -3.66800000 1.85510000
2.59880000 -3.70430000 1.87900000
2.30220000 -3.61600000 1.84160000
1.97930000 -3.68120000 1.77820000
2.43430000 -3.44180000 1.82080000
1.95040000 -2.78710000 1.62420000
1.59490000 -3.41060000 1.68770000
2.26160000 -3.12180000 1.76400000
1.70110000 -3.07110000 1.65740000
1.37180000 -3.48540000 1.81200000
1.11800000 -3.44440000 1.96500000
1.42810000 -3.34810000 1.79110000
1.27700000 -3.23350000 1.85700000
1.56300000 -3.24960000 1.74130000
1.48860000 -3.30310000 1.79710000
1.56000000 -3.20710000 1.86780000
1.37110000 -3.24880000 1.85440000
1.46730000 -3.25510000 1.88010000
1.53760000 -3.21100000 1.96020000
1.44580000 -3.21900000 1.94770000
1.49610000 -3.16460000 2.01260000
1.40980000 -3.14730000 1.96140000
1.37020000 -3.18380000 1.89350000
1.37150000 -3.05030000 1.90240000
1.63500000 -3.06240000 1.71790000
1.66300000 -2.97280000 1.76480000
1.58610000 -3.13590000 1.99300000
1.65360000 -3.00160000 1.94520000
1.59380000 -2.98700000 2.04240000
1.47560000 -3.05940000 2.02370000
1.43360000 -2.93010000 2.00770000
1.51640000 -2.90950000 2.06340000
3.01660000 -3.63260000 1.81720000
3.08770000 -3.59140000 1.73860000
2.90550000 -3.50220000 1.79710000
3.06850000 -3.51040000 1.54790000
3.01500000 -3.40290000 1.59120000
2.96410000 -3.40250000 1.68490000
2.72680000 -3.39050000 1.85690000
2.75960000 -3.10530000 1.82520000
2.85960000 -3.17760000 1.75270000
2.53920000 -3.17450000 1.83520000
2.62130000 -2.94050000 1.84140000
2.92860000 -3.15590000 1.61020000
2.91780000 -3.16840000 1.40880000
2.85930000 -3.10940000 1.30080000
2.91010000 -2.99380000 1.46830000
2.84450000 -2.70280000 1.31210000
2.42790000 -2.77550000 1.78270000
2.87720000 -2.82230000 1.62050000
2.83590000 -2.82210000 1.72380000
2.72760000 -2.83800000 1.80890000
2.57270000 -2.71110000 1.80510000
2.66690000 -2.64090000 1.76910000
1.68610000 -2.85630000 1.65830000
1.63300000 -2.78610000 1.67870000
1.69560000 -2.86790000 1.80070000
1.70540000 -2.86120000 1.91800000
1.81260000 -2.75070000 1.61940000
1.64660000 -2.78890000 1.74070000
1.70120000 -2.79400000 1.84560000
1.69310000 -2.77490000 1.93260000
1.61570000 -2.66200000 1.86410000
1.63960000 -2.83280000 2.00950000
1.45710000 -2.71910000 2.13220000
1.41400000 -2.75210000 2.13370000
1.42700000 -2.84410000 2.05990000
1.36680000 -2.90670000 1.92810000
1.27300000 -2.72170000 2.14460000
1.54050000 -2.63150000 2.04470000
1.37370000 -2.54100000 2.19080000
2.22360000 -2.47500000 1.64910000
3.42810000 -3.35390000 0.12850000
3.40550000 -3.19970000 0.34040000
3.37720000 -3.09470000 0.19650000
3.33220000 -3.11610000 0.51380000
3.11970000 -2.00940000 -0.37220000
3.32710000 -3.09380000 0.08300000
3.30590000 -2.81830000 0.06950000
3.20410000 -2.28890000 -0.22340000
3.34790000 -2.81520000 0.34030000
3.28070000 -2.17000000 -0.02630000
3.11990000 -2.20250000 0.82010000
3.31040000 -2.70180000 0.51940000
3.04060000 -2.98390000 0.94700000
2.98700000 -2.47400000 1.02680000
3.25240000 -2.12570000 0.65730000
3.34330000 -2.25170000 0.40530000
3.33540000 -2.25770000 0.18510000
3.21470000 -1.62920000 -0.15920000
3.30590000 -1.99650000 0.55320000
3.30500000 -1.83340000 0.22280000
3.25860000 -1.52960000 0.22810000
3.30150000 -1.76390000 0.46590000
3.28440000 -1.49830000 0.55620000
3.22210000 -1.52310000 0.71070000
2.82910000 -2.53110000 1.44350000
2.78550000 -2.64220000 1.68880000
2.75790000 -2.44240000 1.54950000
2.86120000 -2.59280000 1.19610000
2.62840000 -2.30460000 1.58670000
2.81730000 -2.33000000 1.31070000
2.86990000 -2.16790000 1.18860000
2.89840000 -1.31290000 1.14260000
2.73550000 -2.19130000 1.40030000
2.62050000 -2.08180000 1.45280000
2.75890000 -1.94850000 1.30540000
2.69220000 -1.68030000 1.35780000
2.52050000 -2.39940000 1.68670000
2.33030000 -2.21580000 1.61830000
2.38890000 -2.14120000 1.58590000
1.95670000 -2.27110000 1.54950000
2.11090000 -1.88260000 1.49110000
1.84590000 -2.26050000 1.75670000
1.79370000 -2.38460000 1.70940000
1.94580000 -2.18860000 1.64420000
1.97180000 -1.99560000 1.70800000
2.49150000 -2.08970000 1.53980000
2.00400000 -1.87360000 1.65400000
2.40800000 -1.70030000 1.50990000
2.58540000 -1.52200000 1.45310000
2.25070000 -1.03680000 1.44180000
3.29050000 -1.42110000 0.67690000
3.18910000 -1.26020000 0.84700000
3.08220000 -1.32270000 0.89960000
3.02240000 -1.06850000 0.96460000
2.75150000 -1.21110000 1.32240000
2.45310000 -1.07930000 1.48560000
2.60580000 -0.96570000 1.44570000
2.85390000 -0.63460000 1.32850000
2.79380000 -0.77900000 1.37650000
2.71960000 -0.90180000 1.39230000
1.18290000 -3.07470000 1.89870000
0.92230000 -3.23700000 2.01250000
1.03860000 -3.03480000 1.98410000
0.55850000 -3.01870000 2.00060000
1.30910000 -3.10550000 1.84720000
1.25390000 -3.04580000 1.84600000
1.33860000 -2.97910000 1.84580000
1.29660000 -2.95960000 1.82300000
1.19640000 -2.88960000 1.86440000
1.31380000 -2.85700000 1.87230000
1.23310000 -2.83120000 1.85430000
1.02440000 -2.80870000 1.97060000
0.85050000 -2.79810000 2.01660000
0.96520000 -2.72560000 2.02240000
1.10200000 -2.75420000 1.94360000
1.13990000 -2.72410000 1.98730000
1.17140000 -2.72820000 2.07200000
1.63210000 -2.68870000 1.63060000
1.74420000 -2.55520000 1.58470000
1.58320000 -2.66360000 1.72500000
1.60850000 -2.56740000 1.65620000
1.61200000 -2.55440000 1.73970000
1.23810000 -2.78470000 1.89420000
1.30750000 -2.80930000 1.99300000
1.57600000 -2.56730000 1.84820000
1.46550000 -2.48880000 2.03440000
1.49050000 -2.44980000 1.96290000
1.74880000 -2.45700000 1.59460000
1.74460000 -2.42400000 1.65180000
1.64150000 -2.48770000 1.81090000
1.89120000 -2.29290000 1.59070000
1.63260000 -2.33620000 1.88500000
1.46260000 -2.30810000 2.03210000
1.60960000 -2.09410000 1.91270000
1.49330000 -2.17830000 1.99530000
1.38950000 -2.09890000 2.00000000
3.00280000 -2.29670000 -0.67730000
3.05920000 -2.19010000 -0.46250000
2.91080000 -1.89640000 -1.07800000
2.99390000 -1.23180000 -0.95850000
3.09340000 -1.36270000 -0.49080000
3.05660000 -1.28930000 -0.73580000
2.37920000 -1.08140000 -1.64630000
2.12190000 -1.39630000 -1.69430000
1.96150000 -1.37800000 -1.78070000
2.08540000 -0.85590000 -1.75200000
1.85200000 -1.24880000 -1.92020000
1.87310000 -1.14520000 -1.84230000
1.61270000 -1.11060000 -2.03340000
1.74160000 -1.06830000 -1.94730000
0.93930000 -1.25290000 -2.20130000
1.09220000 -1.13740000 -2.12640000
0.88660000 -1.10600000 -2.16780000
0.80350000 -1.06110000 -2.22530000
1.42140000 -1.11030000 -2.07810000
1.42570000 -1.02120000 -2.03200000
1.11440000 -1.00150000 -2.05790000
1.49610000 -0.93740000 -1.96750000
1.21340000 -0.80640000 -2.00090000
1.02820000 -0.84950000 -2.07740000
0.93620000 -0.46810000 -2.26150000
1.97750000 -2.10890000 1.57380000
2.01100000 -1.92980000 1.50890000
1.98570000 -1.78590000 1.53070000
1.89570000 -1.94390000 1.77080000
1.61320000 -1.74560000 1.90430000
1.77260000 -1.49390000 1.80700000
2.00540000 -1.71200000 1.60480000
2.00130000 -1.66080000 1.46340000
2.06140000 -1.28530000 1.42580000
1.93290000 -1.53490000 1.48530000
1.95790000 -1.68320000 1.72480000
1.96580000 -1.56710000 1.68890000
1.95420000 -1.52670000 1.60480000
1.88840000 -1.42340000 1.51680000
1.93410000 -1.37430000 1.45550000
1.88410000 -1.37540000 1.64130000
1.82910000 -1.33750000 1.56090000
1.82360000 -1.33820000 1.73200000
1.83410000 -1.09910000 1.45070000
1.79140000 -1.27210000 1.65850000
1.82020000 -1.27180000 1.48840000
1.66190000 -1.21180000 1.59370000
1.66590000 -1.20030000 1.53320000
1.62490000 -1.06810000 1.49330000
1.48450000 -1.12910000 1.58350000
1.68620000 -0.79760000 1.45830000
1.81380000 -0.65660000 1.44920000
2.16810000 -0.70140000 1.38440000
2.24180000 -0.59260000 1.41630000
2.07880000 -0.61790000 1.39020000
1.94510000 -0.54140000 1.45080000
3.29220000 -1.22250000 0.52290000
3.25400000 -1.14340000 0.09520000
3.33660000 -1.33320000 0.62010000
3.28140000 -1.26540000 0.76180000
3.33040000 -1.20690000 0.63870000
3.23800000 -1.13060000 0.83010000
3.28600000 -0.89170000 0.38080000
3.30920000 -1.04640000 0.64680000
3.32660000 -0.83130000 0.57890000
3.27810000 -0.93550000 0.72750000
3.22020000 -0.94940000 0.80500000
3.14050000 -1.07230000 0.87220000
3.14270000 -0.84450000 0.80300000
2.93940000 -0.89480000 1.07970000
3.17130000 -0.61530000 0.71840000
3.04490000 -0.66880000 0.89390000
3.32140000 -0.75360000 0.40050000
3.28720000 -0.62280000 0.59130000
3.00270000 -0.59760000 1.02940000
2.92630000 -0.53910000 1.20220000
2.71200000 -0.67540000 1.45120000
2.70620000 -0.42370000 1.57100000
3.13930000 -0.85560000 -0.69020000
3.12670000 -0.70750000 -0.88750000
2.70180000 -1.11270000 -1.48940000
2.76610000 -0.88760000 -1.22700000
2.79610000 -0.70060000 -1.14870000
2.77500000 -0.67710000 -1.37570000
2.94970000 -1.03740000 -1.00970000
2.85360000 -0.78200000 -1.08670000
2.80640000 -0.27960000 -1.49900000
2.74330000 -0.40670000 -1.58330000
3.05600000 -0.50130000 -0.98200000
3.21200000 -1.09750000 -0.18470000
3.17340000 -0.78330000 -0.44230000
3.24920000 -0.78080000 -0.07570000
3.19030000 -0.66860000 -0.62250000
3.11230000 -0.06680000 -0.31100000
3.17590000 -0.56920000 -0.33710000
3.28130000 -0.70260000 0.30700000
3.22050000 -0.52400000 -0.08810000
3.20300000 -0.41580000 -0.79840000
3.01320000 0.01400000 -1.01750000
2.81500000 0.04820000 -1.18910000
2.88780000 0.40660000 -1.08530000
2.86290000 0.51330000 -1.37310000
3.16170000 -0.09940000 -0.46260000
3.21000000 -0.29990000 -0.70410000
3.12820000 -0.15730000 -0.19760000
3.17180000 -0.08780000 -0.01080000
3.14960000 -0.06890000 -0.91950000
3.18360000 0.06640000 -0.82910000
3.17740000 0.27790000 -0.68040000
3.11630000 0.56740000 -0.88580000
3.11610000 0.36810000 -0.28430000
3.16320000 0.53260000 -0.49310000
2.27800000 -0.51650000 -1.66890000
1.84990000 -0.86480000 -1.89650000
2.47310000 -0.19220000 -1.65600000
2.00810000 -0.48710000 -1.90650000
2.08880000 -0.29200000 -1.85620000
1.95850000 -0.37720000 -1.97450000
1.72400000 -0.38530000 -2.00660000
2.17090000 -0.28960000 -1.75200000
1.47910000 -0.79990000 -1.98060000
1.52550000 -0.28590000 -2.08140000
1.31500000 -0.25530000 -2.10050000
1.14300000 -0.37720000 -2.11390000
1.92180000 -0.09010000 -2.04630000
1.31670000 0.64480000 -2.20890000
1.36430000 0.32440000 -2.18270000
2.62660000 -0.12460000 -1.66340000
2.74560000 -0.13770000 -1.62390000
2.05300000 0.00160000 -1.98480000
2.45570000 0.52740000 -1.59180000
2.30340000 0.28970000 -1.63950000
2.17040000 0.38950000 -1.75820000
2.13140000 0.31360000 -1.86730000
2.82640000 0.08630000 -1.54740000
2.78110000 0.17820000 -1.58810000
2.63280000 0.29630000 -1.62450000
2.72560000 0.71260000 -1.52920000
1.82910000 0.16580000 -2.06340000
2.01830000 0.33910000 -2.02760000
1.66450000 0.23440000 -2.15500000
1.52960000 0.42620000 -2.21280000
1.66780000 0.56970000 -2.20320000
2.10600000 0.40640000 -1.96330000
1.91090000 0.57100000 -2.04120000
2.09470000 0.87650000 -1.93460000
1.77120000 0.65640000 -2.14610000
1.91240000 1.05790000 -2.01770000
1.56660000 0.91060000 -2.22210000
2.26020000 0.82040000 -1.66490000
3.29730000 -0.50600000 0.46080000
3.24110000 -0.51590000 0.34410000
3.24850000 -0.44110000 0.65030000
3.15980000 -0.43630000 0.81060000
3.06390000 -0.45650000 1.01300000
3.00040000 -0.33180000 1.09070000
3.15880000 -0.32110000 0.78030000
3.08550000 -0.24930000 0.83290000
2.59310000 -0.68110000 1.46280000
2.41290000 -0.59730000 1.47190000
2.39810000 -0.47570000 1.50930000
2.64700000 -0.56660000 1.51020000
2.59170000 -0.49760000 1.57660000
2.40260000 -0.42410000 1.58380000
2.51270000 -0.43680000 1.67670000
2.57010000 -0.38560000 1.70380000
2.11970000 -0.49750000 1.43450000
2.18870000 -0.40560000 1.53360000
1.87990000 -0.45250000 1.56980000
2.78250000 -0.29010000 1.46250000
2.82990000 0.01370000 1.38280000
2.69130000 -0.00300000 1.62150000
3.19420000 -0.22940000 0.17100000
3.27280000 -0.40090000 0.57370000
3.19180000 -0.27340000 0.47030000
3.16800000 -0.07130000 0.41470000
3.20280000 -0.27090000 0.59930000
3.12800000 -0.09840000 0.59760000
3.12040000 0.16730000 0.54050000
3.05330000 -0.02100000 0.73710000
3.13120000 0.16740000 0.10560000
3.16790000 0.13510000 0.33350000
3.12690000 0.29330000 0.21230000
3.08030000 0.40130000 0.00220000
3.16820000 0.12210000 0.41130000
3.21330000 0.26650000 0.43660000
3.22940000 0.27300000 0.33280000
3.23110000 0.44530000 0.22380000
3.13820000 0.45670000 0.18840000
3.28340000 0.52040000 0.25830000
3.26500000 0.50070000 0.36240000
3.15200000 0.39280000 0.58050000
3.06260000 0.34930000 0.68530000
3.19900000 0.64690000 0.54990000
3.07550000 0.48460000 -0.12070000
2.99420000 0.01320000 0.98520000
2.91970000 0.15550000 1.18960000
2.74440000 0.14510000 1.49840000
2.80580000 0.23620000 1.35050000
2.65120000 0.20550000 1.45660000
2.69460000 0.35270000 1.38060000
2.80690000 0.59160000 1.30030000
3.00470000 0.33960000 0.88230000
3.04960000 0.58160000 0.85590000
2.95320000 0.55460000 1.07930000
2.87640000 0.67230000 1.21940000
3.02580000 0.68120000 -0.97900000
2.87690000 0.88320000 -1.15210000
3.13390000 1.09500000 -0.70950000
3.15870000 0.91880000 -0.60240000
3.17510000 0.79190000 -0.50370000
3.04740000 0.99390000 -0.91690000
3.12100000 1.31450000 -0.83520000
3.14090000 1.50190000 -0.93370000
2.96670000 1.10620000 -1.02900000
2.84480000 0.57070000 -1.46910000
2.15120000 0.81570000 -1.88090000
1.69680000 1.06470000 -2.19400000
1.78560000 1.21300000 -2.12300000
2.37840000 1.07940000 -1.57240000
2.88270000 1.06020000 -1.33660000
2.82660000 1.11380000 -1.40730000
2.93610000 1.32650000 -1.20270000
2.72460000 1.29090000 -1.43390000
2.47920000 1.55020000 -1.48460000
2.96450000 1.42920000 -1.12200000
2.66470000 1.47110000 -1.44440000
2.22790000 1.02540000 -1.73180000
2.22920000 1.32640000 -1.82450000
2.12560000 1.25160000 -1.89440000
2.34900000 1.45050000 -1.57360000
2.29710000 1.33740000 -1.68250000
2.27950000 1.51480000 -1.74580000
2.22050000 1.73100000 -1.91870000
2.29550000 1.58210000 -1.63660000
2.01180000 1.56720000 -1.94250000
1.80620000 1.57610000 -2.07580000
2.90360000 1.65780000 -1.33250000
2.95200000 1.61260000 -1.26620000
3.06280000 1.64040000 -1.07840000
3.20430000 1.88090000 -1.01780000
2.65800000 1.61460000 -1.48450000
2.54210000 1.69950000 -1.49510000
2.82130000 1.60400000 -1.40040000
2.74910000 1.63240000 -1.44690000
2.60650000 1.80780000 -1.54700000
2.71630000 1.71260000 -1.51960000
3.01800000 2.00180000 -1.17110000
3.18270000 2.27980000 -1.12730000
2.81270000 1.89480000 -1.37860000
2.76350000 1.79750000 -1.50310000
2.68260000 1.83330000 -1.58000000
2.75510000 1.98480000 -1.58690000
2.79210000 2.10720000 -1.39880000
2.79360000 1.99770000 -1.50780000
2.81590000 2.31820000 -1.42940000
2.85860000 2.25430000 -1.59470000
2.95330000 2.15850000 -1.28200000
2.87870000 2.14680000 -1.31550000
2.32290000 1.79930000 -1.84740000
2.29640000 1.73960000 -1.72220000
1.95490000 1.94440000 -1.98640000
2.12470000 2.20760000 -2.01130000
2.40890000 2.01760000 -1.76140000
2.27320000 2.19580000 -1.99280000
2.40360000 1.61720000 -1.51360000
2.35190000 1.77450000 -1.57650000
2.46200000 1.92820000 -1.54530000
2.37740000 1.92490000 -1.63420000
2.40360000 2.24510000 -1.94570000
2.66830000 1.96980000 -1.59850000
2.54950000 2.10230000 -1.57410000
2.49660000 2.21160000 -1.66560000
2.75570000 2.15420000 -1.66940000
2.66980000 2.16290000 -1.64790000
2.53610000 2.35360000 -1.78200000
2.51290000 2.18910000 -1.61080000
2.61290000 2.27800000 -1.66230000
2.49410000 2.37690000 -1.88110000
3.34510000 0.75450000 0.09360000
3.22280000 0.69170000 -0.05970000
3.35510000 0.72340000 -0.11050000
3.09220000 0.53310000 0.09960000
3.19320000 0.58500000 0.14760000
3.12550000 0.62330000 0.07470000
3.30730000 0.75720000 0.29380000
3.26820000 0.64940000 0.17540000
3.21570000 0.66820000 0.09200000
3.38570000 0.85330000 0.18050000
3.43070000 0.81060000 -0.07890000
3.39610000 0.78270000 -0.31180000
3.45260000 0.87660000 -0.26730000
3.48920000 1.01080000 -0.10230000
3.45230000 1.03760000 0.16430000
3.37890000 1.12980000 0.44250000
3.50410000 1.30450000 0.10330000
3.09010000 0.60190000 -0.01460000
3.11360000 0.63590000 -0.18660000
3.21710000 0.71390000 -0.30220000
3.31440000 0.71500000 -0.26410000
3.17330000 0.69700000 -0.37830000
3.13900000 0.67490000 -0.08520000
3.29090000 0.76690000 -0.38730000
3.43410000 0.94940000 -0.38340000
3.36640000 0.85810000 -0.44350000
3.24000000 0.83320000 -0.45120000
3.29290000 0.95490000 -0.49900000
3.20510000 0.99550000 -0.49930000
3.38600000 0.98470000 -0.48550000
3.42640000 1.12440000 -0.43810000
3.33680000 1.06540000 -0.50970000
3.24900000 1.14130000 -0.45740000
3.51410000 1.22980000 -0.11420000
3.47850000 1.13240000 -0.30050000
3.18210000 1.17180000 -0.46700000
3.14070000 0.66640000 0.73170000
3.10610000 0.82110000 0.87060000
3.23500000 1.01340000 0.69970000
3.13510000 1.07620000 0.84210000
2.95660000 0.79950000 1.06070000
2.93660000 0.96530000 1.14180000
2.82750000 0.95400000 1.21870000
3.04520000 1.00740000 1.01100000
3.16900000 1.45550000 0.85320000
3.06990000 1.37560000 1.09150000
3.23480000 1.16160000 0.76420000
3.33680000 1.34100000 0.63610000
3.18450000 1.26600000 0.80630000
3.24520000 1.44850000 0.71180000
3.43520000 1.34640000 0.39160000
3.43260000 1.47690000 0.37910000
3.47860000 1.46170000 0.15060000
3.43040000 1.25530000 -0.36740000
3.36110000 1.18140000 -0.45970000
3.33810000 1.28330000 -0.36040000
3.49170000 1.27110000 -0.24220000
3.21590000 1.28300000 -0.34780000
3.28600000 1.42610000 -0.26950000
3.49080000 1.41580000 -0.06640000
3.43970000 1.40140000 -0.20760000
3.18990000 1.40420000 -0.33150000
3.19730000 1.54240000 -0.36150000
3.14110000 1.51440000 -0.58080000
3.18270000 1.96630000 -0.69330000
3.22110000 2.04410000 -0.54520000
3.24580000 1.83200000 -0.34800000
3.39750000 1.51410000 -0.02970000
3.35870000 1.48840000 -0.20750000
3.38080000 1.52650000 -0.13970000
3.32100000 1.67400000 -0.19180000
3.34480000 1.68360000 0.07330000
3.36460000 1.70420000 -0.12330000
3.42480000 1.52410000 0.14530000
3.29070000 1.65380000 0.28380000
3.25260000 1.70240000 -0.21230000
3.21770000 2.09680000 -0.79160000
3.35150000 1.85280000 0.03130000
3.32380000 1.86080000 -0.05840000
3.27310000 1.89980000 -0.23170000
3.25860000 1.91360000 -0.08330000
3.40890000 2.33830000 -0.31200000
3.32400000 2.58930000 -0.56280000
3.41450000 2.29070000 -0.22430000
3.26020000 1.98590000 -0.11930000
3.32100000 2.13010000 -0.14360000
3.22930000 2.23080000 -0.00430000
3.35410000 1.46310000 0.57260000
3.30160000 1.54180000 0.56380000
3.39680000 1.55220000 0.31900000
3.22680000 1.62660000 0.65380000
3.15520000 1.66960000 0.94690000
3.17160000 1.73190000 0.81160000
3.08960000 1.76370000 0.99140000
3.30460000 1.58770000 0.38550000
3.22810000 1.65390000 0.47790000
3.26240000 1.98540000 0.38030000
3.17640000 1.81750000 0.57140000
3.16250000 1.74740000 0.68720000
3.08230000 1.83220000 0.79480000
3.14740000 1.99160000 0.60690000
3.05470000 2.02240000 0.70970000
3.29440000 1.98410000 0.06490000
3.28570000 2.03960000 0.26080000
3.20780000 2.10150000 0.24350000
3.21190000 2.04970000 0.01630000
3.15240000 2.19060000 0.09890000
3.11330000 2.13300000 0.21720000
3.04300000 2.22260000 0.24530000
3.11050000 2.56370000 0.21810000
3.19160000 2.09160000 0.48020000
3.09350000 2.15450000 0.44660000
3.01990000 2.12000000 0.61540000
3.00170000 2.18780000 0.50770000
2.89950000 2.14950000 0.71030000
2.97080000 2.28320000 0.62470000
3.01430000 2.29730000 0.38720000
3.08080000 2.47970000 0.48090000
3.22410000 2.84540000 0.59060000
3.19650000 2.78410000 0.59430000
3.20010000 2.78410000 0.57220000
3.23790000 1.96940000 -0.87700000
3.26600000 2.06420000 -0.94870000
3.01390000 3.23090000 -1.54560000
2.91730000 2.78570000 -1.48900000
2.94310000 2.78550000 -1.56800000
2.84270000 2.41740000 -1.34470000
2.97820000 2.43180000 -1.30210000
2.87050000 2.31820000 -1.73990000
2.90480000 2.36500000 -1.67890000
2.80730000 2.43910000 -1.86100000
2.72950000 2.37900000 -1.81040000
2.57340000 2.36360000 -1.73180000
2.64300000 2.43470000 -1.79310000
2.87430000 2.45810000 -1.84850000
2.94900000 2.65910000 -1.81830000
2.95780000 2.78550000 -1.61420000
3.04400000 3.16240000 -1.69370000
2.68180000 2.57920000 -1.89980000
2.34170000 2.68670000 -2.11890000
2.58230000 2.57380000 -1.89030000
2.62910000 2.72920000 -1.94720000
2.48060000 2.78820000 -2.09520000
2.49170000 2.78820000 -2.08970000
2.50120000 2.84710000 -2.10540000
2.44290000 2.78850000 -2.11030000
2.97820000 2.78530000 -1.68670000
2.97280000 2.78540000 -1.78700000
2.88050000 2.77050000 -1.95120000
2.76740000 2.66100000 -1.94400000
2.96280000 2.93660000 -1.94220000
2.95530000 2.78550000 -1.87470000
2.88810000 2.78590000 -1.95030000
2.50040000 2.78810000 -2.07730000
2.57350000 2.78770000 -1.96790000
2.62010000 2.78740000 -1.96200000
2.59940000 2.92180000 -1.99630000
2.70470000 3.04550000 -1.98290000
2.64300000 2.78730000 -1.95370000
2.65240000 2.78720000 -1.95710000
2.87860000 2.78590000 -1.95390000
2.82420000 3.21540000 -2.03070000
2.67090000 3.25410000 -2.03400000
2.57530000 3.25690000 -2.15780000
3.01540000 3.13430000 -1.91370000
2.96660000 2.78540000 -1.84360000
3.08800000 3.47880000 -1.76890000
3.03560000 3.45580000 -1.91770000
2.92930000 3.50320000 -2.05620000
2.88150000 2.78590000 -1.95340000
2.99560000 3.51510000 -2.01420000
3.06440000 3.69620000 -1.83820000
3.02470000 3.95160000 -2.01310000
3.45370000 2.42920000 -0.12600000
3.41130000 2.78280000 -0.45320000
3.41870000 2.78280000 -0.43840000
3.57600000 2.78190000 -0.30260000
3.57770000 2.78190000 -0.29590000
3.59100000 2.82190000 -0.30170000
3.58600000 2.78180000 -0.28020000
3.41910000 2.80010000 -0.44330000
3.56590000 2.99340000 -0.38670000
3.24610000 2.54570000 0.04990000
3.43790000 2.69200000 -0.02990000
3.12470000 2.78450000 0.31920000
3.12880000 2.78450000 0.33860000
3.13810000 2.84360000 0.31100000
3.13230000 2.78440000 0.29130000
3.27380000 2.74550000 0.10540000
3.24600000 3.10090000 0.38300000
3.16180000 2.78430000 0.43290000
3.57370000 2.68240000 -0.22680000
3.54960000 2.77510000 -0.05390000
3.60400000 2.77070000 -0.11740000
3.60190000 2.78170000 -0.22300000
3.60700000 2.78170000 -0.11890000
3.59050000 3.50120000 0.03550000
3.45490000 2.78260000 -0.02260000
3.55000000 2.78200000 -0.05310000
3.41360000 3.34570000 0.08670000
3.28270000 2.78360000 0.10430000
3.43450000 2.78270000 -0.01370000
3.23190000 2.98400000 0.17960000
3.17420000 2.78420000 0.19790000
3.26710000 2.78370000 0.11730000
3.28930000 3.37870000 0.18760000
3.76780000 3.36550000 -0.20040000
3.75640000 3.42240000 -0.32670000
3.71900000 3.27870000 -0.08800000
3.55190000 2.78200000 -0.05440000
3.60640000 2.78170000 -0.11670000
3.65090000 3.39440000 -0.42290000
3.55110000 2.78200000 -0.05370000
3.74440000 3.65640000 -0.02870000
3.83840000 3.71590000 -0.15700000
3.88500000 3.72810000 -0.25590000
3.55170000 3.81580000 0.12870000
3.43810000 3.63290000 0.13410000
3.48430000 3.74880000 0.18960000
3.63690000 4.06070000 0.09730000
3.26890000 2.36180000 -1.04770000
3.30640000 2.50410000 -0.94350000
3.06790000 2.37570000 -1.21660000
2.96340000 2.78540000 -1.33610000
3.00110000 2.78520000 -1.32390000
3.29510000 2.78350000 -1.05850000
3.30000000 2.78350000 -1.04020000
3.30680000 2.75670000 -0.76990000
3.34820000 2.95370000 -0.92230000
3.33230000 2.78330000 -0.93030000
3.31240000 2.78340000 -0.79060000
3.12650000 2.61470000 -1.27310000
3.23020000 2.60610000 -1.19390000
3.29870000 2.84050000 -1.05990000
3.28210000 2.78360000 -1.09240000
3.29080000 2.81780000 -1.19660000
3.09910000 2.78460000 -1.32040000
3.13240000 2.78440000 -1.30540000
3.23490000 2.86090000 -1.31650000
3.20110000 2.78400000 -1.30300000
3.28100000 2.78360000 -1.19610000
3.31110000 2.96700000 -1.27900000
3.30790000 2.78340000 -0.76980000
3.32010000 2.78340000 -0.66250000
3.52280000 3.34540000 -0.47660000
3.07280000 3.19320000 -0.97530000
3.00070000 2.78520000 -0.94960000
3.03370000 2.78500000 -0.86680000
3.13290000 3.31150000 -0.66660000
3.08270000 2.99930000 -0.85610000
3.00910000 2.87260000 -0.50380000
2.84710000 2.78610000 -1.09870000
2.33350000 3.11550000 -1.58500000
2.21720000 2.78980000 -1.58080000
2.27330000 2.78940000 -1.54840000
2.35770000 2.78900000 -1.49680000
2.96140000 3.06960000 -1.45200000
2.90650000 2.78580000 -1.44350000
2.91050000 2.78570000 -1.40030000
2.91260000 2.78570000 -1.37600000
2.94400000 2.95120000 -1.39000000
3.01040000 2.92880000 -1.33280000
2.78350000 2.78650000 -1.15840000
2.70710000 3.78570000 -1.44710000
2.56360000 2.78780000 -1.36020000
3.02290000 4.07650000 -1.19050000
2.80800000 2.78630000 -1.13370000
2.82690000 3.34200000 0.30250000
2.97450000 3.17830000 -0.16740000
2.88540000 2.78590000 -0.07140000
3.18110000 4.24750000 -0.21270000
3.20270000 3.42060000 -1.31440000
3.13620000 2.89280000 -1.32600000
3.32150000 3.20820000 -1.32050000
3.37840000 3.36430000 -1.16500000
3.39920000 3.25090000 -0.91840000
3.31600000 2.99070000 -0.76900000
3.31180000 2.78340000 -0.77800000
3.37000000 3.30390000 -0.76740000
3.33660000 3.14880000 -0.67890000
3.32840000 2.78330000 -0.60310000
3.42930000 3.51100000 -0.59450000
3.23080000 3.80530000 -0.83850000
3.47930000 3.58850000 -1.04740000
3.18300000 3.98230000 -1.02350000
3.46670000 3.63680000 -1.33410000
3.32280000 3.40790000 -1.34420000
3.29130000 3.57110000 -1.34150000
3.47760000 3.80940000 -1.40400000
3.51060000 3.85120000 -1.17920000
3.55420000 3.92650000 -1.27290000
3.46140000 3.57630000 -0.83280000
3.57640000 3.74740000 -0.94760000
3.43030000 3.61980000 -0.72220000
3.57180000 3.77490000 -0.85770000
3.04690000 3.23170000 -1.38160000
3.10940000 3.77120000 -1.45850000
3.14940000 3.65850000 -1.35180000
2.48600000 2.78820000 -1.39990000
2.51460000 3.69140000 -1.59110000
3.15980000 3.77390000 -1.68790000
3.23310000 3.81890000 -1.35480000
3.46280000 3.93230000 -1.43770000
2.65020000 4.10010000 -1.60380000
3.33620000 3.53670000 0.23970000
3.49670000 3.60200000 -0.53630000
3.83760000 3.80480000 -0.43270000
3.70480000 3.84340000 -0.53610000
3.60500000 3.75240000 -0.53870000
3.52170000 3.76810000 -0.59360000
3.48820000 3.76740000 -0.65260000
3.51300000 3.79510000 -0.74320000
3.23250000 4.08120000 -0.40110000
3.28110000 4.06870000 -0.62480000
2.99640000 4.15650000 -2.06130000
3.91900000 3.91910000 -0.35460000
3.93460000 4.12700000 -0.26330000
3.85860000 4.14910000 -0.15530000
3.74130000 4.07190000 -0.00450000
3.63360000 4.17560000 -1.44650000
3.68130000 4.26330000 -1.37340000
3.69100000 4.20820000 -1.06100000
3.61860000 3.99000000 -0.73170000
3.71570000 4.22610000 -0.93170000
3.67990000 4.39800000 -1.14200000
3.64910000 4.29300000 -1.27810000
3.65710000 4.47250000 -1.19400000
3.77290000 4.57600000 -1.04060000
3.38070000 4.10400000 -1.46320000
3.15880000 4.00770000 -1.58160000
3.16970000 4.01790000 -1.68640000
3.14350000 3.94610000 -1.76040000
3.08690000 4.03400000 -1.82340000
3.10900000 4.14330000 -1.83210000
3.11750000 4.23910000 -1.97800000
3.21890000 4.27960000 -1.90340000
3.16620000 4.23390000 -1.67490000
3.16720000 4.03880000 -1.41450000
3.22950000 4.21350000 -1.44320000
3.14440000 4.19460000 -1.52960000
3.16100000 4.24700000 -1.49000000
3.56150000 4.37320000 -1.58110000
3.72790000 4.63770000 -1.55790000
3.67300000 4.53140000 -1.59170000
3.48980000 4.48340000 -1.62860000
3.36270000 4.34890000 -1.53100000
3.35590000 4.41270000 -1.57350000
3.45690000 4.53070000 -1.70250000
3.27530000 4.32960000 -1.77370000
3.29960000 4.45390000 -1.99010000
3.04430000 4.52300000 -2.06630000
3.43280000 4.46200000 -1.78020000
3.43280000 4.42060000 -1.87060000
3.41040000 4.46480000 -1.95520000
3.48240000 4.50920000 -1.89880000
3.21980000 4.77230000 -2.05960000
3.31240000 4.41260000 -1.62710000
3.74810000 4.78460000 -1.44090000
3.71020000 4.71490000 -1.31600000
3.67180000 4.65850000 -1.25220000
3.20380000 4.33000000 -1.54410000
3.63400000 3.96590000 -0.63480000
3.82140000 4.04280000 -0.51480000
3.74610000 4.30220000 -0.63520000
3.70380000 4.29420000 -0.73000000
3.31850000 4.43510000 -0.61720000
3.29960000 4.48180000 -0.90870000
3.92550000 4.21740000 -0.47080000
3.98890000 4.34850000 -0.35910000
4.00250000 4.34360000 -0.42310000
3.81690000 4.56700000 -0.66420000
3.95670000 4.36100000 -0.54930000
4.04670000 4.39480000 -0.50090000
4.14710000 4.48570000 -0.45490000
4.14090000 4.59790000 -0.37570000
3.90700000 4.71130000 -0.67100000
3.74710000 4.50780000 -0.72710000
3.76530000 4.61320000 -0.87110000
3.85810000 4.74540000 -0.16390000
3.96460000 4.46380000 -0.27660000
4.03240000 4.68700000 -0.29800000
3.75060000 4.70010000 0.02850000
3.34670000 4.81870000 -0.35870000
3.42210000 5.03230000 -0.49910000
3.19240000 4.63940000 -1.13330000
3.32230000 5.05080000 -0.94310000
2.79540000 4.65610000 -1.55870000
3.15250000 5.07830000 -1.19750000
3.41050000 4.95950000 -0.62100000
3.56220000 4.69750000 -1.69310000
3.67590000 4.85990000 -1.67340000
3.52150000 4.64420000 -1.79410000
3.46050000 4.59600000 -1.96630000
3.55990000 4.84760000 -1.83380000
3.50860000 4.74670000 -1.93830000
3.39800000 4.70450000 -2.01030000
3.47360000 4.90010000 -1.99660000
3.42740000 5.03190000 -2.07480000
3.73100000 4.77320000 -1.10970000
3.74170000 4.99680000 -1.62190000
3.73420000 5.03040000 -1.22150000
3.60070000 5.11050000 -1.91750000
3.65320000 5.15320000 -1.78550000
3.57530000 5.17640000 -2.03580000
3.54230000 5.30350000 -2.12270000
3.65090000 5.37210000 -2.01070000
3.76900000 5.13180000 -1.57350000
3.76010000 5.36160000 -1.44810000
3.75590000 5.32500000 -1.30880000
