44.99520000 18.13410000 -21.01440000
44.51330000 18.28690000 -21.70440000
44.98170000 18.30320000 -21.36620000
44.77120000 18.90830000 -22.01400000
45.33240000 18.68990000 -21.43340000
41.09800000 18.65710000 -19.38280000
40.96640000 18.86010000 -19.64350000
41.31290000 18.90880000 -19.79740000
40.63120000 19.23970000 -19.90360000
40.92750000 19.53190000 -20.24260000
41.73370000 18.91490000 -20.43060000
41.76660000 19.11680000 -21.05850000
43.27960000 19.47820000 -22.74300000
43.68360000 18.54000000 -22.14380000
43.32460000 18.62360000 -22.16130000
43.00720000 19.03860000 -22.46430000
44.08560000 18.55050000 -22.10670000
44.04600000 19.07240000 -22.43820000
41.94060000 19.29370000 -21.57070000
42.45080000 19.27240000 -22.19260000
41.61770000 19.65760000 -21.27170000
42.27530000 19.91270000 -22.15020000
45.45590000 19.17510000 -21.60060000
45.12350000 19.52390000 -21.99810000
42.78340000 19.28840000 -22.54380000
42.78500000 19.71750000 -22.60790000
43.89460000 19.71570000 -22.65760000
44.23430000 19.87910000 -22.49970000
43.41300000 20.32470000 -22.80470000
43.60100000 21.23310000 -22.71910000
38.08960000 19.56690000 -22.34350000
38.62720000 19.91650000 -21.70990000
38.13350000 19.97120000 -22.46910000
39.22600000 21.67250000 -21.29970000
35.41530000 18.30830000 -24.82510000
35.85600000 20.36430000 -25.09440000
36.39240000 21.31820000 -25.01630000
34.67060000 18.75920000 -25.69220000
35.77170000 21.62090000 -25.57000000
36.85140000 24.96610000 -25.74940000
42.65620000 20.60080000 -22.43310000
42.80030000 20.97040000 -22.46360000
42.30510000 21.13370000 -22.08340000
42.35220000 22.57120000 -21.80730000
38.25460000 20.55310000 -22.63190000
38.71980000 21.85000000 -22.24110000
41.35810000 20.34000000 -20.98080000
41.63920000 20.86890000 -21.36100000
40.91410000 20.71070000 -20.43520000
41.12600000 21.92620000 -20.59670000
41.86670000 21.48940000 -21.57680000
41.69930000 22.39750000 -21.15090000
44.62950000 20.01110000 -22.34400000
44.50190000 20.75410000 -22.42290000
36.73790000 21.92030000 -24.86510000
36.84400000 20.73680000 -24.32780000
37.14120000 23.71660000 -24.96220000
37.40600000 22.73970000 -24.29130000
39.19170000 19.70480000 -21.07780000
39.65620000 20.14570000 -20.67300000
37.30310000 20.73040000 -23.86020000
37.84780000 22.22930000 -23.70590000
43.00630000 21.10120000 -22.60140000
42.93710000 21.96280000 -22.37200000
38.90250000 23.49430000 -22.04940000
39.21050000 24.38690000 -21.55250000
38.83010000 24.37280000 -22.37830000
39.10480000 26.45470000 -21.96430000
40.46850000 20.00480000 -20.09960000
40.54490000 20.60120000 -20.22000000
40.26720000 20.33620000 -20.21310000
40.44980000 21.92740000 -20.38570000
40.65340000 21.10580000 -20.29680000
40.74510000 22.00110000 -20.35850000
39.93710000 20.69960000 -20.51040000
39.93430000 21.73260000 -20.70150000
44.42240000 21.63750000 -22.32850000
44.82680000 21.90680000 -22.02510000
43.97230000 22.33790000 -22.34450000
44.41090000 23.29660000 -21.84860000
46.03010000 21.82210000 -20.67490000
45.93650000 21.58190000 -21.09410000
45.79790000 21.18730000 -21.43410000
45.46920000 21.61170000 -21.63730000
42.99410000 22.80420000 -22.05810000
43.34590000 22.86000000 -22.12170000
42.75840000 23.54060000 -21.58410000
43.33000000 24.44250000 -21.19970000
41.10920000 22.95490000 -20.30300000
41.47040000 23.28860000 -20.39010000
41.21450000 23.45060000 -20.24510000
42.06300000 24.61890000 -20.16490000
43.67520000 23.04510000 -22.09890000
43.88020000 23.87780000 -21.66120000
41.76010000 23.25540000 -20.77540000
42.16880000 23.76700000 -20.94570000
41.32360000 24.00630000 -20.17500000
41.83140000 24.91730000 -19.93840000
40.88030000 23.48920000 -20.30120000
41.44660000 24.96510000 -20.01550000
38.85860000 24.97240000 -22.60440000
38.93990000 26.28980000 -22.56660000
38.68140000 24.06990000 -23.00800000
38.70250000 25.64380000 -23.24040000
45.95890000 23.86840000 -20.23690000
46.07510000 24.44750000 -19.73800000
45.46880000 23.98480000 -20.78910000
45.26280000 25.11860000 -20.35890000
38.27610000 23.51990000 -23.47930000
38.06030000 24.22370000 -23.85170000
42.53730000 24.06980000 -21.08830000
42.69760000 24.69610000 -20.60780000
45.09760000 22.20110000 -21.77040000
44.99290000 23.11610000 -21.56710000
40.33650000 22.85220000 -20.57960000
40.42250000 23.57550000 -20.57100000
45.05690000 23.90390000 -21.22150000
44.75540000 24.31380000 -21.20240000
44.29980000 24.45450000 -21.23350000
44.31680000 24.90330000 -20.84640000
40.65950000 24.81380000 -20.39290000
41.39030000 26.08070000 -19.92380000
40.22460000 24.88560000 -20.63900000
41.18120000 27.66840000 -20.05690000
37.71090000 24.70980000 -24.48430000
37.95070000 25.66880000 -24.41810000
45.50300000 25.78410000 -19.43250000
45.97040000 25.13090000 -19.31460000
45.48190000 26.39140000 -18.53450000
46.22250000 25.13780000 -18.76310000
42.90910000 25.32730000 -19.92200000
43.31240000 25.53550000 -19.83760000
42.68710000 25.60170000 -19.45580000
43.40020000 26.66760000 -18.47200000
44.37950000 25.33980000 -20.41830000
44.85800000 25.73600000 -19.95280000
43.97180000 25.44020000 -20.25560000
44.47870000 26.01440000 -19.57700000
43.72280000 25.75380000 -19.73740000
44.03710000 26.25360000 -19.10170000
42.34630000 25.56430000 -19.48100000
42.33670000 25.96560000 -19.31520000
39.80600000 25.46460000 -21.00700000
39.93270000 27.05040000 -21.13850000
36.53530000 26.13970000 -26.37320000
37.15970000 26.89780000 -25.63440000
37.73260000 26.85980000 -24.89510000
36.04350000 26.87050000 -27.22580000
37.16390000 27.56070000 -25.72230000
38.65070000 28.41150000 -23.80650000
38.70200000 27.03340000 -23.43340000
38.89910000 27.16380000 -22.84340000
39.05880000 27.64100000 -22.55860000
45.14810000 26.05150000 -19.48410000
44.93260000 26.32990000 -19.08780000
38.19690000 26.60850000 -24.22490000
42.07130000 26.52590000 -19.41180000
42.26460000 27.37940000 -19.18030000
39.65510000 27.80140000 -21.81470000
40.06600000 28.24220000 -21.67430000
42.31910000 28.59200000 -19.09650000
42.93390000 28.88660000 -18.58160000
41.92990000 29.40900000 -19.44990000
42.50180000 31.21350000 -18.97620000
37.92730000 29.40680000 -25.57240000
38.23870000 29.77830000 -25.10900000
38.82850000 29.71040000 -24.03830000
37.57030000 30.76840000 -26.95440000
38.22900000 30.82500000 -25.65220000
38.97720000 31.38190000 -24.40000000
40.62880000 28.89320000 -21.30360000
41.41160000 29.24170000 -20.31540000
40.24400000 29.40870000 -22.04780000
41.53980000 30.71060000 -20.76690000
41.82670000 29.86240000 -19.75870000
42.04200000 30.83470000 -19.77070000
39.74530000 29.86720000 -22.84410000
40.14800000 30.95620000 -22.64330000
38.65650000 32.65560000 -25.88430000
39.22330000 33.88500000 -25.30520000
38.61060000 33.68550000 -26.56840000
42.14580000 31.69450000 -19.91550000
42.32960000 32.43960000 -19.70700000
41.95050000 32.27120000 -20.52750000
42.22200000 33.65060000 -20.45770000
37.13320000 31.30740000 -27.73630000
37.43850000 33.05200000 -27.91260000
37.82280000 33.83500000 -27.69370000
36.76100000 32.13130000 -28.19420000
37.25560000 34.39180000 -28.28600000
39.65360000 35.05630000 -24.81030000
39.74280000 33.98730000 -24.02800000
40.13070000 36.79070000 -24.76160000
40.59570000 36.56230000 -23.52520000
38.45040000 34.84720000 -27.22490000
42.64140000 33.38600000 -19.49780000
42.92970000 33.32220000 -18.97770000
42.78420000 34.36860000 -19.77110000
43.38110000 35.37050000 -19.05210000
40.30600000 32.82460000 -22.90840000
41.02450000 33.56350000 -22.16750000
41.50850000 33.68280000 -21.52480000
41.49570000 35.06310000 -21.88660000
43.84660000 35.51510000 -18.45450000
44.00710000 34.55600000 -18.02590000
43.82450000 33.84180000 -17.99490000
44.10980000 35.47710000 -17.97300000
44.24390000 34.26640000 -17.53720000
44.42280000 32.60420000 -16.78750000
42.86030000 35.30660000 -20.17010000
43.09740000 36.21250000 -20.07740000
42.47580000 35.41840000 -20.84520000
42.66710000 36.94760000 -21.12860000
41.85510000 35.92690000 -21.77880000
41.68010000 37.02090000 -22.35590000
43.86020000 36.12070000 -18.33200000
44.06020000 36.22230000 -17.91980000
43.71930000 36.36280000 -18.43190000
44.23640000 36.97980000 -17.43670000
41.54190000 37.67750000 -22.64610000
42.07090000 37.82970000 -21.98350000
40.94120000 37.80920000 -23.44620000
41.52720000 38.78330000 -22.93840000
43.34430000 36.85850000 -19.38880000
43.56220000 36.87190000 -18.78100000
43.32690000 38.14390000 -19.77770000
43.78970000 37.47430000 -18.54920000
43.19030000 36.92510000 -19.96700000
42.96530000 37.54240000 -20.51080000
42.49340000 37.94950000 -21.25410000
42.43020000 38.43010000 -21.30960000
42.69330000 39.06020000 -21.31600000
43.31190000 39.27050000 -20.70080000
42.52250000 39.58690000 -21.99540000
43.67240000 40.63030000 -21.36560000
44.00710000 38.96450000 -19.93830000
44.46720000 38.74940000 -19.11610000
44.40480000 38.33270000 -18.54660000
44.76050000 39.83410000 -20.11550000
45.01360000 39.08540000 -18.78700000
45.41760000 38.63610000 -17.45990000
43.77680000 39.39460000 -20.47920000
44.19470000 40.11990000 -20.77200000
40.54290000 37.66500000 -24.29400000
40.79260000 38.35570000 -24.51390000
46.20810000 40.62920000 -17.47220000
45.45880000 40.08210000 -18.86770000
45.78270000 40.85900000 -19.01250000
46.44100000 41.67570000 -18.34620000
45.75200000 41.19880000 -19.64250000
46.80580000 42.82920000 -18.88270000
42.54870000 40.26390000 -22.44600000
43.21120000 41.23700000 -22.27140000
42.24370000 40.56130000 -23.07880000
43.00660000 42.17530000 -23.14340000
45.95930000 41.77100000 -20.13680000
46.67700000 43.01030000 -19.82850000
45.50690000 41.38350000 -20.61390000
46.47420000 43.28810000 -20.76710000
44.90350000 41.05820000 -20.89960000
45.07130000 41.89540000 -21.17520000
42.73910000 44.26610000 -25.45130000
41.97050000 41.24350000 -24.22760000
41.37630000 40.10380000 -24.78420000
41.45910000 40.84310000 -25.57720000
43.95270000 42.44570000 -22.24160000
44.55930000 42.73000000 -21.84500000
44.11980000 43.30730000 -22.62530000
45.48410000 44.81680000 -22.20980000
45.22410000 42.90550000 -21.53200000
45.96700000 44.00850000 -21.52990000
42.32590000 41.65970000 -23.81110000
42.78380000 43.03490000 -24.14500000
44.21400000 43.91640000 -22.81430000
44.97810000 44.95890000 -22.69110000
43.73990000 43.67410000 -23.10340000
44.56180000 45.48370000 -23.14400000
41.63370000 41.51060000 -26.11190000
42.32330000 43.38290000 -26.26030000
43.13410000 44.05450000 -24.27540000
43.31920000 43.92260000 -23.80230000
43.23940000 45.21440000 -25.04770000
43.61810000 45.72270000 -24.59970000
42.70760000 44.58980000 -26.63130000
42.94740000 45.54830000 -26.72440000
42.65740000 44.65880000 -27.22170000
42.67700000 44.93330000 -27.73700000
43.61810000 44.12950000 -23.48290000
43.91870000 45.26610000 -23.75290000
47.42350000 44.51390000 -19.19620000
47.80560000 45.04740000 -18.38910000
47.66050000 45.30610000 -19.37300000
46.51740000 44.88190000 -21.27120000
47.05400000 45.05150000 -20.61410000
46.58590000 45.70590000 -21.47180000
47.66100000 45.77740000 -19.69820000
48.06750000 46.82360000 -19.18150000
46.49320000 46.32860000 -22.32400000
45.85400000 45.93820000 -22.62550000
46.12200000 46.45060000 -22.75960000
43.21920000 46.40800000 -26.20760000
43.39350000 47.15130000 -26.40640000
43.04590000 46.62550000 -26.94830000
43.03370000 46.60800000 -27.29530000
43.57480000 47.63030000 -26.17060000
43.81170000 47.00170000 -24.99140000
46.88610000 46.44380000 -21.79200000
47.62580000 47.27790000 -21.53330000
48.23780000 47.33270000 -18.92280000
44.00030000 46.31470000 -24.19820000
44.21220000 47.16110000 -24.26610000
46.58630000 47.14860000 -22.86310000
47.62900000 48.34580000 -22.90530000
46.21790000 47.19960000 -23.01250000
48.47360000 48.43540000 -21.29220000
46.24430000 48.03760000 -23.14940000
47.02610000 49.48270000 -23.27040000
45.68890000 48.31740000 -23.38600000
46.63510000 50.72280000 -23.66320000
48.50020000 49.67090000 -23.16640000
43.66510000 52.24350000 -27.74210000
44.07570000 51.91440000 -26.74860000
44.52160000 52.39460000 -26.20050000
44.62220000 51.00160000 -25.40460000
44.57420000 49.12350000 -24.60390000
44.96050000 49.50480000 -24.28440000
45.49000000 49.84910000 -23.98600000
46.01520000 51.95910000 -24.42160000
47.45690000 50.66260000 -23.48180000
47.97790000 51.15540000 -23.65910000
47.34670000 51.69330000 -23.77740000
48.00230000 52.69790000 -24.10490000
48.77580000 52.47200000 -24.11950000
48.99530000 53.95510000 -24.57440000
47.27030000 52.85310000 -24.22190000
47.74470000 53.89350000 -24.58410000
46.88610000 52.99440000 -24.40810000
47.23850000 55.23690000 -25.36390000
46.43060000 53.32220000 -24.74000000
46.26270000 54.48880000 -25.36670000
48.58920000 54.66250000 -24.85950000
48.87320000 55.57420000 -25.29810000
46.02030000 55.16700000 -25.91740000
46.28320000 55.72410000 -26.21290000
40.16860000 51.51130000 -15.67220000
40.85300000 53.42250000 -15.16830000
40.61630000 55.32730000 -16.92610000
40.10890000 55.06700000 -17.93750000
41.42360000 55.00590000 -14.63410000
40.80200000 56.88460000 -17.45930000
40.02230000 58.22120000 -20.13180000
39.44130000 54.60770000 -18.97000000
39.16170000 52.26170000 -18.14530000
39.00050000 55.90640000 -20.59390000
37.93790000 53.09630000 -20.87800000
49.10350000 56.40360000 -25.74960000
48.40390000 56.68170000 -26.07860000
47.85020000 57.04120000 -26.63930000
47.09770000 56.64440000 -26.65580000
46.50030000 56.39280000 -26.73170000
42.82140000 63.91270000 -18.89190000
42.00060000 62.76440000 -19.57630000
42.84390000 63.07710000 -17.51620000
43.63880000 63.91040000 -16.34490000
41.00820000 61.53400000 -20.74820000
42.86040000 62.63640000 -16.98670000
44.65050000 64.14590000 -13.43260000
41.56570000 63.15460000 -21.08700000
40.95690000 62.99380000 -22.22410000
41.98710000 64.13450000 -21.15320000
41.13720000 64.63940000 -23.47700000
44.37410000 68.82420000 -21.41570000
43.43490000 66.06370000 -20.13930000
44.02880000 66.52950000 -19.15390000
44.89260000 68.08430000 -18.89090000
43.97020000 65.53560000 -17.86740000
45.14510000 67.32220000 -16.91990000
42.70370000 65.59090000 -21.24060000
42.66750000 66.57980000 -22.45700000
42.43010000 67.10980000 -23.59170000
41.49870000 66.32010000 -24.62520000
42.98810000 68.26420000 -23.86450000
46.54830000 69.31180000 -16.07290000
46.03000000 69.37300000 -17.67390000
48.46350000 71.67010000 -14.60890000
46.37810000 70.27760000 -18.24740000
43.33610000 69.25560000 -24.65050000
44.11920000 70.04520000 -24.14140000
44.88640000 70.86930000 -23.74290000
45.47350000 71.89660000 -24.17160000
45.54880000 70.86850000 -21.95720000
46.54320000 72.25760000 -22.00380000
46.47180000 71.07230000 -19.59290000
47.45530000 72.15040000 -18.98420000
46.78060000 73.08970000 -23.15180000
46.91740000 73.40480000 -23.53150000
47.91650000 73.64410000 -21.21830000
49.52630000 75.13290000 -20.20680000
49.32090000 73.77600000 -17.40120000
48.36600000 73.29280000 -19.00180000
46.95230000 73.81220000 -24.57540000
48.27240000 74.96490000 -23.66580000
49.10290000 75.68620000 -23.09760000
50.07030000 76.04530000 -21.09730000
50.35700000 74.14460000 -15.30830000
50.22440000 74.48500000 -16.65370000
50.77710000 75.60290000 -17.91370000
50.78950000 76.15600000 -19.32580000
51.22030000 76.60260000 -19.50590000
51.83770000 77.42830000 -20.38350000
28.47950000 -83.10550000 -22.01960000
28.64630000 -83.06290000 -21.15940000
29.53990000 -83.17750000 -22.06620000
30.75410000 -83.17170000 -19.02930000
30.66890000 -83.21840000 -24.67600000
30.99580000 -83.22240000 -23.16580000
32.39620000 -83.23630000 -22.38100000
28.93690000 -83.00600000 -20.38280000
28.19880000 -82.87740000 -20.98170000
29.88210000 -83.01670000 -18.92360000
29.34570000 -82.68320000 -19.07090000
27.46230000 -82.69120000 -21.65110000
26.30430000 -82.63340000 -22.98130000
27.59910000 -82.45320000 -21.25120000
25.92720000 -82.16930000 -23.05260000
31.24400000 -83.02150000 -15.65410000
30.53510000 -82.97710000 -17.14260000
31.49460000 -82.83140000 -13.78050000
30.52310000 -82.84960000 -16.44380000
33.86100000 -83.20480000 -17.57990000
33.87170000 -83.23230000 -20.68450000
27.30140000 -81.98240000 -21.37990000
26.25020000 -81.56550000 -22.45920000
27.78790000 -81.72440000 -20.62970000
30.36650000 -82.69550000 -16.46060000
29.76660000 -82.42030000 -17.74770000
30.70220000 -82.61320000 -15.30270000
29.93990000 -82.11570000 -16.78780000
29.14900000 -81.74690000 -18.40710000
28.65600000 -81.46400000 -19.11950000
28.96500000 -81.24220000 -18.10080000
31.71690000 -82.65830000 -12.64590000
30.98460000 -82.54870000 -14.28170000
31.76560000 -82.28400000 -11.95910000
30.76680000 -82.27760000 -14.57770000
27.93660000 -81.22930000 -20.05930000
30.25750000 -81.40940000 -15.32430000
29.81600000 -81.02220000 -15.90250000
29.38560000 -81.11420000 -16.88890000
30.84060000 -80.71490000 -13.29020000
29.95870000 -80.51410000 -14.95160000
29.03730000 -80.33090000 -16.15980000
28.90570000 -80.85910000 -17.68790000
28.43450000 -80.31220000 -17.77220000
30.67750000 -81.76320000 -14.44280000
31.22040000 -81.46040000 -12.80600000
25.66950000 -80.25110000 -16.77140000
26.86140000 -80.14320000 -18.56320000
28.02410000 -80.17300000 -17.54680000
28.11330000 -80.24580000 -16.49290000
30.47980000 -80.32830000 -13.40580000
30.27260000 -80.27690000 -13.10200000
31.30560000 -80.38210000 -11.66110000
31.73960000 -80.30100000 -9.83210000
27.02670000 -74.13950000 -14.20050000
26.50750000 -73.90320000 -17.40160000
25.54420000 -73.93850000 -18.52490000
25.02810000 -74.05960000 -17.88850000
25.55480000 -73.48450000 -20.02490000
24.63890000 -73.78520000 -20.37270000
23.38640000 -73.94300000 -20.56260000
27.41020000 -73.89210000 -16.47000000
27.32320000 -73.59730000 -17.41100000
28.46310000 -74.01800000 -14.48140000
28.95640000 -73.67900000 -14.87940000
27.48050000 -72.99530000 -17.78840000
26.77630000 -72.64270000 -19.04550000
28.45880000 -72.76750000 -16.50130000
28.03830000 -71.56980000 -17.78490000
26.33800000 -72.48380000 -19.82690000
25.56080000 -72.86380000 -20.68170000
26.84360000 -71.85760000 -19.44760000
25.69110000 -72.02800000 -20.91630000
29.72060000 -73.23110000 -14.06240000
29.16060000 -72.69640000 -15.43920000
30.29620000 -72.44690000 -13.42390000
29.21210000 -71.96570000 -15.65960000
37.37010000 -49.59860000 -17.85630000
36.88820000 -49.53770000 -17.74770000
36.78710000 -49.43640000 -17.22840000
36.72660000 -49.39830000 -18.32210000
36.43140000 -49.11380000 -17.82250000
36.55550000 -49.18070000 -19.18360000
36.31220000 -48.99340000 -19.58490000
36.94640000 -49.06560000 -19.90240000
38.28280000 -49.55360000 -18.33750000
36.70330000 -49.16000000 -16.37670000
36.88570000 -49.03110000 -15.43900000
36.55110000 -48.76650000 -15.98550000
36.72990000 -48.30030000 -14.14780000
37.49630000 -49.11880000 -14.36450000
37.32050000 -48.96600000 -14.15850000
37.08460000 -48.79440000 -14.15260000
37.07950000 -48.26120000 -12.81780000
36.13450000 -48.81600000 -20.05900000
36.17270000 -48.69360000 -19.15260000
37.91860000 -48.84970000 -20.77840000
37.18130000 -47.60540000 -11.54690000
37.45820000 -47.33690000 -10.47580000
37.04960000 -47.33170000 -11.83320000
37.49390000 -46.05500000 -9.39880000
36.54400000 -48.10060000 -16.12790000
36.35690000 -48.17730000 -17.56770000
36.30210000 -47.46420000 -17.34430000
36.59310000 -48.16430000 -15.32120000
36.74730000 -47.61630000 -13.93950000
36.97210000 -47.11810000 -12.37640000
37.12820000 -46.35420000 -11.54140000
34.96110000 -46.55720000 -21.10560000
35.13380000 -46.21560000 -20.24270000
34.58430000 -45.78600000 -21.13790000
36.13570000 -46.45750000 -17.00960000
35.74700000 -46.17320000 -18.33560000
35.31630000 -45.61390000 -19.02350000
35.18040000 -44.42930000 -18.48430000
34.33730000 -45.38630000 -21.20920000
35.30090000 -43.73270000 -18.92340000
35.72600000 -43.49610000 -18.38960000
36.07210000 -43.30810000 -15.45370000
36.30350000 -42.79970000 -15.09110000
36.18180000 -43.39410000 -16.29450000
36.76930000 -42.52850000 -16.08110000
36.11340000 -43.27390000 -17.62610000
36.23550000 -42.74470000 -18.37990000
36.95970000 -43.62050000 -10.67180000
36.92400000 -44.78070000 -11.79160000
36.47800000 -43.78870000 -12.23170000
36.38290000 -42.69120000 -11.52470000
36.18070000 -43.91100000 -13.07350000
35.59260000 -41.65830000 -12.58580000
35.97980000 -43.69640000 -13.58130000
35.63560000 -42.46530000 -13.51080000
35.67020000 -41.20340000 -13.31080000
35.45270000 -41.32700000 -13.05440000
35.49450000 -41.82660000 -13.43770000
35.68080000 -41.86190000 -13.72700000
36.43910000 -41.79320000 -14.29080000
36.13870000 -41.54940000 -13.91840000
37.13290000 -40.72600000 -14.05260000
36.25800000 -40.98050000 -13.65520000
36.61700000 -42.11680000 -14.77850000
37.03330000 -41.66810000 -14.91210000
35.14620000 -42.00070000 -22.59900000
35.75350000 -41.82250000 -20.92690000
36.17950000 -42.03340000 -19.24440000
36.40370000 -41.57720000 -18.49860000
36.49070000 -42.36090000 -10.89150000
36.93990000 -42.99600000 -10.11640000
36.21130000 -41.92120000 -11.11360000
36.91270000 -42.60760000 -9.77010000
37.33930000 -41.13500000 -14.79730000
37.58110000 -40.43260000 -14.21400000
37.34410000 -41.20470000 -15.13190000
37.86950000 -39.80330000 -14.31500000
36.05140000 -41.44820000 -11.10270000
36.44910000 -41.55900000 -10.30780000
35.73720000 -41.00820000 -11.65690000
36.31910000 -40.62490000 -10.71660000
37.36840000 -39.82140000 -16.60720000
37.05910000 -41.10970000 -16.41100000
36.69510000 -41.00310000 -17.79670000
36.69250000 -40.26000000 -18.46520000
35.65260000 -40.70750000 -11.91580000
35.95840000 -40.37680000 -11.64810000
35.56660000 -40.82320000 -12.38620000
35.96010000 -40.37270000 -12.30460000
35.50730000 -40.93170000 -12.72950000
35.69680000 -40.74330000 -12.84170000
36.15150000 -40.65450000 -13.21020000
36.57480000 -40.39940000 -13.09020000
36.65620000 -39.93710000 -19.45780000
36.84010000 -39.87140000 -18.54350000
37.29750000 -39.61360000 -18.44110000
37.27650000 -39.66080000 -17.60500000
37.34560000 -40.85510000 -15.54170000
37.60100000 -39.95170000 -15.42720000
37.63470000 -40.06840000 -13.15850000
37.10850000 -40.12110000 -12.80900000
36.93110000 -39.99830000 -12.18080000
37.81780000 -40.03420000 -13.53600000
38.09020000 -39.69100000 -13.15070000
37.46080000 -39.80900000 -19.55490000
37.00220000 -39.84490000 -19.71150000
37.79790000 -39.68500000 -18.86800000
38.00160000 -39.62590000 -18.34030000
37.79950000 -39.55840000 -17.80600000
37.63540000 -39.58620000 -17.33010000
37.81820000 -39.49720000 -16.91590000
37.87210000 -39.23020000 -15.41130000
38.08880000 -38.77620000 -14.98990000
37.91610000 -39.00730000 -15.94470000
38.64630000 -37.94990000 -15.54790000
38.01690000 -39.09290000 -16.45280000
38.27710000 -38.88260000 -16.45990000
38.38600000 -38.89550000 -16.46470000
38.73780000 -38.68940000 -16.10840000
38.41570000 -39.20380000 -12.66180000
38.45450000 -38.80830000 -13.00340000
38.21190000 -37.92100000 -14.75110000
38.21480000 -37.91860000 -14.24460000
38.36200000 -37.01950000 -14.90500000
38.44160000 -36.16340000 -14.23650000
38.44170000 -37.95970000 -13.45200000
38.69340000 -36.86830000 -13.10340000
38.73030000 -34.77520000 -13.53500000
38.84750000 -35.61910000 -12.92480000
38.65090000 -34.70970000 -14.02160000
38.88930000 -33.84920000 -13.67770000
38.49670000 -35.56360000 -14.57100000
38.77920000 -34.97010000 -14.58870000
39.31810000 -32.36740000 -13.08020000
39.58270000 -31.14660000 -12.26800000
39.47580000 -32.42650000 -13.42230000
42.33600000 -11.78490000 -14.13040000
42.41930000 -11.13380000 -13.51510000
42.50650000 -10.26200000 -12.93110000
42.63660000 -8.41000000 -12.44210000
42.71130000 -7.09860000 -12.21330000
42.72740000 -6.45630000 -11.82070000
42.68590000 -5.48750000 -10.81340000
42.71580000 -5.31550000 -10.23050000
42.75690000 -4.14010000 -9.53520000
42.70830000 -5.41280000 -11.25970000
42.77270000 -4.16630000 -11.15240000
42.94270000 -3.31150000 -11.36470000
41.58120000 7.01860000 -19.54320000
42.29200000 6.96590000 -19.08510000
42.80170000 6.90270000 -18.74540000
42.46760000 7.68730000 -18.76510000
43.83160000 8.20050000 -16.22110000
43.49780000 8.79820000 -16.43290000
42.42120000 8.94210000 -18.26510000
42.96280000 9.33960000 -17.43980000
41.91990000 10.15380000 -18.25290000
42.57670000 11.69380000 -16.72910000
43.19400000 9.72850000 -16.56400000
43.06340000 10.97680000 -15.77180000
40.56310000 11.48230000 -19.10960000
41.10160000 11.50290000 -18.72660000
41.61490000 11.61280000 -18.13550000
41.86950000 12.93390000 -17.37850000
43.85770000 11.75130000 -13.08570000
43.89020000 12.12480000 -12.77290000
43.63890000 11.94040000 -13.50690000
43.38410000 12.91790000 -13.60840000
43.51090000 11.62710000 -13.92590000
43.32130000 11.68540000 -14.31100000
43.09760000 11.75910000 -15.01590000
42.95020000 12.33030000 -15.18010000
43.98600000 13.01970000 -12.22470000
43.86320000 14.15620000 -12.25860000
42.75620000 12.78290000 -15.41880000
42.91600000 13.50980000 -14.74970000
42.43490000 12.92430000 -16.24300000
42.49390000 13.97930000 -15.70720000
42.04610000 13.42300000 -16.83730000
41.93000000 14.16970000 -16.72510000
42.15160000 14.90830000 -16.29690000
42.63190000 15.21450000 -15.49730000
41.94460000 15.67230000 -16.69890000
42.73070000 16.63250000 -15.51170000
41.49370000 16.62530000 -17.57850000
41.60420000 17.39550000 -17.55490000
41.64330000 17.85890000 -17.70170000
42.23860000 17.76390000 -16.74440000
41.22740000 18.40500000 -18.67390000
41.90120000 18.56040000 -17.81170000
44.13450000 16.27750000 -11.71210000
44.28870000 16.30080000 -10.88160000
44.40320000 15.47960000 -10.02920000
44.05390000 17.81540000 -12.63930000
44.35360000 16.92790000 -10.70200000
43.25520000 14.82950000 -14.06940000
43.64870000 15.29140000 -13.17100000
43.20310000 15.61590000 -14.33370000
43.89510000 15.41670000 -12.37680000
43.12240000 16.00290000 -14.59750000
43.42960000 17.16080000 -14.14580000
42.72910000 18.34000000 -15.98630000
43.20420000 18.27040000 -14.98590000
42.71120000 19.12140000 -16.34590000
43.62740000 19.91540000 -14.57090000
41.74740000 18.61790000 -18.56600000
41.26880000 18.56190000 -19.01330000
43.55030000 18.20090000 -14.16370000
43.86100000 19.06530000 -13.60660000
44.52210000 18.90310000 -10.64270000
44.50040000 17.83970000 -10.17410000
44.67200000 17.76230000 -9.17720000
43.47720000 19.11150000 -17.85440000
42.71880000 19.10250000 -17.94840000
44.29380000 19.35550000 -17.28460000
43.52530000 19.77510000 -16.66790000
42.26190000 18.94440000 -18.02610000
42.52480000 19.19860000 -17.40200000
36.60730000 18.49880000 -8.50360000
36.29270000 20.86920000 -10.20220000
35.69550000 20.53090000 -11.53970000
35.61640000 18.91900000 -11.06770000
35.83100000 22.39360000 -12.05150000
35.24040000 21.29010000 -12.93320000
34.61240000 18.94840000 -13.35910000
44.17520000 19.83510000 -12.89600000
44.42360000 19.73510000 -11.96110000
44.28800000 20.56980000 -12.86490000
44.66620000 20.71870000 -11.59000000
42.86060000 19.50340000 -16.56280000
43.46600000 20.01600000 -15.62570000
45.07570000 19.46230000 -16.77970000
45.01960000 19.79750000 -16.06850000
44.59880000 19.76320000 -10.92950000
44.81750000 20.47990000 -10.40680000
45.07090000 20.32130000 -14.80570000
44.43750000 20.56910000 -14.45130000
44.56440000 21.00040000 -12.57300000
44.91020000 21.19170000 -11.55730000
44.38040000 20.81270000 -13.34700000
44.07110000 20.52960000 -14.41720000
44.98800000 20.92850000 -10.60650000
45.23480000 20.79670000 -10.38980000
45.79420000 20.75310000 -10.45430000
46.59440000 22.47480000 -10.24750000
46.09350000 22.82300000 -9.74140000
46.36230000 25.38000000 -18.18230000
46.04300000 26.19380000 -17.79140000
44.49140000 26.46560000 -18.80310000
44.52660000 26.63010000 -18.39810000
45.25750000 27.37820000 -16.94550000
45.85660000 26.88330000 -16.97790000
45.74040000 26.69350000 -17.44920000
45.28100000 26.88320000 -17.67650000
44.48120000 27.12090000 -17.52800000
44.69170000 26.85840000 -17.90060000
46.00500000 27.36110000 -16.65800000
45.79300000 27.91660000 -16.49230000
44.69790000 27.65170000 -17.05310000
45.27240000 28.08350000 -16.54880000
44.34590000 28.05290000 -17.30170000
45.43370000 29.28970000 -16.00250000
45.92490000 28.82660000 -15.91150000
45.68140000 28.32170000 -16.32800000
46.12580000 29.39880000 -15.14720000
46.04540000 29.94160000 -14.65340000
46.01230000 30.77570000 -14.19450000
45.81490000 31.10770000 -14.52500000
43.74380000 28.98400000 -17.80770000
43.92710000 30.05560000 -17.52930000
36.81800000 28.81350000 -12.39860000
38.09620000 31.01170000 -10.07760000
38.59730000 33.33680000 -9.80610000
38.36810000 33.58900000 -10.48830000
39.15730000 32.74330000 -7.78730000
39.45240000 35.28480000 -8.23230000
40.00330000 38.53650000 -8.27640000
44.11680000 30.88070000 -17.23170000
44.84410000 30.98360000 -16.38620000
43.57590000 31.89700000 -17.79590000
45.57070000 34.04650000 -14.54370000
45.49710000 31.70120000 -15.18880000
45.19880000 31.78770000 -15.69490000
45.01170000 32.97220000 -15.64940000
47.16520000 31.10720000 -10.14000000
47.04160000 31.44750000 -10.03590000
46.97290000 31.21480000 -10.60860000
45.69570000 31.93810000 -14.59300000
45.82050000 33.09570000 -14.00850000
46.96750000 32.05740000 -10.01990000
46.68480000 32.57970000 -10.46190000
46.44120000 32.74920000 -11.28490000
46.45140000 33.11500000 -11.71800000
44.81010000 33.71940000 -15.81890000
44.98190000 34.46640000 -15.43450000
44.51120000 33.77550000 -16.48330000
44.51930000 34.93160000 -16.34190000
43.39500000 33.04680000 -18.25760000
46.05760000 33.61230000 -13.66290000
46.29920000 33.44530000 -13.09620000
46.16170000 34.22570000 -13.77670000
46.60030000 34.12150000 -12.94190000
46.50210000 33.42880000 -12.19940000
46.72290000 33.70210000 -11.69080000
46.87640000 33.82830000 -11.27700000
46.99270000 33.85070000 -10.46290000
46.89330000 34.22520000 -11.87290000
47.13190000 34.51330000 -10.83230000
44.34020000 34.32160000 -17.12390000
44.26290000 35.22210000 -17.32710000
47.10910000 34.09380000 -9.95440000
47.13270000 34.06630000 -9.61400000
47.25600000 34.64720000 -9.99170000
47.21070000 33.82380000 -9.18290000
46.26780000 35.72960000 -14.00520000
46.40990000 35.18860000 -13.76690000
46.94440000 37.08610000 -13.45950000
46.76020000 35.44790000 -13.26520000
37.80620000 34.49300000 -12.53270000
38.69960000 35.84970000 -10.71900000
38.79820000 36.47880000 -10.74200000
38.15690000 35.61890000 -12.08810000
39.15390000 37.21680000 -10.09580000
38.35980000 36.46990000 -11.87630000
44.33640000 35.96850000 -16.86040000
44.69840000 36.23270000 -16.10300000
44.98040000 35.80620000 -15.48900000
45.00620000 36.95650000 -15.89480000
45.64130000 36.78940000 -14.71240000
45.18970000 35.27230000 -15.07980000
45.61050000 35.62020000 -14.52750000
44.19320000 35.88630000 -17.43000000
47.46090000 36.22180000 -10.83610000
47.45660000 35.76010000 -10.22540000
47.54780000 36.36310000 -10.01600000
47.48100000 36.34600000 -9.70680000
47.53720000 36.98630000 -9.83650000
46.07570000 36.16810000 -14.16350000
46.34670000 37.10230000 -14.10590000
46.93680000 35.13420000 -12.45960000
47.11570000 35.79500000 -12.07830000
45.62340000 37.67180000 -15.54010000
46.26280000 37.88570000 -14.71520000
45.61680000 37.98670000 -16.05750000
44.89930000 37.90130000 -17.33700000
44.30340000 37.89000000 -18.15160000
38.81710000 38.10970000 -11.79350000
38.63720000 37.13200000 -11.64530000
39.14840000 37.43840000 -10.34750000
39.41320000 38.28540000 -10.13640000
45.61520000 38.20230000 -16.47010000
46.17200000 38.79430000 -16.21040000
47.56690000 37.36230000 -9.76190000
46.61950000 37.83380000 -14.23610000
47.05330000 38.19000000 -13.90240000
47.35930000 36.64790000 -11.68570000
47.42440000 37.75640000 -12.31600000
46.28870000 39.34660000 -16.49710000
46.51070000 39.78080000 -16.16590000
45.85130000 39.44840000 -17.42910000
47.37630000 38.36790000 -13.06560000
37.10100000 38.31020000 -15.81930000
38.07690000 38.15220000 -13.60580000
38.53470000 39.67450000 -13.29330000
38.32660000 40.71780000 -14.22130000
39.20630000 40.06030000 -11.85820000
39.53520000 42.75830000 -12.36410000
45.41730000 39.50090000 -18.41220000
39.60370000 39.78100000 -10.51780000
39.93640000 41.03230000 -10.18340000
46.50490000 40.27090000 -15.86550000
46.77260000 40.36730000 -15.13650000
46.34200000 40.86820000 -16.25320000
46.62090000 41.20270000 -15.40310000
47.15290000 40.79710000 -14.70060000
47.15200000 41.52580000 -14.79690000
47.16340000 42.00910000 -15.06950000
47.62230000 42.39180000 -14.79430000
46.78570000 41.88230000 -15.59770000
47.38650000 42.87770000 -15.67040000
40.10710000 42.37020000 -10.41110000
39.94640000 43.77420000 -11.72230000
40.24010000 42.41430000 -9.98640000
40.08360000 44.35300000 -11.58290000
48.10120000 42.83820000 -14.19480000
48.20420000 43.43570000 -14.34860000
46.51540000 41.48290000 -16.23450000
46.78590000 41.87220000 -16.58490000
38.57010000 44.87610000 -15.83450000
39.00660000 43.75210000 -14.18210000
39.48140000 44.17320000 -13.17650000
39.45790000 44.66810000 -13.44330000
40.44250000 43.59710000 -10.17440000
40.36560000 45.30790000 -11.42640000
40.56510000 42.89140000 -9.28550000
40.82180000 46.91350000 -11.18710000
48.43830000 44.38000000 -14.73730000
48.25180000 44.66440000 -15.58830000
39.81680000 45.40020000 -12.93990000
39.70850000 45.98490000 -13.62320000
47.34770000 42.86440000 -16.69740000
47.91040000 43.99450000 -16.31200000
47.34460000 42.88780000 -17.19070000
48.33280000 44.93230000 -16.07500000
47.18590000 42.82390000 -17.76420000
47.70050000 44.04140000 -17.80030000
48.14040000 45.28180000 -17.76120000
39.85350000 47.47180000 -14.16210000
39.34010000 48.09680000 -15.73640000
40.52380000 49.32180000 -13.53700000
40.92810000 51.36610000 -13.72750000
41.17860000 51.11320000 -12.85420000
41.39850000 50.33640000 -11.60230000
41.67050000 51.90460000 -11.74360000
41.36540000 47.81010000 -9.90510000
41.85590000 49.11530000 -9.09310000
38.19710000 48.46550000 -18.31390000
38.86320000 49.60130000 -17.45980000
42.76260000 56.21850000 -11.44550000
42.29450000 52.66030000 -10.27290000
42.62960000 52.79310000 -9.10240000
43.04510000 54.89650000 -9.17620000
42.48270000 50.69220000 -7.90790000
43.29570000 53.65800000 -6.79700000
42.00480000 53.37430000 -11.72840000
42.06720000 55.47300000 -13.08740000
43.47010000 56.67230000 -9.01500000
43.56240000 58.00160000 -9.92250000
43.80130000 56.99840000 -7.82850000
44.23230000 59.57300000 -8.57880000
43.71440000 59.22270000 -10.67630000
43.36360000 58.90440000 -11.85970000
44.19130000 60.63990000 -10.21550000
44.01820000 61.22540000 -11.85030000
42.07860000 58.55480000 -15.86610000
41.65850000 56.99380000 -15.57760000
42.05760000 56.65340000 -14.15580000
42.42150000 57.39690000 -13.72250000
41.13950000 57.57680000 -17.22830000
41.01900000 58.56070000 -18.30860000
42.92660000 58.62270000 -13.19110000
43.15800000 59.90720000 -13.71240000
41.65350000 60.18580000 -18.20790000
40.98860000 59.58440000 -19.24550000
40.41150000 59.87780000 -20.63610000
42.64100000 61.39120000 -16.60820000
43.30170000 61.31150000 -14.77080000
43.66100000 61.35290000 -13.62630000
44.38100000 62.67570000 -12.41600000
44.64350000 61.88400000 -9.69800000
44.77270000 62.75680000 -10.37380000
44.82060000 61.73260000 -8.51920000
45.40500000 63.86290000 -8.57760000
44.84650000 63.38720000 -11.16100000
45.18700000 64.30400000 -11.06730000
44.19770000 65.00460000 -16.29060000
44.87700000 65.79340000 -15.24730000
45.38220000 65.75160000 -13.14220000
45.29210000 66.30910000 -14.55310000
45.97750000 67.10300000 -13.02830000
45.68380000 67.39150000 -15.09960000
45.43990000 65.22410000 -11.65550000
45.67310000 65.56220000 -10.74060000
45.87160000 65.75810000 -9.18710000
46.11300000 66.58300000 -9.62520000
45.82430000 64.99320000 -7.16550000
46.19430000 65.98660000 -6.34750000
46.50540000 68.73540000 -15.03280000
47.05300000 69.21960000 -14.03480000
46.48840000 67.49880000 -10.35880000
46.74740000 68.34470000 -12.32520000
46.70550000 67.61900000 -8.80430000
47.33140000 69.22500000 -11.15980000
46.72670000 67.54860000 -7.29520000
47.08020000 68.44870000 -8.02340000
46.38810000 66.44680000 -5.26460000
46.59110000 67.12860000 -4.17630000
47.26990000 69.39110000 -13.30690000
47.88440000 70.39860000 -12.84750000
47.64780000 69.60830000 -8.35460000
48.08360000 70.57840000 -10.19290000
47.73890000 69.75400000 -6.46580000
48.94190000 72.07350000 -8.45890000
48.31620000 71.09750000 -11.67570000
48.88570000 71.98370000 -11.59980000
50.06290000 73.48970000 -13.23320000
49.65090000 72.96630000 -11.81770000
50.05990000 73.47660000 -10.77290000
50.39120000 74.21830000 -8.58380000
49.77120000 73.31950000 -8.65250000
49.60290000 73.40280000 -6.73130000
49.89300000 74.01300000 -5.80660000
49.21710000 72.98320000 -5.42650000
49.56760000 74.02230000 -2.67550000
50.21470000 73.72570000 -10.10650000
50.81860000 74.47090000 -10.63130000
50.64510000 74.28030000 -14.28170000
51.41250000 75.16720000 -10.71900000
51.36170000 75.27150000 -9.48190000
34.26030000 -83.17490000 -13.99970000
33.15520000 -83.13720000 -13.14460000
32.47740000 -83.05540000 -12.95940000
33.08320000 -82.95380000 -10.81210000
32.83790000 -82.79940000 -10.66640000
33.29160000 -82.71470000 -9.64670000
33.59050000 -82.07700000 -8.03830000
32.72480000 -82.14160000 -9.84310000
33.36360000 -82.50880000 -9.18020000
34.19580000 -82.55720000 -7.62280000
34.82500000 -82.63130000 -6.14690000
34.55150000 -82.29480000 -6.05150000
32.91350000 -81.64420000 -9.01520000
32.65220000 -81.43760000 -9.48070000
33.63320000 -81.47650000 -7.41650000
33.80220000 -80.75110000 -6.58700000
34.37490000 -81.76680000 -5.98190000
34.83080000 -81.56120000 -4.77830000
32.08060000 -81.14930000 -10.66250000
32.26040000 -80.64740000 -10.01250000
32.21530000 -80.42980000 -9.77680000
32.96420000 -80.38490000 -7.87470000
28.25340000 -80.29330000 -14.88260000
26.74680000 -80.30400000 -12.97950000
28.88710000 -80.28910000 -13.81780000
28.33030000 -80.32320000 -9.64570000
34.94960000 -81.15350000 -3.98610000
34.38520000 -80.53010000 -4.70040000
30.51540000 -80.29670000 -10.30800000
29.79880000 -80.28560000 -12.52700000
31.61300000 -80.25450000 -5.73310000
31.77820000 -80.25940000 -7.87960000
33.03780000 -80.24650000 -6.63660000
33.62280000 -80.31150000 -6.13380000
29.45930000 -74.11110000 -12.63310000
30.07200000 -73.97320000 -12.24500000
29.57300000 -74.18660000 -11.38520000
31.04820000 -74.10620000 -9.56190000
29.60980000 -74.19640000 -9.80670000
30.45300000 -74.17840000 -8.04540000
28.35640000 -74.16210000 -10.24410000
29.18350000 -74.24830000 -6.51750000
31.20070000 -74.10260000 -6.97910000
31.74910000 -74.02380000 -7.51040000
30.98000000 -74.15560000 -5.85530000
32.39410000 -73.90600000 -5.57510000
30.27910000 -73.62310000 -12.47180000
30.74760000 -73.50980000 -11.54980000
31.80000000 -73.83550000 -8.44440000
31.40700000 -73.72260000 -9.83670000
32.05580000 -73.59840000 -8.02900000
31.60310000 -72.94540000 -10.19270000
32.41800000 -73.31590000 -7.41560000
32.40770000 -72.75920000 -8.10720000
32.88470000 -73.32860000 -5.92550000
33.17760000 -72.51050000 -6.07430000
32.68320000 -74.11070000 -3.97060000
33.24820000 -73.89020000 -3.77930000
33.27090000 -73.69650000 -4.20170000
32.75860000 -74.24800000 -2.90310000
33.50310000 -73.87770000 -3.04410000
33.89530000 -73.36060000 -2.83620000
33.27100000 -73.40030000 -4.75450000
33.57030000 -73.02060000 -4.42960000
37.25720000 -44.67580000 -9.98620000
37.17750000 -45.37640000 -11.00090000
37.19020000 -43.94860000 -9.66070000
37.21710000 -44.19660000 -9.39110000
38.18760000 -42.57810000 -8.40040000
37.39950000 -42.48740000 -9.08110000
36.98460000 -41.85110000 -9.58160000
37.35310000 -41.60990000 -9.35490000
28.10130000 -34.21310000 47.24480000
29.34720000 -33.36330000 46.75110000
29.92980000 -32.77000000 46.81220000
29.43880000 -32.93030000 47.14370000
30.10200000 -32.68340000 46.22190000
30.64960000 -32.17070000 46.48320000
31.04840000 -31.38310000 46.88610000
33.92340000 -31.34670000 -3.25030000
34.70720000 -37.51380000 -5.85930000
34.81140000 -38.07880000 -4.98150000
34.48550000 -35.74400000 -2.92080000
35.27900000 -43.61430000 -8.12890000
35.16170000 -41.18600000 -5.60440000
34.85340000 -39.75100000 -2.24760000
36.61680000 -40.08530000 -11.69060000
37.12610000 -40.03850000 -11.38900000
37.85100000 -40.34380000 -10.24750000
37.75010000 -40.05790000 -10.93210000
34.09610000 -38.71030000 -10.54030000
34.50790000 -39.88930000 -10.30970000
34.31140000 -38.07560000 -9.70330000
33.98560000 -36.49320000 -9.52370000
34.82190000 -40.71590000 -9.66360000
34.29280000 -37.06340000 -8.78100000
33.60910000 -33.30480000 -8.23460000
35.07870000 -41.52220000 -8.77730000
34.74650000 -38.37590000 -7.13580000
34.43360000 -36.31490000 -6.79630000
34.17570000 -35.10700000 -7.07650000
33.83750000 -32.28930000 -5.96310000
39.38200000 -31.81350000 -11.41380000
39.52550000 -32.12830000 -10.92250000
39.38590000 -31.17150000 -10.53170000
39.55320000 -31.73590000 -10.13040000
39.58410000 -32.13390000 -8.36580000
39.35700000 -31.93730000 -7.84850000
39.16310000 -31.68630000 -8.98850000
38.33790000 -30.88770000 -8.68520000
39.00160000 -31.67320000 -7.27310000
39.32230000 -31.90860000 -6.60360000
38.26680000 -31.02920000 -7.44600000
38.34150000 -30.85710000 -6.47830000
39.16920000 -31.39340000 -9.56900000
38.93660000 -30.89490000 -9.72190000
39.27220000 -31.69970000 -5.99920000
39.76950000 -31.93330000 -5.92480000
38.66140000 -30.83940000 -5.75260000
39.21250000 -30.59000000 -5.07230000
40.15160000 -32.01230000 -5.76640000
40.22050000 -31.52800000 -5.21510000
37.91370000 -30.60760000 -7.76970000
37.91780000 -30.28300000 -7.43280000
37.94970000 -30.37330000 -8.56560000
37.84900000 -29.78530000 -8.49260000
38.97940000 -30.46560000 -9.95390000
38.65390000 -30.26000000 -9.59380000
39.31600000 -30.57610000 -10.61150000
39.24450000 -29.73200000 -10.43660000
39.33570000 -31.20040000 -11.30740000
39.33070000 -31.07820000 -11.54100000
38.30640000 -30.14040000 -9.24740000
38.39360000 -29.76300000 -9.42640000
39.58830000 -30.47370000 -11.62210000
39.78810000 -29.42500000 -11.13920000
33.54380000 -28.62040000 -1.48070000
33.48810000 -28.01270000 -3.11630000
33.55940000 -28.87300000 -4.34900000
33.39260000 -27.46440000 -0.67360000
33.36390000 -27.02630000 -2.91840000
33.24980000 -26.97860000 -5.65630000
38.33830000 -29.24860000 -9.39290000
37.99820000 -28.94500000 -8.85510000
38.71530000 -28.88560000 -9.74250000
38.31130000 -28.19040000 -9.07080000
39.54000000 -28.70620000 -10.38950000
39.09700000 -28.53490000 -9.96650000
38.98750000 -28.04360000 -9.64390000
39.85730000 -28.76800000 -10.80590000
38.45000000 -27.64400000 -7.26580000
37.96000000 -28.80550000 -7.89960000
37.97990000 -28.46140000 -8.34570000
38.17490000 -27.84790000 -8.26090000
38.36920000 -27.53340000 -8.22890000
38.76920000 -27.29360000 -7.79530000
38.52860000 -27.63250000 -8.69170000
38.90260000 -27.71060000 -9.20670000
39.38230000 -27.59250000 -9.32840000
40.00420000 -27.61040000 -9.60030000
39.68520000 -27.12370000 -7.37930000
40.00930000 -27.07500000 -6.94080000
40.05390000 -27.00830000 -6.46360000
39.28980000 -27.37890000 -6.29590000
33.34620000 -26.30450000 -2.09360000
33.35660000 -25.87630000 -2.77810000
33.36650000 -26.48520000 -0.20230000
33.44920000 -25.20450000 0.24620000
33.37230000 -25.10170000 -3.44120000
33.25390000 -24.90000000 -5.12450000
33.45820000 -23.99410000 -2.51170000
33.38340000 -22.49080000 -4.93440000
33.63340000 -22.54310000 -2.04210000
33.72000000 -21.19510000 -3.03070000
33.71630000 -22.49760000 -0.49300000
34.04590000 -19.25400000 -1.15330000
33.94840000 -16.32100000 -4.28620000
33.96980000 -17.95770000 -3.14430000
34.23180000 -16.10330000 -2.23680000
34.37840000 -14.43920000 -2.24830000
34.40860000 -15.63430000 -0.83990000
34.76240000 -12.71680000 -0.16530000
34.66000000 -12.64150000 -1.60870000
34.51040000 -12.87340000 -2.63900000
35.00560000 -11.05660000 -0.19760000
35.19000000 -9.21000000 -0.35090000
43.01810000 -10.27380000 -3.12260000
42.16070000 -9.95360000 -2.45790000
41.94360000 -9.41470000 -2.03260000
41.48980000 -9.91560000 -1.72500000
32.21700000 -5.96280000 -11.85210000
32.86340000 -7.04290000 -10.54110000
33.25370000 -4.41030000 -10.20630000
33.17900000 -2.60900000 -10.67230000
33.29830000 -7.90450000 -9.49140000
33.68360000 -3.57120000 -9.41170000
34.06270000 0.98960000 -9.55900000
33.89060000 -6.36320000 -7.99700000
33.99420000 -3.78600000 -8.39120000
34.60030000 -4.43330000 -5.98810000
34.36150000 -1.55040000 -7.93040000
42.84920000 -3.59610000 -9.01300000
42.92190000 -3.00080000 -8.95990000
35.41110000 -4.29030000 -1.12760000
36.17370000 3.53770000 -2.32020000
35.68130000 1.05550000 -3.55890000
35.10250000 -4.21050000 -3.33500000
37.17720000 13.05220000 -3.22920000
35.83730000 3.99310000 -4.64200000
35.83460000 5.82490000 -5.62450000
35.19550000 2.60750000 -6.73560000
36.35130000 10.32760000 -5.56210000
35.66270000 8.45930000 -7.46140000
43.11840000 -2.34350000 -8.71560000
43.27930000 -1.68970000 -8.88510000
43.72850000 -0.52370000 -8.81960000
34.78060000 1.49190000 -7.70480000
34.83410000 4.16800000 -8.45270000
36.15250000 1.12150000 -0.17400000
36.46550000 4.65970000 -1.16900000
36.85790000 6.15840000 1.18940000
37.03600000 9.24410000 -0.99300000
36.56290000 12.74130000 -5.87420000
36.33090000 12.76070000 -6.94120000
37.10160000 15.34060000 -4.98130000
36.98340000 16.46790000 -6.23980000
36.14170000 13.43560000 -7.98270000
36.40930000 14.43900000 -7.52860000
36.83800000 17.21470000 -7.27070000
44.57110000 14.77700000 -9.28770000
45.30270000 15.61670000 -5.85920000
45.25140000 15.89300000 -5.40000000
45.34680000 17.05720000 -6.62560000
45.25480000 16.60150000 -5.64470000
45.39790000 17.07340000 -5.92610000
45.42680000 17.06850000 -5.49900000
45.56450000 17.53800000 -6.50600000
45.22990000 15.01600000 -6.48820000
45.16010000 15.50680000 -7.15320000
44.79970000 17.75230000 -8.71000000
44.98780000 18.59060000 -8.51810000
45.46040000 17.29850000 -4.89280000
45.10540000 16.20270000 -7.60750000
45.22050000 17.32670000 -7.51960000
45.42060000 17.98630000 -7.56420000
45.59070000 18.03140000 -7.23060000
45.40050000 18.37250000 -7.98560000
45.26430000 18.86290000 -8.28700000
45.69150000 17.98000000 -6.97090000
37.82560000 18.78030000 -3.91720000
38.05300000 20.64850000 -4.16580000
38.24610000 19.75980000 -2.56790000
39.31800000 25.86210000 -1.57560000
37.38570000 19.48560000 -6.45710000
37.47020000 21.02000000 -6.83520000
37.72830000 20.08060000 -5.46490000
38.24310000 23.38730000 -5.30390000
37.01880000 21.61710000 -8.38590000
37.03140000 22.91870000 -8.81990000
38.24660000 21.83410000 -4.25510000
38.80570000 24.32590000 -3.49170000
45.89260000 22.96610000 -9.34980000
45.91410000 23.40250000 -9.39710000
46.04560000 23.73930000 -9.27680000
38.91720000 25.44670000 -3.81950000
38.54360000 25.35720000 -5.31390000
39.10490000 26.49160000 -3.51250000
38.70360000 26.99590000 -5.66650000
37.96440000 26.14190000 -7.59540000
37.52300000 25.72780000 -8.69380000
37.84440000 27.57540000 -8.78130000
39.35080000 27.70250000 -3.04630000
39.29110000 28.53380000 -3.98040000
39.64610000 28.49410000 -1.69370000
39.85900000 30.46880000 -2.03850000
38.77500000 29.56670000 -7.11970000
38.12010000 29.25680000 -9.01760000
39.22010000 29.82510000 -5.35400000
39.47450000 31.26420000 -5.09470000
39.71000000 32.07390000 -4.52920000
39.74320000 33.13790000 -5.29980000
40.02010000 32.06880000 -2.63340000
40.20240000 33.60740000 -2.97590000
40.80980000 37.66530000 -3.50040000
39.99840000 35.37520000 -5.92700000
40.03370000 34.54670000 -5.03730000
40.41270000 35.34590000 -3.60950000
40.30750000 32.84700000 -0.95770000
40.47700000 34.08030000 -0.70540000
40.35210000 32.67590000 0.09240000
40.79540000 35.15880000 1.80660000
40.02110000 36.37780000 -6.65060000
40.44480000 37.95570000 -5.84330000
40.50960000 35.44270000 -2.19630000
40.58290000 36.06400000 -2.82970000
40.74110000 36.86250000 -1.64840000
40.77610000 37.25650000 -2.56360000
40.57880000 35.22340000 -0.94550000
40.77100000 36.20560000 -0.20830000
40.93100000 36.99270000 -0.14330000
40.94980000 37.65430000 -1.19370000
41.06730000 37.19520000 0.60300000
41.14290000 38.15900000 -0.55720000
41.25980000 38.22980000 1.06740000
41.36090000 39.20060000 0.31980000
41.18290000 37.79190000 2.16730000
41.62880000 40.94550000 1.60240000
40.93510000 37.83330000 -2.02760000
41.07240000 38.24610000 -1.75230000
