-0.97350000 -5.25000000 -0.92680000
-1.09600000 -5.25460000 -0.94240000
0.07040000 -5.22950000 -0.99120000
0.08710000 -5.23780000 -1.22810000
0.24170000 -5.22660000 -1.00330000
0.31660000 -5.23350000 -1.16660000
0.34640000 -5.21520000 -0.88170000
0.54200000 -5.22810000 -1.06640000
0.83800000 -5.02180000 -0.76940000
0.76930000 -5.00770000 -0.52450000
0.98780000 -5.02750000 -0.68130000
1.03010000 -5.02430000 -0.51650000
-0.75020000 -5.20570000 0.03830000
-0.72450000 -5.20730000 -0.10190000
-0.64460000 -5.20410000 0.12170000
-0.52530000 -5.20810000 -0.05250000
-0.89830000 -5.20720000 0.09540000
-0.92630000 -5.21100000 -0.08930000
-0.81550000 -5.20420000 0.26370000
-1.11120000 -5.27050000 -1.21300000
-1.22330000 -5.25970000 -0.97100000
-1.25990000 -5.27040000 -1.13770000
-1.35460000 -5.26310000 -0.98220000
-1.31280000 -5.27650000 -1.21070000
-1.14780000 -5.28200000 -1.36820000
-0.90960000 -5.27470000 -1.43150000
-0.95210000 -5.28550000 -1.56190000
-0.70870000 -5.27600000 -1.63890000
-0.74040000 -5.28560000 -1.76530000
-0.66410000 -5.26480000 -1.44910000
-0.40890000 -5.26870000 -1.50410000
-0.41980000 -5.27300000 -1.71820000
-0.40000000 -5.24660000 -1.24470000
-0.63950000 -5.25130000 -1.22430000
-0.39900000 -5.23480000 -0.98510000
-0.63850000 -5.23950000 -0.98510000
-0.64590000 -5.23370000 -0.74100000
-0.84390000 -5.23770000 -0.73410000
-0.87250000 -5.22770000 -0.51090000
-1.02600000 -5.24280000 -0.72870000
-1.07210000 -5.23210000 -0.50410000
-0.66190000 -5.22210000 -0.51040000
-0.68940000 -5.21340000 -0.29380000
-0.90580000 -5.21850000 -0.29310000
-1.10950000 -5.22380000 -0.27420000
-1.12710000 -5.21700000 -0.04670000
-1.31550000 -5.22850000 -0.25220000
-1.33580000 -5.22450000 -0.00010000
-1.25450000 -5.23650000 -0.49800000
-1.42860000 -5.24280000 -0.49970000
-1.49390000 -5.23840000 -0.23660000
-1.32750000 -5.25050000 -0.74360000
-1.17830000 -5.24600000 -0.72960000
-1.46900000 -5.25580000 -0.76450000
-1.58560000 -5.25180000 -0.51340000
-1.59080000 -5.26260000 -0.79850000
-1.71510000 -5.26200000 -0.53020000
-1.45310000 -5.26840000 -1.02690000
-1.55070000 -5.27500000 -1.08930000
-1.70740000 -5.27040000 -0.83980000
-1.38700000 -5.28420000 -1.29740000
-1.64630000 -5.28580000 -1.14810000
-1.46290000 -5.28830000 -1.38120000
-1.20790000 -5.29470000 -1.47970000
-1.28670000 -5.31450000 -1.57720000
-0.99550000 -5.29760000 -1.66420000
-1.04290000 -5.32160000 -1.75050000
-0.73990000 -5.29790000 -1.82810000
-0.75430000 -5.32610000 -1.89650000
-0.43550000 -5.29450000 -1.94650000
-0.44790000 -5.31740000 -2.03400000
-0.42940000 -5.28140000 -1.84940000
-0.10230000 -5.27860000 -1.88510000
-0.09210000 -5.30170000 -2.00460000
-0.11400000 -5.26900000 -1.73110000
0.18830000 -5.26330000 -1.68930000
0.22670000 -5.27410000 -1.85780000
0.14020000 -5.25050000 -1.47430000
-0.13450000 -5.25870000 -1.51800000
-0.15380000 -5.24360000 -1.25300000
-0.15890000 -5.23390000 -0.98320000
0.41260000 -5.24560000 -1.40180000
0.49220000 -5.26230000 -1.62120000
0.67880000 -5.24090000 -1.29930000
0.78650000 -5.25520000 -1.50340000
1.04940000 -5.23610000 -1.31610000
0.92410000 -5.22750000 -1.14230000
0.73840000 -5.21020000 -0.92710000
1.10720000 -5.21490000 -0.92540000
0.88850000 -5.20560000 -0.74860000
0.61710000 -5.20260000 -0.54720000
0.48870000 -5.20670000 -0.70810000
1.00930000 -5.20470000 -0.54830000
0.73170000 -5.20110000 -0.37260000
0.48190000 -5.20590000 -0.19530000
0.83300000 -5.19970000 -0.17320000
0.60050000 -5.20440000 -0.01200000
0.28440000 -5.20760000 -0.02600000
0.42420000 -5.20350000 0.16270000
0.12020000 -5.20600000 0.15230000
0.26750000 -5.20200000 0.33250000
-0.04460000 -5.20320000 0.31330000
0.10380000 -5.19980000 0.47950000
-0.19340000 -5.20410000 0.16960000
-0.22690000 -5.19950000 0.46260000
-0.36730000 -5.20150000 0.34470000
-0.34950000 -5.20620000 0.04180000
-0.50000000 -5.20350000 0.23620000
-0.57740000 -5.19810000 0.52670000
-0.70700000 -5.20080000 0.40550000
-0.78810000 -5.19980000 0.71140000
-0.92180000 -5.20400000 0.55370000
-1.03050000 -5.20880000 0.37370000
-1.23480000 -5.21610000 0.48570000
-1.12190000 -5.20950000 0.69960000
-1.30610000 -5.22020000 0.24890000
-1.10420000 -5.21130000 0.17270000
-1.48780000 -5.23130000 0.31710000
-1.40940000 -5.22640000 0.58140000
-1.51350000 -5.23560000 0.03980000
-1.67670000 -5.24730000 0.07290000
-1.65240000 -5.24330000 0.37420000
-1.65060000 -5.24960000 -0.22860000
-1.79160000 -5.26000000 -0.22420000
-1.82010000 -5.25790000 0.09740000
-1.91350000 -5.27040000 -0.22420000
-1.93690000 -5.26710000 0.11410000
-1.82760000 -5.27280000 -0.54530000
-1.93340000 -5.28550000 -0.56210000
-2.01530000 -5.28250000 -0.22470000
-1.80750000 -5.28550000 -0.87350000
-1.88580000 -5.32030000 -0.89800000
-2.00880000 -5.32060000 -0.57300000
-1.71830000 -5.32310000 -1.18460000
-1.77180000 -5.38550000 -1.20780000
-1.94120000 -5.38260000 -0.91170000
-1.57610000 -5.39070000 -1.45790000
-1.52910000 -5.32780000 -1.42500000
-1.33700000 -5.35080000 -1.63450000
-1.36420000 -5.40880000 -1.67120000
-1.08470000 -5.36220000 -1.81800000
-1.11080000 -5.42210000 -1.86400000
-0.77620000 -5.37220000 -1.96090000
-0.79760000 -5.43630000 -2.01640000
-0.45930000 -5.36590000 -2.10220000
-0.46190000 -5.43820000 -2.14390000
-0.08490000 -5.37870000 -2.16700000
-0.08900000 -5.44720000 -2.20820000
-0.08470000 -5.33400000 -2.09640000
0.27670000 -5.35790000 -2.08190000
0.28930000 -5.40710000 -2.13970000
0.25820000 -5.30910000 -1.99870000
0.60260000 -5.28880000 -1.91340000
0.63920000 -5.32510000 -2.00430000
0.55480000 -5.27260000 -1.78860000
0.86990000 -5.25950000 -1.65050000
0.93210000 -5.25950000 -1.75570000
1.22770000 -5.25150000 -1.51520000
1.14520000 -5.24350000 -1.42540000
1.47470000 -5.24470000 -1.24200000
1.37560000 -5.23640000 -1.16210000
1.25600000 -5.22610000 -1.05400000
1.57630000 -5.23020000 -0.87320000
1.43000000 -5.22170000 -0.79060000
1.24600000 -5.21240000 -0.68720000
1.55460000 -5.21670000 -0.51170000
1.35880000 -5.20930000 -0.43940000
1.09640000 -5.20280000 -0.33270000
1.41660000 -5.20680000 -0.18420000
1.14570000 -5.20090000 -0.09800000
0.91680000 -5.19910000 0.03320000
0.72800000 -5.20040000 0.19360000
0.85930000 -5.19530000 0.40010000
0.56040000 -5.19850000 0.36190000
0.72190000 -5.19280000 0.58210000
0.41690000 -5.19640000 0.52940000
0.57600000 -5.19050000 0.75700000
0.25350000 -5.19420000 0.66730000
0.39140000 -5.19040000 0.89400000
0.18200000 -5.19030000 0.98120000
0.04840000 -5.19270000 0.77760000
-0.09060000 -5.19640000 0.61260000
-0.28820000 -5.19320000 0.75380000
-0.43390000 -5.19560000 0.64050000
-0.47250000 -5.19340000 0.92120000
-0.64110000 -5.19640000 0.83370000
-0.61610000 -5.19860000 1.15430000
-0.80260000 -5.20280000 1.04350000
-0.97850000 -5.20500000 0.89000000
-1.12400000 -5.21700000 1.03470000
-0.93210000 -5.21260000 1.20840000
-1.28890000 -5.22130000 0.82290000
-1.42270000 -5.23120000 0.92170000
-1.24320000 -5.22820000 1.15120000
-1.56030000 -5.23810000 0.66110000
-1.68800000 -5.24860000 0.72510000
-1.53670000 -5.24160000 1.00440000
-1.79190000 -5.25480000 0.42110000
-1.89220000 -5.26350000 0.45350000
-1.79010000 -5.25780000 0.77700000
-1.98520000 -5.27400000 0.48460000
-1.87580000 -5.26860000 0.82080000
-2.03370000 -5.27880000 0.13010000
-2.10580000 -5.31000000 0.14280000
-2.05790000 -5.30120000 0.50970000
-2.08840000 -5.31460000 -0.22270000
-2.14040000 -5.36890000 -0.21870000
-2.16200000 -5.36270000 0.15460000
-2.06410000 -5.37730000 -0.57870000
-2.09400000 -5.45460000 -0.57540000
-2.16590000 -5.44300000 -0.21170000
-1.97100000 -5.46250000 -0.91270000
-1.99100000 -5.54190000 -0.91090000
-2.11180000 -5.53240000 -0.56870000
-1.82340000 -5.54590000 -1.21870000
-1.80330000 -5.46550000 -1.21570000
-1.61800000 -5.54860000 -1.48200000
-1.60350000 -5.46860000 -1.47540000
-1.37700000 -5.48060000 -1.69060000
-1.38570000 -5.55880000 -1.70620000
-1.11650000 -5.49720000 -1.88720000
-1.12020000 -5.57650000 -1.90820000
-0.80730000 -5.51330000 -2.05250000
-0.80790000 -5.58760000 -2.07520000
-0.45850000 -5.51850000 -2.16600000
-0.45570000 -5.59330000 -2.19150000
-0.08600000 -5.52600000 -2.22490000
-0.07640000 -5.59450000 -2.25670000
0.31750000 -5.53020000 -2.21650000
0.33190000 -5.58960000 -2.24430000
0.30150000 -5.46590000 -2.18330000
0.69660000 -5.42460000 -2.10500000
0.72550000 -5.49140000 -2.12700000
0.66630000 -5.36970000 -2.06200000
1.03130000 -5.29970000 -1.90470000
1.06680000 -5.35250000 -1.95230000
0.98640000 -5.26940000 -1.84050000
1.29950000 -5.25980000 -1.59690000
1.36090000 -5.27930000 -1.66430000
1.56620000 -5.25290000 -1.31280000
1.64250000 -5.26560000 -1.37590000
1.79480000 -5.24590000 -1.00430000
1.88150000 -5.25810000 -1.05210000
1.69480000 -5.23800000 -0.94720000
1.85150000 -5.23580000 -0.61200000
1.95900000 -5.24510000 -0.65080000
1.72310000 -5.22640000 -0.56870000
1.93520000 -5.23410000 -0.26400000
1.79870000 -5.22480000 -0.24310000
1.63200000 -5.21550000 -0.21630000
1.82030000 -5.22240000 0.08050000
1.64540000 -5.21230000 0.07450000
1.61050000 -5.20960000 0.35970000
1.78290000 -5.21880000 0.39990000
1.53020000 -5.20740000 0.63650000
1.69270000 -5.21850000 0.70840000
1.40180000 -5.20750000 0.90660000
1.54340000 -5.21890000 1.00980000
1.22790000 -5.19950000 0.77640000
1.06860000 -5.19840000 0.99490000
1.21290000 -5.20700000 1.15080000
0.90190000 -5.19300000 0.80910000
1.02220000 -5.19410000 0.59800000
0.72660000 -5.19250000 0.99230000
0.85990000 -5.19800000 1.19090000
0.51310000 -5.19200000 1.13800000
0.61470000 -5.19730000 1.35100000
0.27170000 -5.19180000 1.23360000
0.33710000 -5.19770000 1.45640000
0.05720000 -5.19930000 1.50250000
0.07510000 -5.21190000 1.69050000
0.38840000 -5.20820000 1.63920000
-0.23100000 -5.21410000 1.67700000
-0.22000000 -5.20120000 1.49360000
-0.52110000 -5.21630000 1.61480000
-0.47430000 -5.20490000 1.44470000
-0.79090000 -5.22040000 1.50490000
-0.71290000 -5.20790000 1.34950000
-1.03410000 -5.22460000 1.35060000
-1.12000000 -5.23490000 1.46280000
-0.85340000 -5.23220000 1.63610000
-1.34370000 -5.23890000 1.25080000
-1.43050000 -5.24870000 1.33710000
-1.18930000 -5.24340000 1.56450000
-1.63200000 -5.25110000 1.07330000
-1.71400000 -5.26270000 1.13280000
-1.50540000 -5.25820000 1.41120000
-1.78300000 -5.28190000 1.18470000
-1.56800000 -5.27620000 1.47480000
-1.94600000 -5.29110000 0.85960000
-1.99980000 -5.33660000 0.89110000
-1.83240000 -5.32800000 1.22500000
-2.11170000 -5.35050000 0.53030000
-2.13930000 -5.41780000 0.54710000
-2.02840000 -5.40350000 0.91320000
-2.18900000 -5.43650000 0.16680000
-2.20350000 -5.51260000 0.17910000
-2.15260000 -5.49390000 0.56270000
-2.18540000 -5.51940000 -0.20340000
-2.20990000 -5.59320000 -0.19560000
-2.22530000 -5.58480000 0.19240000
-2.13970000 -5.60470000 -0.56550000
-2.20160000 -5.65470000 -0.57290000
-2.26650000 -5.64570000 -0.19260000
-2.08020000 -5.66470000 -0.93250000
-2.01970000 -5.61500000 -0.91440000
-1.90540000 -5.66510000 -1.25740000
-1.85220000 -5.61710000 -1.22940000
-1.69410000 -5.66870000 -1.54070000
-1.64550000 -5.62000000 -1.50100000
-1.40830000 -5.63000000 -1.73770000
-1.45230000 -5.67210000 -1.79520000
-1.13940000 -5.64160000 -1.95280000
-1.17360000 -5.68010000 -2.01930000
-0.82010000 -5.64390000 -2.12380000
-0.84090000 -5.67950000 -2.19670000
-0.45960000 -5.64620000 -2.24830000
-0.46680000 -5.68080000 -2.32270000
-0.06930000 -5.64120000 -2.31630000
-0.06310000 -5.67590000 -2.39060000
0.34630000 -5.63080000 -2.30080000
0.36130000 -5.66660000 -2.36560000
0.75070000 -5.61480000 -2.18840000
0.77480000 -5.64900000 -2.25070000
0.73470000 -5.56140000 -2.14560000
1.12430000 -5.57470000 -2.00600000
1.10530000 -5.50420000 -1.98410000
1.09100000 -5.42500000 -1.97650000
1.44210000 -5.39490000 -1.74870000
1.45860000 -5.47680000 -1.75870000
1.40940000 -5.32480000 -1.71690000
1.70280000 -5.30480000 -1.42390000
1.74680000 -5.36960000 -1.45460000
1.94740000 -5.29470000 -1.08790000
1.99450000 -5.35660000 -1.11160000
2.12790000 -5.28820000 -0.70970000
2.18050000 -5.34840000 -0.72850000
2.05680000 -5.25570000 -0.68450000
2.22850000 -5.28090000 -0.31040000
2.14750000 -5.25190000 -0.29670000
2.04880000 -5.24300000 -0.28410000
2.07850000 -5.24090000 0.09330000
2.18270000 -5.25280000 0.09650000
1.96220000 -5.23190000 0.09120000
1.92420000 -5.22820000 0.43790000
2.04850000 -5.23890000 0.46600000
1.82630000 -5.23000000 0.77890000
1.94110000 -5.24130000 0.82700000
1.66510000 -5.23040000 1.09260000
1.77190000 -5.24210000 1.17140000
1.43960000 -5.22840000 1.38590000
1.53020000 -5.24080000 1.47950000
1.33570000 -5.21740000 1.27890000
1.07510000 -5.21580000 1.51010000
1.15490000 -5.22530000 1.62720000
0.97440000 -5.20610000 1.36140000
0.69690000 -5.20540000 1.53200000
0.76630000 -5.21690000 1.68010000
0.43370000 -5.22020000 1.79730000
0.47210000 -5.23150000 1.93080000
0.82660000 -5.22920000 1.81070000
0.10420000 -5.23490000 1.98100000
0.09440000 -5.22440000 1.85080000
-0.25610000 -5.23620000 1.96310000
-0.24410000 -5.22560000 1.83020000
-0.59320000 -5.23890000 1.88540000
-0.55970000 -5.22840000 1.76010000
-0.91000000 -5.24360000 1.74880000
-0.95560000 -5.25400000 1.84330000
-0.62850000 -5.24870000 1.98900000
-1.25330000 -5.25420000 1.65050000
-1.30650000 -5.27070000 1.72450000
-1.00050000 -5.26610000 1.92920000
-1.34690000 -5.31270000 1.78050000
-1.03290000 -5.30790000 1.99350000
-1.61430000 -5.32150000 1.52320000
-1.64040000 -5.39300000 1.55470000
-1.36880000 -5.38350000 1.81480000
-1.85940000 -5.39700000 1.25210000
-1.87140000 -5.47670000 1.27010000
-1.65290000 -5.47480000 1.57400000
-2.03990000 -5.47880000 0.92890000
-2.05540000 -5.55540000 0.94560000
-1.88410000 -5.55940000 1.28870000
-2.17000000 -5.57090000 0.57790000
-2.21900000 -5.63100000 0.59990000
-2.09840000 -5.61850000 0.97670000
-2.27850000 -5.63930000 0.20520000
-2.35100000 -5.67510000 0.21940000
-2.29160000 -5.67010000 0.62920000
-2.34130000 -5.68150000 -0.19150000
-2.42390000 -5.71640000 -0.18940000
-2.43110000 -5.71100000 0.23540000
-2.36480000 -5.72920000 -0.59700000
-2.27920000 -5.69140000 -0.58460000
-2.23510000 -5.73630000 -0.98450000
-2.15510000 -5.69840000 -0.95560000
-2.04560000 -5.73490000 -1.33060000
-1.97290000 -5.69990000 -1.29080000
-1.82090000 -5.74110000 -1.64700000
-1.75360000 -5.70380000 -1.59080000
-1.50250000 -5.70830000 -1.85860000
-1.55870000 -5.74780000 -1.92810000
-1.21070000 -5.71530000 -2.08980000
-1.24840000 -5.75270000 -2.16590000
-0.86320000 -5.71530000 -2.27340000
-0.88800000 -5.75290000 -2.35500000
-0.47590000 -5.71540000 -2.40150000
-0.48610000 -5.75290000 -2.48950000
-0.05790000 -5.71120000 -2.46820000
-0.05520000 -5.74760000 -2.55530000
0.37840000 -5.69910000 -2.43920000
0.39550000 -5.73400000 -2.52010000
0.83310000 -5.71810000 -2.39680000
0.80330000 -5.68160000 -2.31950000
1.24150000 -5.70070000 -2.19300000
1.19600000 -5.66180000 -2.11870000
1.15670000 -5.62440000 -2.05430000
1.51020000 -5.60960000 -1.80460000
1.55900000 -5.64750000 -1.85960000
1.47520000 -5.55190000 -1.76840000
1.78180000 -5.53000000 -1.47090000
1.81770000 -5.59390000 -1.49690000
1.76760000 -5.45130000 -1.46430000
2.01610000 -5.43490000 -1.11850000
2.03040000 -5.51510000 -1.12150000
2.20410000 -5.43240000 -0.73590000
2.21600000 -5.51470000 -0.73640000
2.31390000 -5.42130000 -0.32310000
2.32740000 -5.50360000 -0.32320000
2.28590000 -5.34140000 -0.31920000
2.32190000 -5.34500000 0.10090000
2.35000000 -5.42420000 0.10020000
2.26740000 -5.28270000 0.09960000
2.23600000 -5.28910000 0.50890000
2.28970000 -5.35600000 0.51910000
2.15230000 -5.25510000 0.49070000
2.04380000 -5.25710000 0.87120000
2.12470000 -5.29400000 0.90630000
1.86190000 -5.25750000 1.23150000
1.93080000 -5.29890000 1.27930000
1.60620000 -5.25890000 1.55480000
1.66740000 -5.30010000 1.61630000
1.28890000 -5.25580000 1.82300000
1.33940000 -5.30460000 1.89540000
1.22580000 -5.23820000 1.73150000
0.92260000 -5.25780000 2.02300000
0.87630000 -5.24120000 1.92450000
0.52710000 -5.26070000 2.14960000
0.50090000 -5.24370000 2.04980000
0.12070000 -5.26110000 2.20370000
0.11300000 -5.24580000 2.09980000
-0.27760000 -5.26110000 2.17250000
-0.26670000 -5.24620000 2.07640000
-0.65510000 -5.26300000 2.08030000
-0.67600000 -5.30270000 2.15370000
-0.28640000 -5.29850000 2.25080000
-0.68810000 -5.37300000 2.19870000
-0.29080000 -5.36670000 2.30040000
-1.05110000 -5.37710000 2.03290000
-1.05940000 -5.45730000 2.05520000
-0.69330000 -5.45440000 2.22340000
-1.37960000 -5.46540000 1.83530000
-1.38980000 -5.54710000 1.85330000
-1.06570000 -5.53900000 2.07430000
-1.66470000 -5.55580000 1.59220000
-1.69980000 -5.62010000 1.63110000
-1.41580000 -5.61470000 1.89120000
-1.92480000 -5.62590000 1.32400000
-1.98780000 -5.66400000 1.37490000
-1.75270000 -5.66030000 1.68530000
-2.16270000 -5.66210000 1.01680000
-2.23570000 -5.69950000 1.06290000
-2.05620000 -5.70080000 1.42990000
-2.37100000 -5.70850000 0.65820000
-2.45120000 -5.74780000 0.69310000
-2.31360000 -5.73750000 1.11090000
-2.51960000 -5.75070000 0.25320000
-2.61510000 -5.79290000 0.27410000
-2.53650000 -5.78740000 0.72790000
-2.61350000 -5.80220000 -0.18230000
-2.51450000 -5.75620000 -0.18580000
-2.54370000 -5.81170000 -0.62420000
-2.45450000 -5.77030000 -0.60990000
-2.40120000 -5.81510000 -1.03620000
-2.31690000 -5.77460000 -1.00850000
-2.19910000 -5.81300000 -1.41620000
-2.11920000 -5.77190000 -1.37110000
-1.89340000 -5.78370000 -1.70740000
-1.96460000 -5.82770000 -1.76630000
-1.61900000 -5.79040000 -2.00240000
-1.67730000 -5.83260000 -2.07410000
-1.28990000 -5.79130000 -2.24280000
-1.33090000 -5.83030000 -2.32230000
-0.91610000 -5.79330000 -2.44330000
-0.94350000 -5.83450000 -2.53090000
-0.49820000 -5.79440000 -2.58550000
-0.51170000 -5.83900000 -2.67920000
-0.05010000 -5.78670000 -2.64440000
-0.04560000 -5.82740000 -2.73110000
0.41370000 -5.77400000 -2.60390000
0.43070000 -5.81390000 -2.68840000
0.86360000 -5.75690000 -2.47790000
0.89760000 -5.79860000 -2.56240000
1.29350000 -5.74440000 -2.27830000
1.34630000 -5.79140000 -2.36230000
1.74720000 -5.77310000 -2.06940000
1.67740000 -5.72690000 -1.99070000
1.61210000 -5.68520000 -1.91920000
1.94260000 -5.67570000 -1.59270000
2.02420000 -5.72100000 -1.65720000
1.87360000 -5.63650000 -1.53930000
2.12780000 -5.62890000 -1.16970000
2.20450000 -5.66780000 -1.21090000
2.06680000 -5.58270000 -1.13810000
2.25780000 -5.58240000 -0.74840000
2.32820000 -5.62400000 -0.77190000
2.36900000 -5.57310000 -0.32790000
2.43980000 -5.61720000 -0.33910000
2.41090000 -5.57700000 0.10280000
2.48350000 -5.62180000 0.10510000
2.36840000 -5.50590000 0.10090000
2.33990000 -5.52540000 0.53110000
2.39300000 -5.59190000 0.54370000
2.31740000 -5.43870000 0.52330000
2.20210000 -5.45110000 0.94030000
2.22590000 -5.53530000 0.95240000
2.17510000 -5.36560000 0.92780000
1.97820000 -5.36920000 1.31050000
2.00350000 -5.45320000 1.32760000
1.70540000 -5.37570000 1.65530000
1.72680000 -5.46090000 1.67660000
1.36900000 -5.38150000 1.93990000
1.38270000 -5.46570000 1.96060000
0.99040000 -5.45110000 2.16740000
0.97710000 -5.36840000 2.14360000
0.95660000 -5.29730000 2.09800000
0.56080000 -5.36440000 2.27420000
0.54760000 -5.29640000 2.22690000
0.13170000 -5.36650000 2.32880000
0.12660000 -5.30220000 2.27870000
0.13590000 -5.44760000 2.35260000
0.56860000 -5.44550000 2.30020000
-0.29060000 -5.44900000 2.32390000
-0.28930000 -5.53300000 2.34430000
0.13870000 -5.53020000 2.37460000
-0.69530000 -5.53750000 2.24430000
-0.70890000 -5.60370000 2.29230000
-0.29460000 -5.59800000 2.40210000
-1.08490000 -5.60700000 2.11610000
-1.11980000 -5.64580000 2.18340000
-0.73210000 -5.64330000 2.36660000
-1.46300000 -5.65230000 1.95450000
-1.51400000 -5.69020000 2.02210000
-1.16040000 -5.68170000 2.25710000
-1.81370000 -5.69570000 1.74670000
-1.88210000 -5.73660000 1.81650000
-1.57280000 -5.73130000 2.09730000
-2.12530000 -5.73970000 1.48960000
-2.19370000 -5.78000000 1.55040000
-1.95090000 -5.78240000 1.88720000
-2.39180000 -5.77750000 1.16040000
-2.46550000 -5.81540000 1.20820000
-2.25660000 -5.81810000 1.60860000
-2.61980000 -5.82690000 0.76340000
-2.70550000 -5.86510000 0.79800000
-2.53800000 -5.85110000 1.25580000
-2.79290000 -5.87380000 0.31290000
-2.70610000 -5.83730000 0.29390000
-2.79210000 -5.88310000 -0.17580000
-2.70590000 -5.84840000 -0.17990000
-2.70960000 -5.88740000 -0.64870000
-2.62920000 -5.85260000 -0.63600000
-2.56490000 -5.88800000 -1.09250000
-2.48350000 -5.85410000 -1.06410000
-2.35790000 -5.89020000 -1.50280000
-2.27870000 -5.85310000 -1.45920000
-2.02960000 -5.86690000 -1.81940000
-2.09860000 -5.89400000 -1.87810000
-1.73170000 -5.87170000 -2.14290000
-1.78580000 -5.88970000 -2.20870000
-1.37200000 -5.86800000 -2.40040000
-1.41370000 -5.88370000 -2.48130000
-0.96870000 -5.87590000 -2.62000000
-0.99590000 -5.87170000 -2.70640000
-0.52210000 -5.87480000 -2.76550000
-0.53200000 -5.87020000 -2.84330000
-0.04260000 -5.86520000 -2.81550000
-0.03890000 -5.86850000 -2.89490000
0.44890000 -5.85210000 -2.77300000
0.46630000 -5.86900000 -2.85760000
0.93090000 -5.83870000 -2.64390000
0.96340000 -5.86800000 -2.72320000
1.39670000 -5.83610000 -2.44420000
1.44530000 -5.86670000 -2.52280000
1.81620000 -5.82290000 -2.14700000
1.88190000 -5.86210000 -2.22030000
2.18390000 -5.81510000 -1.78480000
2.25260000 -5.85510000 -1.84040000
2.10680000 -5.76940000 -1.72470000
2.39600000 -5.76240000 -1.31730000
2.48910000 -5.81180000 -1.36900000
2.29800000 -5.71270000 -1.26400000
2.58910000 -5.74740000 -0.86160000
2.49310000 -5.70300000 -0.82850000
2.40660000 -5.66210000 -0.79970000
2.51960000 -5.65580000 -0.35350000
2.60740000 -5.69660000 -0.36690000
2.56790000 -5.65900000 0.10750000
2.66110000 -5.69820000 0.11070000
2.55770000 -5.67230000 0.57850000
2.64610000 -5.71140000 0.60030000
2.47090000 -5.63410000 0.55980000
2.35270000 -5.63810000 1.00650000
2.43340000 -5.67540000 1.04080000
2.27620000 -5.60100000 0.97360000
2.07550000 -5.59850000 1.37930000
2.14230000 -5.63630000 1.42620000
2.02810000 -5.53590000 1.34540000
1.74870000 -5.54370000 1.69840000
1.79410000 -5.60340000 1.74310000
1.43670000 -5.59900000 2.03610000
1.40050000 -5.54480000 1.98370000
1.03030000 -5.59620000 2.24830000
1.00390000 -5.53510000 2.19080000
0.58960000 -5.59360000 2.36780000
0.57610000 -5.52970000 2.31870000
0.14370000 -5.59630000 2.42730000
0.15060000 -5.63670000 2.50620000
0.61010000 -5.63190000 2.44520000
-0.30400000 -5.64180000 2.48310000
-0.31500000 -5.68260000 2.56860000
0.15670000 -5.67520000 2.59240000
-0.75930000 -5.68250000 2.44710000
-0.78930000 -5.72190000 2.53770000
-0.32700000 -5.72340000 2.65970000
-1.20480000 -5.72180000 2.33800000
-1.25130000 -5.76370000 2.41850000
-0.81710000 -5.76210000 2.62380000
-1.63100000 -5.77310000 2.16970000
-1.29620000 -5.80510000 2.49710000
-1.68840000 -5.81480000 2.23880000
-2.00980000 -5.82360000 1.94880000
-2.06350000 -5.85410000 2.00480000
-1.74170000 -5.85330000 2.30190000
-2.31750000 -5.85460000 1.66590000
-2.38100000 -5.86220000 1.72680000
-2.11640000 -5.85890000 2.05950000
-2.61200000 -5.86560000 1.30520000
-2.66650000 -5.80270000 1.34690000
-2.42430000 -5.80810000 1.77470000
-2.84280000 -5.80490000 0.85950000
-2.78900000 -5.86470000 0.83290000
-2.92910000 -5.81340000 0.34760000
-2.86720000 -5.87210000 0.33100000
-2.93250000 -5.81590000 -0.16870000
-2.87230000 -5.87770000 -0.17260000
-2.85110000 -5.82460000 -0.66790000
-2.78720000 -5.88290000 -0.66060000
-2.69700000 -5.81220000 -1.13530000
-2.64340000 -5.87850000 -1.11920000
-2.47870000 -5.78840000 -1.56820000
-2.43210000 -5.87140000 -1.54440000
-2.16610000 -5.85310000 -1.93510000
-2.19060000 -5.75620000 -1.95340000
-1.84710000 -5.75540000 -2.28460000
-1.83000000 -5.84450000 -2.26320000
-1.44590000 -5.82960000 -2.54280000
-1.45270000 -5.74120000 -2.55980000
-1.01090000 -5.81050000 -2.75910000
-1.01050000 -5.72490000 -2.77030000
-0.53640000 -5.81450000 -2.89190000
-0.53380000 -5.73230000 -2.90720000
-0.03530000 -5.81940000 -2.95110000
-0.03000000 -5.73600000 -2.96630000
0.47980000 -5.82790000 -2.91870000
0.48830000 -5.74520000 -2.93780000
0.99170000 -5.83730000 -2.79300000
1.00530000 -5.75370000 -2.81750000
1.48350000 -5.83600000 -2.58390000
1.50150000 -5.75100000 -2.60560000
1.94150000 -5.83250000 -2.28780000
1.96170000 -5.74190000 -2.30670000
2.32200000 -5.85000000 -1.89690000
2.35960000 -5.76040000 -1.92490000
2.65310000 -5.83730000 -1.46050000
2.68520000 -5.75610000 -1.47610000
2.57590000 -5.85090000 -1.41780000
2.78130000 -5.84390000 -0.92640000
2.87770000 -5.84890000 -0.95810000
2.68750000 -5.79520000 -0.89480000
2.90200000 -5.83760000 -0.40830000
2.80470000 -5.79040000 -0.39430000
2.70660000 -5.74250000 -0.37980000
2.76220000 -5.74480000 0.11470000
2.85880000 -5.79340000 0.11840000
2.73450000 -5.75190000 0.62050000
2.81720000 -5.79540000 0.64080000
2.60010000 -5.75430000 1.11710000
2.68120000 -5.79570000 1.15330000
2.51550000 -5.71350000 1.08040000
2.28860000 -5.71060000 1.52610000
2.36560000 -5.75040000 1.57900000
2.21410000 -5.67290000 1.47430000
1.91780000 -5.67680000 1.86300000
1.98190000 -5.71290000 1.92670000
1.85390000 -5.64160000 1.80110000
1.53110000 -5.67560000 2.17050000
1.48050000 -5.63780000 2.10110000
1.10230000 -5.67450000 2.40420000
1.06470000 -5.63780000 2.32320000
0.63110000 -5.66960000 2.52880000
0.65510000 -5.71100000 2.62210000
1.14020000 -5.71370000 2.48650000
0.16230000 -5.71610000 2.68510000
0.16780000 -5.75710000 2.77560000
0.67800000 -5.75460000 2.71310000
-0.33830000 -5.76400000 2.74570000
-0.35010000 -5.80220000 2.82810000
0.17250000 -5.79740000 2.86470000
-0.84360000 -5.80040000 2.70230000
-0.86910000 -5.83680000 2.77650000
-0.36160000 -5.84030000 2.91160000
-1.33750000 -5.83910000 2.56780000
-0.89550000 -5.85560000 2.85360000
-1.37990000 -5.85170000 2.63720000
-1.79280000 -5.85710000 2.36040000
-1.41400000 -5.80980000 2.69250000
-1.83330000 -5.81270000 2.40270000
-2.15800000 -5.81240000 2.10260000
-1.85220000 -5.73020000 2.41530000
-2.16960000 -5.73220000 2.11640000
-2.42850000 -5.72080000 1.79730000
-2.43180000 -5.62110000 1.81930000
-2.17970000 -5.63180000 2.12900000
-2.68270000 -5.59090000 1.39730000
-2.67570000 -5.70520000 1.37020000
-2.87040000 -5.60210000 0.89950000
-2.85550000 -5.71840000 0.87700000
-2.96500000 -5.59680000 0.37580000
-2.95080000 -5.71410000 0.36110000
-2.97060000 -5.59130000 -0.15000000
-2.95880000 -5.71490000 -0.16050000
-2.88970000 -5.58560000 -0.65740000
-2.87660000 -5.71070000 -0.66420000
-2.73030000 -5.57850000 -1.13420000
-2.71610000 -5.70670000 -1.13620000
-2.49040000 -5.67620000 -1.57030000
-2.49740000 -5.55010000 -1.56900000
-2.19850000 -5.64830000 -1.95740000
-2.19900000 -5.53260000 -1.95470000
-1.84770000 -5.52730000 -2.28750000
-1.85060000 -5.64920000 -2.28960000
-1.45330000 -5.64420000 -2.56630000
-1.44960000 -5.53550000 -2.56650000
-1.00850000 -5.63180000 -2.77810000
-1.00350000 -5.52810000 -2.77820000
-0.52890000 -5.63650000 -2.91270000
-0.52280000 -5.53020000 -2.91340000
-0.02410000 -5.64330000 -2.97120000
-0.01780000 -5.53870000 -2.97280000
0.49540000 -5.65050000 -2.94280000
0.50160000 -5.54580000 -2.94170000
1.01250000 -5.65330000 -2.82130000
1.01780000 -5.53740000 -2.81740000
1.51010000 -5.64560000 -2.60990000
1.51250000 -5.53640000 -2.60330000
1.96980000 -5.64410000 -2.31060000
1.97160000 -5.53560000 -2.30560000
2.36990000 -5.64860000 -1.92870000
2.36900000 -5.52750000 -1.92260000
2.69430000 -5.65170000 -1.47700000
2.69650000 -5.53620000 -1.47380000
2.93160000 -5.64850000 -0.97160000
2.92800000 -5.52950000 -0.96730000
2.92500000 -5.75900000 -0.97230000
3.06250000 -5.77000000 -0.42960000
3.06970000 -5.65980000 -0.42870000
3.00670000 -5.84980000 -0.42280000
3.04360000 -5.84530000 0.12620000
3.09810000 -5.76890000 0.12900000
2.94830000 -5.83930000 0.12250000
2.89410000 -5.84060000 0.65950000
2.98970000 -5.84190000 0.68120000
2.75860000 -5.83440000 1.18830000
2.84080000 -5.81790000 1.22370000
2.51710000 -5.82540000 1.68210000
2.58360000 -5.80730000 1.72630000
2.44300000 -5.79100000 1.63160000
2.16190000 -5.81410000 2.10160000
2.10420000 -5.78300000 2.04540000
2.04420000 -5.74860000 1.98720000
1.69150000 -5.79480000 2.39270000
1.64110000 -5.75490000 2.32220000
1.58750000 -5.71470000 2.24800000
1.17690000 -5.75430000 2.56420000
1.21100000 -5.79250000 2.63650000
0.69980000 -5.79440000 2.79730000
0.71930000 -5.82960000 2.87380000
1.24370000 -5.82900000 2.70610000
0.17830000 -5.83680000 2.95250000
0.73710000 -5.84390000 2.94840000
0.18320000 -5.84300000 3.03280000
-0.37430000 -5.84530000 3.00540000
-0.38040000 -5.77520000 3.05530000
0.18640000 -5.78150000 3.08650000
-0.91660000 -5.80430000 2.91430000
-0.92330000 -5.71290000 2.93460000
-0.38110000 -5.68360000 3.07060000
-1.42810000 -5.72160000 2.71030000
-0.92860000 -5.60870000 2.94720000
-1.43890000 -5.61690000 2.72000000
-1.86860000 -5.63010000 2.42120000
-1.44640000 -5.48950000 2.71840000
-1.88400000 -5.49180000 2.41450000
-2.18360000 -5.49890000 2.13210000
-1.90830000 -5.32050000 2.39770000
-2.19220000 -5.32870000 2.13080000
-2.37010000 -5.31140000 1.87510000
-2.41960000 -5.49090000 1.84070000
-2.62920000 -5.27210000 1.44550000
-2.66680000 -5.45160000 1.42030000
-2.83040000 -5.26360000 0.93980000
-2.85820000 -5.44590000 0.91970000
-2.93500000 -5.26420000 0.40880000
-2.95880000 -5.45470000 0.39100000
-2.94330000 -5.27090000 -0.11980000
-2.96160000 -5.45010000 -0.13670000
-2.87150000 -5.26940000 -0.63020000
-2.88630000 -5.44950000 -0.64610000
-2.71000000 -5.25120000 -1.10720000
-2.72440000 -5.43470000 -1.12330000
-2.48890000 -5.40680000 -1.55810000
-2.47650000 -5.21990000 -1.54390000
-2.18380000 -5.22190000 -1.93530000
-2.19210000 -5.39220000 -1.94560000
-1.83080000 -5.23140000 -2.26960000
-1.84020000 -5.38950000 -2.27960000
-1.42870000 -5.23170000 -2.54670000
-1.44090000 -5.40640000 -2.55860000
-0.99400000 -5.39570000 -2.76840000
-0.98330000 -5.24150000 -2.75690000
-0.51410000 -5.40610000 -2.90380000
-0.50370000 -5.24960000 -2.88980000
-0.01090000 -5.41750000 -2.96190000
-0.00170000 -5.25720000 -2.94230000
0.50680000 -5.41860000 -2.92700000
0.51290000 -5.24750000 -2.90670000
1.02060000 -5.41080000 -2.80410000
1.02330000 -5.23950000 -2.78480000
1.51340000 -5.42080000 -2.59390000
1.51320000 -5.25280000 -2.57680000
1.96860000 -5.41080000 -2.29450000
1.96420000 -5.23240000 -2.27840000
2.36410000 -5.40040000 -1.91310000
2.35560000 -5.24030000 -1.89890000
2.68960000 -5.41160000 -1.46490000
2.67620000 -5.24560000 -1.45190000
2.91950000 -5.40060000 -0.96060000
2.90550000 -5.23070000 -0.95160000
3.05860000 -5.40900000 -0.42180000
3.04150000 -5.22770000 -0.41620000
3.06780000 -5.53910000 -0.42590000
3.10490000 -5.54320000 0.13350000
3.09530000 -5.40750000 0.13600000
3.10440000 -5.66290000 0.13120000
3.04570000 -5.64730000 0.69350000
3.04160000 -5.53340000 0.69350000
3.03820000 -5.75190000 0.69170000
2.87580000 -5.73300000 1.23820000
2.88210000 -5.63450000 1.24000000
2.61330000 -5.72680000 1.74520000
2.61800000 -5.62320000 1.74710000
2.25510000 -5.62220000 2.19170000
2.25180000 -5.73070000 2.18920000
2.21840000 -5.80710000 2.15680000
1.79080000 -5.80360000 2.53340000
1.80860000 -5.72360000 2.55840000
1.74320000 -5.83270000 2.46460000
1.27700000 -5.83780000 2.77740000
1.30120000 -5.77670000 2.82930000
0.75230000 -5.79020000 3.00490000
0.75890000 -5.68540000 3.02330000
1.30870000 -5.67340000 2.84320000
0.18850000 -5.68110000 3.09990000
0.19090000 -5.56440000 3.10720000
0.76370000 -5.55850000 3.03250000
-0.37880000 -5.58130000 3.08100000
-0.37410000 -5.46100000 3.07750000
0.19450000 -5.43380000 3.10130000
-0.93140000 -5.48300000 2.95060000
-0.93270000 -5.31370000 2.94250000
-0.37000000 -5.30150000 3.05650000
-1.45400000 -5.31600000 2.70450000
-0.92920000 -5.04720000 2.89540000
-1.46630000 -5.04830000 2.66770000
-1.94820000 -5.05840000 2.31820000
-1.88780000 -4.75990000 2.32020000
-1.45550000 -4.75610000 2.62160000
-2.19120000 -4.76590000 2.06650000
-2.17150000 -5.05410000 2.10450000
-2.34070000 -5.05660000 1.89420000
-2.33940000 -4.76880000 1.86580000
-2.53340000 -4.76560000 1.50380000
-2.57500000 -5.03150000 1.45860000
-2.76680000 -4.76570000 0.99790000
-2.79600000 -5.02500000 0.96720000
-2.88840000 -4.76870000 0.45280000
-2.91120000 -5.02230000 0.43110000
-2.91220000 -4.77610000 -0.08110000
-2.92740000 -5.03490000 -0.10020000
-2.83940000 -4.78020000 -0.59470000
-2.85630000 -5.03770000 -0.61240000
-2.68650000 -4.78530000 -1.07790000
-2.69800000 -5.02830000 -1.09200000
-2.45820000 -4.79900000 -1.52050000
-2.46730000 -5.01560000 -1.53190000
-2.16440000 -4.80050000 -1.91400000
-2.17500000 -5.03320000 -1.92490000
-1.81010000 -4.80840000 -2.25030000
-1.81980000 -5.03540000 -2.25860000
-1.41650000 -5.03060000 -2.53510000
-1.40630000 -4.80290000 -2.52730000
-0.97070000 -5.04290000 -2.74320000
-0.95940000 -4.80640000 -2.73360000
-0.49230000 -5.05280000 -2.87550000
-0.48170000 -4.79970000 -2.86740000
0.00820000 -5.04560000 -2.92680000
0.01780000 -4.79090000 -2.91210000
0.52000000 -5.02840000 -2.88830000
0.52750000 -4.77760000 -2.87200000
1.02730000 -5.01980000 -2.76420000
1.03190000 -4.77290000 -2.74690000
1.51140000 -5.02010000 -2.55260000
1.51330000 -4.76530000 -2.53600000
1.95900000 -5.01210000 -2.25910000
1.95430000 -4.77010000 -2.24030000
2.34800000 -5.02120000 -1.88360000
2.34030000 -4.76840000 -1.86800000
2.66560000 -5.02330000 -1.44070000
2.65570000 -4.76620000 -1.42940000
2.89140000 -5.02290000 -0.94310000
2.87770000 -4.77160000 -0.93490000
3.02610000 -5.00980000 -0.41130000
3.01130000 -4.76240000 -0.40710000
3.05830000 -5.00580000 0.13870000
3.04280000 -4.76150000 0.13890000
3.07580000 -5.22840000 0.13770000
2.99200000 -5.01340000 0.68540000
3.01120000 -5.24000000 0.68930000
3.03050000 -5.40870000 0.69240000
2.86600000 -5.39340000 1.23200000
2.84820000 -5.23580000 1.22380000
2.87900000 -5.52120000 1.23780000
2.61790000 -5.51050000 1.74550000
2.60540000 -5.38390000 1.73570000
2.25530000 -5.50660000 2.19100000
2.24560000 -5.37170000 2.18110000
1.80540000 -5.38300000 2.55110000
1.81520000 -5.51660000 2.56550000
1.81300000 -5.62760000 2.56290000
1.31150000 -5.55150000 2.84610000
1.30860000 -5.40930000 2.83450000
0.76360000 -5.41270000 3.01900000
0.76060000 -5.23600000 2.99380000
1.29930000 -5.22520000 2.80900000
0.19780000 -5.26510000 3.07740000
0.19580000 -5.02760000 3.04010000
0.75780000 -5.01470000 2.96970000
-0.37400000 -5.04450000 3.04330000
-0.37290000 -4.76160000 3.00400000
0.19590000 -4.76660000 3.02300000
-0.92570000 -4.75840000 2.85560000
-0.37150000 -4.46910000 2.99680000
-0.93340000 -4.46440000 2.86830000
-1.43970000 -4.46210000 2.59210000
-0.91910000 -4.16830000 2.85130000
-1.44030000 -4.16730000 2.57670000
-1.86090000 -4.16670000 2.28620000
-1.89710000 -4.46200000 2.28950000
-2.18930000 -4.16730000 2.03040000
-2.19760000 -4.46630000 2.04490000
-2.32410000 -4.47150000 1.86600000
-2.31160000 -4.17160000 1.84460000
-2.45030000 -4.17620000 1.58800000
-2.48420000 -4.47620000 1.56290000
-2.71350000 -4.18620000 1.05120000
-2.73730000 -4.48310000 1.02750000
-2.85420000 -4.19470000 0.49120000
-2.86960000 -4.49200000 0.47410000
-2.88360000 -4.20070000 -0.05030000
-2.89610000 -4.49340000 -0.06350000
-2.81910000 -4.20750000 -0.56970000
-2.82760000 -4.49780000 -0.58010000
-2.66840000 -4.21920000 -1.05650000
-2.67760000 -4.51090000 -1.06670000
-2.44620000 -4.23230000 -1.50350000
-2.44870000 -4.52760000 -1.50910000
-2.14910000 -4.24140000 -1.90020000
-2.15860000 -4.53790000 -1.90820000
-1.80350000 -4.53440000 -2.24700000
-1.79860000 -4.24120000 -2.24600000
-1.39890000 -4.53000000 -2.52450000
-1.39210000 -4.23710000 -2.52220000
-0.95140000 -4.52390000 -2.73250000
-0.94310000 -4.22820000 -2.72770000
-0.47190000 -4.51400000 -2.86160000
-0.46320000 -4.21820000 -2.85750000
0.02770000 -4.50340000 -2.90790000
0.03730000 -4.21020000 -2.89170000
0.53530000 -4.50070000 -2.85740000
0.54410000 -4.20820000 -2.85110000
1.03720000 -4.49670000 -2.73200000
1.04350000 -4.20560000 -2.72160000
1.51670000 -4.49130000 -2.52290000
1.51980000 -4.20210000 -2.51080000
1.95350000 -4.49380000 -2.22660000
1.95490000 -4.20120000 -2.21640000
2.33670000 -4.49060000 -1.85640000
2.33430000 -4.19980000 -1.84650000
2.64820000 -4.49220000 -1.41960000
2.64210000 -4.20180000 -1.41130000
2.87030000 -4.49260000 -0.92930000
2.86450000 -4.20240000 -0.92480000
2.99660000 -4.49060000 -0.40350000
2.98920000 -4.20070000 -0.40170000
3.01830000 -4.20240000 0.13690000
3.02900000 -4.49120000 0.13810000
2.95170000 -4.20050000 0.67230000
2.96400000 -4.49240000 0.67720000
2.97720000 -4.76650000 0.68170000
2.79790000 -4.48650000 1.19580000
2.81180000 -4.76490000 1.20450000
2.82880000 -5.02230000 1.21420000
2.56810000 -5.01270000 1.70620000
2.55220000 -4.76130000 1.69220000
2.58640000 -5.23070000 1.72110000
2.22980000 -5.20030000 2.16380000
2.21380000 -5.00280000 2.14520000
1.78100000 -5.00480000 2.50800000
1.79220000 -5.22140000 2.52980000
1.29270000 -5.01050000 2.78690000
1.28680000 -4.76150000 2.76420000
1.77240000 -4.76510000 2.48840000
0.75580000 -4.76690000 2.94620000
0.75670000 -4.48380000 2.92950000
1.28320000 -4.48710000 2.74480000
0.19890000 -4.47730000 3.00840000
0.20580000 -4.18140000 2.99920000
0.75940000 -4.18860000 2.91450000
-0.36190000 -4.17340000 2.99480000
-0.34710000 -3.87620000 2.98680000
0.21550000 -3.88290000 2.98760000
-0.90820000 -3.87310000 2.85600000
-0.85100000 -3.27650000 2.85600000
-0.30800000 -3.27700000 2.97020000
-1.42490000 -3.87320000 2.57510000
-1.34260000 -3.27820000 2.60410000
-1.84900000 -3.87100000 2.27940000
-1.76530000 -3.27570000 2.32130000
-2.16950000 -3.86970000 2.02290000
-2.07580000 -3.27430000 2.06040000
-2.29470000 -3.87270000 1.83800000
-2.26170000 -3.28110000 1.84030000
-2.44340000 -3.87760000 1.56350000
-2.43860000 -3.29510000 1.54260000
-2.69460000 -3.88890000 1.05980000
-2.69040000 -3.30120000 1.03470000
-2.85270000 -3.89760000 0.50030000
-2.83400000 -3.30470000 0.49220000
-2.87480000 -3.90580000 -0.04190000
-2.87330000 -3.31280000 -0.04090000
-2.81580000 -3.91380000 -0.56280000
-2.81820000 -3.32010000 -0.55780000
-2.67190000 -3.92200000 -1.05310000
-2.66480000 -3.32530000 -1.04440000
-2.44080000 -3.93160000 -1.49840000
-2.43680000 -3.33120000 -1.49500000
-2.14450000 -3.93920000 -1.89690000
-2.14500000 -3.33560000 -1.90100000
-1.79400000 -3.94090000 -2.24420000
-1.79140000 -3.33580000 -2.24690000
-1.38630000 -3.93710000 -2.51970000
-1.38100000 -3.33220000 -2.52130000
-0.93670000 -3.92870000 -2.72570000
-0.92750000 -3.32550000 -2.72320000
-0.45340000 -3.91950000 -2.84120000
-0.44120000 -3.31930000 -2.84200000
0.04660000 -3.91340000 -2.89040000
0.06150000 -3.31540000 -2.88510000
0.55320000 -3.91140000 -2.84900000
0.56720000 -3.31360000 -2.83700000
1.05000000 -3.90940000 -2.71520000
1.06350000 -3.31230000 -2.70940000
1.52350000 -3.90680000 -2.50150000
1.53430000 -3.30980000 -2.49510000
1.95690000 -3.90510000 -2.20800000
1.96230000 -3.30770000 -2.19760000
2.33320000 -3.90460000 -1.83850000
2.33610000 -3.30640000 -1.83100000
2.63880000 -3.90530000 -1.40530000
2.63740000 -3.30580000 -1.39900000
2.85940000 -3.90600000 -0.92110000
2.85220000 -3.30520000 -0.91640000
2.98270000 -3.90410000 -0.40050000
2.97300000 -3.30300000 -0.40010000
3.01150000 -3.90320000 0.13500000
3.00140000 -3.29950000 0.13090000
2.94390000 -3.90100000 0.66800000
2.93320000 -3.29550000 0.65950000
2.77910000 -3.89520000 1.18100000
2.76890000 -3.29080000 1.16840000
2.78710000 -4.19400000 1.18800000
2.52290000 -3.89090000 1.65920000
2.53050000 -4.18950000 1.66940000
2.54030000 -4.48200000 1.68040000
2.18510000 -4.18980000 2.09740000
2.19160000 -4.48530000 2.11110000
2.20100000 -4.76920000 2.12750000
1.76690000 -4.49140000 2.47090000
1.76390000 -4.19280000 2.45530000
1.28370000 -4.19220000 2.73020000
1.28650000 -3.89110000 2.71800000
1.76350000 -3.89090000 2.44280000
0.76490000 -3.88860000 2.90310000
0.78430000 -3.28570000 2.88490000
1.29850000 -3.28730000 2.69870000
0.24200000 -3.28270000 2.97140000
-0.25910000 -2.67440000 2.95410000
0.27940000 -2.68050000 2.95610000
-0.78440000 -2.67310000 2.84960000
-1.27240000 -2.67520000 2.64600000
-1.69480000 -2.67290000 2.37360000
-2.03370000 -2.67220000 2.08510000
-2.27170000 -2.68470000 1.79080000
-2.50190000 -2.70190000 1.45090000
-2.70050000 -2.70620000 0.97690000
-2.82730000 -2.70930000 0.46620000
-2.86940000 -2.71540000 -0.05260000
-2.80940000 -2.72180000 -0.56170000
-2.66460000 -2.72660000 -1.04850000
-2.43740000 -2.73120000 -1.49930000
-2.15300000 -2.73220000 -1.91060000
-1.78890000 -2.72930000 -2.24710000
-1.37750000 -2.72650000 -2.52280000
-0.92220000 -2.72270000 -2.72560000
-0.43300000 -2.71840000 -2.84280000
0.07120000 -2.71560000 -2.88280000
0.57780000 -2.71410000 -2.83510000
1.07270000 -2.71280000 -2.70510000
1.54090000 -2.71030000 -2.48830000
1.96660000 -2.70750000 -2.19160000
2.33660000 -2.70520000 -1.82470000
2.63740000 -2.70350000 -1.39610000
2.84820000 -2.70170000 -0.91460000
2.96930000 -2.69850000 -0.40190000
2.99480000 -2.69410000 0.12550000
2.92630000 -2.68920000 0.65110000
2.76380000 -2.68500000 1.15750000
2.51420000 -3.28710000 1.64230000
2.51230000 -2.68180000 1.62850000
2.17900000 -3.28560000 2.06700000
2.18160000 -3.88970000 2.08650000
1.76700000 -3.28640000 2.42010000
1.31570000 -2.68330000 2.68020000
1.77600000 -2.68170000 2.40190000
0.80960000 -2.68280000 2.86460000
0.31510000 -2.07620000 2.94460000
0.83510000 -2.07800000 2.84540000
-0.21320000 -2.07230000 2.94370000
-0.73160000 -2.07020000 2.85140000
-1.21510000 -2.07090000 2.67310000
-1.64180000 -2.07190000 2.42020000
-1.99640000 -2.07550000 2.11360000
-2.29370000 -2.08550000 1.77690000
-2.52890000 -2.09830000 1.38310000
-2.71000000 -2.10610000 0.93070000
-2.83090000 -2.11100000 0.43930000
-2.87120000 -2.11570000 -0.06840000
-2.81700000 -2.12220000 -0.57240000
-2.66100000 -2.12700000 -1.05470000
-2.43640000 -2.12850000 -1.50440000
-2.15080000 -2.12620000 -1.90990000
-1.79020000 -2.12380000 -2.25170000
-1.37690000 -2.12220000 -2.53030000
-0.91920000 -2.12020000 -2.73250000
-0.42750000 -2.11730000 -2.84540000
0.07780000 -2.11490000 -2.88390000
0.58430000 -2.11370000 -2.83580000
1.07820000 -2.11240000 -2.70350000
1.54390000 -2.10980000 -2.48360000
1.96840000 -2.10610000 -2.18760000
2.33480000 -2.10270000 -1.82020000
2.63420000 -2.10020000 -1.39350000
2.84550000 -2.09740000 -0.91520000
2.96450000 -2.09330000 -0.40500000
2.99020000 -2.08840000 0.11950000
2.92010000 -2.08350000 0.64200000
2.75970000 -2.07930000 1.14600000
2.51260000 -2.07600000 1.61500000
2.18120000 -2.68050000 2.04950000
2.18330000 -2.07500000 2.03200000
1.78540000 -2.07640000 2.38410000
1.33340000 -2.07830000 2.66330000
0.86020000 -1.47320000 2.83960000
1.34690000 -1.47200000 2.64550000
0.34270000 -1.47260000 2.93340000
-0.18010000 -1.47080000 2.94030000
-0.69240000 -1.46950000 2.85340000
-1.17330000 -1.46930000 2.68460000
-1.60590000 -1.47160000 2.43860000
-1.97690000 -1.47790000 2.12650000
-2.29210000 -1.48680000 1.76880000
-2.53880000 -1.49760000 1.35920000
-2.72280000 -1.50620000 0.90710000
-2.83430000 -1.51140000 0.42090000
-2.86400000 -1.51500000 -0.08120000
-2.81030000 -1.52070000 -0.58100000
-2.66960000 -1.52560000 -1.06130000
-2.43840000 -1.52420000 -1.50560000
-2.15240000 -1.52030000 -1.91480000
-1.78980000 -1.51890000 -2.25710000
-1.37620000 -1.51790000 -2.53640000
-0.91750000 -1.51720000 -2.73760000
-0.42470000 -1.51620000 -2.84960000
0.08180000 -1.51370000 -2.88720000
0.58870000 -1.51230000 -2.83850000
1.08280000 -1.51130000 -2.70730000
1.54610000 -1.50860000 -2.48510000
1.97080000 -1.50410000 -2.19100000
2.33650000 -1.50010000 -1.82230000
2.63410000 -1.49670000 -1.39480000
2.84630000 -1.49270000 -0.91880000
2.96670000 -1.48790000 -0.41070000
2.99120000 -1.48270000 0.11280000
2.92030000 -1.47790000 0.63340000
2.76230000 -1.47370000 1.13590000
2.51340000 -1.47050000 1.60160000
2.18950000 -1.46940000 2.02050000
1.79550000 -1.47010000 2.37140000
1.36030000 -0.86490000 2.63810000
1.80200000 -0.86380000 2.35840000
0.87580000 -0.86850000 2.83160000
0.36380000 -0.86980000 2.93480000
-0.15610000 -0.86920000 2.94020000
-0.66540000 -0.86860000 2.86290000
-1.14500000 -0.86850000 2.69390000
-1.58410000 -0.87200000 2.45000000
-1.96650000 -0.87910000 2.13610000
-2.29070000 -0.88820000 1.76860000
-2.54820000 -0.89780000 1.35250000
-2.73430000 -0.90600000 0.89650000
-2.84620000 -0.91160000 0.41150000
-2.88000000 -0.91460000 -0.08960000
-2.82260000 -0.91740000 -0.58830000
-2.68070000 -0.92130000 -1.06790000
-2.45370000 -0.92180000 -1.51390000
-2.15400000 -0.91690000 -1.91670000
-1.79280000 -0.91450000 -2.26520000
-1.37890000 -0.91350000 -2.54830000
-0.91660000 -0.91430000 -2.74750000
-0.42350000 -0.91490000 -2.85990000
0.08390000 -0.91220000 -2.89470000
0.59170000 -0.91040000 -2.84770000
1.08580000 -0.90910000 -2.71570000
1.54980000 -0.90660000 -2.49590000
1.97050000 -0.90230000 -2.19550000
2.33550000 -0.89800000 -1.82580000
2.63760000 -0.89330000 -1.40200000
2.84570000 -0.88780000 -0.92480000
2.96560000 -0.88240000 -0.41760000
2.98970000 -0.87710000 0.10480000
2.92140000 -0.87230000 0.62440000
2.76250000 -0.86830000 1.12510000
2.51610000 -0.86580000 1.59020000
2.19370000 -0.86450000 2.00780000
1.81050000 -0.25900000 2.34820000
2.20200000 -0.26000000 1.99850000
1.36530000 -0.25920000 2.62460000
0.88650000 -0.26350000 2.82770000
0.37760000 -0.26650000 2.92530000
-0.13790000 -0.26680000 2.93800000
-0.64500000 -0.26660000 2.86370000
-1.12670000 -0.26820000 2.69980000
-1.57000000 -0.27280000 2.45690000
-1.96160000 -0.28000000 2.14440000
-2.29820000 -0.28900000 1.77770000
-2.55640000 -0.29790000 1.35400000
-2.74080000 -0.30520000 0.89350000
-2.86100000 -0.31060000 0.41050000
-2.88380000 -0.31370000 -0.09010000
-2.82700000 -0.31540000 -0.59150000
-2.68550000 -0.31730000 -1.07400000
-2.46240000 -0.31800000 -1.52240000
-2.15990000 -0.31520000 -1.92430000
-1.79670000 -0.31160000 -2.27470000
-1.37630000 -0.31010000 -2.55310000
-0.91370000 -0.31110000 -2.75370000
-0.42330000 -0.31210000 -2.87210000
0.08330000 -0.30990000 -2.90140000
0.59170000 -0.30770000 -2.85800000
1.08570000 -0.30630000 -2.72370000
1.55070000 -0.30410000 -2.50480000
1.97020000 -0.30050000 -2.20260000
2.33400000 -0.29560000 -1.83270000
2.63430000 -0.28950000 -1.40890000
2.84130000 -0.28320000 -0.93230000
2.96390000 -0.27740000 -0.42590000
2.98280000 -0.27200000 0.09550000
2.91890000 -0.26700000 0.61450000
2.76270000 -0.26310000 1.11470000
2.51790000 -0.26120000 1.57880000
2.20530000 0.34420000 1.98540000
2.52050000 0.34350000 1.56740000
1.81630000 0.34410000 2.33630000
1.37140000 0.34350000 2.61420000
0.89050000 0.34130000 2.81620000
0.38680000 0.33790000 2.92270000
-0.12540000 0.33660000 2.93850000
-0.63180000 0.33540000 2.86740000
-1.11440000 0.33240000 2.70170000
-1.56040000 0.32700000 2.46120000
-1.95550000 0.31980000 2.14810000
-2.29360000 0.31140000 1.77850000
-2.55800000 0.30340000 1.35520000
-2.75740000 0.29700000 0.89770000
-2.85840000 0.29190000 0.40850000
-2.88870000 0.28620000 -0.09260000
-2.82910000 0.28460000 -0.59330000
-2.68520000 0.28420000 -1.07730000
-2.46130000 0.28490000 -1.52750000
-2.16780000 0.28680000 -1.93540000
-1.79560000 0.29040000 -2.27560000
-1.37590000 0.29300000 -2.55770000
-0.91550000 0.29330000 -2.76510000
-0.42480000 0.29290000 -2.88120000
0.07940000 0.29390000 -2.90730000
0.58830000 0.29510000 -2.86180000
1.08450000 0.29630000 -2.73240000
1.55100000 0.29850000 -2.51390000
1.97180000 0.30180000 -2.21350000
2.33750000 0.30710000 -1.84640000
2.63090000 0.31410000 -1.41820000
2.84330000 0.32100000 -0.94330000
2.96090000 0.32730000 -0.43580000
2.98540000 0.33290000 0.08510000
2.91700000 0.33800000 0.60320000
2.76170000 0.34170000 1.10280000
2.52480000 0.94810000 1.55700000
2.76270000 0.94640000 1.09100000
2.20770000 0.94800000 1.97250000
1.82260000 0.94610000 2.32650000
1.38000000 0.94420000 2.60690000
0.89760000 0.94380000 2.80790000
0.39510000 0.94310000 2.92010000
-0.11740000 0.94110000 2.93640000
-0.62450000 0.93770000 2.86730000
-1.10940000 0.93350000 2.70650000
-1.55760000 0.92790000 2.46600000
-1.95710000 0.92040000 2.15540000
-2.29390000 0.91270000 1.78120000
-2.56480000 0.90520000 1.35920000
-2.75480000 0.89900000 0.89520000
-2.86740000 0.89270000 0.40460000
-2.90270000 0.88670000 -0.09800000
-2.84130000 0.88420000 -0.59940000
-2.70230000 0.88470000 -1.08570000
-2.47300000 0.88710000 -1.53360000
-2.17480000 0.89020000 -1.93900000
-1.81000000 0.89250000 -2.28800000
-1.38570000 0.89530000 -2.56520000
-0.92230000 0.89740000 -2.77300000
