2.72570000 0.37500000 -0.98380000
-2.86090000 -2.95380000 0.82690000
-2.76450000 -3.54450000 1.13440000
-2.90950000 -2.11070000 0.60290000
-2.90720000 -0.62730000 0.55740000
-2.93910000 -1.46680000 0.39700000
-2.93660000 -0.18750000 0.31270000
-2.94020000 -0.53690000 0.31330000
-2.94970000 -0.91080000 0.25280000
-2.66930000 -4.46560000 1.41690000
-2.67120000 -4.05690000 1.38520000
-2.78360000 -4.17640000 1.14500000
-2.83440000 -4.61790000 1.06540000
-2.62690000 -3.90940000 1.45120000
-2.68660000 -3.91920000 1.33490000
-2.65190000 -3.72720000 1.39070000
-2.73340000 -3.81600000 1.22830000
-2.83100000 -3.90220000 1.00300000
-2.84780000 -3.75540000 0.92550000
-2.88600000 -3.91710000 0.82110000
-2.84000000 -4.02380000 0.98360000
-2.91530000 -3.73010000 0.67500000
-2.96270000 -3.91620000 0.48470000
-2.96160000 -4.02880000 0.47840000
-2.92240000 -4.06330000 0.68720000
-2.89580000 -4.09900000 0.80550000
-2.83640000 -4.12210000 1.00780000
-2.93840000 -3.06770000 0.49390000
-2.97470000 -3.81310000 0.30820000
-2.98050000 -3.99890000 0.32500000
-2.98420000 -4.09410000 0.35310000
-2.97530000 -4.16300000 0.41070000
-2.91160000 -2.71110000 0.64050000
-2.96040000 -2.42460000 0.24390000
-2.98720000 -3.65540000 0.09860000
-3.00210000 -4.10160000 -0.01860000
-2.99200000 -4.16430000 0.26130000
-2.93760000 -4.50730000 0.69170000
-2.91710000 -4.61790000 0.80430000
-2.97820000 -4.64790000 0.55630000
-2.97020000 -4.74060000 0.61090000
-3.00310000 -4.65630000 0.40340000
-3.01970000 -4.89680000 0.38040000
-3.04220000 -4.93650000 0.05180000
-2.87510000 -4.37200000 0.89890000
-2.93530000 -4.38530000 0.69330000
-2.95750000 -4.36180000 0.56020000
-2.81990000 -4.37780000 1.07510000
-2.84810000 -4.28360000 0.98630000
-2.91880000 -4.31730000 0.72710000
-2.85900000 -4.19210000 0.92730000
-2.90630000 -4.20450000 0.75780000
-2.99150000 -4.27360000 0.35710000
-3.00370000 -4.43120000 0.27000000
-3.01050000 -4.26490000 -0.04260000
-2.99830000 -4.47990000 -0.37010000
-3.03830000 -5.15750000 -0.35160000
-3.00260000 -4.22200000 0.19180000
-2.98490000 -3.96170000 -0.28660000
-2.98090000 -4.13400000 -0.38510000
-2.99420000 -4.88020000 -0.55010000
-3.00160000 -5.36610000 -0.66840000
-2.98410000 -5.22540000 -0.71010000
-2.93470000 -5.29770000 -0.90380000
-2.94920000 -5.48560000 -0.90740000
-2.96850000 -4.52120000 -0.57590000
-2.93460000 -4.74980000 -0.76350000
-2.96330000 -5.10490000 -0.76260000
-2.91140000 -5.02060000 -0.91530000
-2.80950000 -5.21160000 -1.21790000
-2.87240000 -5.47290000 -1.12400000
-2.93250000 -4.32160000 -0.67770000
-2.88430000 -4.46690000 -0.88900000
-2.85680000 -4.83820000 -1.02860000
-2.95810000 -4.24060000 -0.55730000
-2.92600000 -4.04400000 -0.65130000
-2.88010000 -4.13210000 -0.84940000
-2.78320000 -4.32410000 -1.14990000
-2.80550000 -4.44490000 -1.10560000
-2.78610000 -4.74160000 -1.19800000
-2.95460000 -3.93880000 -0.51860000
-2.88080000 -3.78500000 -0.79710000
-2.87380000 -3.98500000 -0.83720000
-2.81310000 -4.03910000 -1.03920000
-2.81440000 -4.19150000 -1.05220000
-2.95140000 -3.83280000 -0.48950000
-2.93530000 -3.49860000 -0.55870000
-2.87950000 -3.08310000 -0.76930000
-2.74990000 -3.22190000 -1.14460000
-2.78190000 -3.81310000 -1.08880000
-2.83130000 -3.91330000 -0.98140000
-2.97170000 -3.38570000 -0.29510000
-2.94810000 -3.04420000 -0.44620000
-2.91930000 -2.83080000 -0.59670000
-2.86190000 -2.78770000 -0.83010000
-2.80220000 -2.82760000 -1.00030000
-2.97240000 -2.95720000 -0.21760000
-2.95130000 -2.71610000 -0.40150000
-2.93460000 -2.25930000 -0.44590000
-2.87480000 -2.15020000 -0.73630000
-2.99980000 -3.96520000 -0.04580000
-2.63350000 -5.15500000 -1.55540000
-2.75080000 -5.44870000 -1.39720000
-2.80640000 -5.63330000 -1.29760000
-2.73330000 -4.52870000 -1.28050000
-2.62180000 -4.54790000 -1.49320000
-2.46430000 -4.87460000 -1.77540000
-2.44100000 -5.27900000 -1.86350000
-2.53430000 -5.41770000 -1.75870000
-2.63250000 -5.48310000 -1.61450000
-2.73720000 -4.19380000 -1.23960000
-2.60830000 -4.09920000 -1.48000000
-2.49890000 -4.42860000 -1.67640000
-2.32960000 -4.64620000 -1.91760000
-2.33490000 -5.06690000 -1.96250000
-2.79150000 -4.11420000 -1.11840000
-2.75120000 -4.03740000 -1.19710000
-2.66320000 -3.79670000 -1.35330000
-2.53300000 -3.82640000 -1.57970000
-2.65620000 -2.91290000 -1.33460000
-2.54370000 -3.34610000 -1.53830000
-2.39750000 -3.48340000 -1.75290000
-2.43210000 -3.89420000 -1.73140000
-2.70500000 -2.32140000 -1.21800000
-2.23730000 -3.22890000 -1.93760000
-2.24350000 -3.85190000 -1.96200000
-2.29940000 -4.07620000 -1.90880000
-2.76630000 -2.05550000 -1.06180000
-2.81880000 -1.76310000 -0.90170000
-2.91350000 -1.64880000 -0.50700000
-2.83260000 -2.09490000 -0.88940000
-2.95280000 -1.46230000 -0.19830000
-2.96200000 -1.63080000 0.10950000
-2.96340000 -2.33500000 -0.14170000
-2.95150000 -1.92410000 0.31740000
-2.92790000 0.16090000 0.36070000
-2.07320000 -2.87370000 -2.09880000
-2.05400000 -3.24260000 -2.12850000
-2.08000000 -3.74960000 -2.12750000
-2.09050000 -3.98690000 -2.12690000
-1.92400000 -3.63720000 -2.26110000
-1.95120000 -3.90730000 -2.25610000
-1.89850000 -4.07300000 -2.30520000
-2.07910000 -4.12630000 -2.14700000
-2.18760000 -4.23470000 -2.04210000
-2.32220000 -4.28880000 -1.89620000
-1.71520000 -3.48470000 -2.41360000
-1.80700000 -3.89790000 -2.37010000
-1.73410000 -4.24220000 -2.43840000
-1.95450000 -4.19130000 -2.26380000
-2.00840000 -4.32130000 -2.22480000
-2.12090000 -4.44530000 -2.12670000
-1.49740000 -3.43290000 -2.55150000
-1.57360000 -3.85450000 -2.52390000
-1.49550000 -3.04820000 -2.53770000
-1.36810000 -3.09390000 -2.60950000
-1.30780000 -3.48750000 -2.65310000
-1.37960000 -3.61570000 -2.62420000
-1.41900000 -3.71960000 -2.60930000
-1.27310000 -2.75930000 -2.64500000
-1.18420000 -3.26530000 -2.70160000
-1.02800000 -3.55120000 -2.76770000
-1.21900000 -3.73770000 -2.70300000
-1.35610000 -3.90820000 -2.64730000
-1.41410000 -4.17350000 -2.63250000
-1.12700000 -2.43560000 -2.70200000
-0.98390000 -2.97890000 -2.76630000
-0.57310000 -3.56710000 -2.89030000
-0.91330000 -3.84700000 -2.82020000
-1.11710000 -4.15000000 -2.76490000
-0.78850000 -2.60260000 -2.81670000
-0.50550000 -2.73780000 -2.88240000
-0.46470000 -2.14390000 -2.88120000
-0.17930000 -2.29590000 -2.90990000
-0.28260000 -2.78370000 -2.91260000
-0.24770000 -3.23480000 -2.92790000
-0.43270000 -3.29900000 -2.91500000
-0.40580000 -1.99530000 -2.88150000
-0.17470000 -1.40220000 -2.88970000
0.00030000 -1.89720000 -2.90900000
0.13040000 -2.24500000 -2.91290000
0.00140000 -2.49840000 -2.91770000
-0.48460000 -1.39690000 -2.86000000
0.17730000 -1.14730000 -2.88120000
0.24340000 -1.92640000 -2.89850000
0.57860000 -0.22450000 -2.79620000
0.54840000 -1.12680000 -2.83530000
0.37990000 -1.36630000 -2.87090000
0.54790000 -2.10570000 -2.85710000
0.50840000 -2.57540000 -2.87680000
0.58130000 0.51510000 -2.77890000
0.79260000 0.45610000 -2.73000000
0.85590000 -0.04280000 -2.72250000
0.76520000 -0.80440000 -2.77490000
0.73210000 -1.54210000 -2.80850000
0.79770000 -2.41160000 -2.80380000
0.70500000 0.88040000 -2.74520000
0.91230000 0.94790000 -2.68290000
1.02250000 0.34200000 -2.65660000
1.12660000 -0.38420000 -2.63140000
0.99460000 -1.06160000 -2.71150000
0.85780000 -1.25190000 -2.76640000
1.13630000 1.19890000 -2.59380000
1.16780000 0.72300000 -2.59010000
1.30750000 0.24330000 -2.53470000
1.40540000 -0.17700000 -2.49780000
1.43300000 -0.78960000 -2.50480000
1.34020000 -2.20390000 -2.59220000
1.04210000 1.47340000 -2.63100000
1.16150000 1.58730000 -2.57920000
1.32670000 1.33100000 -2.50500000
1.38670000 1.07070000 -2.47740000
1.31000000 0.87400000 -2.52090000
1.35890000 0.61230000 -2.50220000
1.06950000 1.93500000 -2.61760000
1.29880000 1.98650000 -2.51430000
1.39520000 1.61250000 -2.46710000
1.54720000 1.31140000 -2.38200000
1.52960000 0.74140000 -2.40170000
1.43490000 0.41220000 -2.46670000
0.91990000 2.00360000 -2.67490000
1.00010000 2.13750000 -2.64800000
1.10130000 2.35800000 -2.60590000
1.39060000 2.56840000 -2.47110000
1.58460000 1.94920000 -2.35330000
0.80010000 2.13130000 -2.71260000
0.87530000 2.32640000 -2.68990000
0.93240000 2.66220000 -2.67420000
1.15280000 2.78830000 -2.59130000
0.83080000 3.03820000 -2.71510000
1.01820000 2.89490000 -2.65150000
1.05030000 3.27090000 -2.64360000
1.34640000 3.18220000 -2.50680000
1.56570000 2.95180000 -2.37670000
1.63070000 2.51570000 -2.32850000
0.77690000 3.47590000 -2.74150000
0.64410000 3.75430000 -2.78480000
0.91570000 3.72550000 -2.70430000
1.23780000 3.69570000 -2.57280000
1.44320000 3.56200000 -2.46710000
1.56580000 3.33740000 -2.38760000
0.77140000 4.07090000 -2.76320000
1.05740000 4.08370000 -2.66330000
1.35940000 4.29540000 -2.53140000
1.48370000 3.88370000 -2.45180000
1.60320000 3.65640000 -2.37280000
0.66650000 4.20000000 -2.79940000
0.71390000 4.33100000 -2.78730000
0.92590000 4.30430000 -2.72290000
1.10580000 4.39390000 -2.65630000
0.68840000 4.53880000 -2.80010000
0.93330000 4.54550000 -2.72600000
1.20480000 4.61320000 -2.61830000
0.56270000 4.71330000 -2.83890000
0.81780000 4.72640000 -2.77270000
1.03950000 4.79910000 -2.69830000
1.28040000 4.85930000 -2.59390000
0.41690000 4.74210000 -2.87210000
0.42170000 4.90010000 -2.87650000
0.61510000 4.95860000 -2.84040000
0.77290000 4.89180000 -2.79560000
0.89820000 4.84820000 -2.75540000
0.32850000 4.75190000 -2.88560000
0.24880000 4.84190000 -2.89690000
0.78480000 5.12620000 -2.80390000
0.95310000 4.97200000 -2.74150000
0.20680000 4.66800000 -2.89360000
1.05030000 5.16990000 -2.71740000
1.16150000 4.99190000 -2.66050000
1.28840000 5.00610000 -2.60190000
1.09400000 5.32780000 -2.71540000
1.18710000 5.24690000 -2.66910000
1.25130000 5.10770000 -2.62640000
-0.02050000 -3.64610000 -2.94680000
-0.33810000 -3.92750000 -2.94590000
-0.55240000 -4.01560000 -2.91960000
-0.79140000 -4.03840000 -2.86450000
0.09330000 -2.96290000 -2.93190000
0.32060000 -3.25140000 -2.92370000
0.46340000 -3.83280000 -2.92120000
0.12450000 -4.00670000 -2.96620000
-0.14870000 -4.17370000 -2.97640000
-0.40430000 -4.14720000 -2.95220000
0.22240000 -2.45220000 -2.90600000
0.39870000 -2.96470000 -2.90710000
0.56840000 -3.02600000 -2.87950000
0.69380000 -2.64270000 -2.84340000
0.91420000 -2.65480000 -2.78280000
0.81760000 -3.46570000 -2.83170000
0.92310000 -1.96180000 -2.76190000
1.22230000 -2.43440000 -2.65510000
1.10640000 -2.91700000 -2.72180000
1.07380000 -3.34990000 -2.74500000
1.00600000 -1.84050000 -2.72700000
1.55000000 -2.80520000 -2.49400000
1.35520000 -3.68160000 -2.63550000
1.15820000 -3.73660000 -2.72600000
1.00410000 -3.54220000 -2.77730000
-2.06990000 -4.80180000 -2.20240000
-2.21490000 -5.22560000 -2.11640000
-2.26240000 -5.43790000 -2.09430000
-2.42590000 -5.48830000 -1.91320000
-1.91920000 -4.54740000 -2.31750000
-1.79690000 -4.80450000 -2.43960000
-1.76110000 -5.29220000 -2.51390000
-2.03880000 -5.25210000 -2.29200000
-2.13530000 -5.35800000 -2.22080000
-1.84980000 -4.34520000 -2.36310000
-1.81130000 -4.45430000 -2.40120000
-1.71610000 -4.61770000 -2.48110000
-1.62980000 -4.99400000 -2.57450000
-1.92540000 -4.27160000 -2.29530000
-1.50150000 -4.67900000 -2.62290000
-1.42100000 -5.20030000 -2.71460000
-1.23110000 -4.69760000 -2.75890000
-1.06110000 -5.25200000 -2.87750000
-1.23510000 -5.47800000 -2.83030000
-1.41050000 -5.47530000 -2.75520000
-1.55150000 -5.45200000 -2.67390000
-0.90280000 -4.44300000 -2.85670000
-0.93610000 -4.85620000 -2.88540000
-0.77100000 -5.19930000 -2.96680000
-0.85080000 -5.44240000 -2.96850000
-0.70080000 -4.18320000 -2.89860000
-0.66670000 -4.31470000 -2.91290000
-0.54540000 -4.56330000 -2.95460000
-0.77820000 -4.69480000 -2.91570000
-0.82700000 -4.79290000 -2.91460000
-0.72200000 -4.93420000 -2.95490000
-0.56450000 -4.18030000 -2.92830000
-0.49400000 -4.29390000 -2.94830000
-0.32590000 -4.39990000 -2.97950000
-0.30150000 -4.72920000 -3.00990000
-0.40120000 -4.88940000 -3.01100000
-0.59260000 -4.82560000 -2.97170000
-0.14150000 -4.67510000 -3.01830000
-0.22710000 -5.18780000 -3.05720000
-0.51700000 -5.15530000 -3.01780000
-0.72660000 -4.79050000 -2.94040000
0.11890000 -4.55140000 -3.00930000
-0.01770000 -5.00390000 -3.05320000
0.03760000 -5.33530000 -3.08170000
-0.44440000 -5.43230000 -3.05810000
0.26120000 -4.12460000 -2.96770000
0.32260000 -4.32760000 -2.97540000
0.33270000 -4.62170000 -3.00000000
0.26950000 -4.95830000 -3.03910000
0.13070000 -5.07440000 -3.05940000
0.38150000 -4.12980000 -2.95390000
0.53240000 -4.27710000 -2.93850000
0.39670000 -4.41380000 -2.97320000
0.47820000 -4.51110000 -2.96880000
0.46410000 -4.73270000 -2.99130000
0.39970000 -4.90630000 -3.01810000
0.67750000 -4.13570000 -2.89950000
0.76020000 -4.26590000 -2.88820000
0.80840000 -4.38370000 -2.88270000
0.64060000 -4.46700000 -2.93180000
0.80080000 -3.98580000 -2.85730000
0.80020000 -4.10650000 -2.86800000
0.88480000 -4.18680000 -2.84890000
0.93570000 -4.30310000 -2.84170000
1.07190000 -4.44250000 -2.80520000
0.82590000 -4.54740000 -2.89120000
0.75680000 -3.80610000 -2.86130000
0.99120000 -3.84700000 -2.79340000
1.08210000 -4.01780000 -2.77070000
0.91570000 -4.08590000 -2.83330000
1.04950000 -4.14350000 -2.79270000
1.08340000 -4.25420000 -2.78940000
0.88650000 -3.70410000 -2.82390000
0.98810000 -3.66280000 -2.78770000
1.16820000 -3.90980000 -2.73290000
1.22620000 -4.14570000 -2.72590000
1.20510000 -4.32530000 -2.74880000
1.24460000 -3.94370000 -2.70390000
1.30780000 -4.41780000 -2.71020000
1.20870000 -4.71070000 -2.77800000
1.00000000 -4.68230000 -2.85170000
0.26690000 -5.31540000 -3.07050000
0.16130000 -5.56870000 -3.09000000
0.39700000 -5.12860000 -3.04030000
0.46630000 -5.32670000 -3.04770000
0.40110000 -5.59460000 -3.06700000
0.60950000 -5.02680000 -2.99090000
0.67400000 -5.46510000 -3.01900000
0.61240000 -4.65680000 -2.95520000
0.77910000 -4.74750000 -2.92380000
0.89880000 -4.92380000 -2.90900000
0.92130000 -5.28910000 -2.94290000
1.08240000 -4.85530000 -2.84180000
1.04430000 -5.07150000 -2.88090000
1.04450000 -5.22840000 -2.90070000
1.09430000 -5.33020000 -2.89360000
1.13670000 -5.47780000 -2.88850000
1.21990000 -5.03010000 -2.80640000
1.13720000 -5.21470000 -2.86250000
1.27500000 -5.33230000 -2.81810000
1.39090000 -4.83250000 -2.70630000
1.38540000 -5.17030000 -2.74790000
1.49510000 -4.40760000 -2.60890000
1.62140000 -4.73950000 -2.56500000
1.50540000 -5.12170000 -2.67570000
1.68090000 -4.14310000 -2.46910000
1.66400000 -4.40040000 -2.50670000
1.74710000 -4.52740000 -2.45960000
1.73640000 -4.66320000 -2.48160000
1.78240000 -4.88820000 -2.47250000
1.66210000 -5.19720000 -2.59040000
1.65630000 -3.58760000 -2.45070000
1.88940000 -3.87360000 -2.29050000
1.91460000 -4.43700000 -2.31500000
1.74820000 -4.36950000 -2.44430000
1.84550000 -3.17080000 -2.29580000
1.98480000 -3.62940000 -2.19730000
2.11530000 -3.88130000 -2.08350000
2.10520000 -4.19010000 -2.11830000
1.74080000 -1.84320000 -2.34480000
2.01410000 -2.67280000 -2.13480000
2.03330000 -3.19950000 -2.13480000
2.00720000 -3.43980000 -2.16900000
2.10410000 -3.65250000 -2.08300000
1.59610000 -2.32900000 -2.45340000
1.49870000 -2.07670000 -2.50780000
1.53330000 -1.37150000 -2.47180000
1.80750000 -1.46460000 -2.28320000
2.08280000 -1.49980000 -2.04270000
1.71420000 -1.16270000 -2.34380000
1.91850000 -1.06920000 -2.17900000
2.18910000 -1.37840000 -1.93240000
2.23820000 -1.73890000 -1.88380000
2.25720000 -1.92810000 -1.87680000
2.14210000 -2.29170000 -2.00770000
1.54740000 -0.48800000 -2.42940000
1.72690000 0.08100000 -2.28710000
2.04270000 0.78540000 -2.00140000
2.13300000 -0.53260000 -1.95530000
2.33070000 -1.25280000 -1.75980000
2.41490000 -1.87630000 -1.67020000
1.53150000 -0.00330000 -2.42080000
1.57350000 0.26460000 -2.38910000
1.76660000 1.08920000 -2.23340000
1.47720000 0.20780000 -2.44900000
1.70730000 1.51800000 -2.27540000
1.86010000 1.82580000 -2.15340000
1.75700000 2.25950000 -2.23750000
1.92270000 2.50930000 -2.10460000
2.10010000 2.30390000 -1.93430000
2.21060000 1.63030000 -1.81580000
2.28690000 0.70860000 -1.73360000
2.30500000 0.15000000 -1.72920000
1.77180000 2.72750000 -2.23000000
1.93300000 3.04450000 -2.10160000
2.05560000 2.83950000 -1.98660000
2.16940000 2.76770000 -1.86390000
1.73180000 3.15620000 -2.26830000
1.84730000 3.34210000 -2.18440000
1.99370000 3.35110000 -2.05540000
2.12060000 3.12850000 -1.91940000
1.71340000 3.46560000 -2.29190000
1.81040000 3.52350000 -2.22160000
1.91130000 3.52440000 -2.13530000
1.80290000 3.79050000 -2.22820000
1.83570000 4.19970000 -2.21700000
1.63180000 3.87540000 -2.36000000
1.63110000 4.14980000 -2.36590000
1.75820000 4.41860000 -2.28740000
1.56530000 4.46820000 -2.42220000
1.46590000 4.50970000 -2.48710000
1.81250000 -4.63360000 -2.42040000
1.91160000 -4.78450000 -2.35930000
1.88090000 -4.93140000 -2.39980000
1.86340000 -5.08750000 -2.43240000
1.84430000 -5.36730000 -2.48140000
2.06260000 -4.84350000 -2.23180000
1.96180000 -5.14250000 -2.36010000
2.10100000 -5.34920000 -2.25570000
2.20580000 -4.58600000 -2.05040000
2.17590000 -4.89980000 -2.12400000
2.23530000 -4.37540000 -2.00150000
2.35400000 -4.48260000 -1.86900000
2.38410000 -4.83800000 -1.87250000
2.27250000 -4.79170000 -2.00520000
2.27100000 -4.95850000 -2.03230000
2.20100000 -5.07440000 -2.12010000
2.25510000 -4.24520000 -1.96510000
2.39590000 -4.28100000 -1.79470000
2.46570000 -4.45550000 -1.72130000
2.51180000 -4.71840000 -1.68680000
2.19240000 -4.07220000 -2.02120000
2.29250000 -4.12010000 -1.91140000
2.38350000 -4.06960000 -1.78970000
2.52830000 -4.31620000 -1.61120000
2.48540000 -4.36190000 -1.68400000
2.25430000 -3.97530000 -1.94260000
2.28420000 -3.72820000 -1.88410000
2.47370000 -3.99440000 -1.65550000
2.12570000 -3.46380000 -2.05320000
2.17720000 -3.22500000 -1.98610000
2.36060000 -3.39300000 -1.76970000
2.46600000 -3.76330000 -1.64600000
2.61690000 -4.04110000 -1.42880000
2.23290000 -2.90050000 -1.91240000
2.42940000 -3.09200000 -1.66040000
2.53320000 -3.56130000 -1.52870000
2.30690000 -2.59560000 -1.82160000
2.49940000 -2.69670000 -1.54390000
2.62430000 -3.25170000 -1.34990000
2.65900000 -3.68910000 -1.32080000
2.24250000 -2.29330000 -1.90260000
2.35740000 -2.17960000 -1.75450000
2.56370000 -2.35640000 -1.44300000
2.68690000 -2.74200000 -1.19830000
2.50420000 -2.11160000 -1.54410000
2.64590000 -2.20690000 -1.29680000
2.66620000 -2.41710000 -1.25770000
2.59720000 -1.97960000 -1.38530000
2.75380000 -1.98180000 -1.04830000
2.72530000 -2.39260000 -1.12160000
2.82120000 -2.61810000 -0.84360000
2.80770000 -3.09050000 -0.90750000
2.73400000 -3.19160000 -1.11790000
2.50030000 -1.79030000 -1.54310000
2.57440000 -1.40960000 -1.39420000
2.68840000 -1.78760000 -1.20300000
2.41460000 -1.08820000 -1.63710000
2.50520000 -1.11140000 -1.50250000
2.62380000 -1.32800000 -1.31160000
2.68810000 -1.57160000 -1.18420000
2.78550000 -1.44090000 -0.94170000
2.22610000 -0.65670000 -1.86090000
2.32080000 -0.47780000 -1.73840000
2.45780000 -0.52970000 -1.54550000
2.60510000 -0.81300000 -1.31620000
2.65140000 -0.25480000 -1.19180000
2.23720000 -0.30070000 -1.83390000
2.33380000 -0.14210000 -1.70250000
2.45240000 0.39810000 -1.51740000
2.52650000 0.84500000 -1.38430000
2.36560000 1.13800000 -1.62360000
2.41240000 1.54150000 -1.55420000
2.57980000 1.19080000 -1.27500000
2.76490000 -0.34720000 -0.92700000
2.71770000 -0.50370000 -1.05720000
2.29110000 1.63210000 -1.72000000
2.33090000 1.94750000 -1.66370000
2.87180000 -0.76550000 -0.59890000
2.90940000 -1.68150000 -0.48590000
-2.69370000 -5.67590000 -1.49840000
-2.59890000 -5.65130000 -1.67530000
-2.51370000 -5.64010000 -1.79430000
-2.38140000 -5.61690000 -1.96950000
-2.03910000 -5.48500000 -2.31980000
-1.91570000 -5.43540000 -2.42170000
-0.64630000 -5.43200000 -3.02090000
2.38530000 -5.22610000 -1.92840000
2.28960000 -5.41120000 -2.07030000
2.25280000 -5.19480000 -2.08260000
2.33520000 -4.90980000 -1.95130000
2.55630000 -5.15970000 -1.67890000
2.62830000 -4.92100000 -1.53280000
2.58150000 -4.61320000 -1.56740000
2.64970000 -4.56730000 -1.43680000
2.52420000 -4.52000000 -1.64440000
2.73970000 -4.41900000 -1.23830000
2.51330000 -4.41910000 -1.64960000
2.74520000 -4.08960000 -1.17800000
2.69940000 -3.90240000 -1.26050000
2.69450000 -3.54230000 -1.23990000
2.72600000 -3.44410000 -1.15930000
2.94570000 -2.24150000 0.24270000
2.94880000 -2.63570000 0.18320000
2.95610000 -2.30150000 0.09780000
0.46600000 -5.55170000 3.05740000
0.61880000 -5.53800000 3.03490000
0.17630000 -5.56510000 3.08500000
0.42200000 -5.71950000 3.05040000
0.63100000 -5.66320000 3.02900000
0.79770000 -5.70840000 2.98330000
-0.11800000 -5.60410000 3.09000000
0.10940000 -5.72550000 3.07560000
0.29460000 -5.83390000 3.03320000
0.52880000 -5.82590000 3.01150000
0.67710000 -5.77870000 2.99750000
-0.31960000 -5.63780000 3.08160000
-0.15670000 -5.73350000 3.07880000
0.00030000 -5.82880000 3.04930000
-0.38680000 -5.72690000 3.06330000
-0.26160000 -5.82380000 3.04130000
-0.60860000 -5.70860000 3.03210000
-0.54070000 -5.80150000 3.01370000
-1.46740000 -5.42900000 2.72430000
-1.45260000 -5.61200000 2.73620000
-1.25680000 -5.65010000 2.83280000
-1.11680000 -5.72190000 2.88010000
-0.84830000 -5.74060000 2.96150000
-1.60810000 -5.46420000 2.64660000
-1.67570000 -5.60350000 2.60510000
-1.55530000 -5.70540000 2.67050000
-1.33450000 -5.74150000 2.77750000
-1.08370000 -5.83130000 2.85020000
-1.86760000 -5.58910000 2.46320000
-1.71560000 -5.71280000 2.56410000
-1.51470000 -5.81700000 2.65140000
-1.31620000 -5.84210000 2.74870000
-2.04050000 -5.63580000 2.30980000
-1.85350000 -5.71990000 2.45990000
-1.70650000 -5.82260000 2.52460000
-2.74430000 -5.12480000 1.35290000
-2.67770000 -5.38790000 1.51540000
-2.58760000 -5.37230000 1.66880000
-2.85930000 -5.18530000 1.10570000
-2.83730000 -5.43760000 1.19400000
-2.76670000 -5.43330000 1.35810000
1.15390000 -5.74340000 2.84960000
1.36130000 -5.69540000 2.76780000
1.57360000 -5.73910000 2.64280000
0.90760000 -5.79790000 2.92440000
1.10850000 -5.84120000 2.83970000
1.33700000 -5.82600000 2.74410000
1.59890000 -5.84740000 2.58890000
1.74330000 -5.76670000 2.53270000
1.90460000 -5.75530000 2.41460000
0.69130000 -5.85810000 2.95840000
0.91380000 -5.88500000 2.87020000
1.17290000 -5.88770000 2.78680000
1.29770000 -5.87800000 2.74590000
1.33830000 -5.89740000 2.69330000
0.49460000 -5.87510000 2.98930000
0.56680000 -5.90510000 2.92270000
0.86930000 -5.91630000 2.78550000
1.02260000 -5.91050000 2.81280000
1.12290000 -5.91640000 2.76480000
0.32590000 -5.89330000 2.98930000
0.10070000 -5.91510000 2.93800000
0.46530000 -5.91710000 2.85800000
0.12020000 -5.88420000 3.01270000
-0.14430000 -5.88580000 3.00530000
-0.35810000 -5.91050000 2.94880000
-0.45970000 -5.91820000 2.83890000
0.01320000 -5.91630000 2.86110000
0.24830000 -5.91160000 2.83650000
-0.46930000 -5.87470000 2.98460000
-0.67660000 -5.90280000 2.91140000
-0.76650000 -5.84900000 2.94080000
-0.90260000 -5.88880000 2.87810000
-1.00140000 -5.91820000 2.79480000
-1.05610000 -5.89240000 2.82640000
-1.18570000 -5.88560000 2.77970000
-1.22470000 -5.91090000 2.73360000
-1.26410000 -5.92440000 2.67100000
-0.95820000 -5.92970000 2.72370000
-1.35210000 -5.88620000 2.69880000
-1.52390000 -5.89290000 2.58660000
-1.49130000 -5.93100000 2.51800000
-1.28990000 -5.92850000 2.54540000
-1.04700000 -5.86320000 2.46470000
-0.74970000 -5.91350000 2.70940000
-1.82850000 -5.87870000 2.38990000
-1.61930000 -5.91830000 2.49020000
-1.72600000 -5.93430000 2.33870000
-1.59210000 -5.92920000 2.34550000
-1.39160000 -5.88210000 2.32420000
-1.90230000 -5.79280000 2.39110000
-2.00760000 -5.80340000 2.29660000
-2.07030000 -5.83210000 2.21590000
-2.08870000 -5.89570000 2.13550000
-1.86790000 -5.92280000 2.28920000
-1.75380000 -5.91500000 2.40500000
-2.06680000 -5.73650000 2.27410000
-2.20170000 -5.67610000 2.14410000
-2.27960000 -5.80860000 2.00360000
-2.29760000 -5.89860000 1.90210000
-2.17880000 -5.92650000 1.99350000
-2.04960000 -5.93370000 2.08940000
-2.37790000 -5.60250000 1.96540000
-2.35180000 -5.70180000 1.98340000
-2.46740000 -5.68330000 1.82630000
-2.46260000 -5.85010000 1.73450000
-2.60310000 -5.56740000 1.64790000
-2.59350000 -5.72820000 1.62200000
-2.65380000 -5.84860000 1.41470000
-2.53910000 -5.90920000 1.54670000
-2.46760000 -5.90830000 1.67460000
-2.39170000 -5.92050000 1.72740000
-2.74430000 -5.63920000 1.37360000
-2.77440000 -5.80360000 1.24300000
-2.78620000 -5.88190000 1.11310000
-2.73230000 -5.91730000 1.13920000
-2.63460000 -5.92690000 1.29650000
-2.88990000 -5.64060000 1.05420000
-2.82850000 -5.72960000 1.18490000
-2.86300000 -5.80540000 1.03040000
-2.86530000 -5.88690000 0.90020000
-2.83640000 -5.92400000 0.82980000
-2.75060000 -5.94300000 0.92480000
-2.94690000 -5.43350000 0.89190000
-2.96250000 -5.61950000 0.86760000
-2.95510000 -5.72060000 0.83800000
-2.91890000 -5.06160000 0.90870000
-2.99780000 -5.28720000 0.66690000
-3.02200000 -5.49350000 0.61900000
-3.00400000 -5.62470000 0.69970000
-3.00050000 -5.73730000 0.63240000
-2.93430000 -5.83010000 0.77010000
-2.90010000 -4.72350000 0.89370000
-2.97640000 -4.95280000 0.65450000
-3.03910000 -5.20600000 0.38310000
-3.04800000 -5.43280000 0.44870000
-3.04450000 -5.62510000 0.43910000
-3.00230000 -5.80710000 0.42470000
-3.06750000 -5.41920000 0.20170000
-3.06750000 -5.64620000 0.13910000
-3.07060000 -5.44020000 -0.09620000
-2.92310000 -5.88990000 0.66410000
-2.93750000 -5.90730000 0.47500000
-2.86590000 -5.93990000 0.53880000
-2.99850000 -5.87430000 0.21610000
-2.94580000 -5.92330000 0.29150000
-2.89600000 -5.93630000 0.21900000
-2.76390000 -5.94170000 0.62110000
-2.63390000 -5.94310000 1.10070000
-3.05220000 -5.77380000 0.02640000
-3.01360000 -5.86840000 0.01070000
-2.97530000 -5.91100000 0.12560000
-2.96290000 -5.91000000 -0.08140000
-2.84330000 -5.92830000 -0.11380000
-2.78350000 -5.92900000 0.25180000
-3.07640000 -5.66880000 -0.15090000
-3.06900000 -5.74570000 -0.17140000
-3.02810000 -5.83260000 -0.19690000
-3.04760000 -5.62390000 -0.44130000
-3.06390000 -5.73290000 -0.29180000
-3.04160000 -5.79000000 -0.33730000
-3.01220000 -5.84830000 -0.36280000
-2.98360000 -5.89260000 -0.30140000
-2.99690000 -5.61580000 -0.74440000
-2.99970000 -5.72470000 -0.68520000
-3.02920000 -5.73610000 -0.54100000
-3.02110000 -5.79130000 -0.46280000
-3.05340000 -5.73970000 -0.37920000
-2.93530000 -5.68860000 -0.92550000
-2.88310000 -5.65780000 -1.11640000
-1.01800000 -5.59740000 -2.91280000
-0.08190000 -5.60300000 -3.09000000
-0.31430000 -5.58070000 -3.08120000
0.13630000 -5.78380000 -3.06360000
-0.11300000 -5.79000000 -3.06820000
-0.23730000 -5.71400000 -3.08270000
0.59660000 -5.67870000 -3.03910000
0.44180000 -5.80800000 -3.03790000
0.94170000 -5.57780000 -2.95950000
0.79320000 -5.67530000 -2.99700000
1.36630000 -5.49570000 -2.79090000
1.27210000 -5.57650000 -2.84000000
1.17480000 -5.66850000 -2.87180000
1.49380000 -5.35200000 -2.70980000
1.52680000 -5.54780000 -2.70740000
1.37030000 -5.66350000 -2.78390000
1.95790000 -5.56820000 -2.40590000
1.79220000 -5.58950000 -2.53790000
1.68340000 -5.47440000 -2.60660000
2.84300000 -1.75570000 -0.78090000
2.86590000 -2.19250000 -0.68970000
2.92200000 -2.28660000 -0.42840000
2.90250000 -2.60020000 -0.53570000
2.89780000 -2.87280000 -0.57540000
2.87480000 -3.04950000 -0.68480000
2.94440000 -1.97690000 -0.22470000
2.94390000 -2.36060000 -0.27100000
2.93980000 -2.59700000 -0.30160000
2.93470000 -2.89530000 -0.36200000
2.92300000 -3.16000000 -0.47030000
2.89580000 -3.50830000 -0.63280000
2.95370000 -2.40230000 -0.08210000
2.95650000 -2.88060000 -0.09040000
2.95720000 -3.20090000 -0.21800000
2.94510000 -3.42680000 -0.37430000
2.96680000 -3.16260000 -0.03850000
2.97240000 -3.37500000 -0.04730000
2.97010000 -3.54570000 -0.19250000
2.95760000 -3.69320000 -0.35350000
2.30620000 -5.60330000 2.05120000
2.40960000 -5.60390000 1.92660000
2.17470000 -5.71220000 2.17820000
2.37210000 -5.71560000 1.95450000
2.03880000 -5.73730000 2.30870000
2.04720000 -5.82440000 2.26710000
2.23790000 -5.80780000 2.08400000
2.35670000 -5.83490000 1.93110000
2.50800000 -5.76950000 1.75400000
1.88160000 -5.84630000 2.40270000
1.88650000 -5.89550000 2.35630000
2.01970000 -5.88710000 2.25620000
2.16450000 -5.88320000 2.11150000
2.31200000 -5.89740000 1.93700000
2.45040000 -5.87170000 1.78330000
1.78380000 -5.83040000 2.48540000
1.74430000 -5.88500000 2.47570000
1.72700000 -5.91920000 2.43540000
1.81860000 -5.93220000 2.33030000
1.97580000 -5.91850000 2.24780000
1.55960000 -5.90920000 2.55150000
1.55360000 -5.92590000 2.43760000
1.80080000 -5.92960000 2.22150000
1.94960000 -5.94060000 2.19970000
2.10440000 -5.92830000 2.10330000
1.36040000 -5.92570000 2.61360000
1.15810000 -5.91680000 2.60770000
1.31590000 -5.90100000 2.44630000
1.44130000 -5.84260000 2.20610000
1.85780000 -5.88340000 1.99060000
2.11050000 -5.93940000 2.00560000
1.17070000 -5.92500000 2.70710000
0.86400000 -5.89600000 2.65290000
0.97350000 -5.82550000 2.41400000
2.98130000 -3.81130000 -0.18240000
2.97790000 -3.93240000 -0.27930000
2.94990000 -3.86720000 -0.44530000
2.99670000 -4.09430000 -0.12020000
2.97590000 -4.17340000 -0.34860000
2.91070000 -3.98680000 -0.65040000
2.84740000 -3.77420000 -0.85410000
2.80030000 -3.46480000 -0.96300000
3.01560000 -4.46830000 -0.10930000
2.99880000 -4.54090000 -0.32610000
2.96010000 -4.35450000 -0.51010000
2.93630000 -4.21650000 -0.58950000
3.04250000 -4.95210000 0.07500000
3.03380000 -4.81200000 -0.15280000
3.06290000 -5.34410000 0.26940000
3.06640000 -5.23160000 -0.03050000
3.04890000 -5.11330000 -0.21170000
2.98430000 -4.90720000 -0.55820000
3.00530000 -4.71090000 -0.37250000
3.05590000 -5.58710000 0.43720000
3.08690000 -5.60670000 0.17280000
3.08580000 -5.46910000 0.16120000
3.08560000 -5.44680000 0.02810000
3.01110000 -5.59700000 0.66110000
2.96130000 -5.60470000 0.86010000
2.85420000 -5.75880000 1.12240000
2.93970000 -5.73520000 0.87660000
3.01970000 -5.75150000 0.54810000
2.68720000 -5.72640000 1.48080000
2.77920000 -5.78320000 1.28830000
2.77040000 -5.85910000 1.23480000
2.84610000 -5.85940000 1.04150000
2.57640000 -5.85260000 1.60520000
2.68100000 -5.86980000 1.40510000
2.70280000 -5.91610000 1.28980000
2.76720000 -5.91690000 1.13200000
2.48710000 -5.90860000 1.68230000
2.58550000 -5.90930000 1.51670000
2.62770000 -5.92400000 1.41550000
2.66230000 -5.92170000 1.36400000
2.65540000 -5.93990000 1.31350000
2.67360000 -5.94440000 1.23340000
2.37260000 -5.91740000 1.82890000
2.41330000 -5.93240000 1.73090000
2.45800000 -5.93230000 1.61940000
2.54170000 -5.93630000 1.45490000
2.61170000 -5.94260000 1.35480000
2.61700000 -5.95000000 1.28370000
2.26600000 -5.93340000 1.91790000
2.30660000 -5.94170000 1.82010000
2.35500000 -5.94000000 1.70610000
2.28070000 -5.89170000 1.55540000
2.51690000 -5.92750000 1.31040000
2.63240000 -5.94820000 1.19090000
2.21500000 -5.92030000 2.00880000
2.22890000 -5.94630000 1.88170000
2.17730000 -5.92530000 1.81450000
1.87590000 -5.79780000 1.71550000
1.87060000 -5.69460000 1.41590000
2.18880000 -5.77060000 1.19870000
2.55330000 -5.90280000 1.08080000
1.54230000 -5.74400000 1.88150000
1.54040000 -5.62500000 1.60480000
1.63350000 -5.57710000 1.39590000
1.75080000 -5.59720000 1.29840000
1.85930000 -5.60310000 1.16570000
1.27660000 -5.70540000 1.98600000
1.27730000 -5.61070000 1.79090000
1.30380000 -5.54460000 1.64940000
1.36880000 -5.51570000 1.54480000
1.49100000 -5.53780000 1.47000000
1.08070000 -5.72190000 2.13080000
1.04820000 -5.61320000 1.93550000
1.08500000 -5.54540000 1.80010000
1.17020000 -5.52480000 1.71290000
1.17720000 -5.47060000 1.60990000
0.85450000 -5.70150000 2.19150000
0.89860000 -5.64220000 2.05870000
0.81750000 -5.56800000 1.96810000
0.92340000 -5.52410000 1.85280000
1.01660000 -5.48020000 1.73240000
0.62910000 -5.70000000 2.26760000
0.71860000 -5.62160000 2.09650000
0.58220000 -5.52920000 2.00040000
0.75930000 -5.50410000 1.89810000
0.82270000 -5.46390000 1.80630000
0.63660000 -5.80690000 2.48650000
0.30910000 -5.74180000 2.41680000
0.38980000 -5.60080000 2.15560000
0.57160000 -5.60900000 2.12440000
0.75910000 -5.86580000 2.59190000
0.52780000 -5.87590000 2.68870000
0.02160000 -5.86060000 2.69270000
-0.11530000 -5.73030000 2.40920000
0.09680000 -5.61760000 2.21550000
-0.44190000 -5.84820000 2.61870000
-0.33210000 -5.75720000 2.44110000
-0.33950000 -5.67150000 2.27850000
-0.13690000 -5.61560000 2.20910000
-0.05120000 -5.51510000 2.06720000
0.20030000 -5.52250000 2.06940000
-0.76210000 -5.85990000 2.56310000
-0.62490000 -5.79600000 2.46060000
-0.46130000 -5.76390000 2.43280000
-0.57040000 -5.69870000 2.27840000
-0.50300000 -5.58410000 2.10010000
-0.27520000 -5.55960000 2.10830000
-0.80620000 -5.74460000 2.29490000
-1.02160000 -5.73930000 2.18730000
-0.92720000 -5.63250000 2.02940000
-0.70020000 -5.63790000 2.12810000
-0.70840000 -5.54860000 1.98440000
-0.55160000 -5.49400000 1.95900000
-0.38420000 -5.50070000 2.00820000
-1.29380000 -5.72360000 1.99840000
-1.08950000 -5.56730000 1.83750000
-0.88140000 -5.49190000 1.83940000
-1.62320000 -5.87890000 2.15640000
-1.65990000 -5.80030000 1.89670000
-1.51030000 -5.70740000 1.78410000
-1.42430000 -5.61380000 1.66180000
-1.24230000 -5.58180000 1.75750000
-1.72470000 -5.93160000 2.25630000
-1.82800000 -5.91530000 2.10300000
-1.97300000 -5.85720000 1.74630000
-1.68130000 -5.71100000 1.62750000
-1.90280000 -5.93870000 2.17000000
-2.04650000 -5.93380000 1.97130000
-2.26070000 -5.93020000 1.72920000
-2.28050000 -5.88520000 1.43070000
-1.95340000 -5.73010000 1.32510000
-1.61830000 -5.58530000 1.39600000
-2.17470000 -5.94040000 1.92100000
-2.28150000 -5.93230000 1.84270000
-2.42620000 -5.93520000 1.54130000
-0.23390000 -5.49100000 2.02050000
-0.15370000 -5.45310000 1.98090000
-0.01110000 -5.43090000 1.96060000
0.11600000 -5.46350000 2.00030000
-0.29590000 -5.44680000 1.95130000
-0.16840000 -5.40500000 1.90170000
-0.03490000 -5.39850000 1.91280000
0.05750000 -5.39830000 1.90720000
0.15680000 -5.41910000 1.93440000
0.28840000 -5.45530000 1.97180000
-0.44040000 -5.45090000 1.92860000
-0.38620000 -5.40580000 1.85860000
-0.27360000 -5.38440000 1.83380000
-0.17040000 -5.37720000 1.81180000
-0.02300000 -5.38380000 1.85370000
0.18670000 -5.38870000 1.84070000
-0.57990000 -5.42820000 1.85950000
-0.57080000 -5.38570000 1.76790000
-0.37180000 -5.37210000 1.71980000
-0.02630000 -5.36850000 1.69130000
-0.69400000 -5.47320000 1.88780000
-0.74930000 -5.42220000 1.80430000
-0.66530000 -5.39470000 1.78630000
-0.68080000 -5.37710000 1.73120000
-0.74100000 -5.36570000 1.59630000
-0.44250000 -5.35340000 1.38400000
-0.86240000 -5.41900000 1.76000000
-0.81380000 -5.39350000 1.74360000
-0.74550000 -5.38340000 1.73330000
-0.97530000 -5.41860000 1.69790000
-0.88780000 -5.38940000 1.70430000
-0.81970000 -5.37590000 1.69050000
-0.90570000 -5.37190000 1.63600000
-1.03940000 -5.36530000 1.49090000
-1.07300000 -5.35300000 1.10850000
-1.04550000 -5.48190000 1.73790000
-1.12990000 -5.43730000 1.62230000
-1.05150000 -5.39490000 1.61830000
-0.99540000 -5.38040000 1.62020000
-0.94250000 -5.38510000 1.66950000
-1.15290000 -5.51220000 1.71010000
-1.26670000 -5.50970000 1.62130000
-1.27320000 -5.42880000 1.50050000
-1.17990000 -5.39700000 1.52940000
-1.10420000 -5.38550000 1.55620000
-1.04900000 -5.37610000 1.57740000
-1.40320000 -5.50520000 1.48970000
-1.38390000 -5.44080000 1.41310000
-1.34470000 -5.40010000 1.39220000
-1.28040000 -5.38650000 1.43210000
-1.22850000 -5.38570000 1.47510000
-1.17460000 -5.37190000 1.46760000
-1.49400000 -5.47460000 1.34060000
-1.43220000 -5.41510000 1.32120000
-1.39570000 -5.38470000 1.30470000
-1.32280000 -5.37320000 1.34600000
-1.24950000 -5.36990000 1.41180000
-1.63140000 -5.49800000 1.19540000
-1.53320000 -5.42560000 1.20770000
-1.46160000 -5.39170000 1.23800000
-1.42220000 -5.37070000 1.19490000
-1.24790000 -5.36060000 1.29670000
-1.80600000 -5.59030000 1.13120000
-1.74510000 -5.49840000 0.99850000
-1.63050000 -5.43730000 1.07640000
-1.57400000 -5.40640000 1.11580000
-1.52680000 -5.38870000 1.13560000
-2.04470000 -5.68020000 0.96700000
-1.90320000 -5.57170000 0.87610000
-1.82650000 -5.49080000 0.79340000
-1.70270000 -5.42910000 0.89390000
-1.60690000 -5.39820000 1.02670000
-2.34380000 -5.82610000 0.97460000
-2.21680000 -5.73410000 0.79910000
-2.10900000 -5.64800000 0.63760000
-1.93930000 -5.54560000 0.68700000
-1.89250000 -5.49010000 0.60340000
-1.79520000 -5.43910000 0.68160000
-2.49730000 -5.92400000 1.24280000
-2.60510000 -5.92090000 0.90040000
-2.62720000 -5.89410000 0.56320000
-2.39190000 -5.78890000 0.57140000
-2.53450000 -5.93780000 1.42340000
-2.67750000 -5.89510000 0.29370000
-2.58390000 -5.86190000 0.41440000
-2.47710000 -5.93000000 1.59810000
-1.55330000 -5.37650000 1.00690000
-1.42370000 -5.36250000 1.00210000
-1.63780000 -5.39100000 0.91990000
-1.66070000 -5.39120000 0.75580000
-1.51850000 -5.36460000 0.63240000
-1.28590000 -5.35040000 0.49520000
-0.78290000 -5.34460000 0.89500000
-1.80060000 -5.41720000 0.54370000
-1.78040000 -5.40030000 0.38610000
-1.68440000 -5.37110000 0.37900000
-1.60860000 -5.36130000 0.31130000
-1.87030000 -5.45160000 0.50770000
-1.86220000 -5.43300000 0.41130000
-1.91100000 -5.45380000 0.27000000
-1.88910000 -5.43090000 0.16590000
-1.84240000 -5.40260000 0.15700000
-1.76170000 -5.37940000 0.21410000
-1.93740000 -5.49270000 0.44760000
-1.92020000 -5.46730000 0.37570000
-2.01020000 -5.52710000 0.25860000
-1.97580000 -5.48730000 0.05180000
-1.89750000 -5.42800000 -0.00210000
-1.82930000 -5.39290000 0.06200000
-1.99840000 -5.54970000 0.49620000
-2.12920000 -5.61870000 0.32430000
-2.13540000 -5.60760000 0.09980000
-2.08010000 -5.56430000 0.00810000
-2.05510000 -5.54500000 -0.15750000
-1.96600000 -5.47840000 -0.15580000
-2.30570000 -5.72150000 0.32060000
-2.24570000 -5.67630000 0.10770000
-2.22750000 -5.66380000 -0.21130000
-2.06430000 -5.56620000 -0.37110000
-2.01120000 -5.51650000 -0.26000000
-2.52790000 -5.82710000 0.26760000
-2.44890000 -5.77970000 -0.01490000
-2.47520000 -5.79840000 -0.34340000
-2.39410000 -5.77410000 -0.54790000
-2.15750000 -5.66840000 -0.68960000
-2.68360000 -5.88580000 0.04580000
-2.66500000 -5.87890000 -0.28990000
-2.62960000 -5.88540000 -0.63840000
-2.46870000 -5.84190000 -0.84280000
-2.81040000 -5.93130000 -0.53450000
-2.77190000 -5.93670000 -0.77930000
-2.67910000 -5.93040000 -0.94900000
-2.51880000 -5.90880000 -1.14010000
-2.29690000 -5.79580000 -1.00760000
-2.92950000 -5.92040000 -0.38040000
-2.90010000 -5.92470000 -0.57470000
-2.86200000 -5.93110000 -0.67420000
-2.85700000 -5.91990000 -0.77760000
-2.77290000 -5.93650000 -0.90510000
-2.98120000 -5.89070000 -0.39570000
-2.96530000 -5.89970000 -0.45150000
-2.94790000 -5.90210000 -0.52710000
-2.94230000 -5.89610000 -0.59880000
-2.91390000 -5.91260000 -0.64000000
-2.91070000 -5.90330000 -0.69180000
-2.99530000 -5.86380000 -0.44020000
-2.98140000 -5.86910000 -0.50090000
-2.97660000 -5.85620000 -0.56650000
-2.95040000 -5.87170000 -0.64700000
-2.93000000 -5.84840000 -0.75400000
-2.98940000 -5.80190000 -0.61990000
-2.86680000 -5.85250000 -0.95600000
-2.87760000 -5.89870000 -0.82560000
0.37770000 -5.51070000 2.02880000
0.44270000 -5.47050000 1.96380000
0.53660000 -5.45720000 1.92160000
0.65740000 -5.46120000 1.87810000
0.43220000 -5.42620000 1.90100000
0.56420000 -5.42750000 1.86330000
0.67090000 -5.41830000 1.77690000
0.89610000 -5.42980000 1.69880000
1.03350000 -5.44190000 1.65300000
0.29200000 -5.41140000 1.90260000
0.37680000 -5.39670000 1.83980000
0.50320000 -5.40440000 1.82190000
0.43760000 -5.38330000 1.69410000
0.77220000 -5.39840000 1.63960000
1.02440000 -5.41350000 1.56150000
0.16330000 -5.35870000 1.42660000
0.77960000 -5.37800000 1.42320000
1.05900000 -5.39170000 1.44900000
1.21860000 -5.41280000 1.44390000
1.18650000 -5.43190000 1.53030000
-0.23520000 -5.34720000 1.09310000
0.40480000 -5.35690000 1.10620000
1.11760000 -5.37590000 1.08190000
1.15230000 -5.38690000 1.33360000
-0.57640000 -5.34460000 0.74430000
-0.11870000 -5.35280000 0.73160000
0.65170000 -5.36030000 0.65930000
-0.95800000 -5.34570000 0.41100000
-0.63340000 -5.34970000 0.39290000
-0.33680000 -5.35890000 0.27550000
0.11960000 -5.36270000 0.41460000
-1.37030000 -5.35590000 -0.05970000
-0.90800000 -5.34870000 -0.10090000
-0.62950000 -5.35530000 0.08760000
-0.41910000 -5.35580000 -0.33450000
-0.01560000 -5.36550000 0.05910000
0.54820000 -5.36060000 0.01580000
-1.54900000 -5.35680000 0.13980000
-1.63740000 -5.36440000 -0.06380000
-1.68730000 -5.37890000 -0.26970000
-1.54970000 -5.37790000 -0.58140000
-1.19460000 -5.35360000 -0.50530000
-1.73920000 -5.37380000 0.03730000
-1.75090000 -5.37610000 -0.13410000
-1.80420000 -5.39200000 -0.21530000
-1.82760000 -5.40780000 -0.32070000
-1.77610000 -5.40140000 -0.47380000
-1.84410000 -5.39850000 -0.05220000
-1.81630000 -5.38950000 -0.12030000
-1.88220000 -5.42360000 -0.19790000
-1.89020000 -5.43390000 -0.32440000
-1.87390000 -5.43340000 -0.41530000
-1.95060000 -5.47920000 -0.34970000
-1.91100000 -5.46410000 -0.50150000
-1.85420000 -5.42660000 -0.50770000
-1.97770000 -5.52650000 -0.55740000
-1.92620000 -5.48430000 -0.55800000
-1.89750000 -5.46370000 -0.56810000
-1.87420000 -5.44290000 -0.55320000
-1.83660000 -5.42170000 -0.56630000
-1.82260000 -5.41040000 -0.52830000
-1.96440000 -5.55540000 -0.72480000
-1.92550000 -5.51170000 -0.66150000
-1.91000000 -5.48490000 -0.60870000
-1.85290000 -5.44730000 -0.62180000
-1.78830000 -5.41460000 -0.62340000
-1.79770000 -5.40530000 -0.55730000
-1.92040000 -5.57980000 -0.91900000
-1.90160000 -5.53340000 -0.80150000
-1.90180000 -5.51410000 -0.73310000
-1.86940000 -5.48010000 -0.69260000
-1.76980000 -5.43690000 -0.74070000
-2.09510000 -5.70510000 -1.02760000
-1.89840000 -5.65550000 -1.21430000
-1.79010000 -5.55890000 -1.10310000
-1.76600000 -5.50640000 -0.99500000
-1.83340000 -5.51280000 -0.88700000
-1.87550000 -5.52860000 -0.84810000
-2.19260000 -5.81580000 -1.30350000
-1.89520000 -5.74810000 -1.50760000
-1.67190000 -5.61010000 -1.40510000
-1.71740000 -5.56660000 -1.23790000
-1.64630000 -5.49440000 -1.15830000
-2.37470000 -5.91840000 -1.45730000
-2.14460000 -5.87720000 -1.61680000
-1.84960000 -5.83180000 -1.82670000
-1.58050000 -5.66400000 -1.63750000
-2.50860000 -5.93330000 -1.40450000
-2.19510000 -5.92260000 -1.76150000
-1.94100000 -5.91030000 -2.00620000
-1.65030000 -5.87150000 -2.15640000
-1.40570000 -5.71270000 -1.91050000
-2.65900000 -5.93310000 -1.15360000
-2.59120000 -5.91370000 -1.41770000
-2.32390000 -5.92770000 -1.73780000
-1.99170000 -5.92020000 -2.08280000
-2.73900000 -5.92980000 -1.05110000
-2.73090000 -5.90820000 -1.17580000
-2.69470000 -5.85210000 -1.36970000
-2.56080000 -5.87610000 -1.58140000
-2.34410000 -5.90530000 -1.81660000
-2.81420000 -5.91520000 -0.94690000
-2.79060000 -5.89940000 -1.07350000
-2.80360000 -5.83950000 -1.15520000
-2.75230000 -5.88150000 -1.21580000
-2.87610000 -5.75150000 -1.07810000
-2.84960000 -5.77240000 -1.12940000
-2.85010000 -5.72420000 -1.17390000
-2.75830000 -5.74330000 -1.35250000
-2.75240000 -5.83970000 -1.28340000
-2.58000000 -5.73020000 -1.67720000
-2.60370000 -5.82150000 -1.57540000
-2.49880000 -5.80880000 -1.74380000
-2.42580000 -5.86940000 -1.79290000
-2.42080000 -5.71920000 -1.89790000
-2.27730000 -5.83410000 -1.99960000
-2.29790000 -5.88540000 -1.93090000
-2.11850000 -5.89910000 -2.09200000
-2.21100000 -5.68280000 -2.14070000
-2.08490000 -5.81650000 -2.21300000
-2.11560000 -5.87130000 -2.14800000
-2.12390000 -5.60150000 -2.24590000
-1.99000000 -5.68040000 -2.35040000
-1.90700000 -5.81350000 -2.37110000
-1.96670000 -5.87670000 -2.27360000
-1.90500000 -5.90980000 -2.25970000
-1.59890000 -5.91120000 -2.41790000
-1.85700000 -5.57060000 -2.47070000
-1.76010000 -5.71150000 -2.52600000
-1.71910000 -5.81620000 -2.51590000
-1.77410000 -5.86130000 -2.44470000
-1.72960000 -5.89330000 -2.43000000
-1.65920000 -5.58450000 -2.61190000
-1.54830000 -5.67820000 -2.67580000
-1.59240000 -5.77750000 -2.61860000
-1.59620000 -5.85370000 -2.57050000
-1.50130000 -5.58020000 -2.71330000
-1.37480000 -5.61260000 -2.77510000
-1.41700000 -5.73010000 -2.73350000
-1.47010000 -5.81440000 -2.67260000
-1.39260000 -5.86600000 -2.67240000
-1.52640000 -5.89290000 -2.56020000
-1.22060000 -5.67580000 -2.83150000
-1.29620000 -5.80520000 -2.76000000
-1.12250000 -5.86790000 -2.79350000
-1.25580000 -5.90260000 -2.67120000
-1.08320000 -5.78360000 -2.85820000
-0.94850000 -5.83780000 -2.89040000
-0.84170000 -5.87250000 -2.89750000
-0.92630000 -5.89850000 -2.82570000
-0.86070000 -5.91000000 -2.78460000
-1.23070000 -5.91340000 -2.60950000
-0.90970000 -5.74950000 -2.93510000
-0.78450000 -5.81470000 -2.95420000
-0.60920000 -5.85030000 -2.97860000
-0.60310000 -5.88990000 -2.93270000
-0.79190000 -5.61030000 -2.99130000
-0.73690000 -5.71840000 -2.99770000
-0.59450000 -5.77210000 -3.01650000
-0.45860000 -5.81880000 -3.02680000
-0.37970000 -5.86360000 -3.01000000
-0.55710000 -5.62530000 -3.04570000
-0.41320000 -5.72600000 -3.06050000
-0.27500000 -5.81390000 -3.05080000
-0.09950000 -5.86340000 -3.03030000
-0.32750000 -5.89380000 -2.97910000
0.18300000 -5.87120000 -3.02590000
-0.10180000 -5.90140000 -2.97300000
-0.33770000 -5.90960000 -2.92520000
-0.51580000 -5.90700000 -2.90390000
0.28670000 -5.85050000 -3.04080000
0.31280000 -5.88480000 -3.01010000
0.22920000 -5.89910000 -2.98730000
0.19200000 -5.90720000 -2.90760000
-0.20380000 -5.90890000 -2.89360000
-0.52240000 -5.89640000 -2.78300000
0.40020000 -5.87010000 -3.01650000
0.35050000 -5.90270000 -2.97220000
0.50230000 -5.91130000 -2.93510000
0.60020000 -5.91080000 -2.83810000
0.40280000 -5.85310000 -2.69700000
-0.09500000 -5.86170000 -2.74170000
0.50730000 -5.87130000 -3.00520000
0.45070000 -5.89460000 -2.98700000
0.51020000 -5.90210000 -2.97240000
0.59290000 -5.88840000 -2.96800000
0.71380000 -5.90850000 -2.88930000
0.63080000 -5.81790000 -3.00210000
0.88370000 -5.80680000 -2.94120000
0.81290000 -5.87790000 -2.91420000
0.81300000 -5.90570000 -2.87440000
0.78770000 -5.91560000 -2.82830000
0.82130000 -5.89700000 -2.71890000
0.97390000 -5.70700000 -2.94330000
1.11000000 -5.78530000 -2.87310000
1.04490000 -5.84390000 -2.87230000
1.05330000 -5.89100000 -2.82570000
1.01210000 -5.91320000 -2.76840000
1.23280000 -5.83520000 -2.79790000
1.12320000 -5.87580000 -2.82060000
1.10810000 -5.90860000 -2.77560000
1.18630000 -5.91920000 -2.69090000
1.18760000 -5.87740000 -2.51170000
1.47750000 -5.81710000 -2.68100000
1.32260000 -5.88700000 -2.72050000
1.24490000 -5.88900000 -2.75680000
1.15930000 -5.89390000 -2.78540000
1.19600000 -5.90600000 -2.75070000
1.22840000 -5.91490000 -2.71340000
1.28490000 -5.91740000 -2.67930000
1.35490000 -5.92240000 -2.59550000
1.26970000 -5.90630000 -2.71970000
1.34810000 -5.91030000 -2.67110000
1.44010000 -5.92050000 -2.59350000
1.59370000 -5.92550000 -2.44870000
-0.98730000 -5.90120000 -2.64210000
-1.30290000 -5.88950000 -2.45310000
-1.23990000 -5.79020000 -2.20770000
-0.86660000 -5.81260000 -2.44350000
-0.95920000 -5.71790000 -2.18920000
-1.07190000 -5.66260000 -2.01860000
-1.09480000 -5.56050000 -1.82060000
-1.34110000 -5.60310000 -1.72050000
-0.46120000 -5.81190000 -2.56740000
-0.47930000 -5.68280000 -2.28740000
-0.74780000 -5.68740000 -2.21560000
-0.82310000 -5.62620000 -2.06810000
-0.88960000 -5.57120000 -1.94430000
-0.17540000 -5.72490000 -2.42520000
-0.10780000 -5.58540000 -2.17060000
-0.37490000 -5.57160000 -2.11410000
-0.59210000 -5.59810000 -2.10390000
-0.67820000 -5.53370000 -1.97390000
-0.78640000 -5.48710000 -1.86670000
0.09770000 -5.76160000 -2.51170000
0.06850000 -5.66800000 -2.32020000
0.22510000 -5.59830000 -2.18500000
0.16710000 -5.50620000 -2.05150000
-0.04500000 -5.47200000 -2.01210000
-0.24780000 -5.50920000 -2.04360000
0.32940000 -5.70980000 -2.38580000
0.51380000 -5.63640000 -2.20850000
0.40050000 -5.53360000 -2.05890000
0.34280000 -5.46480000 -1.97780000
0.18930000 -5.42520000 -1.94970000
0.68810000 -5.77830000 -2.45980000
0.84230000 -5.67640000 -2.18850000
0.63230000 -5.56480000 -2.05090000
0.54790000 -5.47680000 -1.94650000
0.41490000 -5.41690000 -1.90720000
1.16810000 -5.72310000 -2.13310000
0.94120000 -5.59120000 -1.97540000
0.78420000 -5.58290000 -2.02740000
0.74160000 -5.52410000 -1.94680000
0.70860000 -5.46440000 -1.87740000
0.61730000 -5.41420000 -1.84690000
1.40660000 -5.81930000 -2.21860000
1.35470000 -5.68680000 -1.92160000
1.15370000 -5.61780000 -1.90780000
1.03420000 -5.53260000 -1.81930000
0.85810000 -5.49830000 -1.86060000
1.56500000 -5.89380000 -2.31360000
1.63290000 -5.77870000 -1.92530000
1.48500000 -5.62560000 -1.66510000
