-15.49140000 18.08820000 -35.01790000
-14.24900000 19.47710000 -35.54860000
-14.74920000 20.36050000 -35.31320000
-15.34430000 21.03430000 -35.02730000
-15.98870000 20.25000000 -34.74380000
-15.36970000 22.48290000 -34.98750000
-16.62720000 22.12710000 -34.39740000
-15.80450000 15.15290000 -34.90710000
-16.34490000 15.79990000 -34.63420000
-16.51110000 19.72710000 -34.50250000
-16.54180000 18.37090000 -34.50700000
-17.04390000 20.39100000 -34.22150000
-17.41750000 18.74190000 -34.05800000
-16.75220000 16.74740000 -34.42290000
-17.34460000 16.34370000 -34.12800000
-17.83950000 16.45170000 -33.86120000
-18.07680000 17.90780000 -33.71140000
-9.48110000 26.69110000 -37.17930000
-10.06170000 25.08480000 -37.01600000
-9.72280000 28.40680000 -37.10070000
-11.24260000 27.10690000 -36.63350000
-10.50310000 23.38380000 -36.89170000
-11.28030000 23.40670000 -36.63510000
-9.52720000 31.81290000 -37.18460000
-9.99550000 30.04770000 -37.03310000
-10.59320000 33.28830000 -36.89180000
-10.77240000 30.32360000 -36.80930000
-12.13800000 23.27690000 -36.32130000
-12.57970000 24.88090000 -36.14520000
-11.74300000 29.96930000 -36.48030000
-12.38930000 29.48250000 -36.23080000
-12.62770000 27.95740000 -36.12650000
-12.07050000 32.45030000 -36.38270000
-12.89350000 30.70450000 -36.04820000
-13.87600000 29.02790000 -35.63870000
-13.01370000 26.30290000 -35.97790000
-13.86850000 26.06420000 -35.64080000
-16.14770000 26.52720000 -34.59510000
-15.07730000 24.84850000 -35.10440000
-14.65290000 26.12460000 -35.29700000
-15.01270000 27.67800000 -35.12990000
-15.57140000 23.86040000 -34.88130000
-16.31980000 24.25320000 -34.52650000
-16.92680000 24.43580000 -34.21690000
-17.33640000 23.45070000 -34.01050000
-17.14040000 25.53550000 -34.09160000
-17.99080000 24.55420000 -33.64110000
-15.37270000 29.07800000 -34.96780000
-16.11630000 29.07400000 -34.61450000
-14.98350000 30.37710000 -35.15030000
-16.08470000 31.85300000 -34.63890000
-14.59460000 31.74090000 -35.33280000
-14.93610000 33.29290000 -35.18490000
-13.88410000 31.80150000 -35.64940000
-13.82000000 34.66070000 -35.68820000
-16.84820000 28.94900000 -34.23880000
-17.19600000 27.66060000 -34.05250000
-17.21220000 30.27470000 -34.05000000
-18.27420000 28.60030000 -33.46770000
-13.80930000 27.51330000 -46.45020000
-14.29280000 28.19610000 -46.29050000
-11.51340000 36.77620000 -47.10400000
-11.16400000 38.77980000 -47.20960000
-12.57220000 35.79520000 -46.81820000
-12.93230000 39.36480000 -46.74690000
-13.24140000 34.52750000 -46.61930000
-13.50890000 35.57260000 -46.54830000
-14.71720000 29.00140000 -46.13780000
-14.93890000 31.13590000 -46.04870000
-13.72740000 36.23250000 -46.48210000
-13.79080000 38.18380000 -46.47140000
-14.22760000 35.08790000 -46.30640000
-14.45610000 37.29930000 -46.24120000
-15.34130000 33.10270000 -45.90870000
-15.18390000 34.23080000 -45.96880000
-16.03410000 33.78130000 -45.65280000
-16.30730000 36.57590000 -45.57430000
-14.87740000 35.24700000 -46.08030000
-15.22840000 36.95190000 -45.96920000
-16.96150000 34.41930000 -45.28490000
-17.56090000 35.95350000 -45.05880000
-17.22500000 32.79340000 -45.16640000
-18.83330000 34.86960000 -44.51720000
-17.38090000 30.36480000 -45.10390000
-18.22390000 30.29790000 -44.76470000
-18.87870000 30.46660000 -44.48300000
-19.55780000 32.80880000 -44.18650000
-17.90460000 36.87090000 -44.93520000
-17.39210000 37.66520000 -45.16170000
-18.75950000 36.75970000 -44.57080000
-18.52910000 38.05090000 -44.68620000
-20.30130000 34.07390000 -43.84890000
-20.23790000 35.42000000 -43.88480000
-20.98330000 33.46250000 -43.52090000
-21.61890000 35.55710000 -43.22850000
-19.74660000 36.42380000 -44.12020000
-20.15030000 36.80710000 -43.93110000
-21.59710000 27.70260000 -43.15920000
-21.07700000 28.81750000 -43.42760000
-22.80570000 30.11170000 -42.53600000
-21.49100000 30.56510000 -43.22390000
-11.25960000 40.06620000 -47.18870000
-12.20310000 40.79910000 -46.94380000
-13.77760000 42.86610000 -46.47900000
-12.73830000 42.72230000 -46.79300000
-12.77980000 41.38300000 -46.78260000
-13.37100000 41.21640000 -46.60970000
-14.44380000 39.51030000 -46.26600000
-14.48020000 40.53230000 -46.25970000
-15.12300000 39.18510000 -46.03630000
-16.31270000 41.39140000 -45.64390000
-14.26090000 41.25520000 -46.32920000
-14.91530000 41.92720000 -46.11120000
-15.59380000 38.52470000 -45.86430000
-16.31520000 38.94090000 -45.61130000
-15.69100000 46.89860000 -45.89930000
-14.58920000 44.87300000 -46.24580000
-15.24760000 44.11030000 -46.01050000
-16.12790000 45.04920000 -45.70780000
-15.22170000 43.15660000 -45.99880000
-16.39880000 44.05990000 -45.58730000
-15.49460000 42.51360000 -45.91120000
-16.43670000 43.05330000 -45.58370000
-17.00080000 38.83200000 -45.34300000
-17.37590000 39.59810000 -45.19950000
-18.93770000 40.96330000 -44.50320000
-17.76260000 41.26510000 -45.03390000
-17.82730000 39.93290000 -45.00390000
-18.65500000 39.23240000 -44.62790000
-17.33500000 44.56090000 -45.23380000
-17.52220000 45.71580000 -45.15200000
-17.70990000 44.51530000 -45.07920000
-18.96720000 48.06830000 -44.55830000
-18.07780000 43.41790000 -44.91090000
-18.85340000 44.31090000 -44.57360000
-19.65010000 38.73630000 -44.15650000
-20.15310000 39.60870000 -43.92050000
-20.11490000 37.99050000 -43.93650000
-21.59470000 38.53130000 -43.22150000
-19.44180000 45.11030000 -44.31110000
-19.89490000 47.00330000 -44.11810000
-19.75700000 43.36890000 -44.14480000
-20.76830000 45.80870000 -43.68610000
12.77270000 -69.01030000 35.09290000
12.03880000 -69.01600000 35.39670000
11.37410000 -68.97170000 35.63100000
10.38420000 -68.74520000 35.85360000
10.61420000 -70.48370000 39.04080000
10.07900000 -70.21580000 39.03710000
10.65140000 -70.74550000 39.58780000
9.93260000 -70.47620000 39.78680000
11.20470000 -71.46590000 42.04330000
10.68020000 -71.45210000 42.32000000
10.92490000 -71.48750000 42.92940000
9.30640000 -71.47560000 44.62460000
9.64780000 -69.15640000 36.83610000
9.21260000 -68.88920000 36.52960000
9.43300000 -69.32460000 37.35120000
8.66410000 -68.99610000 37.14300000
10.41400000 -71.32000000 41.43870000
11.06510000 -71.37030000 41.00140000
10.49320000 -71.42150000 42.12660000
9.87060000 -71.41370000 42.88150000
11.39180000 -71.29920000 40.27970000
11.10810000 -71.23480000 40.28440000
13.12220000 -71.52560000 43.37830000
11.80430000 -71.50910000 43.52340000
13.45460000 -71.54510000 44.32610000
11.21600000 -71.52200000 45.46100000
13.52910000 -70.59630000 46.19020000
12.48590000 -70.54860000 46.49830000
13.98760000 -70.26030000 46.09750000
12.19720000 -69.89280000 46.67210000
13.92050000 -71.55470000 44.81120000
13.09640000 -71.53870000 45.42720000
10.52180000 -70.87400000 39.96160000
9.96340000 -70.70360000 40.18820000
10.80040000 -71.04220000 40.02140000
9.98970000 -70.95560000 40.71200000
10.78410000 -71.15950000 40.34850000
10.27390000 -71.17950000 41.02210000
14.47580000 -71.45420000 45.57560000
13.71800000 -71.48660000 45.69580000
14.17560000 -71.37400000 45.72370000
12.45630000 -71.38740000 46.15370000
13.78530000 -71.24310000 45.91140000
12.78510000 -71.17230000 46.22280000
9.36140000 -68.54740000 36.05710000
9.28550000 -68.31630000 35.99350000
8.74980000 -68.52740000 36.24830000
7.49790000 -68.10710000 36.39470000
12.77510000 -71.50570000 45.75720000
11.79790000 -71.48270000 45.97350000
10.79980000 -71.50370000 43.87390000
10.12700000 -71.50930000 45.05240000
9.65900000 -70.06530000 39.22520000
9.55530000 -69.82000000 38.72050000
9.45740000 -70.22240000 39.81830000
8.96920000 -69.92410000 39.81460000
7.24170000 -68.64880000 37.10520000
8.13980000 -68.81040000 36.97370000
8.14400000 -69.03990000 37.73480000
7.92670000 -69.11320000 38.25440000
8.48230000 -69.24540000 38.18200000
8.37070000 -69.54500000 39.55170000
9.25460000 -69.50590000 38.09040000
8.83130000 -69.41310000 38.32120000
8.63230000 -68.75860000 36.54750000
8.57840000 -68.69370000 36.48650000
8.24100000 -68.54910000 36.46100000
7.33860000 -68.42370000 36.65760000
9.75930000 -71.21750000 41.93420000
9.43830000 -71.15000000 42.21210000
9.59250000 -71.31450000 42.63750000
8.90310000 -71.26940000 43.69340000
8.67990000 -69.45590000 38.69660000
8.66650000 -69.69260000 39.62420000
9.42870000 -71.38610000 43.34910000
8.96190000 -71.38270000 44.28260000
9.56660000 -70.45560000 40.14600000
9.45980000 -70.48310000 40.36370000
11.07720000 -71.47180000 46.18410000
10.39340000 -71.49090000 46.08470000
11.02990000 -71.42390000 46.38340000
9.91720000 -71.42940000 46.45590000
7.58730000 -69.10180000 38.78350000
7.09220000 -68.87350000 38.52840000
7.60480000 -69.26450000 39.64050000
6.79410000 -68.98580000 39.79350000
8.40300000 -69.75580000 40.41560000
8.08860000 -69.66600000 40.71890000
8.34560000 -69.87830000 40.87310000
7.72210000 -69.81470000 42.01360000
5.97510000 -68.37990000 37.05380000
6.50410000 -68.33170000 36.81680000
4.67270000 -68.14070000 37.10370000
6.07840000 -68.17660000 36.78700000
9.17290000 -71.07350000 42.38150000
9.30230000 -70.89500000 41.62730000
8.76250000 -71.10710000 43.31780000
8.68650000 -70.81250000 42.56930000
9.90010000 -71.49890000 45.73380000
9.50510000 -71.46590000 45.80890000
9.24260000 -70.59710000 40.98020000
8.82340000 -70.38940000 41.20180000
11.80520000 -71.09280000 46.52220000
11.20300000 -71.15010000 46.63780000
11.53880000 -70.89480000 46.67140000
10.13590000 -70.75800000 47.04120000
11.57000000 -70.63080000 46.72800000
11.03370000 -70.32670000 46.90980000
7.67650000 -69.52280000 41.00610000
7.61920000 -69.41680000 40.62450000
7.28410000 -69.48750000 41.78140000
6.73670000 -69.19670000 41.77950000
8.41930000 -70.16730000 41.42220000
8.20770000 -70.34630000 42.36620000
7.39670000 -69.28470000 40.33570000
6.81490000 -69.10410000 40.67010000
8.58950000 -71.32960000 45.00370000
8.42710000 -71.23660000 44.87880000
8.52650000 -71.32740000 45.50450000
7.98790000 -71.06920000 45.83170000
10.51470000 -71.33880000 46.61860000
9.62970000 -71.30180000 46.81160000
10.66810000 -71.26320000 46.66580000
9.13380000 -71.09370000 47.07740000
10.50590000 -71.15980000 46.78850000
9.58910000 -70.99530000 47.07140000
6.66860000 -68.76410000 38.57170000
6.34610000 -68.64900000 38.11220000
6.34550000 -68.80090000 39.35980000
5.75940000 -68.64720000 38.97270000
5.49670000 -68.53410000 38.01270000
5.31520000 -68.46140000 37.62180000
4.81680000 -68.49380000 38.43990000
3.36390000 -68.30670000 38.32000000
5.16680000 -68.37310000 37.39300000
4.05050000 -68.24590000 37.54880000
8.45410000 -71.13210000 44.28080000
8.29470000 -70.95380000 44.17390000
11.15180000 -69.19720000 47.02850000
10.76930000 -69.71420000 47.05310000
10.25300000 -68.30610000 47.33520000
10.15350000 -69.65040000 47.19630000
8.08770000 -70.59790000 43.56910000
7.78170000 -70.41990000 43.97860000
9.12190000 -71.34140000 46.65260000
9.12420000 -71.39880000 46.12190000
8.42950000 -71.20000000 46.85120000
8.76940000 -71.35890000 45.97210000
7.07910000 -69.53570000 42.69310000
6.82820000 -69.44680000 43.05490000
7.25890000 -69.78990000 43.36440000
6.94490000 -69.78500000 44.62240000
9.09500000 -71.27460000 46.90340000
8.72450000 -71.16370000 47.04130000
7.47400000 -70.19940000 44.24960000
7.43540000 -70.41000000 45.26860000
8.47320000 -71.30260000 46.00000000
8.19170000 -71.19060000 46.48370000
9.08060000 -70.42740000 47.31250000
8.96810000 -70.76490000 47.26320000
8.14630000 -70.09600000 47.51590000
8.57470000 -70.70560000 47.32120000
6.32160000 -68.95450000 40.92910000
6.14150000 -68.85410000 40.55300000
6.06970000 -68.92390000 41.73090000
5.46920000 -68.70310000 41.53350000
6.03430000 -68.78150000 40.05990000
5.66880000 -68.68300000 40.01780000
9.46670000 -69.78140000 47.32200000
9.12410000 -69.28730000 47.43790000
4.60690000 -68.47300000 38.61640000
4.07820000 -68.39650000 38.70610000
5.12040000 -68.54700000 38.99360000
4.58940000 -68.46150000 39.54230000
8.41020000 -71.01850000 47.15140000
8.14210000 -70.95960000 47.14140000
8.38920000 -70.88290000 47.24030000
7.86950000 -70.62000000 47.31750000
8.29210000 -70.68780000 47.34130000
7.91220000 -70.39920000 47.44630000
7.97800000 -71.05570000 46.71530000
7.75180000 -70.88590000 46.45320000
7.97920000 -70.98630000 46.92810000
7.53990000 -70.61370000 46.88840000
7.47150000 -70.55100000 45.93770000
7.26390000 -70.28080000 45.92410000
6.62210000 -69.35280000 43.30900000
6.42200000 -69.18130000 43.10490000
6.59710000 -69.44670000 44.19460000
6.31760000 -69.24380000 44.18590000
7.94420000 -70.89580000 47.08520000
7.69080000 -70.62630000 47.17250000
7.49720000 -69.97700000 47.54490000
7.33250000 -69.95550000 47.48970000
7.33830000 -69.60890000 47.63840000
6.75530000 -69.18320000 47.67090000
6.05590000 -69.03000000 43.83690000
5.93690000 -68.95800000 43.67400000
5.88930000 -69.04320000 44.85450000
5.31780000 -68.80930000 45.94160000
7.10890000 -70.09310000 46.17910000
6.86780000 -69.79190000 45.72430000
7.14430000 -70.15530000 46.79470000
6.72850000 -69.71450000 46.57120000
5.32460000 -68.60030000 39.68250000
5.04780000 -68.56600000 40.48340000
6.65440000 -69.55860000 45.10690000
6.46230000 -69.43860000 45.35230000
7.20210000 -69.22140000 47.71770000
6.78690000 -68.82410000 47.78440000
7.66800000 -69.20880000 47.67710000
6.93300000 -68.42790000 47.84670000
6.08820000 -69.23570000 45.63480000
6.06900000 -69.26900000 46.42880000
7.36280000 -70.15200000 47.33510000
7.13470000 -69.90300000 47.34280000
3.77790000 -68.35770000 39.31580000
3.31880000 -68.31250000 39.81220000
3.98840000 -68.38260000 40.28600000
3.44620000 -68.32440000 41.52970000
7.01690000 -69.93900000 47.21930000
6.99840000 -69.96460000 47.11520000
6.40150000 -69.29790000 47.39110000
6.63840000 -69.59690000 47.10510000
6.92530000 -69.69750000 47.37440000
6.57540000 -69.24420000 47.56500000
5.77880000 -68.87210000 43.05780000
5.32820000 -68.73280000 43.83330000
2.50400000 -68.24780000 40.36780000
2.13930000 -68.22960000 39.70730000
2.11310000 -68.21540000 38.44910000
1.65120000 -68.18140000 42.80250000
1.27720000 -68.18800000 40.11660000
0.87810000 -68.15540000 38.33970000
2.82070000 -68.26990000 40.70460000
2.73950000 -68.26100000 42.00870000
10.07480000 -61.78800000 31.91130000
10.07800000 -61.58190000 31.48700000
8.92630000 -61.79560000 32.24110000
9.41870000 -61.51190000 31.52070000
10.54670000 -65.57320000 35.04580000
10.53630000 -65.19480000 34.88840000
10.12740000 -65.75380000 35.22830000
9.62040000 -65.29770000 35.17090000
10.60560000 -64.71160000 34.63690000
9.98850000 -64.59010000 34.72990000
11.10210000 -62.18510000 32.28980000
10.42280000 -62.08400000 32.34730000
11.06950000 -62.36370000 32.58980000
9.46530000 -62.37080000 33.10710000
10.94490000 -62.55030000 32.90230000
10.25260000 -62.67110000 33.28050000
9.94700000 -61.97700000 32.31110000
9.17110000 -62.04910000 32.65590000
10.31430000 -63.29900000 33.91180000
10.08200000 -63.10500000 33.80030000
9.82290000 -63.57970000 34.21350000
9.06840000 -63.33720000 34.22170000
9.52210000 -65.91950000 35.44020000
8.81810000 -65.75730000 35.54840000
9.59320000 -66.21020000 35.51200000
8.05600000 -66.29890000 35.89400000
10.07780000 -66.45980000 35.44830000
9.65500000 -66.68130000 35.59190000
9.81030000 -67.90900000 35.77550000
9.37740000 -67.52960000 35.81170000
9.89520000 -62.86480000 33.59390000
9.31550000 -62.83910000 33.69410000
8.63820000 -64.05410000 34.74670000
7.61450000 -64.12770000 35.00920000
8.44210000 -64.40070000 34.97820000
5.78430000 -65.08510000 35.90760000
7.37930000 -62.30540000 33.51870000
7.97170000 -62.12460000 33.08160000
5.29450000 -62.22920000 33.85030000
7.28860000 -62.02290000 33.05260000
8.28470000 -62.82890000 33.94060000
7.61320000 -62.61770000 33.87500000
7.59170000 -63.03040000 34.31940000
5.67090000 -62.80670000 34.50730000
8.95630000 -67.11140000 35.84120000
7.76570000 -67.22330000 36.14160000
7.83140000 -65.57660000 35.69950000
7.98270000 -65.19550000 35.49670000
6.97390000 -65.70520000 35.93370000
8.73090000 -64.71140000 35.08180000
6.82940000 -62.48020000 33.89330000
5.58900000 -62.52200000 34.20140000
7.65670000 -61.75050000 32.42610000
8.43810000 -61.55590000 31.83700000
6.05080000 -61.58880000 32.38810000
8.04610000 -61.31810000 31.37860000
6.72950000 -63.93480000 35.08960000
7.03450000 -63.42160000 34.72890000
5.35650000 -64.14010000 35.46220000
4.89780000 -63.40450000 35.10100000
6.83450000 -61.93130000 32.97030000
5.83380000 -61.97120000 33.26240000
6.69800000 -67.36560000 36.38680000
6.39400000 -66.98030000 36.36460000
6.07260000 -67.81000000 36.61050000
4.67760000 -67.51880000 36.77100000
6.36350000 -65.81140000 36.09740000
5.45360000 -65.64760000 36.20750000
6.48640000 -66.17200000 36.17540000
5.31900000 -66.06930000 36.34850000
6.79510000 -63.14390000 34.60140000
5.34100000 -63.06620000 34.80190000
5.62380000 -68.01380000 36.78830000
4.72440000 -67.91790000 36.92410000
6.06700000 -66.63920000 36.35660000
5.08300000 -66.68250000 36.53140000
5.19590000 -61.91660000 33.31330000
4.98220000 -61.77680000 33.06950000
4.64680000 -61.95050000 33.49010000
4.44980000 -61.82150000 33.25440000
4.12370000 -61.51490000 32.56200000
4.29440000 -61.71970000 33.03880000
3.74530000 -61.75350000 33.21560000
3.68510000 -67.79630000 36.98870000
3.21400000 -67.63010000 36.93830000
3.07870000 -67.84290000 37.07190000
1.60250000 -67.51110000 37.03940000
3.76240000 -61.99670000 33.62970000
3.49640000 -62.12660000 33.85540000
2.72710000 -62.04300000 33.77080000
4.03650000 -62.33090000 34.13750000
2.77010000 -62.38980000 34.32100000
3.95900000 -61.89330000 33.45930000
4.48610000 -65.58120000 36.33320000
3.92740000 -65.30600000 36.28370000
4.13980000 -65.88430000 36.47020000
2.45800000 -65.60610000 36.57500000
3.69890000 -63.01420000 34.95740000
3.16540000 -62.87460000 34.87070000
2.81590000 -63.15640000 35.15550000
0.58150000 -62.96670000 35.18350000
4.02290000 -64.14600000 35.64600000
3.18920000 -63.69500000 35.47790000
3.53710000 -64.55040000 35.91800000
1.54990000 -64.02750000 35.82460000
2.24010000 -63.39250000 35.37230000
1.00820000 -63.44950000 35.50150000
4.60530000 -62.50520000 34.31860000
4.05910000 -62.61660000 34.49560000
4.18960000 -66.40910000 36.59230000
3.68240000 -66.62270000 36.69050000
2.96440000 -62.72430000 34.72190000
1.79860000 -62.67410000 34.77610000
3.36080000 -66.85550000 36.74750000
2.66410000 -66.51130000 36.73100000
3.49200000 -67.34800000 36.82140000
2.62540000 -67.07130000 36.82380000
3.01850000 -67.51610000 36.89620000
2.23630000 -67.33710000 36.91680000
2.07210000 -61.94420000 33.67530000
1.66760000 -61.72540000 33.31980000
1.79220000 -62.07750000 33.93100000
0.75470000 -61.74200000 33.42190000
1.27690000 -61.53790000 32.94010000
0.57520000 -61.43830000 32.73670000
1.32530000 -62.22150000 34.21330000
0.61240000 -62.12730000 34.12230000
1.38340000 -62.44440000 34.54420000
0.07960000 -62.47750000 34.69370000
1.10870000 -62.62300000 34.79670000
0.23490000 -62.70920000 34.96200000
2.26010000 -67.86660000 37.15500000
1.06830000 -67.74710000 37.17930000
2.60880000 -68.01600000 37.27600000
0.63450000 -67.91440000 37.37990000
2.86140000 -68.12550000 37.53070000
2.05590000 -68.11300000 37.71940000
0.36620000 -60.74110000 31.06830000
-0.05390000 -60.94250000 31.48460000
8.73330000 -60.25190000 28.92660000
8.27500000 -60.42940000 29.35480000
7.63060000 -60.80590000 30.31120000
6.40150000 -60.55960000 30.00580000
5.04390000 -60.16710000 29.39240000
4.24990000 -60.51380000 30.31720000
3.60020000 -60.89400000 31.26670000
-11.31690000 32.47080000 -36.65090000
-11.28860000 30.91240000 -36.64990000
-11.34680000 33.31260000 -36.64980000
-11.63270000 33.66620000 -36.55520000
-11.13660000 33.95000000 -36.72640000
-11.42410000 34.30630000 -36.63040000
-13.25050000 31.96710000 -35.91500000
-12.91170000 33.41420000 -36.05570000
-15.23990000 35.17300000 -35.06050000
-15.97980000 35.39170000 -34.71210000
-14.80640000 36.74780000 -35.26750000
-15.80880000 39.34190000 -34.82990000
-9.36040000 34.13980000 -37.25150000
-9.94680000 35.84880000 -37.09540000
-8.94190000 46.17800000 -37.46310000
-9.12970000 44.17750000 -37.39040000
-10.31760000 50.82680000 -37.07020000
-9.88090000 45.22540000 -37.16810000
-10.52630000 36.64490000 -36.92040000
-10.99910000 35.54430000 -36.77080000
-10.61450000 38.80580000 -36.89620000
-11.70070000 37.38720000 -36.53700000
-11.21950000 34.95300000 -36.70190000
-11.50540000 35.30650000 -36.60730000
-10.54040000 46.43490000 -36.96660000
-10.64040000 44.17610000 -36.91590000
-11.16770000 49.53790000 -36.78030000
-11.98330000 48.66960000 -36.49300000
-11.71560000 34.66910000 -36.53070000
-11.99330000 34.78760000 -36.42310000
-10.92490000 41.89850000 -36.81220000
-11.66740000 42.61100000 -36.57310000
-12.51870000 34.75360000 -36.21490000
-12.74900000 35.99730000 -36.12830000
-12.98160000 37.37820000 -36.04880000
-13.65160000 37.55310000 -35.78010000
-12.60190000 39.29630000 -36.21050000
-13.48100000 40.49470000 -35.87260000
-12.29850000 42.20570000 -36.34430000
-12.70120000 44.02520000 -36.20070000
-13.28960000 44.60240000 -35.97690000
-14.00690000 42.68630000 -35.67930000
-13.36560000 46.76930000 -35.95550000
-14.58180000 44.87470000 -35.46040000
-14.63690000 41.35100000 -35.39390000
-14.56360000 39.72830000 -35.40070000
-15.17490000 42.10600000 -35.16790000
-14.35860000 38.02380000 -35.47660000
-15.60100000 43.29730000 -34.99330000
-16.10550000 43.01660000 -34.74820000
-15.46790000 45.47660000 -35.07990000
-16.19810000 46.26720000 -34.74610000
-16.67030000 43.39170000 -34.46890000
-16.92650000 41.80420000 -34.30680000
-16.93450000 45.39990000 -34.36430000
-17.91910000 44.34460000 -33.82170000
-10.33260000 44.89420000 -47.41800000
-11.04500000 46.11560000 -47.26670000
-7.06620000 45.72440000 -38.01000000
-7.71230000 46.05530000 -37.84010000
-12.81460000 50.65510000 -46.85450000
-12.22620000 46.50670000 -46.97350000
-12.71060000 45.18260000 -46.82460000
-13.22270000 46.36510000 -46.68710000
-13.94460000 46.65150000 -46.47050000
-14.22920000 48.58710000 -46.39750000
-17.08800000 46.15760000 -45.33310000
-17.32100000 47.46650000 -45.24770000
-17.51020000 48.83610000 -45.18780000
-16.84590000 49.27050000 -45.47150000
-18.36670000 49.94600000 -44.85080000
-17.82590000 51.64290000 -45.11150000
-15.27750000 47.97860000 -35.18150000
-15.57940000 49.38240000 -35.05020000
-14.63050000 48.68580000 -35.46040000
-14.81860000 52.09610000 -35.39280000
-9.92790000 51.66140000 -47.65900000
-10.73360000 51.59480000 -47.44930000
-11.62910000 47.69810000 -47.13950000
-11.50980000 50.08900000 -47.19980000
-11.41890000 51.48550000 -47.26190000
-12.03850000 52.29670000 -47.12010000
-12.00520000 57.15420000 -47.22990000
-12.32780000 58.93150000 -47.15910000
-12.43220000 56.11990000 -47.09470000
-13.52700000 58.20340000 -46.80090000
-12.80040000 53.19310000 -46.92120000
-12.89500000 54.28680000 -46.91990000
-13.56600000 53.13680000 -46.67970000
-14.32450000 54.81710000 -46.48850000
-13.04750000 55.59910000 -46.90390000
-13.97150000 56.38050000 -46.63530000
-14.32800000 53.05860000 -46.42180000
-15.10420000 53.89150000 -46.19220000
-14.38760000 51.82700000 -46.36820000
-15.73790000 52.58540000 -45.92920000
-14.96160000 56.40940000 -46.31370000
-15.21180000 57.04530000 -46.23660000
-15.55250000 55.43770000 -46.09720000
-16.85240000 55.66210000 -45.64780000
-14.70510000 50.14440000 -46.25230000
-15.64550000 49.90870000 -45.93670000
-15.77420000 54.55550000 -45.99110000
-16.38260000 54.14040000 -45.75780000
-15.46730000 57.61450000 -46.15810000
-14.74130000 58.69660000 -46.40950000
-16.36010000 57.31750000 -45.84200000
-15.98050000 59.21490000 -45.97450000
-13.07110000 62.64310000 -46.94780000
-13.24710000 60.46980000 -46.89920000
-14.10400000 60.04310000 -46.62300000
-14.45700000 60.93890000 -46.49930000
-16.43040000 50.28160000 -45.64700000
-16.75590000 52.05220000 -45.54070000
-16.90020000 53.41050000 -45.53330000
-17.42420000 53.66740000 -45.34940000
-16.98200000 57.25440000 -45.59270000
-17.13970000 58.38190000 -45.51260000
-17.48120000 56.53710000 -45.38680000
-18.05890000 57.65340000 -45.11460000
-17.94400000 53.90840000 -45.15360000
-17.97790000 54.95360000 -45.17430000
-18.43900000 53.15750000 -44.92170000
-19.20090000 54.26340000 -44.62030000
-17.98060000 55.81710000 -45.17620000
-18.43170000 55.83030000 -44.96740000
-17.63860000 60.22470000 -45.29680000
-17.36050000 61.52600000 -45.40690000
-18.34780000 60.84350000 -44.99010000
-18.91230000 64.35390000 -44.74090000
-20.11480000 51.62810000 -44.18550000
-18.99890000 51.80980000 -44.65470000
-19.02390000 50.76800000 -44.61030000
-19.69310000 50.25390000 -44.31450000
-14.82230000 62.02550000 -46.36240000
-14.33860000 63.36410000 -46.51470000
-15.80340000 61.91710000 -46.00970000
-15.60960000 64.06800000 -46.04490000
15.75590000 -61.94500000 46.69040000
14.96640000 -62.21810000 46.93240000
15.99600000 -61.24870000 46.60240000
14.76390000 -61.16820000 46.99170000
14.74860000 -69.58650000 45.95530000
14.16680000 -69.07200000 46.19410000
16.22120000 -60.11800000 46.48040000
15.69080000 -59.39940000 46.61740000
14.88980000 -58.65850000 46.83010000
14.03670000 -59.25120000 47.12730000
14.91520000 -57.37210000 46.76370000
13.23240000 -57.16090000 47.27220000
15.14470000 -64.20790000 46.73810000
14.50820000 -64.09580000 46.94550000
14.13210000 -67.19650000 46.52130000
13.96630000 -68.05370000 46.39400000
13.00770000 -66.84280000 46.92940000
12.06260000 -68.05060000 46.95160000
13.54810000 -63.93700000 47.25110000
12.71520000 -64.43420000 47.43790000
13.49170000 -63.25940000 47.32350000
11.30790000 -63.46740000 47.92110000
13.41570000 -68.76370000 46.45090000
12.12130000 -69.00270000 46.79820000
13.85360000 -62.62490000 47.25000000
13.20680000 -62.38210000 47.44210000
12.07540000 -66.48600000 47.25360000
11.27720000 -67.01100000 47.35540000
12.12160000 -65.62070000 47.40300000
10.41460000 -65.87250000 47.76350000
13.24460000 -59.79280000 47.39120000
13.15870000 -60.98720000 47.45870000
12.43480000 -59.06200000 47.58350000
11.65220000 -60.57120000 47.85180000
12.67370000 -61.93220000 47.60110000
11.48740000 -62.01090000 47.90810000
10.88650000 -67.43470000 47.36730000
11.13460000 -68.20650000 47.16540000
10.28030000 -67.10870000 47.55110000
11.92890000 -64.89230000 47.57970000
10.88370000 -64.68720000 47.86180000
11.39550000 -68.85700000 47.01080000
9.89860000 -64.51430000 48.08860000
9.19200000 -65.05180000 48.12660000
9.60520000 -64.00010000 48.21460000
7.95600000 -64.33990000 48.43960000
9.31950000 -67.04960000 47.71730000
8.76110000 -67.59100000 47.69570000
8.81100000 -66.43510000 47.92020000
7.14310000 -67.02200000 48.04380000
8.49550000 -68.94870000 47.57300000
8.53240000 -68.37300000 47.61700000
8.16930000 -67.93540000 47.73190000
7.00660000 -67.81270000 47.92670000
9.22910000 -63.71310000 48.32240000
8.19440000 -63.69610000 48.49470000
9.51730000 -63.30320000 48.29980000
8.24380000 -63.15780000 48.52190000
10.25020000 -61.71400000 48.18510000
9.60530000 -62.14800000 48.31280000
9.92210000 -60.73900000 48.24130000
7.88470000 -60.79500000 48.64060000
8.47820000 -65.72290000 48.11250000
7.54430000 -65.67680000 48.25330000
9.14120000 -62.56100000 48.39650000
8.08460000 -62.25600000 48.58730000
17.86450000 -57.12710000 45.74110000
17.00350000 -56.46470000 46.05850000
18.46490000 -56.80500000 45.50390000
11.75630000 -58.47590000 47.72590000
11.00010000 -59.10550000 47.93950000
11.89080000 -57.13570000 47.62610000
10.41920000 -57.22850000 47.96930000
10.19440000 -55.62730000 47.92100000
9.90790000 -55.97460000 47.99510000
9.69550000 -56.40200000 48.07750000
9.39820000 -54.44740000 47.96530000
9.15070000 -55.28190000 48.07040000
8.65090000 -55.63450000 48.20350000
9.99230000 -59.67260000 48.18520000
9.10480000 -59.17780000 48.32910000
9.15600000 -56.34640000 48.17980000
8.90390000 -56.68210000 48.22610000
8.21080000 -55.74660000 48.30130000
7.22910000 -55.84470000 48.44740000
-5.42730000 51.68010000 -38.38160000
-5.85360000 50.93370000 -38.30110000
-5.65830000 52.74160000 -38.33750000
-6.86450000 51.82060000 -38.09100000
-6.41430000 50.23770000 -38.18150000
-7.33280000 50.17080000 -37.96830000
-5.61070000 54.85870000 -38.35310000
-6.11200000 55.55910000 -38.25900000
-8.57700000 47.35760000 -37.59130000
-8.78310000 49.38310000 -37.54650000
-8.36050000 50.34480000 -37.67670000
-8.56220000 51.35910000 -37.61350000
-8.47710000 52.95330000 -37.65060000
-9.28490000 54.17140000 -37.40900000
-7.52450000 54.22610000 -37.92860000
-8.07410000 57.40520000 -37.78730000
-10.11750000 56.07680000 -37.14560000
-11.07510000 55.80150000 -36.82920000
-9.93010000 58.78870000 -37.20320000
-11.69660000 60.04440000 -36.61920000
-11.83770000 51.76760000 -36.55530000
-12.51590000 52.54640000 -36.31320000
-11.85840000 53.41890000 -36.54910000
-12.79790000 55.02940000 -36.21440000
-11.85080000 55.62070000 -36.55950000
-12.53240000 57.36280000 -36.31840000
-13.75310000 48.94500000 -35.81110000
-13.53450000 51.15790000 -35.90480000
-13.60890000 56.27050000 -35.91300000
-13.23810000 54.04890000 -36.04650000
-14.64300000 57.59970000 -35.49990000
-13.37750000 53.55200000 -35.98580000
-6.71440000 56.02490000 -38.12700000
-6.61970000 58.14980000 -38.14150000
-5.87980000 61.15790000 -38.31040000
-6.50750000 59.70400000 -38.17000000
-6.34130000 61.94170000 -38.21230000
-7.01440000 59.91340000 -38.05980000
-12.55600000 60.39310000 -47.10460000
-12.12930000 61.36830000 -47.22580000
-8.90940000 62.36840000 -37.51990000
-9.77570000 61.78170000 -37.24540000
-9.47090000 67.24430000 -37.32580000
-10.58480000 63.58300000 -36.97800000
-13.19590000 59.18940000 -36.07060000
-13.25120000 57.90200000 -36.05060000
-12.99880000 60.50330000 -36.14670000
-13.64170000 60.65600000 -35.89450000
-12.13140000 62.04070000 -36.46350000
-12.59800000 63.55250000 -36.29160000
-7.91480000 71.44980000 -47.30970000
-8.95750000 71.45910000 -47.00430000
-7.76040000 66.54560000 -48.08580000
-8.63370000 67.09740000 -47.92000000
-8.92290000 68.05110000 -47.86240000
-9.66310000 68.30910000 -47.68620000
-8.74750000 70.82960000 -47.79950000
-9.65010000 70.75890000 -47.60550000
-8.00170000 70.71350000 -47.99410000
-9.53290000 61.72030000 -47.86900000
-8.91420000 62.52750000 -48.00720000
-10.92010000 64.03000000 -47.52930000
-9.26600000 63.96810000 -47.91370000
-7.48580000 70.66570000 -48.12200000
-10.13920000 61.02250000 -47.72840000
-11.00900000 61.84820000 -47.52120000
-9.63150000 64.80240000 -47.79660000
-10.62980000 65.06370000 -47.53630000
-8.61440000 71.53750000 -46.31790000
-6.83860000 71.55390000 -46.34850000
-9.58820000 71.58340000 -45.50940000
-6.18180000 71.57960000 -45.99330000
-10.43630000 68.96040000 -47.48820000
-10.45900000 70.17320000 -47.45930000
-11.21860000 68.58410000 -47.29200000
-11.96550000 70.41940000 -47.06730000
-10.46710000 70.71560000 -47.42320000
-11.14480000 70.86230000 -47.23330000
-11.70370000 62.34280000 -47.34210000
-11.98840000 63.41070000 -47.25770000
-9.42250000 71.49780000 -46.51500000
-9.95380000 71.49990000 -46.31190000
-11.64650000 71.29030000 -46.84420000
-12.05160000 71.36180000 -46.62740000
-12.23440000 71.23580000 -46.74900000
-14.21800000 71.33260000 -46.06700000
-11.65760000 65.29650000 -47.23990000
-12.19270000 65.89020000 -47.04690000
-12.25190000 65.06010000 -47.09850000
-13.60890000 65.78030000 -46.64280000
-12.08910000 71.41590000 -46.47630000
-11.12600000 71.45500000 -46.52420000
-13.20650000 71.43060000 -46.09040000
-12.42390000 71.50080000 -45.93030000
-11.72940000 71.07760000 -47.01720000
-12.42250000 71.17710000 -46.75620000
-12.77550000 71.01160000 -46.74310000
-13.34330000 71.18800000 -46.48120000
-10.54730000 71.50220000 -46.24320000
-11.22080000 71.54520000 -45.71860000
-11.62760000 70.94740000 -47.09570000
-12.30370000 70.83800000 -46.93370000
-12.47830000 64.00820000 -47.10710000
-12.43710000 64.48780000 -47.09740000
-13.27710000 63.94560000 -46.86690000
-13.77740000 64.72150000 -46.67360000
-12.99390000 66.66590000 -46.79770000
-12.80690000 67.25820000 -46.84370000
-14.19590000 66.88420000 -46.43750000
-14.80350000 68.33580000 -46.23700000
-12.04630000 68.85500000 -47.07050000
-12.85790000 69.97760000 -46.83710000
-12.29130000 68.21660000 -47.00160000
-13.47320000 69.53460000 -46.66340000
-12.76470000 71.56720000 -45.03860000
-12.46450000 71.59180000 -44.62760000
-14.14970000 71.54990000 -44.88820000
-15.97350000 71.58460000 -43.63090000
-12.75330000 64.91910000 -46.97340000
-13.73610000 65.22520000 -46.64690000
-12.99530000 68.10270000 -46.79480000
-14.04410000 69.03730000 -46.49250000
-14.04890000 64.04090000 -46.60890000
-14.66750000 64.55760000 -46.37720000
-13.62250000 70.35540000 -46.60540000
-13.47890000 70.51760000 -46.62880000
-14.26150000 70.09210000 -46.42030000
-14.92130000 70.36640000 -46.17710000
-13.17300000 70.69270000 -46.69570000
-13.76580000 70.74030000 -46.49670000
-14.78480000 65.51560000 -46.26350000
-15.16510000 66.01690000 -46.10320000
-15.19710000 65.34910000 -46.13200000
-16.76810000 66.15380000 -45.51000000
-15.39230000 65.06750000 -46.08500000
-16.26740000 65.14230000 -45.75380000
-14.57140000 69.60310000 -46.32970000
-15.13050000 69.56690000 -46.12710000
-15.34940000 70.78420000 -45.96780000
-14.38690000 70.84690000 -46.27450000
-15.60620000 71.08040000 -45.80310000
-14.14870000 71.04870000 -46.29950000
-14.15190000 71.17340000 -46.24380000
-15.02650000 71.22480000 -45.92390000
-15.89680000 71.26110000 -45.59340000
-16.10390000 71.32910000 -45.43020000
-16.56970000 71.20530000 -45.39020000
-17.64510000 71.29700000 -44.88380000
-15.31450000 71.53540000 -44.75070000
-17.03490000 71.54770000 -43.96620000
-14.76880000 71.50140000 -45.26830000
-17.34670000 71.49540000 -44.42080000
-14.54020000 71.45390000 -45.59350000
-15.71250000 71.42500000 -45.32200000
-16.84220000 62.56710000 -45.60150000
-17.13720000 64.15350000 -45.45530000
-16.48570000 71.39120000 -45.15410000
-17.50990000 71.40920000 -44.71160000
-17.16370000 65.03190000 -45.41490000
-17.81180000 65.31870000 -45.13920000
-15.18450000 66.73790000 -46.09810000
-15.89820000 67.42210000 -45.83470000
-15.98350000 69.89880000 -45.79170000
-16.33010000 70.50020000 -45.64250000
-16.35680000 69.42490000 -45.64510000
-17.86730000 70.59960000 -45.01930000
-16.24850000 70.80520000 -45.64620000
-16.74510000 70.99440000 -45.42000000
19.05830000 -56.13380000 45.25370000
17.18620000 -53.06150000 45.96510000
16.93420000 -53.74270000 46.07630000
16.82200000 -52.90800000 46.07620000
15.71240000 -54.18520000 46.49220000
16.57470000 -52.73950000 46.15040000
15.85130000 -53.02420000 46.40250000
16.82680000 -52.07890000 46.04240000
15.96210000 -52.24770000 46.33750000
17.43000000 -49.28790000 45.68990000
16.34040000 -49.09780000 46.05710000
16.90040000 -54.37250000 46.09300000
16.50300000 -54.96640000 46.23120000
17.21040000 -50.77600000 45.90100000
16.88040000 -51.13860000 46.01900000
16.61660000 -50.36960000 46.10290000
15.51040000 -50.65410000 46.48080000
16.44200000 -55.72880000 46.25850000
15.95360000 -55.89690000 46.42340000
16.62710000 -51.54140000 46.10920000
15.91690000 -51.52670000 46.35100000
15.09740000 -56.25330000 46.69150000
14.42200000 -55.49180000 46.89430000
15.53320000 -50.02210000 46.45580000
14.33100000 -49.96670000 46.84440000
15.31530000 -49.70350000 46.49800000
12.94590000 -49.37360000 47.23210000
13.95510000 -54.37590000 47.01330000
13.11530000 -54.69610000 47.24960000
14.45460000 -53.28400000 46.84470000
13.22140000 -52.13450000 47.16780000
15.01510000 -52.78680000 46.65680000
14.87730000 -52.13820000 46.67540000
15.45510000 -48.89290000 46.33710000
15.54880000 -49.19190000 46.34260000
14.45930000 -48.38480000 46.62110000
13.96090000 -48.55670000 46.78710000
14.90420000 -49.31510000 46.58650000
13.62290000 -48.98710000 46.95820000
15.06750000 -51.58880000 46.61560000
14.33220000 -51.15980000 46.83600000
12.25920000 -55.46420000 47.48650000
11.85690000 -54.55070000 47.56640000
13.23300000 -50.19090000 47.14920000
13.25580000 -50.67100000 47.14320000
10.74180000 -49.84070000 47.80720000
12.18320000 -50.74750000 47.44180000
12.82170000 -48.77880000 47.12400000
12.12080000 -48.88280000 47.31670000
12.85760000 -48.47720000 47.04630000
11.73090000 -48.43890000 47.26780000
13.13820000 -49.86960000 47.19150000
11.88740000 -49.53940000 47.53190000
11.40820000 -53.50030000 47.65060000
10.68410000 -54.16510000 47.82820000
11.64680000 -51.86200000 47.56330000
10.31730000 -51.78620000 47.84770000
13.02030000 -48.17930000 47.00180000
12.63670000 -48.05840000 47.07680000
13.58640000 -48.07340000 46.88270000
13.33650000 -47.69850000 46.95780000
10.33340000 -54.44920000 47.87810000
10.15260000 -53.34670000 47.87020000
8.92440000 -48.77330000 48.09680000
10.85350000 -49.08100000 47.71290000
11.08520000 -48.88450000 47.58060000
10.40310000 -48.63090000 47.66390000
10.77270000 -49.26830000 47.77890000
9.80540000 -49.25240000 47.98490000
11.48530000 -50.89540000 47.61180000
10.45780000 -50.70280000 47.83630000
10.14830000 -48.37150000 47.64560000
9.52760000 -48.29920000 47.80360000
10.78310000 -48.19290000 47.42490000
10.18320000 -47.73780000 47.54500000
9.80750000 -53.03830000 47.92910000
9.14360000 -53.57780000 48.03300000
9.43540000 -52.43260000 48.00530000
8.45900000 -52.96650000 48.16590000
17.05550000 -40.08650000 45.38250000
18.07640000 -40.41310000 44.96850000
18.34880000 -39.71470000 44.93680000
18.12430000 -39.30350000 45.07400000
17.64070000 -44.25150000 45.30060000
16.98660000 -44.44670000 45.57820000
16.70230000 -43.67650000 45.62040000
14.24850000 -43.61880000 46.57860000
18.23380000 -41.16720000 44.86580000
17.78380000 -41.36430000 45.03170000
17.49200000 -45.85260000 45.38370000
16.47270000 -46.24790000 45.77060000
17.09150000 -45.20130000 45.55400000
15.01980000 -45.31670000 46.36080000
16.05530000 -42.93380000 45.79710000
14.70550000 -42.39940000 46.25370000
16.98860000 -41.39270000 45.31710000
16.13190000 -40.65940000 45.66840000
16.27420000 -44.65090000 45.86540000
14.90130000 -44.47490000 46.38750000
15.73210000 -46.81450000 46.06580000
14.81590000 -46.65350000 46.45010000
14.21090000 -46.61210000 46.72100000
13.95600000 -47.20800000 46.83040000
14.08210000 -45.96450000 46.77500000
13.30890000 -46.65130000 47.07630000
14.31780000 -44.52980000 46.60650000
14.26580000 -44.99940000 46.64430000
13.98110000 -44.37520000 46.70320000
13.67160000 -45.02100000 46.81740000
13.96370000 -48.05840000 46.77330000
13.93430000 -47.80420000 46.79260000
13.77140000 -47.45190000 46.88660000
13.36200000 -47.26540000 47.01460000
15.87350000 -39.18200000 45.86550000
15.55200000 -39.79790000 45.93110000
14.65200000 -38.17150000 46.34590000
14.72650000 -39.63760000 46.19890000
13.49130000 -41.73240000 46.58130000
12.80880000 -41.92710000 46.82130000
13.05450000 -40.89410000 46.60790000
11.14240000 -40.46670000 47.11840000
14.01440000 -45.52910000 46.78010000
13.51920000 -45.75670000 46.94880000
13.44400000 -44.44940000 46.83600000
12.99570000 -44.87940000 46.95880000
13.14700000 -44.24000000 46.90900000
12.23160000 -44.80240000 47.16100000
11.40010000 -39.25150000 47.03800000
13.10050000 -38.77350000 46.67970000
12.92670000 -38.27550000 46.77030000
12.05170000 -38.34630000 46.96820000
13.61170000 -37.71770000 46.67500000
12.66660000 -37.34240000 46.93600000
13.63210000 -39.52480000 46.48900000
13.08370000 -40.11250000 46.58080000
12.89180000 -47.37360000 47.07610000
12.65230000 -47.70750000 47.06610000
12.55550000 -47.22240000 47.15310000
11.90900000 -47.72170000 47.17730000
12.81040000 -45.97820000 47.12400000
12.35730000 -46.50630000 47.25220000
12.58980000 -45.65870000 47.11660000
11.40500000 -46.35950000 47.41780000
12.35430000 -47.98460000 47.10950000
11.79080000 -48.10560000 47.19710000
12.12730000 -46.98280000 47.25430000
11.56060000 -47.16620000 47.31040000
12.47530000 -40.29770000 46.73540000
11.29880000 -39.87730000 47.04390000
12.42950000 -45.37080000 47.12000000
11.77140000 -45.52430000 47.30730000
12.32300000 -42.05960000 46.96740000
12.65970000 -42.78770000 46.95110000
11.47420000 -41.61930000 47.12450000
11.53360000 -42.49090000 47.19980000
11.76780000 -43.77180000 47.35770000
12.84630000 -43.62050000 47.00950000
12.54530000 -43.17790000 47.04260000
11.81590000 -43.09390000 47.24120000
12.75240000 -44.03280000 47.03330000
12.08080000 -44.25820000 47.23640000
11.53620000 -44.55270000 47.44140000
11.39680000 -45.01870000 47.48080000
11.20310000 -44.49690000 47.58680000
10.61170000 -45.41310000 47.77330000
11.21870000 -48.07120000 47.29660000
11.05510000 -47.79620000 47.32760000
11.30750000 -45.48430000 47.49070000
10.91680000 -45.90030000 47.60970000
11.04530000 -47.38220000 47.37360000
10.72420000 -47.03380000 47.49400000
11.30500000 -43.31470000 47.42340000
11.12120000 -43.80420000 47.55510000
10.98740000 -43.19830000 47.45980000
10.47270000 -44.00570000 47.72060000
10.09470000 -45.07290000 47.91720000
10.89680000 -44.35560000 47.67910000
10.81300000 -44.22010000 47.69210000
10.29900000 -44.52420000 47.84780000
10.83710000 -44.60330000 47.71940000
10.33340000 -45.20940000 47.86810000
10.60640000 -46.49100000 47.61390000
10.27370000 -46.63750000 47.68700000
8.85790000 -47.65630000 47.98470000
9.50910000 -47.74650000 47.78030000
9.84840000 -47.00100000 47.77310000
9.79450000 -46.55050000 47.87820000
9.69590000 -43.08910000 47.54830000
10.67620000 -42.61210000 47.35030000
10.82710000 -41.88980000 47.25740000
10.44520000 -41.67680000 47.31900000
9.50760000 -37.84190000 47.50540000
10.37100000 -38.54210000 47.29290000
11.16870000 -38.23000000 47.15960000
11.09670000 -37.70270000 47.20620000
10.59480000 -43.15500000 47.47880000
10.13200000 -43.64550000 47.63700000
-4.52230000 66.24580000 -38.52060000
-5.08340000 66.91030000 -38.43590000
-5.50910000 62.53720000 -38.38690000
-5.76640000 63.45490000 -38.33100000
-5.65580000 67.70170000 -38.33430000
-5.98510000 67.13590000 -38.27560000
-5.77580000 68.69060000 -38.30560000
-6.74200000 68.88310000 -38.11380000
-7.37930000 64.10580000 -37.96120000
-6.31130000 64.81090000 -38.20480000
-6.44780000 66.20900000 -38.17820000
-7.17640000 66.69160000 -38.00710000
-6.26580000 63.81910000 -38.22040000
-6.82560000 62.76030000 -38.10240000
-7.26420000 60.98590000 -38.00360000
-7.78330000 61.15590000 -37.86700000
-8.34220000 62.92150000 -37.69470000
-8.32200000 65.52890000 -37.68620000
-7.93940000 67.15140000 -37.79110000
-8.05760000 68.41390000 -37.75510000
-11.25660000 63.92700000 -36.75540000
-11.08630000 65.48070000 -36.80600000
-11.12600000 66.78930000 -36.79920000
-11.93250000 66.57790000 -36.53680000
-10.38880000 68.24010000 -37.04510000
-11.16810000 68.78370000 -36.81210000
-3.81520000 69.04350000 -38.56950000
-4.75610000 69.08460000 -38.47490000
-5.81250000 70.44280000 -38.75300000
-6.53440000 70.30160000 -38.50080000
-6.10580000 70.52780000 -38.79080000
-7.94920000 70.39610000 -38.28730000
-5.79450000 71.59630000 -45.63440000
-7.86360000 71.60680000 -45.12400000
-5.50530000 69.17660000 -38.36110000
-5.80700000 69.45260000 -38.31150000
-5.93120000 70.90340000 -39.68930000
-6.39090000 70.83760000 -39.39980000
-6.91370000 71.01970000 -39.91520000
-8.59520000 70.98050000 -39.42680000
-10.59570000 71.60520000 -44.59620000
-11.48460000 71.60580000 -44.05920000
-6.74680000 70.58910000 -38.76260000
-8.00570000 70.57910000 -38.52580000
-6.55650000 70.68370000 -38.96370000
-8.18440000 70.70100000 -38.71030000
-7.00220000 70.78380000 -39.13760000
-8.32500000 70.82250000 -38.99440000
-6.33740000 69.57640000 -38.21450000
-7.18890000 69.42590000 -38.02570000
-6.11570000 69.68740000 -38.28100000
-7.68570000 69.64410000 -37.95260000
-5.92470000 69.85560000 -38.38020000
-6.52830000 69.97130000 -38.31770000
-6.97710000 71.24850000 -40.90810000
-7.64210000 71.20370000 -40.58060000
-7.43830000 71.34050000 -41.30630000
-10.35430000 71.36320000 -40.84110000
-8.03030000 71.13910000 -40.21810000
-9.42370000 71.17010000 -40.07390000
-6.98800000 70.10880000 -38.30590000
-7.66710000 70.05050000 -38.14070000
-7.00850000 71.41470000 -41.88790000
-8.46860000 71.46320000 -41.94860000
-9.50820000 71.59220000 -43.10810000
-10.98850000 71.56500000 -42.32250000
-11.52630000 71.60760000 -43.10050000
-17.49990000 71.59600000 -41.16330000
-9.13580000 70.63340000 -38.36710000
-9.74230000 70.60410000 -38.14320000
-9.54280000 70.73900000 -38.46930000
-11.48030000 70.79950000 -38.05270000
-8.29000000 70.01590000 -37.95040000
-8.72590000 69.81480000 -37.72090000
-8.93490000 70.17110000 -37.84460000
-10.03900000 69.92520000 -37.36050000
-7.97950000 69.04390000 -37.80060000
-8.65500000 68.93120000 -37.60680000
-9.39130000 70.82810000 -38.74200000
-10.05390000 70.90090000 -38.78060000
-9.51400000 68.96060000 -37.33870000
-9.51590000 69.34880000 -37.36390000
-10.73720000 71.17090000 -39.71880000
-10.89470000 71.07060000 -39.19230000
-11.90590000 71.25860000 -39.83410000
-13.40370000 71.14860000 -38.79570000
-11.02720000 70.97940000 -38.79450000
-12.43480000 70.98000000 -38.38490000
-11.21080000 71.51210000 -41.77070000
-13.58860000 71.49990000 -41.14000000
-9.50730000 69.60120000 -37.41540000
-10.53330000 69.55180000 -37.08740000
-11.73100000 69.47390000 -36.66140000
-12.54250000 68.78200000 -36.34150000
-12.06550000 69.60640000 -36.56500000
-14.02220000 68.72040000 -35.80120000
-10.20660000 70.29240000 -37.55020000
-11.37720000 70.21490000 -37.14100000
-10.53740000 70.44250000 -37.60020000
-13.41530000 70.46480000 -36.70100000
-10.80250000 70.57100000 -37.74460000
-12.23810000 70.63590000 -37.41550000
-13.20480000 71.34070000 -39.91890000
-14.55920000 71.32290000 -39.40360000
-13.57590000 71.42930000 -40.39740000
-16.20930000 71.46430000 -39.77570000
-13.91740000 70.75010000 -37.05740000
-13.50580000 70.66520000 -37.01650000
-16.06650000 70.71700000 -36.13400000
-14.63680000 70.61510000 -36.47630000
18.14240000 -37.91030000 45.28000000
18.19270000 -38.39540000 45.16780000
17.41490000 -37.58550000 45.59620000
17.12630000 -38.18350000 45.57230000
17.89060000 -38.95940000 45.20220000
17.14440000 -39.07010000 45.45370000
16.33900000 -38.81710000 45.74520000
15.95710000 -38.12150000 45.95150000
16.41370000 -37.07460000 46.00390000
15.84290000 -37.16590000 46.15190000
16.11100000 -36.58770000 46.19240000
14.38680000 -36.09860000 46.78120000
15.40670000 -37.38400000 46.24300000
14.53180000 -37.07830000 46.55810000
13.91430000 -37.11550000 46.71020000
13.54130000 -36.69030000 46.87740000
20.47610000 -28.71710000 44.91830000
19.94170000 -28.65600000 45.11270000
19.26600000 -36.58590000 44.95310000
18.53990000 -36.43310000 45.26720000
21.13150000 -26.66150000 44.80810000
20.48940000 -26.62430000 45.08210000
17.27280000 -33.04520000 45.54120000
18.43050000 -33.73010000 45.13640000
19.09170000 -33.58990000 44.82170000
18.88840000 -33.23730000 44.84170000
18.72930000 -32.92720000 44.82450000
17.96820000 -32.66040000 45.11440000
19.77620000 -31.80130000 44.30180000
18.93730000 -31.70240000 44.62810000
19.34990000 -30.22230000 44.79430000
18.86180000 -30.41180000 44.84260000
19.29140000 -29.82360000 44.95500000
18.51300000 -29.87430000 45.11780000
19.15000000 -29.34640000 45.15730000
18.65840000 -29.14710000 45.33960000
19.33210000 -28.94730000 45.24790000
18.68950000 -28.37690000 45.59310000
19.51880000 -28.55510000 45.28400000
19.25550000 -28.09820000 45.47180000
16.66440000 -36.11170000 46.04590000
17.14890000 -36.51270000 45.86130000
17.91920000 -36.35770000 45.54130000
17.89200000 -36.00380000 45.53200000
19.65290000 -26.74630000 45.42710000
19.03920000 -27.35500000 45.65360000
19.44200000 -26.27080000 45.53300000
17.94250000 -27.08500000 46.09470000
18.50040000 -34.95490000 45.17870000
18.01000000 -35.27140000 45.39600000
18.13580000 -34.51790000 45.29730000
16.74860000 -34.76820000 45.84410000
17.58070000 -35.60370000 45.61370000
16.74320000 -35.53310000 45.94610000
17.82610000 -34.02190000 45.39800000
16.97130000 -33.91460000 45.71180000
17.42670000 -32.39410000 45.29910000
16.88320000 -32.39410000 45.56180000
17.64480000 -32.08070000 45.13950000
16.60680000 -31.78050000 45.56160000
19.05330000 -25.87580000 45.72530000
18.04940000 -26.16320000 46.11930000
19.46470000 -25.21030000 45.58720000
17.90280000 -25.08070000 46.22360000
18.13410000 -31.71750000 44.94340000
17.81550000 -31.35570000 45.09370000
17.60470000 -28.18370000 45.97000000
17.90880000 -28.77740000 45.67590000
16.10290000 -27.92200000 46.46270000
17.42420000 -29.02600000 45.72560000
18.82210000 -27.74680000 45.69770000
18.24130000 -27.74660000 45.89680000
