27.33890000 113.33160000 -3.58820000
37.77980000 113.81640000 -6.56980000
34.71250000 113.84210000 -12.06720000
32.19640000 113.45540000 -14.54490000
28.64810000 113.25660000 -16.20240000
27.81590000 112.90580000 -2.21200000
35.83360000 113.62680000 1.22170000
24.48290000 112.03740000 -2.84400000
27.75310000 112.31080000 -1.30210000
32.53180000 113.02930000 0.81780000
46.98230000 113.98280000 11.24860000
32.42310000 111.23170000 2.66790000
40.69400000 111.86310000 9.22080000
46.91600000 113.36130000 13.54340000
15.95040000 111.32200000 -4.48240000
37.45410000 103.30500000 5.16430000
44.84420000 110.29910000 12.99500000
43.34210000 111.78300000 11.51070000
47.33460000 112.90640000 14.86090000
30.76840000 102.37260000 0.44040000
37.70360000 102.36420000 5.10980000
43.78330000 105.16720000 10.52380000
47.23200000 105.89200000 14.31810000
49.03530000 112.01550000 17.34400000
50.31020000 112.95350000 18.15630000
46.26330000 102.35390000 11.89970000
50.40080000 105.16480000 16.84080000
50.35090000 108.81980000 18.61650000
53.31870000 112.22400000 22.98510000
4.34330000 101.15450000 -18.83640000
2.15470000 100.03820000 -18.24360000
0.09080000 100.05200000 -17.40600000
-0.22160000 98.35160000 -17.50320000
-7.91160000 102.05390000 -15.21320000
6.76340000 102.26790000 -19.28750000
9.35270000 99.15270000 -19.67570000
3.65460000 98.32130000 -18.63320000
2.43510000 99.17900000 -18.02740000
1.29190000 99.42920000 -17.86450000
9.11540000 103.74780000 -19.49840000
9.66720000 102.61850000 -19.32150000
11.80610000 102.57530000 -19.79160000
12.20580000 93.21570000 -20.06110000
9.43210000 94.03430000 -19.74890000
21.31520000 111.40580000 -19.37680000
16.78320000 104.96310000 -19.77520000
17.37950000 98.95580000 -20.15960000
17.22620000 92.39210000 -20.38660000
9.52670000 91.24110000 -19.73110000
9.53960000 92.47350000 -19.47720000
24.50100000 111.87700000 -18.77840000
25.62990000 109.94270000 -18.46140000
24.58970000 106.55810000 -18.96340000
20.23260000 99.67020000 -19.94490000
20.31950000 96.88400000 -19.92660000
26.51030000 112.24510000 -18.10610000
27.48970000 111.70100000 -18.04720000
32.78810000 109.57920000 -15.91780000
29.86170000 105.46930000 -17.52220000
29.90180000 112.38650000 -16.88810000
32.26630000 112.08370000 -16.07610000
33.55940000 111.28190000 -15.59900000
34.99640000 112.51680000 -14.50550000
36.81630000 109.21660000 -13.87810000
35.33360000 107.92530000 -14.89820000
40.71040000 113.79860000 -9.29170000
43.67310000 113.12600000 -8.73080000
41.12330000 112.45150000 -10.80290000
37.17900000 111.59750000 -13.57980000
38.50760000 114.06250000 -8.03850000
41.62180000 114.08940000 -7.48730000
49.89140000 113.45690000 -3.82880000
50.72270000 99.85920000 -5.75200000
48.07330000 103.20600000 -6.99070000
46.74240000 114.36360000 -3.87860000
60.23240000 114.39170000 6.99930000
57.47380000 113.82180000 2.99410000
56.42210000 113.06410000 1.28130000
54.00270000 99.43930000 -3.33070000
49.23710000 99.21060000 -6.47250000
57.14620000 114.62840000 5.29060000
63.06220000 114.67690000 11.93730000
66.94110000 114.43850000 15.57490000
64.76910000 113.36650000 10.06650000
62.59800000 113.16110000 7.38560000
62.02800000 97.40660000 2.65370000
58.29610000 114.26810000 13.58260000
59.14150000 113.94410000 28.63770000
69.80380000 114.52460000 22.34890000
70.54940000 114.28740000 21.05700000
71.46930000 113.38660000 19.86520000
67.80030000 113.62770000 14.55600000
56.72280000 113.98410000 23.64470000
56.91740000 113.29460000 28.16070000
57.79860000 113.05470000 29.93170000
59.72220000 113.68190000 30.90820000
54.53470000 113.51540000 22.62560000
55.31100000 113.00000000 24.82280000
56.38810000 112.36730000 28.52420000
58.40710000 112.86350000 33.39110000
58.65420000 113.00900000 35.35500000
55.09860000 111.87430000 25.52050000
56.09000000 110.04110000 26.54620000
56.62690000 111.74840000 29.44620000
58.17580000 112.06150000 33.62360000
55.45660000 109.34850000 24.80770000
57.16010000 110.12820000 30.09420000
57.73870000 109.61130000 30.92510000
58.16330000 109.35510000 32.23400000
57.98030000 110.66600000 33.83400000
57.01750000 111.65620000 37.51660000
52.61690000 109.60740000 21.35670000
53.51160000 105.70630000 20.06800000
55.70670000 104.62550000 22.83840000
56.23270000 108.37110000 26.32760000
58.77600000 106.83760000 30.67530000
59.17670000 106.11310000 31.77390000
51.63010000 106.14250000 18.26800000
53.04140000 103.91170000 19.05360000
54.94220000 102.57020000 20.39870000
55.09680000 102.34320000 20.56100000
57.48660000 102.34030000 24.57840000
57.65510000 103.65390000 25.41330000
58.97450000 102.33860000 27.61560000
50.74280000 102.34850000 16.13150000
53.17370000 102.34560000 18.53440000
36.76750000 101.82420000 -14.71040000
34.47490000 98.78830000 -15.98420000
32.18530000 98.71310000 -17.13130000
43.45950000 96.33890000 -11.05630000
37.01730000 101.02270000 -14.40130000
35.31870000 99.03100000 -15.27200000
36.05710000 97.22770000 -15.26420000
35.70800000 88.06960000 -16.24970000
47.51550000 97.86920000 -8.21370000
52.03530000 92.92490000 -5.68080000
50.35450000 92.49890000 -7.09290000
41.66830000 95.31170000 -12.50310000
50.75870000 96.69510000 -6.05650000
53.07030000 93.84340000 -5.07540000
51.56270000 89.08750000 -6.40490000
50.69960000 87.91720000 -7.49840000
41.42740000 86.75210000 -13.45040000
40.85610000 89.65990000 -13.31730000
53.34100000 97.89540000 -3.81490000
56.59380000 91.71200000 -2.74660000
53.95500000 86.31460000 -5.56310000
51.86250000 87.41880000 -6.60020000
51.28920000 83.45670000 -7.16250000
47.88880000 83.72630000 -9.39090000
62.79670000 96.13690000 2.83930000
60.09840000 92.95570000 -0.05410000
60.76360000 90.62880000 -0.12620000
66.01880000 93.84710000 5.75030000
64.88560000 92.98850000 4.16850000
61.47690000 91.14900000 0.99610000
62.31880000 89.97010000 1.06390000
63.93200000 97.46280000 4.62960000
65.44110000 95.81770000 5.46990000
66.94920000 92.74180000 6.60230000
66.42230000 93.23600000 5.81220000
65.88420000 92.28660000 5.33080000
64.86180000 99.64490000 6.03970000
64.90410000 97.19270000 6.04630000
66.41920000 95.55510000 6.87710000
70.88780000 98.44540000 13.09530000
68.29730000 94.18550000 8.25850000
68.25130000 113.07550000 14.54170000
71.24770000 100.52020000 14.56720000
71.37930000 98.69110000 14.57390000
74.40240000 96.42190000 18.29850000
70.81170000 94.16980000 11.31010000
70.72030000 108.37080000 16.76970000
72.76750000 102.66780000 17.87160000
72.75220000 101.74170000 17.85210000
72.08620000 100.02390000 15.41030000
73.73780000 97.88040000 17.60130000
72.02470000 110.02420000 19.55920000
71.22490000 108.43790000 18.13860000
73.27400000 104.55210000 19.63880000
73.32850000 102.80300000 19.51890000
73.29480000 100.72230000 18.10800000
72.47900000 99.50820000 16.20950000
73.08070000 108.41820000 21.09010000
75.38520000 106.03900000 27.48180000
75.40360000 98.75640000 22.12800000
74.21030000 101.02730000 20.44490000
74.16730000 99.56690000 19.87190000
73.17390000 99.54100000 17.14940000
74.06570000 113.14500000 26.75290000
74.33100000 113.35790000 28.24180000
76.04660000 104.58530000 30.53830000
76.21620000 100.52990000 26.81510000
76.41200000 97.00930000 24.78380000
74.94180000 98.05710000 21.30170000
71.92210000 113.58420000 21.40600000
72.65630000 114.20730000 27.39820000
72.76950000 114.22830000 29.59600000
73.53900000 113.79250000 36.24550000
75.09500000 112.73320000 34.81720000
75.56960000 108.79340000 33.20610000
71.46300000 113.85790000 38.35000000
73.48300000 113.36000000 38.60420000
74.55130000 112.94020000 36.74960000
74.97140000 112.23400000 36.07480000
74.89180000 110.79170000 38.12090000
68.94830000 113.21790000 44.73680000
70.60120000 113.04370000 44.71870000
72.04640000 113.57200000 40.60390000
73.95830000 112.67050000 39.69150000
74.36130000 112.04460000 39.74780000
59.11850000 113.36980000 38.03330000
62.81600000 112.54740000 51.66410000
68.09380000 112.27950000 49.81570000
69.27700000 111.74470000 49.43620000
72.35930000 112.10330000 44.59310000
71.83460000 112.99570000 43.23500000
57.63070000 112.64380000 37.95550000
54.90590000 112.52780000 42.05910000
54.76940000 112.90810000 44.11980000
55.89350000 111.40790000 39.44080000
54.84020000 111.86300000 41.24730000
52.66090000 111.68620000 42.89990000
51.50190000 112.29100000 44.47580000
48.86480000 112.47550000 47.85330000
57.38830000 109.84510000 36.66090000
57.87520000 105.25340000 38.04270000
55.61230000 106.83690000 40.66970000
53.67490000 107.47770000 42.06910000
55.02320000 111.02830000 40.71800000
52.93890000 110.26340000 42.35020000
58.05910000 109.28190000 34.94720000
58.50920000 107.43940000 35.89920000
59.06350000 106.76890000 34.32000000
59.30820000 105.84320000 33.05530000
59.44530000 103.76780000 34.28950000
58.57600000 102.33900000 36.86680000
56.35660000 102.34170000 40.03700000
59.84040000 102.33750000 31.06100000
59.78550000 102.33760000 33.20860000
54.33280000 102.34420000 41.50950000
51.53600000 110.71400000 43.23190000
48.10250000 111.31220000 45.32700000
49.15310000 112.40060000 46.56750000
51.71540000 105.89030000 43.14530000
49.88250000 108.26600000 43.83530000
47.55070000 109.70800000 44.90290000
43.44120000 110.99240000 46.78520000
41.78650000 112.09400000 48.44740000
49.88840000 102.34950000 43.83490000
48.16590000 107.34580000 44.87310000
45.66280000 105.90790000 45.72610000
46.53360000 102.35360000 45.05220000
42.78570000 105.19620000 46.20230000
43.10520000 102.35770000 45.68010000
42.99370000 107.18600000 46.02080000
40.63910000 107.23970000 46.44110000
41.12480000 102.36010000 45.68060000
73.42630000 111.63440000 42.80850000
74.31270000 109.71060000 40.44620000
71.83210000 111.65170000 46.02830000
72.84740000 107.21480000 44.64860000
74.11910000 105.19920000 42.47930000
75.08320000 101.81150000 40.46880000
75.24080000 107.04880000 38.26890000
67.22820000 110.92330000 52.45450000
68.92470000 103.71220000 50.76850000
71.26080000 106.82140000 47.58070000
73.73660000 99.93110000 43.81180000
64.58670000 112.29540000 52.57180000
64.57530000 111.79100000 53.58350000
64.23570000 110.63500000 55.01070000
66.37840000 102.40400000 53.10210000
68.46380000 101.65410000 51.00700000
70.38490000 95.11420000 49.27420000
63.09430000 112.27080000 53.36760000
59.72780000 112.08030000 55.72410000
63.87570000 111.29320000 54.87580000
61.59270000 109.76520000 56.70300000
60.72220000 100.54620000 56.59580000
62.83580000 99.15010000 55.42770000
53.10050000 111.54210000 58.91850000
56.74240000 110.74990000 59.16690000
59.58220000 110.60770000 57.80280000
39.07690000 111.32330000 61.28320000
44.63300000 110.67420000 62.30790000
48.99020000 110.80880000 61.42560000
52.64330000 110.52280000 60.66350000
53.42010000 108.28610000 60.12710000
54.77950000 104.17500000 59.21270000
41.62320000 111.68320000 54.70010000
31.92020000 111.17190000 60.93550000
41.74600000 110.82970000 62.56370000
38.41350000 112.08380000 50.90020000
35.92860000 112.12420000 50.08880000
38.26390000 111.72000000 48.41550000
32.38460000 111.43550000 47.87700000
27.35540000 109.98920000 46.29760000
22.39480000 110.98540000 46.46320000
13.65220000 110.93790000 49.38720000
35.79540000 110.85350000 47.50560000
30.60140000 108.29750000 46.02860000
25.64500000 107.44640000 44.44960000
23.56270000 108.59870000 44.42310000
21.89430000 109.63920000 44.74160000
35.99190000 107.33320000 46.43630000
32.37870000 104.99340000 45.57860000
26.15710000 104.35130000 43.47280000
23.67580000 106.03860000 43.22570000
22.74210000 107.03690000 43.43910000
20.59600000 108.10670000 43.51490000
34.03000000 102.36870000 45.46690000
29.49550000 102.32020000 44.07670000
24.15740000 101.94300000 42.04930000
23.41990000 102.95360000 42.04050000
20.45500000 104.52600000 41.73600000
68.10390000 90.48950000 6.99270000
66.52380000 91.31660000 5.94300000
69.39020000 87.37910000 7.64830000
66.97550000 89.84110000 5.49630000
65.99110000 87.12680000 3.96200000
71.37700000 91.25470000 11.18650000
73.03040000 84.75750000 11.97520000
69.58100000 86.04000000 7.84010000
67.76420000 86.09180000 5.72420000
65.43880000 86.47090000 3.64510000
62.12640000 84.43970000 0.17600000
72.61830000 92.06560000 13.72890000
72.68590000 90.75550000 12.98440000
73.16620000 89.59330000 13.84540000
73.15220000 87.36300000 12.65120000
72.88450000 93.07950000 14.07460000
74.71300000 93.50610000 18.35620000
75.60850000 91.38260000 18.68460000
75.29440000 90.49330000 18.15330000
74.23260000 89.92300000 15.29630000
74.88620000 94.53230000 18.44820000
75.90850000 91.65050000 19.78150000
76.41190000 87.94240000 19.34860000
75.66260000 87.98010000 17.42420000
75.44640000 89.28770000 17.27320000
75.60680000 96.27380000 21.32880000
78.02920000 84.32300000 23.89970000
77.49190000 84.53040000 21.61400000
75.85540000 81.60270000 16.93210000
74.17610000 97.66390000 19.11470000
74.55000000 98.47900000 19.76150000
74.85080000 88.03640000 16.33840000
75.16320000 86.45620000 16.01880000
73.58810000 85.57140000 13.52830000
74.03060000 84.30520000 13.65660000
73.46560000 84.02500000 13.08910000
72.03510000 83.77210000 10.59650000
70.10880000 83.07840000 7.77690000
74.17340000 82.03480000 14.29500000
73.41160000 81.63600000 12.11650000
70.58680000 81.44870000 8.42960000
68.28270000 83.21220000 5.71880000
66.69000000 84.50490000 4.31630000
66.87340000 85.35180000 4.88710000
74.49650000 80.85940000 14.27440000
72.57050000 77.98840000 11.06220000
72.19020000 73.58180000 9.87800000
67.12320000 80.18740000 4.42290000
66.82090000 81.92430000 4.52040000
76.68690000 80.06940000 18.37920000
74.06070000 77.27990000 13.18800000
77.25320000 78.98990000 20.01110000
75.88320000 76.49070000 17.23270000
76.03380000 74.68350000 16.63760000
74.83630000 72.40900000 14.13970000
72.64960000 71.68350000 10.44840000
78.27000000 79.56440000 24.60510000
76.70230000 74.80660000 18.89300000
75.64640000 69.17330000 14.96550000
73.41940000 70.23370000 11.76640000
74.19520000 65.72070000 10.45690000
70.92510000 69.99120000 7.33630000
78.64810000 79.86500000 30.36260000
78.59590000 78.22210000 27.29240000
78.21240000 73.50980000 26.23750000
77.28730000 73.34040000 20.60510000
76.07940000 62.60180000 13.46130000
78.62810000 83.86880000 28.14480000
78.69150000 83.12880000 31.83660000
77.94520000 81.59850000 36.52660000
77.99570000 80.71360000 35.17240000
77.87790000 75.95230000 34.94900000
78.26100000 74.04540000 31.60670000
77.69300000 92.21420000 28.33380000
77.66070000 93.02330000 32.42430000
78.17580000 85.78200000 34.96760000
76.27580000 103.54800000 32.93080000
76.68230000 97.26030000 35.84570000
75.30760000 98.17280000 41.32330000
76.38130000 87.18080000 40.55870000
75.93240000 103.71840000 36.13300000
76.35210000 101.70410000 35.57520000
76.46510000 100.81950000 34.23070000
75.88600000 99.97240000 38.84740000
73.73650000 96.33960000 44.56290000
74.95660000 90.02490000 43.27120000
74.47200000 83.66180000 44.40020000
75.85680000 83.05910000 41.98250000
72.18840000 96.25830000 47.05570000
71.08020000 93.37560000 48.36720000
71.73670000 89.49010000 47.89300000
67.89620000 95.62860000 51.64070000
67.85790000 91.01800000 51.58280000
70.11020000 89.34740000 49.58580000
68.74260000 84.68440000 50.77150000
71.39230000 79.67030000 47.85290000
65.60520000 97.14000000 53.49090000
63.16500000 91.67590000 54.77290000
65.44690000 85.69580000 53.17410000
69.04910000 78.63960000 49.82300000
69.30850000 76.99250000 48.71520000
73.99150000 79.77300000 44.62330000
59.17960000 96.95850000 57.09370000
62.79200000 96.22310000 55.22320000
63.55730000 93.73640000 54.52000000
62.25810000 93.36890000 54.83590000
60.31840000 90.34070000 56.22160000
60.11040000 82.24900000 55.48680000
57.74390000 98.82090000 57.63540000
55.85290000 96.69280000 58.33750000
56.05800000 94.62880000 58.16750000
58.05660000 100.51830000 57.73050000
52.65730000 97.67980000 58.51700000
51.68960000 96.71160000 58.86850000
51.53650000 95.59280000 58.69070000
52.81460000 93.45750000 58.64130000
54.10900000 93.37260000 58.20140000
53.20670000 99.15630000 59.12310000
52.13010000 98.18870000 58.58100000
50.61620000 98.06840000 59.38470000
49.77120000 96.36500000 59.93030000
49.53230000 94.28350000 59.49730000
51.70380000 93.95990000 58.68980000
51.18640000 102.95590000 60.37580000
50.18950000 100.04460000 59.99580000
47.40450000 103.07880000 61.34330000
47.52700000 99.22520000 60.73780000
49.63950000 99.08050000 59.53340000
46.75080000 97.13520000 60.05170000
49.14890000 95.06830000 59.94860000
47.02510000 107.54400000 61.90950000
40.24330000 109.43630000 63.36990000
42.84640000 96.72710000 61.06910000
48.99820000 109.05220000 61.82390000
47.89510000 109.95440000 62.19700000
46.49240000 109.46290000 62.58530000
52.70330000 109.23290000 60.41070000
51.22100000 109.70020000 61.25580000
44.06720000 110.23400000 62.84540000
57.41970000 93.16440000 56.97610000
56.64530000 90.81020000 57.58320000
54.95150000 85.12050000 57.51110000
54.93160000 91.86240000 57.55880000
53.05230000 89.85240000 58.18660000
52.13170000 85.81370000 57.90480000
52.03120000 83.20820000 58.04170000
52.99190000 76.87290000 56.76680000
51.69770000 92.06150000 58.88000000
51.25150000 90.25380000 58.70920000
50.00620000 88.82880000 58.70670000
50.34530000 87.03080000 58.39040000
48.50260000 84.65300000 58.38870000
48.94830000 82.50050000 58.58480000
49.61350000 93.11670000 59.31410000
48.68630000 91.80580000 59.33680000
49.67300000 90.35960000 59.01780000
47.98450000 88.98480000 59.08760000
47.26260000 86.67350000 58.84990000
43.58500000 84.30960000 58.64250000
46.96560000 93.66520000 59.75260000
46.07950000 91.13410000 59.59970000
47.70760000 90.29870000 59.32530000
46.95330000 89.41270000 59.30770000
45.75270000 88.33520000 59.30550000
42.92000000 85.64810000 59.32770000
47.95460000 94.56170000 59.82070000
47.04480000 96.10360000 60.15660000
45.36050000 94.66120000 60.33890000
44.93740000 93.24840000 60.03490000
43.91070000 91.82350000 59.86270000
45.66680000 96.02360000 60.64390000
40.17540000 95.03760000 60.68310000
42.50450000 92.97220000 60.16300000
40.40600000 91.64150000 59.89490000
42.42720000 89.24220000 59.48330000
49.54470000 78.80640000 -7.92910000
49.27780000 82.38960000 -8.14910000
59.76770000 76.38220000 -2.02800000
52.66820000 75.30100000 -6.57530000
52.38600000 72.11060000 -7.41790000
47.62710000 73.04290000 -10.04480000
43.10750000 76.22990000 -12.16280000
42.89270000 78.00380000 -12.10410000
62.58830000 79.01840000 0.35110000
63.44890000 76.16070000 0.82940000
62.30880000 72.78900000 -0.66660000
56.24940000 71.54410000 -5.11360000
53.26520000 73.26050000 -6.36870000
64.30000000 80.28520000 2.07970000
65.30290000 78.19500000 2.59900000
64.72060000 77.65540000 2.40070000
63.43840000 77.07690000 1.27030000
65.05260000 76.49120000 2.36560000
65.74750000 71.74520000 2.34240000
62.85590000 83.58610000 0.63640000
63.38690000 82.50710000 1.42510000
66.12140000 79.31000000 3.76420000
66.01410000 78.24790000 3.51280000
67.51450000 77.52130000 4.79100000
64.09770000 84.11470000 1.83160000
65.49530000 82.79610000 3.06320000
65.52550000 81.00200000 3.00360000
66.54000000 75.28830000 3.45460000
64.44300000 84.82530000 2.62300000
65.77390000 85.46410000 3.67510000
69.13000000 71.14900000 5.39540000
66.56550000 70.02330000 2.21460000
64.68740000 71.79140000 1.01460000
63.23940000 70.80880000 0.06010000
63.22140000 66.87010000 -1.69760000
72.15630000 65.67910000 7.56350000
69.77990000 68.18850000 5.35000000
66.01100000 68.12450000 1.33550000
75.08570000 58.19910000 9.95990000
73.61870000 60.71210000 7.88740000
71.42470000 62.34850000 5.19910000
70.40880000 62.73640000 3.93110000
69.42300000 65.42720000 3.98360000
68.70690000 66.93980000 3.45960000
76.58140000 56.33400000 11.98740000
74.94040000 56.76490000 8.48330000
73.04380000 56.94140000 5.30130000
73.34840000 58.53090000 6.58180000
73.17770000 59.29010000 7.22100000
77.45900000 62.52000000 17.30020000
78.28590000 56.12360000 17.81210000
77.32510000 49.76340000 10.98450000
75.90050000 55.41120000 10.56980000
76.80120000 50.54960000 9.77810000
78.12330000 68.71100000 25.19700000
78.81770000 45.55730000 19.85350000
78.58760000 48.16710000 16.09130000
77.85180000 48.47710000 12.90510000
76.73090000 48.92600000 9.45890000
77.96650000 68.44700000 29.92440000
78.56380000 45.92260000 22.79180000
78.44310000 36.38420000 18.88540000
78.75500000 38.63780000 16.59370000
76.78230000 70.43590000 35.64640000
77.29750000 67.06460000 32.66530000
77.33770000 57.32810000 30.81770000
77.18410000 44.60320000 27.95410000
75.65910000 71.78000000 38.79810000
74.43340000 51.62090000 35.87250000
75.68370000 57.82320000 35.09610000
76.23960000 48.14270000 31.50120000
75.95600000 38.39630000 28.74070000
76.97280000 31.18040000 21.70180000
75.45700000 73.81320000 40.23910000
73.86480000 72.22650000 42.24810000
72.06920000 64.62430000 42.31010000
71.73010000 48.58890000 38.89130000
73.82380000 44.33190000 34.80260000
76.44200000 79.35280000 39.49070000
72.36820000 74.36740000 45.07770000
71.28760000 70.20650000 44.71770000
69.34020000 53.22820000 42.38660000
69.34920000 46.05150000 40.38060000
72.33820000 44.55770000 36.86710000
76.66250000 80.82110000 40.05560000
75.21130000 80.00120000 42.74320000
67.78910000 74.91450000 49.68720000
68.27070000 74.33720000 48.83830000
68.47560000 71.26500000 48.00590000
66.28870000 76.90020000 50.98740000
66.14200000 75.09620000 50.91350000
64.29720000 72.68840000 51.42880000
64.08730000 69.70330000 50.40540000
67.80570000 62.39600000 45.68110000
65.34830000 76.84790000 51.78610000
66.30110000 79.20850000 52.07010000
62.91740000 78.79440000 53.86790000
60.92650000 77.53380000 54.47250000
61.08680000 75.18920000 53.46930000
61.16140000 74.05710000 53.34710000
59.62220000 71.02800000 53.04800000
58.14540000 75.31910000 54.56170000
56.50910000 73.19130000 54.71090000
53.98750000 68.61460000 53.83780000
59.95460000 63.55760000 50.13540000
53.63990000 74.85750000 55.61710000
49.38100000 74.90590000 56.36920000
49.49560000 66.96800000 53.71650000
54.33160000 66.85810000 52.89980000
47.58680000 76.01640000 57.12140000
44.78860000 74.38820000 56.37070000
46.87130000 72.48990000 55.91440000
44.46050000 67.47750000 53.93080000
47.57330000 63.73850000 52.76690000
53.25350000 60.59410000 51.16670000
38.95490000 84.17790000 58.90280000
40.35610000 75.46240000 56.75080000
39.90540000 74.62120000 56.12890000
41.83720000 72.57040000 55.86610000
36.02280000 85.86270000 58.74640000
34.69360000 83.17310000 57.96170000
31.43700000 79.76520000 56.17730000
34.67100000 76.92380000 56.37690000
32.67830000 74.25320000 54.61830000
36.60410000 73.01630000 55.26420000
38.09960000 90.33500000 59.55580000
33.81160000 93.37180000 59.66780000
30.44810000 88.48040000 57.59650000
45.90490000 89.73610000 59.45420000
37.72210000 91.90520000 59.85930000
38.70620000 92.04680000 59.96900000
37.56530000 92.89250000 60.16020000
39.34150000 92.63760000 60.13500000
37.91220000 97.47360000 61.14610000
40.52430000 92.77630000 60.19900000
29.14530000 81.08730000 55.67230000
30.24410000 75.86350000 54.55410000
27.50120000 75.87920000 53.21610000
27.49450000 73.54790000 52.16720000
29.76190000 73.12490000 53.13510000
34.07990000 72.65660000 54.49700000
26.37120000 87.41040000 56.06230000
22.77870000 81.32020000 52.56700000
26.60330000 88.96860000 56.26880000
22.94580000 88.67760000 54.34330000
23.73520000 86.50450000 54.07160000
21.84490000 87.21290000 53.63200000
15.74360000 80.15920000 47.84350000
23.04480000 77.28680000 51.36610000
29.11780000 92.38600000 57.90600000
26.57210000 92.38170000 56.96150000
24.48090000 91.43160000 55.78690000
22.40960000 91.81360000 54.91220000
19.98530000 90.93430000 53.61590000
29.92830000 94.71350000 58.70840000
28.85120000 93.88310000 58.15020000
27.44180000 94.29040000 57.70340000
24.83040000 93.66870000 56.47960000
23.30450000 92.91420000 55.59600000
31.15770000 96.65250000 59.60400000
28.25030000 96.62900000 58.58550000
30.88640000 98.76370000 59.87970000
28.74050000 98.29840000 58.86320000
26.47660000 98.99940000 58.39660000
24.39880000 96.05330000 56.86760000
22.31380000 94.32350000 55.48450000
22.20990000 93.09810000 55.11390000
29.52740000 105.98100000 61.33020000
23.46860000 102.51530000 58.30320000
24.29530000 101.78220000 58.60740000
38.31480000 107.68640000 62.93260000
32.72990000 109.32200000 63.20140000
26.59320000 109.01200000 61.78320000
22.97670000 108.82280000 60.59730000
37.07670000 109.07090000 63.38280000
34.58040000 110.15160000 63.21210000
30.99820000 110.41300000 62.59190000
27.04090000 109.38480000 62.19810000
38.91280000 109.87070000 63.41130000
23.67360000 110.12050000 61.32730000
26.71800000 110.09580000 62.00640000
41.35840000 110.31450000 63.17050000
73.14140000 35.06740000 32.16520000
74.55760000 33.26360000 28.84160000
76.11230000 29.68230000 22.82690000
77.80360000 30.78020000 16.28050000
70.75910000 35.23940000 35.03770000
72.13880000 31.21030000 31.38410000
73.30180000 29.13950000 28.40090000
74.03460000 26.76100000 24.91290000
76.56630000 27.41510000 18.25980000
77.04200000 28.62100000 18.36520000
70.36250000 39.24620000 37.13060000
68.53000000 39.19850000 38.65470000
67.63310000 30.37120000 35.35870000
68.21170000 28.03720000 33.53260000
70.82040000 27.81770000 30.76440000
71.52730000 25.92070000 28.33500000
66.53100000 48.14970000 43.05870000
63.22670000 40.40650000 42.20430000
65.26870000 37.74450000 40.20630000
65.27300000 30.23870000 36.91910000
62.28780000 25.36140000 35.52560000
66.45820000 55.33990000 45.03530000
64.14490000 51.76460000 45.39160000
60.78070000 48.06860000 45.75150000
56.45560000 38.94790000 44.07410000
60.95490000 38.14800000 42.43800000
60.14620000 32.20760000 40.28620000
65.26150000 62.12580000 47.40840000
55.82630000 48.78070000 47.43980000
52.09110000 37.60170000 44.41960000
55.80820000 33.95860000 42.34070000
50.82590000 45.87160000 47.28870000
47.07680000 47.41680000 47.98140000
45.92550000 40.79120000 45.87760000
50.65990000 29.68810000 41.48380000
57.68960000 28.78570000 39.52540000
40.51120000 62.92880000 51.91340000
40.62680000 43.09020000 46.26380000
38.61250000 35.02470000 43.30790000
43.24340000 27.51030000 40.77590000
45.52980000 25.89860000 39.94330000
51.90720000 25.84630000 39.29200000
39.44340000 67.90540000 53.38940000
34.31940000 68.30730000 51.99270000
37.46900000 62.57390000 51.05630000
36.27040000 59.59430000 49.86620000
36.04830000 50.77500000 47.54240000
37.02820000 43.08100000 45.55560000
36.20290000 68.98420000 53.07930000
33.30660000 70.66830000 52.83540000
30.03290000 63.23940000 48.03680000
34.18110000 63.49010000 50.09550000
30.23950000 59.13230000 46.93170000
27.53830000 68.67310000 48.63120000
26.53610000 63.61380000 46.06560000
29.22870000 52.02230000 44.66660000
32.73320000 50.72830000 46.20150000
34.03640000 42.78850000 44.61740000
19.79050000 71.63870000 44.90390000
21.22370000 69.61670000 44.51980000
22.49840000 65.53990000 43.54290000
22.76770000 60.58120000 41.91310000
26.86020000 43.77590000 41.18030000
28.76790000 32.58660000 39.23530000
19.67230000 75.49220000 48.13540000
12.16050000 75.49780000 42.54530000
14.71500000 70.96600000 39.79820000
16.00290000 67.55160000 37.87780000
18.98460000 66.53940000 40.67670000
14.84140000 77.54680000 46.17690000
9.45310000 79.27430000 42.84560000
9.13920000 75.53190000 39.38610000
12.16630000 71.22210000 38.14800000
10.63070000 70.51130000 36.29060000
12.37120000 65.19050000 33.79820000
11.78300000 80.60550000 45.69530000
10.35360000 88.38910000 47.48200000
8.80830000 84.87870000 44.36850000
8.69880000 81.29570000 42.46440000
12.43670000 85.41480000 47.68650000
12.66680000 87.52470000 48.35810000
13.47690000 89.44150000 49.48770000
12.51320000 92.13910000 49.87950000
9.30720000 93.62480000 48.55770000
8.54530000 92.63270000 47.25990000
15.19310000 86.13080000 49.46240000
15.45210000 87.99890000 50.07290000
14.61290000 88.82090000 49.78530000
16.71460000 90.32360000 51.45090000
15.67930000 92.28930000 51.53580000
17.09960000 86.87450000 50.86020000
18.42830000 88.97390000 52.03270000
18.48250000 92.08760000 52.91930000
17.11700000 91.87570000 52.13470000
17.47640000 92.74790000 52.57040000
17.11110000 93.86420000 52.73700000
15.94750000 93.69650000 52.10990000
15.13880000 94.55560000 51.98550000
20.56210000 93.10290000 54.27240000
18.75730000 93.46850000 53.38540000
19.84670000 94.78020000 54.31520000
18.57860000 94.29350000 53.61950000
20.61350000 95.96260000 55.19670000
18.04820000 95.21190000 53.63530000
20.76460000 97.82830000 55.73880000
17.89040000 96.32830000 54.05090000
14.14890000 96.52980000 52.33220000
10.70610000 94.63960000 49.93570000
22.65410000 99.49260000 57.23460000
19.53740000 98.23400000 55.02660000
15.73940000 98.02210000 53.35970000
14.21580000 98.26620000 52.48790000
12.37860000 97.65750000 51.66800000
15.87110000 99.20760000 53.99250000
12.91550000 99.28830000 52.78290000
10.45230000 99.54370000 51.76220000
8.79340000 99.07970000 50.38010000
8.77110000 100.92210000 51.42090000
8.44790000 96.19030000 48.66390000
12.66680000 101.91280000 53.84510000
8.23110000 103.12290000 52.19830000
8.10960000 101.60480000 50.83980000
7.61850000 102.35600000 50.47890000
7.13670000 101.38280000 48.90340000
7.39870000 98.52660000 47.02360000
7.81820000 95.55620000 47.22360000
20.70130000 106.68220000 58.91180000
8.78020000 105.24180000 53.82420000
6.79650000 105.57030000 52.13540000
6.71600000 104.67760000 50.74010000
7.08360000 102.74730000 49.83130000
22.53180000 109.15190000 60.93120000
9.01200000 107.71470000 55.56050000
7.68130000 107.54060000 54.72010000
7.37840000 105.96850000 53.42250000
6.05770000 107.11430000 51.56740000
25.03390000 109.48410000 61.73400000
13.30110000 109.81920000 58.15900000
14.62360000 109.67880000 58.87390000
14.53040000 109.11740000 58.82020000
8.27490000 109.06160000 56.55880000
8.75830000 108.32970000 56.39210000
7.00160000 108.76410000 55.53720000
8.03450000 109.56510000 56.09350000
8.72030000 110.18590000 54.88740000
7.18030000 109.41500000 55.44630000
6.18550000 108.88070000 53.71180000
6.37270000 108.32330000 54.26790000
6.23930000 107.41030000 52.92420000
12.87680000 110.32450000 56.87690000
7.67670000 110.45260000 48.81360000
6.85420000 109.89830000 52.09700000
5.87140000 109.01400000 50.80390000
21.92720000 110.76320000 59.32820000
5.87260000 107.16160000 48.09320000
6.23310000 105.64050000 46.58560000
6.73770000 102.87720000 48.43180000
6.34140000 103.66300000 46.59140000
6.65660000 102.58310000 47.95620000
6.72380000 102.29460000 46.80410000
6.76910000 101.67450000 45.76780000
6.58510000 108.80790000 45.30110000
6.56460000 106.35980000 44.34000000
6.47270000 105.07100000 44.66840000
6.43960000 103.98880000 45.21180000
6.47980000 103.47420000 45.67920000
6.60290000 102.58610000 45.14660000
6.84020000 110.00290000 47.95110000
8.83960000 110.49710000 44.63230000
8.59170000 109.51720000 43.00420000
7.56000000 107.91570000 42.60340000
6.83180000 107.26700000 43.43640000
11.71590000 110.32170000 43.85140000
10.14980000 109.15040000 42.40100000
8.90560000 108.38740000 42.04630000
8.96530000 106.60920000 41.65280000
7.57650000 106.80700000 42.02960000
7.13230000 106.91830000 42.54130000
16.66490000 110.60550000 44.64300000
14.00740000 109.78790000 43.14260000
12.19280000 108.73160000 42.35600000
10.30430000 107.91650000 41.83190000
20.00440000 110.31490000 44.88790000
19.24920000 109.36910000 44.00690000
16.00250000 107.88350000 42.44420000
11.88760000 106.14500000 41.34520000
20.54030000 109.12370000 44.04970000
14.38140000 103.16390000 40.24450000
11.76350000 103.69730000 40.54510000
10.12240000 104.43450000 41.00340000
6.64480000 103.25940000 44.01390000
6.80840000 102.38340000 43.58650000
6.79010000 101.91070000 43.94450000
7.21160000 101.21940000 42.81660000
7.10510000 99.97880000 43.74170000
6.83810000 101.45450000 44.24500000
7.17600000 97.81390000 44.06450000
6.82450000 101.21510000 44.95910000
7.52370000 94.32340000 42.95550000
6.63570000 104.20880000 43.89890000
6.83470000 103.54280000 43.17980000
7.00070000 103.07750000 42.73100000
6.84150000 102.93300000 43.19570000
7.12230000 102.44010000 42.61360000
7.65630000 101.73570000 41.87240000
8.66300000 100.15440000 40.74230000
7.34840000 99.32490000 42.35120000
6.75820000 105.15820000 43.46860000
6.90880000 104.27000000 43.00760000
7.20280000 103.53210000 42.40860000
7.16730000 102.93970000 42.40260000
7.48190000 102.67210000 41.99870000
7.97980000 103.21070000 41.58310000
8.01370000 101.98170000 41.40830000
6.95130000 106.12360000 42.87030000
7.32750000 104.88600000 42.27560000
8.48540000 104.64930000 41.47180000
9.17820000 102.51060000 40.86480000
8.74160000 101.56960000 40.85400000
8.48230000 101.92400000 41.05500000
7.22860000 106.31100000 42.18180000
7.22880000 105.88260000 42.18400000
7.64130000 105.94050000 41.86650000
7.29790000 106.06460000 42.01270000
7.53310000 91.90890000 42.87980000
8.23290000 86.65570000 43.48980000
7.82500000 93.31850000 41.65210000
7.81900000 90.95110000 40.06580000
8.05140000 89.08140000 39.92180000
8.24070000 84.50740000 40.43170000
8.66960000 79.82530000 38.46550000
8.69290000 76.51920000 38.78010000
7.49910000 95.55910000 40.90450000
7.95390000 93.25520000 39.51080000
8.13390000 90.30470000 38.46770000
8.34440000 86.74030000 37.57480000
8.58590000 83.07910000 37.11870000
7.20500000 97.63330000 42.13150000
7.39010000 97.30800000 40.88050000
7.56390000 96.63750000 40.11930000
7.79260000 95.37960000 39.69140000
7.61400000 98.39230000 41.03880000
7.56690000 97.54270000 40.33690000
7.72150000 97.11560000 39.90950000
8.06410000 96.25950000 39.45480000
8.34960000 94.60130000 38.89570000
8.08010000 97.61570000 39.95300000
9.35690000 95.66140000 38.56530000
8.96940000 91.74400000 37.59250000
12.41260000 97.93860000 38.54460000
11.92660000 101.77850000 39.93030000
10.68280000 102.73150000 40.45180000
10.54930000 101.06380000 40.07910000
33.50170000 33.76360000 41.66180000
36.85970000 27.35910000 39.96650000
41.08130000 26.48840000 40.13720000
30.17660000 31.68060000 39.41370000
31.45120000 29.62770000 39.36010000
33.39380000 28.05490000 39.29180000
37.46410000 26.53210000 39.49380000
42.85350000 25.35070000 39.42040000
51.00880000 24.37310000 38.30140000
25.32510000 31.55230000 36.50410000
27.84200000 30.32750000 37.78150000
27.53830000 27.34540000 35.86350000
30.72140000 26.29950000 36.99260000
22.73390000 43.26930000 37.74020000
21.35510000 32.63300000 33.44870000
24.64530000 28.28590000 34.05640000
25.88820000 27.42200000 34.61410000
30.01310000 25.78540000 35.86250000
33.53160000 25.90240000 38.01080000
18.57860000 54.42170000 36.03050000
17.04440000 49.34970000 33.39770000
16.33800000 38.71840000 30.08210000
17.30120000 32.86220000 28.96990000
19.95350000 29.76520000 30.31610000
18.96780000 61.40800000 38.37230000
16.19330000 60.60230000 34.70110000
13.28890000 50.08760000 28.71470000
13.58630000 43.26750000 27.48890000
15.55070000 35.78360000 28.01900000
12.25770000 59.94120000 30.84360000
11.98090000 55.11830000 28.59690000
11.73120000 51.30350000 26.98160000
11.71450000 48.69340000 26.14660000
11.84870000 47.30520000 25.98780000
12.07040000 44.97090000 25.52950000
10.83660000 65.85350000 32.72530000
10.41210000 61.80990000 29.87440000
10.98070000 58.27360000 28.81410000
9.58130000 71.03270000 35.15010000
9.86400000 66.94370000 31.04140000
9.78760000 62.02260000 28.72140000
10.32810000 58.74750000 28.00730000
10.98890000 56.04880000 27.62710000
9.33830000 72.24320000 36.23630000
9.21100000 71.99130000 34.39470000
8.85130000 74.70900000 34.87340000
9.68510000 71.54290000 31.80730000
10.25570000 67.41000000 29.80860000
10.27420000 62.94470000 28.12870000
8.87150000 77.63500000 35.74300000
9.24710000 75.61310000 33.59380000
8.79290000 80.31720000 36.10610000
9.29440000 78.51430000 34.21630000
8.65750000 81.15110000 36.89630000
9.09690000 81.20130000 35.07440000
9.47800000 80.01500000 34.11040000
10.03190000 78.92000000 33.50640000
70.69450000 59.01990000 2.83220000
66.28110000 60.84390000 -1.35530000
66.72320000 64.46190000 0.55210000
74.40250000 52.57630000 5.62470000
69.69890000 50.89800000 -2.36160000
66.62620000 58.30210000 -2.04730000
63.82110000 60.74530000 -3.35990000
65.79910000 62.28690000 -0.86720000
74.46430000 53.61140000 6.78240000
74.54350000 48.13430000 4.11180000
74.21900000 41.13830000 0.91920000
72.64270000 44.54670000 -0.69880000
53.80050000 66.16710000 -8.33300000
49.15900000 69.85010000 -9.96010000
48.69440000 71.31470000 -9.50000000
56.70960000 58.74210000 -9.51890000
48.67770000 61.82050000 -12.57770000
51.48040000 66.31670000 -9.31130000
42.44190000 69.82760000 -13.63790000
59.71940000 56.08780000 -8.74710000
62.61420000 51.89720000 -8.42620000
57.32360000 48.17060000 -14.45790000
65.87550000 53.55410000 -5.01680000
68.35270000 48.67940000 -4.66160000
68.34120000 49.29690000 -3.79470000
69.96390000 46.39870000 -3.77260000
68.70720000 42.13500000 -6.63960000
68.14920000 45.98850000 -6.10380000
70.99320000 46.66410000 -2.23580000
69.57610000 38.48500000 -6.54060000
72.58670000 35.93310000 -3.28950000
68.96650000 38.09310000 -7.82940000
68.30870000 39.20290000 -7.76880000
75.79470000 36.05020000 3.18440000
74.03580000 34.96150000 -0.79470000
72.87930000 32.68020000 -2.97470000
70.51390000 31.95120000 -6.68970000
66.15230000 35.87910000 -11.24690000
66.74540000 38.65700000 -9.86610000
76.26300000 38.86590000 5.36630000
75.74710000 34.51770000 3.80580000
75.63550000 31.95490000 2.87890000
76.87820000 40.09950000 6.32960000
77.95180000 36.34800000 10.10690000
77.12380000 36.78840000 6.71980000
76.72100000 35.23720000 5.67000000
77.32320000 33.37280000 8.12690000
76.72710000 32.33880000 5.55170000
76.49930000 42.56380000 6.25160000
78.15090000 42.44470000 11.93770000
78.46370000 38.30910000 12.64040000
78.33230000 33.94890000 12.71750000
77.95090000 33.93580000 10.92470000
77.14530000 44.81700000 8.38980000
77.91830000 31.08460000 12.36400000
76.05430000 47.52210000 7.85380000
77.31010000 47.42170000 9.94900000
40.56110000 74.44900000 -13.53020000
40.74450000 76.74940000 -12.87910000
39.78180000 78.16870000 -13.79200000
37.74680000 81.42530000 -15.18920000
37.17910000 72.92570000 -15.39940000
37.79800000 78.07620000 -14.39400000
39.02050000 76.98420000 -13.89600000
35.57130000 79.92210000 -16.01820000
38.86530000 71.50000000 -14.84370000
37.30910000 71.51140000 -15.10990000
35.89140000 71.22960000 -15.81050000
34.65760000 72.56940000 -16.17090000
34.54820000 77.90760000 -15.93240000
35.16850000 78.95870000 -15.58290000
37.07480000 67.03980000 -16.64080000
35.02450000 70.51930000 -16.68600000
31.45590000 74.98610000 -16.63430000
33.38950000 77.30040000 -16.12690000
33.64680000 77.89050000 -16.41660000
40.90260000 66.61070000 -15.41350000
38.07510000 66.05700000 -16.82750000
35.27810000 67.39950000 -17.44280000
45.20920000 59.44240000 -15.86610000
39.73810000 62.42690000 -17.50450000
37.89110000 63.04150000 -17.80340000
35.56700000 62.92970000 -18.89220000
32.71870000 66.06710000 -18.57730000
2.15160000 97.22140000 -18.30480000
1.07460000 93.22200000 -17.79020000
-0.18800000 90.91080000 -17.31930000
-1.75550000 93.67230000 -17.13730000
-11.00710000 103.33620000 -14.04020000
3.77980000 90.91510000 -18.63230000
2.39750000 90.98100000 -18.03430000
0.55190000 91.91520000 -17.75910000
-0.50680000 87.27210000 -17.06960000
-1.98490000 86.07960000 -16.83760000
-7.85270000 94.46540000 -14.87300000
6.41460000 89.09270000 -19.10080000
2.61010000 88.48610000 -18.41700000
1.39270000 86.48030000 -17.90510000
0.66570000 86.06680000 -17.26870000
-0.29820000 83.07580000 -16.65460000
8.51630000 88.13750000 -19.23280000
7.93290000 82.73040000 -19.21520000
3.63550000 82.97620000 -18.50600000
0.59780000 83.12980000 -17.46290000
-0.93110000 80.87800000 -16.63080000
12.41060000 84.97510000 -19.94990000
10.54560000 79.30010000 -19.14980000
4.43040000 79.26040000 -18.05960000
1.24730000 79.24070000 -17.24060000
0.32850000 79.05790000 -16.54570000
-2.49370000 77.46330000 -16.01200000
19.36210000 81.99390000 -20.03260000
17.15180000 78.22680000 -19.38460000
10.26630000 76.69240000 -18.51810000
4.21210000 77.74890000 -17.95270000
0.12780000 75.32710000 -16.02680000
-1.77920000 73.77320000 -15.59590000
21.76250000 85.70540000 -19.90140000
21.10050000 82.63490000 -19.86440000
21.05420000 80.20260000 -19.65630000
20.93710000 78.39890000 -19.00780000
22.04620000 89.24410000 -20.12040000
22.05020000 86.74450000 -20.05230000
23.19810000 85.76300000 -19.34200000
23.13600000 82.26780000 -19.58430000
23.38950000 81.64720000 -19.20110000
24.34100000 80.93380000 -19.15870000
25.69640000 92.48340000 -19.26790000
25.68760000 89.23020000 -19.51580000
24.24080000 86.01220000 -19.53020000
24.51090000 83.59180000 -19.53240000
25.54680000 79.59190000 -18.73860000
23.29300000 78.83150000 -19.05880000
21.82780000 93.98270000 -19.91860000
23.73720000 93.29790000 -19.50950000
24.00320000 94.28500000 -19.63700000
22.35590000 97.91720000 -19.27070000
27.79240000 92.68570000 -18.85950000
26.24230000 84.72650000 -19.12380000
22.74700000 94.29330000 -19.33920000
22.28570000 99.34430000 -19.62220000
30.50310000 88.26730000 -18.24290000
26.92720000 86.08830000 -19.20740000
31.63710000 81.33030000 -17.78510000
27.06540000 83.39700000 -19.08390000
25.05340000 84.08200000 -19.26990000
33.42830000 83.00370000 -17.26060000
34.36010000 80.50540000 -16.77280000
31.75100000 79.86080000 -17.48560000
26.85380000 80.19510000 -18.86800000
28.55710000 81.14770000 -18.48150000
34.82660000 80.23040000 -16.69440000
33.96450000 79.54400000 -16.35230000
32.98780000 79.48910000 -16.69020000
38.63950000 86.71210000 -14.71620000
38.48120000 88.09140000 -14.96020000
37.29990000 93.45830000 -14.81460000
30.45390000 77.54210000 -16.94330000
27.20680000 73.96430000 -17.60850000
24.93530000 73.27150000 -17.85950000
24.72650000 77.09280000 -18.09700000
21.95550000 78.46750000 -18.75410000
26.75070000 69.73530000 -18.54720000
23.17380000 71.63480000 -18.43160000
22.99930000 74.38790000 -18.01380000
20.19230000 76.06420000 -18.45530000
20.58920000 77.01380000 -18.88400000
32.04610000 62.16360000 -20.11440000
27.85210000 61.21010000 -21.17710000
25.29760000 66.38810000 -19.35230000
24.47550000 69.45000000 -18.60430000
18.80280000 72.78520000 -18.15020000
36.99710000 56.25790000 -21.39060000
36.66800000 55.56730000 -22.20790000
33.15600000 56.41910000 -22.71120000
29.04590000 55.35640000 -24.00620000
23.03090000 60.10330000 -21.24670000
21.68810000 62.54310000 -20.56940000
41.67690000 58.37900000 -18.41600000
42.37310000 48.09080000 -24.62140000
37.06220000 50.01570000 -25.59670000
32.89370000 52.34590000 -25.21680000
28.14350000 52.27900000 -25.88430000
24.60720000 55.02900000 -24.25170000
45.91350000 51.77020000 -19.67860000
52.87450000 46.05200000 -19.14930000
47.42870000 42.59760000 -24.71950000
49.73620000 52.54700000 -16.67290000
51.12970000 49.54650000 -17.41680000
54.29790000 49.87600000 -15.62800000
58.68800000 45.13400000 -15.15510000
56.65710000 43.99150000 -17.35090000
54.66020000 43.35570000 -19.38930000
55.05650000 41.34180000 -19.95150000
52.54740000 42.11170000 -21.45350000
64.67800000 44.71770000 -10.09820000
65.35580000 40.08340000 -11.25030000
58.98460000 39.28000000 -17.25270000
58.29280000 42.03870000 -16.92600000
56.98900000 41.42960000 -18.02330000
56.08340000 42.06880000 -18.19900000
65.31450000 45.14280000 -8.85260000
66.53310000 43.78420000 -8.46780000
65.31880000 41.97880000 -10.30530000
63.19440000 35.52710000 -14.72000000
66.21690000 47.75560000 -7.18650000
65.94020000 46.00100000 -8.22670000
66.15540000 42.28590000 -9.54810000
67.59900000 41.30740000 -8.26150000
56.91580000 34.37370000 -21.08300000
54.06410000 37.22380000 -22.10890000
51.13670000 37.00590000 -24.37010000
51.12470000 39.96540000 -22.99390000
49.40040000 35.76870000 -26.03160000
42.97830000 39.83130000 -28.48650000
42.91430000 45.32730000 -25.84050000
53.72040000 35.58610000 -23.32680000
55.34660000 33.33050000 -22.47130000
52.76900000 32.44800000 -25.12600000
49.69910000 28.98820000 -28.55660000
44.48470000 30.74940000 -31.03300000
56.70290000 31.78710000 -21.80060000
56.22450000 31.84090000 -21.95420000
55.09280000 32.37790000 -22.90250000
54.74240000 30.84760000 -24.05680000
53.88050000 29.56290000 -25.20490000
54.68720000 27.87590000 -25.29250000
57.60130000 33.00120000 -20.76390000
56.36640000 31.08740000 -22.60610000
55.64260000 31.48340000 -23.28770000
54.69340000 29.64220000 -24.31240000
55.03340000 28.12300000 -24.71450000
60.90520000 27.56030000 -19.46780000
57.40760000 26.25700000 -23.41980000
55.54300000 27.64330000 -24.82310000
66.65870000 32.89100000 -11.27580000
67.39650000 26.55930000 -11.74560000
65.16710000 21.83200000 -16.73240000
58.62180000 25.82200000 -22.60400000
57.45470000 24.45680000 -24.34320000
56.71480000 22.04530000 -26.27050000
54.30270000 20.61230000 -28.98800000
53.70330000 13.26420000 -33.47250000
58.08460000 24.87380000 -23.08700000
61.19130000 23.08710000 -20.91280000
57.79890000 20.52010000 -25.66950000
56.76220000 18.85180000 -27.83020000
54.35900000 18.82360000 -29.92620000
63.99700000 19.99850000 -18.67870000
59.71250000 16.87150000 -25.40480000
57.71620000 16.23640000 -27.44420000
55.87750000 18.11940000 -28.67700000
55.32290000 12.93560000 -31.86810000
64.94150000 19.69430000 -17.21760000
68.06940000 16.35840000 -14.57890000
64.37460000 14.24480000 -20.90650000
60.07940000 14.35670000 -26.13170000
58.26540000 15.34110000 -27.82830000
56.68180000 14.10640000 -29.82060000
68.11920000 19.20780000 -13.38740000
68.70670000 18.86700000 -11.93150000
68.54000000 12.19250000 -15.06720000
67.14880000 12.79400000 -16.63970000
66.57850000 14.30930000 -17.14400000
66.80710000 22.27360000 -14.00730000
68.96020000 21.28250000 -10.61620000
70.87460000 18.19830000 -8.87850000
71.28540000 15.55640000 -8.54180000
71.05060000 14.98250000 -9.51070000
68.44890000 22.22200000 -11.51120000
68.96860000 22.23940000 -10.57740000
70.02780000 21.87570000 -9.01300000
68.33200000 23.00650000 -10.89950000
70.11720000 23.38010000 -8.52080000
71.60640000 23.85190000 -5.45450000
73.24870000 19.03970000 -2.69720000
73.26770000 11.91200000 -3.89640000
68.84700000 23.92720000 -10.38080000
69.20920000 26.73270000 -9.07650000
73.33130000 26.93860000 -1.70740000
73.73300000 22.89610000 -0.77280000
72.92960000 20.59450000 -2.34250000
67.94850000 33.47890000 -10.15750000
74.79160000 30.32960000 0.68770000
74.98800000 25.39630000 2.51040000
73.71560000 22.10000000 0.01040000
17.86320000 73.95890000 -18.00830000
14.96630000 74.22590000 -18.19770000
11.47810000 75.29760000 -18.13500000
8.58590000 75.55780000 -17.62310000
13.83840000 73.38230000 -18.04970000
6.09200000 74.89480000 -17.57460000
1.75840000 75.11940000 -16.57960000
0.86070000 71.30020000 -15.15500000
17.61470000 68.70790000 -18.64690000
10.73400000 72.95680000 -17.58680000
5.79790000 72.42680000 -16.84450000
3.15200000 73.02130000 -16.62540000
2.42950000 71.09610000 -15.74350000
18.38610000 64.65410000 -19.73750000
11.27960000 69.33170000 -17.92950000
7.03050000 70.53610000 -16.83060000
17.41140000 57.12430000 -22.27260000
11.23270000 58.72220000 -20.29510000
8.63530000 61.11140000 -18.87190000
4.21910000 62.03070000 -17.39290000
1.90700000 64.05460000 -15.86460000
2.22420000 68.55670000 -15.71680000
22.05990000 56.31760000 -22.99980000
19.67180000 51.48050000 -26.10510000
12.73940000 54.91750000 -22.49830000
8.38300000 56.62060000 -20.37820000
-21.70420000 109.20110000 -13.36250000
-24.13570000 110.20880000 -13.70730000
-14.63340000 106.88490000 -13.56230000
-17.64490000 105.72670000 -12.81010000
-22.03920000 99.55600000 -12.16640000
-27.64320000 104.75910000 -13.44380000
-29.88380000 106.11860000 -14.04280000
-32.53990000 107.93330000 -14.74870000
-13.68240000 105.88880000 -13.73800000
-12.80880000 104.90770000 -13.95040000
-14.98960000 104.08640000 -13.12540000
-12.31130000 100.90780000 -13.20430000
-15.01810000 98.66600000 -12.39370000
-18.78840000 99.61490000 -11.89750000
-12.66610000 106.71390000 -13.87730000
-11.66710000 104.74200000 -14.07140000
-12.58130000 101.67480000 -13.48510000
-11.41740000 97.18030000 -13.19510000
-13.49860000 98.58150000 -12.90400000
-10.49540000 106.82030000 -14.55580000
-8.94830000 106.33940000 -15.37110000
-8.48600000 102.97090000 -14.86410000
-10.94730000 93.82960000 -13.58740000
-13.51080000 97.15500000 -12.62010000
-14.16010000 93.86400000 -12.40230000
