-20.53510000 -71.06680000 -54.09170000
-17.12600000 -60.44180000 -56.13530000
-14.04560000 -56.62550000 -57.32730000
-12.01000000 -62.02710000 -58.02360000
39.22910000 -43.50320000 42.35230000
31.11150000 -39.05770000 47.51270000
-58.31520000 -23.68770000 23.92210000
-58.44980000 -25.29230000 23.41230000
-57.00780000 -26.34560000 26.40080000
-61.34500000 -19.72970000 13.43340000
-60.59010000 -22.11940000 17.16330000
-60.16000000 -21.47510000 18.21600000
43.41310000 -68.98450000 18.42320000
50.55760000 -74.30790000 22.37400000
45.88050000 -73.45050000 22.12430000
45.01500000 -74.35120000 19.85650000
-39.49260000 50.48370000 -40.24530000
-40.62720000 50.70120000 -38.77400000
-40.88580000 51.94790000 -40.84290000
-42.13870000 47.08950000 -38.55030000
-43.40370000 46.54640000 -39.31400000
-43.46690000 48.85890000 -37.42980000
-41.25010000 -27.13310000 -21.37170000
-42.59570000 -25.55580000 -19.45610000
-43.24470000 -37.35200000 -18.43090000
-44.66160000 -39.93550000 -15.97590000
34.73100000 -42.39170000 45.48350000
34.17380000 -41.61930000 47.78740000
37.01580000 -43.49320000 45.06120000
38.08980000 -44.99780000 46.16470000
35.42610000 -43.45890000 48.84400000
39.04480000 -47.34840000 45.87740000
44.55730000 -14.23190000 -45.17220000
42.24110000 -17.32340000 -47.24710000
42.27650000 -15.49600000 -46.29680000
49.16960000 -10.86980000 -41.46190000
45.27720000 -12.45160000 -43.90500000
50.79470000 -8.89070000 -39.39120000
-2.66420000 -25.39990000 59.48400000
-1.72770000 -21.23760000 60.02150000
-4.99340000 -21.33330000 60.18410000
10.30710000 -24.92090000 58.22570000
12.63700000 -25.78610000 57.73300000
9.95370000 -23.42920000 59.09310000
-29.42790000 10.05320000 52.86450000
-28.64710000 22.71680000 53.98230000
-28.09840000 20.89400000 54.55880000
62.98230000 43.73610000 -15.75970000
62.51100000 47.12820000 -17.52250000
61.28900000 47.20040000 -21.59010000
61.42980000 50.46080000 -20.44690000
62.04050000 48.15110000 -19.46900000
33.16960000 76.71960000 32.45440000
35.69980000 77.26920000 30.22830000
37.21320000 76.30700000 27.70990000
31.76690000 77.48080000 35.32850000
29.18570000 77.10290000 35.93910000
22.10350000 77.01560000 40.01100000
1.39080000 -24.93500000 58.97020000
4.30140000 -24.09210000 58.73770000
2.63630000 -24.52170000 56.97760000
5.14490000 -24.49330000 59.67520000
22.64860000 -55.85590000 -58.57560000
21.38600000 -60.35870000 -59.04320000
15.26190000 -50.36700000 -60.03840000
11.04520000 -55.94000000 -60.59180000
-42.15390000 -8.38550000 -33.17600000
-40.28100000 -8.74200000 -33.79710000
-63.26630000 16.24620000 -5.23230000
-63.08360000 14.84150000 -6.19020000
-62.10670000 12.69970000 -5.62440000
-61.23930000 4.68400000 -7.32260000
-60.22060000 1.45740000 -8.18720000
-62.10770000 1.84740000 -3.86360000
-39.76560000 2.60650000 -24.32280000
-37.45180000 -4.24910000 -26.40580000
-37.47520000 6.70920000 -27.04610000
-31.79750000 16.18660000 -32.65100000
-29.18670000 28.24110000 -35.32340000
-34.77520000 29.53200000 -30.30570000
63.70630000 40.29750000 -14.01260000
63.27340000 39.69650000 -17.08710000
63.20670000 41.57170000 -15.95210000
62.84380000 36.08520000 -16.66240000
62.12120000 35.41320000 -16.21270000
-35.98290000 -47.90220000 32.76850000
-33.86140000 -44.03800000 35.08150000
-37.70080000 -26.93900000 31.57560000
24.61620000 -40.86630000 -57.49170000
40.12920000 -29.84720000 -49.88130000
31.29350000 54.19220000 49.11470000
34.46810000 56.67310000 47.34040000
32.80730000 56.96170000 47.76090000
28.75040000 56.07930000 50.44530000
64.60730000 55.07470000 -3.48000000
64.64930000 56.67190000 -5.39910000
64.61800000 56.98220000 -1.53250000
64.43130000 59.15570000 -5.42300000
54.79990000 51.17710000 -34.42190000
54.48700000 43.72010000 -35.30570000
51.32610000 52.35080000 -39.09480000
50.37020000 49.94050000 -39.94800000
50.80920000 47.66680000 -39.26820000
49.37940000 47.83950000 -39.63190000
-14.48570000 33.25730000 57.80080000
-15.06950000 38.11430000 56.03640000
-17.37340000 39.21440000 53.85500000
-17.40170000 39.21090000 56.40530000
-40.69210000 -6.27640000 -22.55860000
-41.80450000 -0.60640000 -21.50530000
-42.37670000 -5.63480000 -20.26430000
-46.43980000 -2.85790000 -13.21430000
-45.18800000 -3.20610000 -15.71490000
-35.76570000 -72.47480000 31.12370000
-36.78570000 -75.38840000 30.08130000
-37.71630000 -70.85450000 28.84380000
-30.32880000 -66.02140000 34.47890000
-34.13700000 -66.86680000 31.74040000
-34.73290000 -65.39640000 29.67150000
-56.58090000 7.43310000 -22.79650000
-56.87140000 7.08420000 -21.78430000
-57.87540000 10.66270000 -20.88770000
57.27430000 10.35370000 -30.47170000
57.35580000 21.94040000 -29.50460000
57.96270000 8.30010000 -28.82610000
58.42030000 6.37340000 -27.87550000
59.35860000 4.16400000 -27.93970000
58.22680000 4.55620000 -29.45680000
-62.09420000 -19.63460000 4.95730000
-60.21720000 -22.08710000 10.19740000
-61.20660000 -21.98110000 12.36100000
28.72910000 59.58370000 51.28390000
26.17340000 57.68550000 52.40490000
29.05040000 58.79320000 50.38960000
32.36800000 58.74680000 49.09200000
9.49130000 50.53640000 47.93020000
10.21440000 47.20600000 47.39200000
12.68740000 47.20380000 46.74880000
17.25910000 45.88860000 44.77240000
16.79300000 50.08000000 44.53580000
0.80280000 -21.01260000 58.20480000
0.38060000 -23.84730000 58.23590000
1.28030000 -19.79430000 56.16250000
5.67360000 -20.42470000 58.17100000
5.44780000 -20.58340000 56.13830000
6.65690000 -21.60170000 58.38830000
-30.06240000 21.17130000 -48.71950000
-30.62640000 27.62410000 -49.11880000
1.35620000 -67.26340000 -45.69450000
9.32900000 -67.01320000 -45.63340000
2.92350000 -66.01200000 -44.96360000
-4.38210000 -67.66100000 -44.74390000
-1.60170000 -66.06010000 -44.37740000
-7.80900000 -66.19020000 -42.85540000
-24.62650000 -38.75670000 -46.98020000
-26.75300000 -35.35730000 -49.74050000
-25.39030000 -42.13760000 -49.30370000
37.00270000 -61.55370000 -0.66180000
41.13380000 -63.92590000 -1.05820000
38.15530000 -62.96280000 7.56380000
-9.38200000 -53.30710000 -5.57520000
-4.93420000 -52.98600000 -5.00970000
-6.99120000 -53.30110000 -4.77700000
-17.32590000 -53.85520000 4.04150000
-16.40750000 -55.13940000 3.88990000
-17.98940000 -54.82240000 9.15130000
-23.95670000 -29.38740000 -51.76630000
-23.29720000 -31.26870000 -52.79250000
-23.58100000 -26.29870000 -49.21980000
-23.78090000 -25.13640000 -50.04110000
-23.83220000 -28.17150000 -49.49130000
5.63460000 -15.31720000 58.56890000
7.62270000 -16.55260000 59.04400000
2.90700000 -19.13550000 56.17930000
4.83630000 -19.69780000 58.52950000
3.43780000 -19.24030000 58.25370000
25.39420000 62.54410000 -56.16390000
19.35490000 65.55140000 -57.24960000
21.41960000 66.14310000 -57.60980000
21.64390000 64.90400000 -56.63820000
-10.61140000 -55.43220000 16.65740000
-12.19640000 -56.75770000 14.64570000
-7.54850000 -55.33210000 16.25960000
-16.36790000 -55.67090000 8.50380000
26.26400000 -65.79930000 35.48960000
27.02530000 -64.67210000 33.17300000
30.54750000 -65.81740000 32.22970000
21.32970000 -65.64940000 38.19290000
16.17660000 -65.05200000 40.01100000
18.64820000 -63.71260000 37.35110000
-34.01960000 -12.10250000 -43.52520000
-34.84860000 -12.38140000 -41.86410000
-33.23070000 -12.91760000 -41.17790000
-32.39470000 -16.53440000 -42.47710000
-33.14520000 -17.23960000 -43.90010000
-33.82890000 -13.41480000 -44.54530000
42.43630000 13.38910000 -26.55410000
40.78670000 -0.62260000 -28.58060000
41.71880000 9.32970000 -27.52190000
40.37290000 8.49250000 -29.13640000
-66.11240000 69.04680000 8.45900000
-66.26860000 74.63340000 2.08490000
-66.04660000 75.84280000 1.47260000
-66.02840000 75.28870000 -1.31890000
-21.34230000 -12.14940000 -52.36180000
-20.08170000 -12.21990000 -51.70760000
-20.29140000 -11.35740000 -53.23980000
-21.53260000 -17.18300000 -49.95490000
-13.85180000 -53.97710000 4.35230000
-15.63030000 -55.55220000 7.82330000
-14.12060000 -54.46180000 1.87720000
-11.41520000 -54.83780000 12.12190000
-8.99990000 -55.29530000 13.91280000
-14.28450000 -56.09770000 11.41710000
38.46360000 18.95990000 45.50770000
36.04820000 27.14870000 47.08080000
35.59030000 17.60030000 47.48750000
32.80580000 18.84220000 49.14590000
34.19470000 15.47700000 48.44100000
32.59390000 26.23920000 49.20670000
-13.74820000 23.07090000 58.56430000
-63.57460000 41.03650000 -9.26760000
-62.69500000 37.91440000 -10.95430000
-63.14410000 34.31210000 -9.62580000
-61.95400000 29.88200000 -8.62810000
-60.49570000 29.76290000 -11.84160000
-58.86540000 27.03320000 -11.30930000
-13.56850000 -54.56430000 -0.89830000
-14.03760000 -53.70100000 -1.84030000
-11.77990000 -55.74640000 -3.05320000
-12.92090000 -53.66090000 1.52510000
-32.52200000 -13.49580000 -41.86690000
-32.39220000 -15.39430000 -42.43620000
-17.73170000 17.24420000 -55.05080000
-20.67640000 16.23940000 -54.08100000
-23.55240000 17.57280000 -52.20890000
-7.91740000 5.86200000 -58.94640000
-11.49610000 6.28050000 -57.98960000
-9.42990000 14.13720000 -58.53620000
56.65720000 23.73230000 -25.99390000
56.34640000 16.55670000 -25.90070000
57.08230000 25.31210000 -24.67070000
58.63280000 25.01410000 -22.46030000
62.38980000 53.78800000 -15.84970000
62.90180000 52.54110000 -14.12940000
62.47560000 49.30660000 -17.63630000
62.15860000 56.08950000 -19.52870000
-41.31990000 39.13190000 -36.61600000
-43.33960000 37.27500000 -37.27410000
-42.47480000 39.95210000 -38.93030000
-44.71010000 34.33620000 -32.34150000
-46.86560000 33.76630000 -33.79740000
-45.30280000 34.83940000 -35.80830000
-11.46280000 -54.20540000 -0.03630000
-9.94570000 -55.81260000 -1.45200000
-9.57520000 -54.24690000 -0.94850000
-9.41760000 -54.11410000 -4.61810000
-8.33250000 -54.64720000 -4.06930000
-10.38090000 -56.10950000 -3.79530000
38.47200000 10.75210000 -42.15040000
42.91290000 11.19000000 -38.65740000
44.66030000 8.60460000 -37.27780000
-45.65690000 -47.74610000 -12.60540000
-46.54710000 -49.88720000 -9.64620000
51.37100000 -75.17790000 -10.86860000
50.56650000 -74.77570000 -13.32330000
57.45960000 -75.41940000 -11.90090000
49.31370000 -73.83750000 -12.47000000
50.13260000 -73.94230000 -6.38860000
63.42420000 52.50080000 -12.80220000
62.30600000 54.63040000 -16.30090000
63.41180000 54.65590000 -15.24390000
63.43920000 56.39150000 -17.03980000
-42.85520000 35.82770000 -33.56160000
-43.82080000 35.54900000 -35.30190000
-41.76970000 38.00390000 -35.60060000
-40.28750000 36.90080000 -34.40910000
0.22920000 -53.46950000 3.68570000
3.24560000 -53.91330000 5.56740000
-0.23980000 -53.61120000 6.43890000
-8.30190000 -55.05400000 -2.63200000
-42.33550000 46.91330000 47.27850000
-42.81470000 51.24210000 47.35240000
-43.00260000 48.45270000 45.78560000
-41.79070000 47.02130000 48.02780000
-43.32540000 53.27900000 47.17270000
45.87020000 -64.72380000 -46.58290000
48.22330000 -69.34100000 -44.47570000
54.31410000 -72.81090000 -37.63320000
55.70640000 -73.68910000 -35.50980000
52.19040000 -74.06270000 -39.82300000
-58.13840000 76.96820000 -20.76610000
-61.72870000 76.64930000 -14.50660000
-59.87610000 77.24490000 -16.29080000
-63.02230000 76.64820000 -10.61990000
-12.87810000 47.74610000 45.56920000
-13.34940000 43.44330000 45.26340000
-13.10550000 49.53130000 45.40490000
55.56820000 -21.57610000 -35.36860000
57.52410000 -10.27840000 -32.72740000
57.40270000 -21.57020000 -32.70980000
58.68310000 1.69070000 -29.51190000
57.68690000 -3.55230000 -31.72680000
57.43390000 2.18210000 -31.10300000
43.16400000 34.05800000 40.24230000
39.97100000 34.27740000 44.14940000
35.87000000 31.87040000 46.21770000
18.75340000 -52.70230000 -21.75150000
41.78800000 -64.52010000 -11.83180000
40.19400000 -64.57310000 -18.07200000
43.54450000 -65.64010000 -16.32060000
35.27540000 -64.85940000 -29.41580000
38.30490000 -51.49890000 -31.04830000
40.54030000 -51.10400000 -28.41380000
37.46130000 -36.74260000 -32.42570000
34.55590000 -37.57730000 -35.21880000
36.14770000 -45.06810000 -33.80680000
-47.79120000 22.25960000 -24.44550000
-52.26900000 25.87470000 -20.73720000
-41.93010000 22.98650000 -29.47630000
-39.02590000 22.21180000 -31.23980000
-42.15720000 20.99300000 -28.94960000
-28.59630000 3.08480000 -35.03910000
-23.35800000 19.15940000 -39.33520000
-23.75170000 8.31450000 -38.84640000
-20.43470000 9.52550000 -40.89100000
-13.26310000 5.78050000 45.00420000
-13.20540000 -1.22070000 44.64450000
-4.29520000 -3.59160000 54.59760000
-16.01690000 -4.34900000 53.09220000
-15.71790000 -3.39230000 54.34050000
43.95010000 32.43770000 39.97360000
49.30300000 35.68480000 34.54640000
46.56460000 35.15100000 36.76550000
38.97090000 30.86060000 44.26380000
43.24580000 33.50540000 39.88030000
-52.84920000 26.95710000 31.81940000
-54.71320000 28.99020000 29.41240000
-55.36490000 26.49950000 27.97990000
-60.68200000 29.93220000 17.54480000
-60.66790000 37.61600000 17.23180000
-13.28740000 36.71460000 51.15490000
-11.79200000 37.07730000 50.22110000
22.08780000 -52.40420000 -31.76040000
18.86170000 -55.83720000 -31.29980000
-14.37970000 -76.50960000 -56.02640000
-17.93920000 -77.18210000 -54.59220000
-15.97540000 -69.44310000 -56.18900000
-21.80010000 -78.15970000 -52.23950000
-19.10040000 -78.29460000 -52.69200000
-24.40290000 -78.32690000 -49.10780000
-31.34950000 19.23990000 51.65640000
-33.50130000 18.37220000 51.11940000
-30.81600000 18.42090000 52.65270000
-28.96960000 19.03430000 53.85610000
-30.02450000 19.50330000 52.35770000
62.05170000 14.40360000 8.69600000
60.38210000 18.10020000 14.11900000
61.77530000 13.93510000 11.36310000
63.11520000 11.07350000 6.42230000
42.19780000 -66.68470000 -23.82470000
43.52580000 -68.10810000 -24.20770000
38.67280000 -68.21850000 -31.21190000
35.78420000 -66.99080000 -33.22240000
33.92460000 -68.36680000 -36.02760000
-22.81360000 -16.03200000 55.68870000
-19.61530000 -16.18270000 57.61710000
-18.18450000 -14.86090000 57.63170000
-26.36700000 -16.92860000 52.56710000
64.50220000 29.21500000 -4.52600000
64.45050000 34.37260000 -1.75390000
64.50610000 38.15380000 -4.86400000
64.71680000 42.36020000 -4.20750000
10.13930000 34.74230000 53.66320000
13.90450000 34.93360000 55.43900000
13.26530000 34.69990000 54.49650000
11.81460000 35.64370000 54.06900000
40.87990000 -1.95220000 21.57730000
38.69430000 -36.37730000 24.68080000
36.42400000 -37.41470000 27.59270000
37.64250000 -30.92080000 26.09340000
47.98300000 -5.20970000 0.34870000
47.46410000 -5.22180000 3.97530000
48.57390000 0.34480000 -1.29110000
48.28930000 -5.87710000 -6.27590000
-62.33250000 46.46110000 -3.39820000
-62.24940000 47.62800000 -4.62500000
-63.67120000 45.58010000 -3.30890000
-61.70150000 49.00230000 -2.12530000
-61.91320000 52.79880000 -1.21510000
-61.20480000 50.87350000 -2.45370000
-55.83110000 -10.62930000 25.20550000
-54.21450000 -10.32710000 24.18600000
-56.10390000 -9.58500000 25.52990000
-57.72670000 -7.76660000 20.63490000
47.14070000 16.76680000 37.72930000
49.00210000 15.89010000 35.53870000
50.25830000 34.65260000 33.86410000
45.31650000 9.13970000 39.70000000
-21.73090000 -1.99030000 -47.46630000
-25.76360000 -19.70090000 -43.42360000
-26.54890000 -12.14060000 -43.45590000
-25.62650000 -11.61950000 -43.18070000
39.08570000 -73.70680000 44.88660000
34.82370000 -74.15840000 47.62970000
37.92880000 -73.81140000 44.64880000
43.79010000 -74.09930000 37.99290000
42.28800000 -73.62180000 35.29820000
36.84300000 -4.59640000 27.11200000
35.07320000 -22.98940000 29.10240000
34.26540000 -9.32330000 29.94770000
26.05050000 -26.84750000 36.73200000
28.18600000 -5.31900000 35.23600000
28.55020000 -36.58950000 34.97080000
12.79450000 35.46090000 56.74360000
13.84360000 34.90780000 56.58250000
12.49380000 35.87990000 55.43210000
13.07020000 32.35090000 57.22290000
36.43500000 -25.79260000 42.95740000
30.99490000 -20.83810000 46.18920000
31.81590000 -29.13140000 46.06110000
35.45300000 -14.28030000 44.82720000
-10.75800000 -25.97590000 59.96030000
-13.99380000 -25.01640000 59.09870000
-5.94230000 -28.90610000 59.63680000
-3.06980000 -29.04720000 59.61330000
-52.81590000 -5.32080000 23.03930000
-54.34920000 -9.48460000 23.92560000
-55.09550000 -8.58760000 22.60690000
-56.25150000 -7.90240000 23.49430000
29.73290000 5.24830000 34.30270000
34.82130000 10.38420000 29.78430000
35.87620000 -3.74780000 28.29150000
33.49110000 -5.47980000 30.76960000
3.60450000 -74.28000000 48.46280000
4.84010000 -73.35060000 50.07830000
3.69280000 -74.78450000 50.65690000
9.98520000 -71.46110000 47.81670000
9.83330000 -71.21600000 46.93690000
11.76650000 -71.77870000 47.29970000
49.79720000 26.59570000 -38.74140000
48.43740000 33.03660000 -38.19220000
49.74920000 37.92750000 -38.88860000
43.50380000 29.05450000 -42.75500000
6.16000000 -73.20490000 46.37870000
5.96770000 -72.66730000 49.43130000
5.93470000 -72.50420000 45.25010000
3.43080000 -73.09900000 45.66710000
-7.71270000 -51.87800000 56.24380000
-10.60960000 -44.75780000 56.07560000
-14.53140000 -49.27540000 55.43450000
-13.99440000 -44.90020000 58.06640000
-15.87160000 -46.97060000 56.35730000
-12.19930000 -43.56100000 56.65750000
-60.45060000 -52.30300000 -9.30780000
-60.68850000 -55.44640000 -8.18070000
-58.83010000 -54.69470000 -14.13020000
-58.85620000 -51.99050000 -14.62080000
-57.35770000 -52.66520000 -18.19910000
-59.82540000 -16.22370000 14.78970000
-60.31450000 -13.51530000 15.22750000
-60.83690000 -15.54650000 14.13940000
-58.46670000 -20.03880000 17.70910000
-58.28150000 -18.77380000 15.07190000
-60.57910000 -19.82900000 15.26740000
11.46270000 -16.52370000 58.09960000
10.29890000 -14.95310000 57.69680000
4.39400000 -13.93070000 58.15440000
13.31960000 -14.19160000 56.16060000
-26.69980000 -68.08310000 -33.53240000
-24.18280000 -69.32890000 -36.29120000
-21.68060000 -67.50330000 -37.17070000
-16.09680000 -70.35600000 -41.46730000
-12.07870000 -34.10100000 59.14710000
-11.68430000 -40.77110000 59.31160000
-17.10090000 -34.14700000 57.24240000
-15.97160000 -33.57420000 57.92780000
-11.97510000 -29.45010000 58.15410000
-49.45400000 -46.69340000 7.42180000
-48.86900000 -47.71360000 10.41920000
-48.91780000 -48.80830000 5.06310000
-49.85200000 -37.73290000 5.21810000
-49.72230000 -29.84220000 6.84950000
-34.82850000 25.51430000 -34.72750000
-37.20960000 23.03510000 -33.13260000
-40.49400000 19.99870000 -30.26670000
-36.65870000 32.22810000 -36.44980000
-36.87500000 32.01710000 -35.28350000
-39.54460000 36.61960000 -35.06550000
45.96340000 21.38840000 -44.09450000
48.36820000 24.58570000 -41.74360000
48.40270000 22.93710000 -40.76820000
47.42490000 26.32870000 -41.68060000
47.62410000 25.89480000 -39.20960000
48.80080000 24.78280000 -39.33470000
-48.54970000 26.29190000 36.54230000
-43.83970000 26.57370000 41.67980000
-48.89470000 33.59200000 36.58620000
-52.06450000 33.65420000 32.60370000
-50.52430000 31.78840000 34.99430000
6.85560000 0.75160000 -60.08070000
6.42070000 -15.20510000 -60.15590000
4.96970000 1.59920000 -59.98280000
5.27320000 8.51670000 -60.21660000
-27.77400000 -45.32160000 54.77600000
-23.62580000 -46.34590000 56.16970000
-15.97850000 -51.85410000 58.93580000
-21.97590000 -48.27620000 57.14070000
-19.16280000 -51.18630000 58.21680000
-24.24010000 -18.25670000 55.28970000
-22.27970000 -17.73000000 56.66780000
-23.74470000 -20.36750000 55.51540000
-20.76310000 -21.25680000 57.13840000
-22.59400000 -19.44750000 56.56290000
63.46020000 61.87410000 -7.67970000
63.47670000 63.13340000 -6.28300000
62.75700000 62.56110000 -4.44370000
63.79410000 67.39630000 -12.36750000
64.18430000 65.78960000 -9.99690000
63.93140000 62.71430000 -11.99500000
52.10530000 56.52920000 -37.55140000
52.36810000 58.01700000 -38.08300000
45.66670000 55.26000000 -43.82420000
41.57250000 54.89510000 -46.78810000
44.11270000 57.53630000 -43.71360000
-40.77240000 -77.54470000 44.38040000
-44.21430000 -77.06790000 41.20450000
-45.82150000 -77.59830000 39.13880000
-46.17850000 -76.21210000 39.33860000
35.97610000 -22.94620000 -50.14420000
35.34450000 -19.26630000 -49.55810000
34.68120000 -20.92650000 -47.84200000
35.82210000 -22.76360000 -50.97080000
35.62730000 -19.20700000 -50.83830000
11.06310000 11.89490000 -59.01330000
14.38640000 13.44630000 -57.98830000
14.51860000 12.47560000 -59.06070000
15.25900000 12.18490000 -58.93200000
15.89110000 13.65680000 -57.57450000
15.70660000 11.03750000 -58.31020000
31.78010000 43.58410000 49.41020000
33.46710000 47.88150000 48.33840000
31.02400000 49.20810000 49.83080000
27.90950000 50.24910000 49.19420000
25.26100000 48.18050000 46.31160000
26.75430000 48.30670000 49.45480000
60.25770000 18.90740000 -13.89190000
61.08120000 13.06090000 -14.48370000
64.15200000 59.67960000 -3.62760000
63.49700000 61.29110000 -7.30200000
62.78760000 61.84770000 -4.42980000
64.06780000 62.78500000 -2.36170000
63.16550000 62.82420000 -3.74940000
63.73770000 64.63740000 -4.50380000
19.78440000 -56.78050000 14.97030000
21.79990000 -61.37220000 29.37490000
23.00440000 -60.40820000 25.35170000
-27.17030000 -3.46820000 50.67680000
-28.27920000 8.52910000 53.27800000
-26.57920000 -2.95220000 51.27550000
-24.78640000 -2.69240000 52.20430000
-34.28370000 -43.37820000 50.87770000
-28.11930000 -50.27490000 53.92740000
-31.75980000 -47.84650000 51.66310000
-31.31550000 -49.21220000 52.71480000
18.83480000 12.34660000 -57.23170000
16.33060000 9.46660000 -58.31930000
10.97960000 12.63540000 -59.07190000
13.76350000 16.41930000 -58.94420000
13.63100000 15.58310000 -58.41220000
-16.32140000 75.09910000 45.11530000
-23.98040000 76.16390000 43.37470000
-16.23990000 76.22160000 45.46260000
-10.99080000 57.44660000 45.64820000
-13.25020000 71.86210000 45.52490000
-10.96640000 73.32050000 45.94500000
-60.10040000 27.49110000 16.25620000
-60.10650000 25.37460000 13.68940000
-59.84600000 26.69650000 10.41210000
-63.51350000 23.26310000 8.60730000
-37.41160000 -50.98380000 48.98060000
-33.11250000 -46.35270000 49.27100000
-33.12220000 -46.98950000 50.49680000
-31.56420000 -46.83870000 50.89560000
34.44670000 -13.93480000 -47.95520000
36.32800000 -11.94070000 -49.49060000
35.90010000 -16.83440000 -52.00060000
36.58730000 -16.03290000 -50.78590000
35.76540000 -17.95020000 -50.84430000
-18.75660000 -55.52140000 12.85080000
-21.99200000 -55.42110000 10.25900000
-14.38760000 -56.61410000 12.99580000
-16.76330000 -55.36490000 12.48770000
7.05810000 48.11140000 45.41450000
7.26510000 50.15510000 46.66770000
7.61900000 50.87160000 45.61560000
63.73750000 55.44790000 4.38000000
63.69530000 58.71470000 2.29890000
62.77290000 55.98620000 5.32050000
63.66120000 59.30270000 0.27050000
-60.98010000 -9.39960000 -3.52030000
-60.63080000 -11.76720000 -3.41780000
-60.28980000 -12.49820000 -2.92500000
-61.06420000 -13.37690000 2.30730000
-57.03000000 -74.59190000 -13.22560000
-56.57410000 -75.87450000 -13.30880000
-58.73870000 -75.79280000 -4.02490000
-57.82560000 -75.32990000 -9.40310000
13.32280000 -73.35880000 -46.42780000
16.29130000 -69.76380000 -45.27870000
12.18570000 -68.63090000 -45.88910000
18.96200000 -66.95190000 -43.63310000
19.58760000 -65.57250000 -42.23850000
61.30140000 42.56200000 13.63470000
61.45410000 46.34820000 12.62080000
59.74760000 44.75130000 16.82480000
62.83000000 42.34830000 8.60800000
62.41860000 47.03730000 9.85800000
62.03110000 40.09510000 11.53440000
-34.29110000 77.16830000 38.32670000
-24.87190000 76.60150000 43.42540000
-30.61870000 76.67040000 39.95280000
-22.89340000 75.11490000 43.28830000
36.68010000 -51.63920000 26.50930000
33.18160000 -17.89480000 31.06330000
30.34040000 -21.58220000 33.57300000
31.47250000 -6.73770000 32.58610000
-37.67900000 -77.33610000 -41.79130000
-38.62390000 -77.70980000 -40.19670000
-40.73810000 -76.23280000 -38.74090000
-30.44370000 -78.40790000 -40.44690000
58.91250000 44.89920000 18.16010000
57.82410000 43.72890000 17.73220000
59.25290000 42.76130000 16.63740000
55.41070000 37.82070000 25.58010000
55.08060000 42.46360000 24.29060000
-12.99570000 -61.72740000 35.10910000
-11.41750000 -62.22670000 36.26540000
-12.22790000 -63.31670000 40.20470000
-4.95740000 -64.88710000 43.78510000
-58.95610000 74.14240000 30.19490000
-57.05100000 75.67720000 33.01790000
-61.44130000 75.26970000 25.37520000
-56.59430000 73.20750000 33.87990000
51.82680000 41.29880000 31.10850000
52.24280000 39.37310000 29.73520000
52.97400000 42.39840000 29.63420000
53.06460000 41.13090000 28.62530000
53.76720000 43.28300000 27.18660000
-32.53870000 -44.82890000 48.74410000
-32.53800000 -44.81610000 51.10980000
-35.89920000 -42.65380000 48.74560000
-36.96420000 -45.09060000 48.45330000
-34.54820000 -46.84520000 50.35810000
-34.64390000 -45.03860000 47.52130000
11.58200000 -45.38500000 59.01550000
11.71810000 -43.24200000 58.23600000
8.30030000 -44.76080000 59.54850000
12.89790000 -41.80080000 57.71030000
13.71210000 -42.64740000 58.11890000
14.83040000 -39.38550000 58.03500000
-61.21300000 -66.52270000 4.60510000
-62.59530000 -46.36190000 4.95170000
-61.94740000 -57.89860000 7.94920000
-62.31530000 -48.25490000 8.68400000
-13.07270000 -56.06390000 -16.87380000
-8.52330000 -54.73970000 -15.51990000
-15.84500000 -54.90140000 -10.67880000
-20.26200000 -56.76620000 -12.43340000
8.60060000 31.29370000 44.47080000
11.08680000 22.91080000 43.80740000
8.13580000 3.76660000 44.42320000
5.62010000 13.87530000 45.04790000
4.77480000 1.93460000 45.12230000
2.68100000 12.52320000 45.59740000
-43.30420000 -58.32090000 44.54210000
-41.81330000 -42.26610000 45.96950000
-38.11910000 -42.68200000 47.80430000
-37.94300000 -44.17260000 47.99730000
-36.06930000 -43.39600000 46.80310000
-37.78320000 7.32810000 33.09960000
-31.88730000 52.96810000 38.53790000
6.58630000 -74.64240000 -59.66520000
3.90970000 -71.08560000 -60.03910000
7.85650000 -69.29730000 -60.25620000
0.64510000 -58.35230000 -60.54240000
-0.24580000 -51.14900000 -60.54010000
-0.09010000 2.92400000 45.74530000
-2.21230000 5.18140000 45.91410000
1.01560000 8.79830000 45.83610000
3.26210000 -5.40840000 45.14270000
-58.38410000 28.14900000 15.15100000
-61.64490000 30.91500000 9.17670000
-60.09250000 28.99900000 10.48150000
-59.88600000 31.56360000 15.13590000
5.53520000 51.44600000 46.56240000
5.68790000 51.40640000 47.67730000
4.80510000 51.14980000 47.55610000
5.27350000 71.50790000 45.53170000
5.86620000 58.20160000 45.18680000
1.88510000 57.99540000 45.80130000
-36.03980000 -75.61650000 -25.33900000
-34.97170000 -70.92480000 -26.44010000
-37.18380000 -72.89060000 -23.41470000
-36.63800000 -66.52870000 -19.78620000
-40.82120000 -65.66820000 -9.05060000
-38.52290000 -67.00100000 -17.85830000
-51.41700000 33.77160000 -29.86200000
-52.82070000 33.92770000 -27.19410000
-53.92180000 34.84440000 -26.51370000
-52.21240000 32.50380000 -25.60530000
-54.51870000 33.13570000 -23.07470000
-45.10730000 13.46640000 42.67270000
-41.76000000 7.74660000 40.63860000
-39.49420000 7.10460000 41.38970000
-40.37200000 9.69400000 43.39780000
-60.34940000 40.72930000 15.68710000
-61.17860000 41.93280000 16.86660000
51.65410000 -9.43570000 -39.09120000
50.43240000 -0.48850000 -38.55910000
51.14110000 6.23180000 -38.38880000
51.41450000 -4.83970000 -38.17150000
1.65750000 76.85460000 46.84960000
7.78780000 77.00030000 45.79220000
5.70420000 76.34190000 45.68030000
1.34230000 69.47390000 46.03710000
22.18330000 12.83770000 -57.25580000
20.78900000 14.55200000 -57.82170000
24.70270000 15.76720000 -56.60370000
19.44550000 12.84790000 -57.40200000
17.50510000 15.41800000 -57.50470000
18.67770000 15.50510000 -58.33500000
64.08410000 72.01640000 2.70040000
63.34300000 73.03560000 7.67750000
62.69240000 70.03630000 9.49260000
61.05610000 70.49820000 14.74960000
60.97830000 68.34230000 12.60870000
62.00070000 69.39210000 11.32480000
-53.05160000 33.73710000 -25.70420000
-53.83470000 34.48070000 -24.71930000
-53.92490000 38.09460000 -26.56200000
-53.78080000 37.78250000 -25.27700000
-52.39570000 39.69530000 -26.63990000
24.88750000 -21.10760000 -51.39600000
24.98160000 -17.54130000 -51.66610000
26.19340000 -18.91500000 -51.95100000
25.68280000 -20.28960000 -51.36390000
5.97030000 31.73340000 56.99010000
4.27740000 30.98160000 55.12950000
4.69040000 30.94140000 56.91820000
-44.03070000 -9.78210000 35.64810000
-45.66880000 -18.45180000 34.14560000
-43.71300000 -18.30510000 36.42480000
-44.25100000 -25.37600000 36.94770000
-47.63080000 -25.42930000 36.31290000
13.50840000 77.34870000 -46.57990000
13.27910000 78.06010000 -47.41610000
7.27700000 77.80810000 -47.98030000
5.51750000 78.09550000 -48.53260000
0.07550000 78.04970000 -48.33380000
-50.40750000 76.80340000 15.96530000
-52.47840000 77.48160000 9.77540000
-50.62300000 77.27760000 16.45670000
-44.31110000 75.66290000 27.49380000
-46.46240000 75.97290000 24.54710000
3.62750000 49.30890000 47.22170000
-3.24930000 51.35050000 47.67870000
-0.09750000 51.97910000 46.53120000
-53.24280000 53.93830000 -27.55500000
-52.50600000 54.96950000 -25.91100000
-53.90700000 57.66480000 -24.09470000
-13.75680000 -20.20570000 -50.24520000
-12.58450000 -22.61090000 -52.19160000
-13.06600000 -22.04190000 -54.43840000
-13.79670000 -19.91410000 -52.86930000
46.16280000 -2.68270000 38.94400000
46.95850000 2.85180000 38.01530000
48.48720000 2.89130000 34.00180000
47.07760000 0.54170000 37.72430000
47.40610000 0.24340000 36.93420000
20.69470000 -12.49020000 -53.18800000
24.79010000 -18.83780000 -51.49310000
19.11550000 -12.29420000 -53.54260000
19.60750000 -11.49460000 -54.11790000
-28.41280000 -36.40650000 49.97730000
-31.72580000 -39.57350000 48.36300000
-26.64830000 -38.58210000 50.99980000
21.92280000 65.55730000 -43.45110000
22.60430000 5.45410000 -43.10960000
24.39980000 8.82160000 -42.26960000
25.18050000 -8.63800000 -41.45200000
-25.24910000 -2.27570000 -43.23630000
-25.51040000 -0.86070000 -43.54100000
-23.76940000 -1.44860000 -44.30930000
-20.64210000 -9.05460000 -45.76820000
-23.33630000 -2.44200000 -44.31890000
-64.02670000 61.69720000 14.39970000
-65.22860000 61.63900000 9.48670000
-65.74510000 63.31910000 9.06710000
34.50480000 -65.16740000 -53.96540000
36.00380000 -74.12940000 -52.50210000
32.96030000 -74.16100000 -53.94180000
29.76160000 -75.37350000 -54.47080000
0.90260000 51.30460000 47.56740000
0.69380000 51.58330000 46.38560000
1.03140000 49.56030000 46.59210000
-0.27740000 55.86170000 45.99660000
28.48030000 17.58050000 -39.74920000
25.28100000 5.72270000 -41.67500000
22.83120000 -1.85620000 -42.84190000
27.24460000 -1.16980000 -39.96900000
-14.47890000 -22.56520000 -56.84010000
-18.66560000 -23.38160000 -54.92870000
-16.79350000 -22.15800000 -55.63600000
-14.18600000 -21.53270000 -56.17730000
-15.70270000 -20.73560000 -55.49820000
-14.78530000 -19.67870000 -54.39760000
-55.48520000 59.95120000 -26.31420000
-54.69910000 62.95090000 -27.85570000
-55.20570000 58.38580000 -27.31160000
-53.92730000 55.08090000 -27.55840000
-53.02140000 56.36770000 -25.54340000
-54.83080000 57.55610000 -25.89560000
-33.18360000 76.59850000 38.34270000
-35.76690000 76.53360000 36.34490000
-39.03880000 77.21890000 34.38000000
-45.11570000 77.33620000 27.53700000
-39.85600000 76.83880000 32.93570000
49.37440000 2.30150000 33.01370000
49.06100000 -0.87670000 35.27770000
51.19210000 -0.24420000 32.55440000
50.41540000 4.26040000 31.74960000
52.46950000 5.71220000 30.73650000
51.09340000 5.47100000 32.48250000
20.53450000 -10.94070000 -57.39080000
19.03780000 -10.55910000 -56.98850000
-37.01400000 -63.37600000 -43.40170000
-40.74510000 -61.15360000 -40.68610000
-37.48830000 -59.81250000 -43.69790000
-37.68760000 -57.48640000 -43.45730000
-32.28070000 -53.97320000 -48.10350000
-33.70640000 -56.40950000 -46.57290000
-61.63630000 -31.12470000 9.18270000
-62.15610000 -32.31670000 10.59440000
-61.27080000 -31.51990000 12.67170000
-62.39730000 -30.33990000 1.36980000
-62.07550000 -33.30810000 -3.85720000
-62.89920000 -32.07090000 1.56240000
10.26820000 -51.27280000 43.57400000
5.38870000 -51.56630000 44.49860000
6.01670000 -50.73010000 44.71300000
-2.09760000 -36.24730000 45.46340000
-26.40630000 61.18670000 -37.78030000
-23.09970000 55.46950000 -39.83930000
-24.47320000 75.18980000 -39.07040000
-20.38430000 77.95650000 -41.80520000
50.92830000 2.96040000 31.54240000
52.50650000 3.02020000 30.60100000
53.95920000 -10.18950000 29.47630000
-48.59640000 -73.29560000 -30.64450000
-49.80790000 -69.66100000 -29.70470000
-47.87360000 -69.41350000 -32.47420000
-43.60700000 -64.59010000 -37.78920000
-42.91940000 -63.31060000 -38.23880000
-0.46330000 -55.25490000 -23.87580000
2.59440000 -55.71960000 -25.79010000
2.24400000 -54.68510000 -21.21730000
-4.79100000 -59.25940000 -33.12470000
-40.44750000 -18.83990000 -41.68720000
44.85760000 5.27330000 -37.15370000
44.89920000 2.27800000 -37.16440000
40.62770000 -3.01160000 -40.79240000
40.38190000 -2.02070000 -39.88590000
42.42170000 -2.34530000 -39.18380000
12.07680000 46.34840000 46.61970000
9.45420000 46.15620000 47.05520000
11.22790000 45.03120000 45.39090000
10.06370000 51.02340000 44.03490000
12.52650000 49.86700000 43.05130000
7.37870000 46.86460000 44.84830000
56.34510000 44.21960000 -32.62850000
58.30990000 46.44190000 -29.38110000
60.79570000 43.96440000 -24.37880000
59.59150000 43.56670000 -27.27560000
-53.98540000 7.52390000 22.26110000
-54.12070000 8.93140000 23.94530000
-60.19000000 14.78800000 19.26500000
-54.07360000 2.22900000 18.71780000
-53.59920000 -0.40020000 20.49610000
-52.12170000 3.76980000 22.68610000
-62.47260000 -19.79320000 3.13230000
-62.23290000 -22.20690000 3.21440000
-60.78540000 -21.93450000 4.20300000
-61.28150000 -25.71120000 11.48560000
-59.93900000 -24.90910000 11.93140000
-62.07020000 -23.39950000 4.61730000
54.77270000 -63.12950000 30.08170000
52.41690000 -64.45580000 33.33570000
54.34900000 -69.80670000 29.92340000
26.34610000 -7.79820000 36.51550000
23.44920000 -5.75850000 38.37380000
19.74670000 -44.61970000 40.30800000
62.21460000 23.86610000 -16.21060000
63.57470000 24.95950000 -10.40050000
63.32630000 23.60730000 -9.88100000
63.39990000 25.14930000 -14.09000000
-0.22990000 -54.07860000 57.35940000
-1.58410000 -44.67670000 -60.11790000
-5.15920000 -42.32390000 -59.27020000
0.71400000 -41.03850000 -59.98100000
5.36920000 -38.75550000 -60.50330000
2.42660000 -44.35830000 -60.52490000
4.29320000 -36.78550000 -60.33000000
-45.50420000 -68.24130000 11.10850000
-46.09370000 -69.05970000 8.45060000
-45.64960000 -67.25880000 7.07670000
-44.86220000 -68.21860000 -2.70720000
-45.13250000 -66.56060000 4.20010000
-45.87760000 -68.17230000 3.88660000
13.74840000 50.06300000 46.08950000
16.11360000 51.44090000 45.42100000
12.96950000 50.78020000 46.72930000
16.35030000 51.03170000 44.80350000
-27.35930000 53.38250000 -49.83310000
-26.01500000 52.14040000 -50.61520000
-21.47130000 43.11530000 -48.49220000
-28.90420000 57.97680000 -51.00950000
-29.63110000 57.79440000 -49.80020000
-32.11220000 62.72310000 -48.49500000
-14.79620000 -61.97980000 59.09800000
-22.86400000 -62.32560000 56.28560000
-22.17500000 -64.26320000 56.80330000
-27.83880000 -51.82970000 54.75330000
48.55700000 48.01120000 35.80750000
48.24080000 40.43670000 36.13100000
48.83280000 43.15250000 34.97300000
47.37970000 37.33910000 35.32270000
47.57910000 40.28760000 32.81860000
48.68120000 42.21030000 34.40840000
-42.53710000 -65.79630000 -5.31890000
-42.49290000 -64.95010000 0.84560000
-37.98880000 -65.15250000 -11.75450000
59.20740000 -14.99260000 -29.58740000
58.72510000 -9.42600000 -30.64900000
60.69310000 -3.38210000 -26.15940000
60.81280000 -42.92260000 -28.25230000
-21.28100000 -54.27050000 56.38510000
-20.91820000 -56.13300000 57.46920000
-14.56320000 -59.32820000 58.87690000
-8.21970000 -58.55600000 60.45280000
-10.46510000 -58.13170000 59.81290000
-11.97810000 -60.70310000 59.79060000
-26.36380000 31.10700000 -46.35610000
-26.06250000 49.76880000 -49.01110000
-22.75920000 44.17680000 -48.11710000
-24.61920000 44.38430000 -47.75540000
48.02890000 40.26010000 32.06190000
50.44960000 38.92900000 30.88950000
50.47010000 41.57910000 32.64000000
50.24180000 37.22150000 32.93340000
48.29980000 39.16820000 31.92400000
47.71620000 36.72080000 34.97300000
-64.91500000 76.62300000 9.92380000
-64.62530000 76.23450000 14.88360000
-63.71200000 76.76580000 15.81690000
-61.35090000 76.62200000 23.33120000
-61.78330000 75.89500000 24.28360000
-57.27030000 76.34340000 31.76340000
15.62510000 41.67520000 42.89120000
17.76560000 42.41200000 43.37690000
15.98810000 42.59660000 44.15780000
12.87390000 41.46640000 42.80550000
14.94780000 41.61520000 42.34090000
12.48170000 39.21880000 43.61220000
-12.29270000 -54.00920000 -3.83550000
-13.59880000 -53.30480000 -4.85450000
-6.84030000 -3.42220000 -58.91030000
-7.28850000 -18.48490000 -58.79380000
-9.14750000 -1.30190000 -56.93600000
-8.72810000 -0.80440000 -58.09890000
-8.44390000 -8.68300000 -58.27190000
2.55310000 -4.28260000 54.22850000
-1.81370000 -4.96760000 54.36490000
11.51910000 -6.40670000 53.00860000
21.97340000 45.49240000 40.84140000
22.62240000 47.82630000 39.63370000
22.42100000 45.90040000 39.33730000
-19.49650000 43.11860000 -49.14200000
-21.37500000 51.00900000 -51.05630000
-19.12000000 46.44910000 -50.67520000
-20.40970000 52.45850000 -52.27800000
-20.76380000 57.80570000 -53.55150000
50.71840000 38.40630000 30.96740000
52.54010000 34.02300000 31.00330000
53.83450000 30.89110000 29.03160000
53.93010000 34.55320000 28.65190000
-12.59790000 28.47860000 58.83670000
-15.13650000 28.66590000 58.25640000
-13.44250000 31.96280000 58.08280000
17.31320000 -58.74030000 57.63280000
17.28600000 -65.55870000 57.10290000
20.40930000 -64.29730000 56.22870000
16.43820000 -55.42800000 57.97400000
19.07120000 -52.12360000 57.11200000
29.12870000 -52.32780000 -56.00740000
34.79140000 -51.89020000 -53.64200000
29.49950000 -68.09700000 -55.90580000
-34.54730000 -67.96380000 -25.33140000
-34.38440000 -66.94060000 -24.17670000
-26.46750000 -66.77640000 -32.63710000
-55.81110000 -7.78100000 -12.73550000
-56.80840000 -8.98070000 -11.47210000
-53.96310000 -8.68810000 -17.58420000
-55.24200000 -9.01120000 -18.79100000
11.44990000 31.39910000 43.68430000
15.27760000 31.60120000 42.21970000
13.54960000 21.79910000 42.97890000
11.08590000 4.85920000 43.61740000
34.82010000 -34.18370000 -52.25190000
30.90890000 -37.22010000 -54.35790000
34.86640000 -33.10120000 -52.80760000
35.78770000 -46.87610000 -52.94530000
34.88470000 -49.79810000 -53.44990000
32.13100000 -48.19910000 -54.82320000
-13.34400000 -53.98630000 -8.69030000
64.20220000 4.63220000 -6.26130000
63.99290000 6.82190000 -9.20420000
63.89480000 -4.09430000 2.91090000
64.42820000 -1.04850000 -1.49110000
64.12330000 1.83540000 -2.79010000
25.32830000 2.42830000 37.18630000
28.01700000 4.24630000 35.49370000
19.45130000 2.77660000 40.39380000
0.75560000 -23.68720000 56.81780000
5.77170000 -22.91210000 56.36520000
6.73140000 -22.40970000 57.79850000
5.78500000 -21.35870000 56.09310000
-62.67620000 -9.87040000 -4.52970000
-62.22140000 -14.46510000 -6.83930000
-62.43500000 -13.53570000 -5.07460000
-61.88740000 -27.46110000 -5.68380000
-62.43590000 -17.54200000 -4.67900000
-7.73650000 -30.74990000 -46.11890000
-5.27280000 -25.41980000 -46.61550000
-9.69900000 -26.45660000 -45.59470000
64.17620000 62.11130000 0.57070000
63.55420000 59.95300000 1.05740000
62.99400000 61.07560000 -0.79920000
64.11930000 61.33400000 1.97450000
63.42460000 61.99530000 6.19550000
63.64520000 60.15650000 4.01430000
1.42370000 -22.32350000 55.82140000
3.32120000 -20.52660000 55.47240000
2.22600000 -19.50880000 55.72730000
4.54680000 -19.83820000 56.32690000
41.32720000 57.56330000 21.29360000
40.89190000 69.92230000 22.02650000
42.33920000 71.55300000 19.60910000
44.34180000 42.75360000 16.01330000
44.71220000 66.07980000 15.00670000
45.44310000 42.36050000 13.54310000
-0.49500000 35.75210000 -56.99930000
3.68780000 37.86200000 -56.65060000
6.22500000 34.96890000 -58.20760000
-10.44290000 34.98120000 -54.47090000
-24.11770000 31.25260000 -51.97830000
-7.16300000 36.39170000 -54.08410000
-37.97030000 76.84380000 -45.47040000
-42.09880000 75.66630000 -42.15650000
-43.49030000 76.70480000 -40.73750000
-43.83700000 72.92810000 -40.61920000
-26.70720000 -20.44640000 -43.61480000
-27.32760000 -12.94270000 -43.40890000
-23.18720000 -23.45120000 -45.49810000
-25.02210000 -23.63830000 -44.53010000
-62.11050000 47.85030000 -5.61230000
-62.08330000 47.67320000 -7.38460000
-63.52850000 47.47960000 -6.98340000
-60.04720000 49.17560000 -6.60220000
-61.47470000 53.96750000 -5.62390000
-60.83520000 48.63710000 -8.25680000
64.61950000 -62.97730000 7.49320000
64.54240000 -68.67560000 6.88340000
65.17600000 -62.62010000 4.67190000
65.13310000 -44.47730000 3.89250000
65.37350000 -50.87870000 3.68020000
39.50900000 -14.19220000 23.50910000
41.55670000 -14.59660000 20.27570000
40.25810000 -24.80390000 22.42260000
43.24040000 -49.87430000 17.13360000
44.50400000 -50.54850000 14.28380000
41.86970000 -50.78190000 19.68230000
-29.24910000 -51.25200000 -34.03600000
-33.39820000 -51.50060000 -29.63250000
-27.90260000 -51.84580000 -34.81110000
-36.08970000 -48.86500000 -26.96630000
-39.01420000 -47.61290000 -23.12430000
-37.16160000 -50.88950000 -25.27610000
-35.14010000 42.51340000 -40.71810000
-37.58320000 45.83290000 -39.99400000
61.63290000 32.84960000 -20.11950000
62.44700000 35.40610000 -18.81860000
61.47760000 34.71380000 -18.00130000
61.67500000 28.51900000 -18.97470000
61.49110000 31.73790000 -18.78200000
-36.54740000 29.74780000 47.87450000
-39.92200000 27.27680000 45.21030000
-35.11000000 28.21020000 48.72760000
-34.61330000 28.16690000 49.26900000
-34.78410000 29.11160000 50.39090000
-44.78260000 48.52630000 -37.54840000
-44.83770000 50.57910000 -38.06570000
-43.31850000 51.75620000 -39.24540000
-43.44150000 50.36610000 -37.40840000
-61.41420000 -28.78870000 9.87830000
-59.34580000 -42.63470000 21.79050000
-58.15670000 -41.01160000 22.75060000
-59.33370000 -39.02000000 21.29310000
-8.42830000 77.16840000 -46.82810000
-3.10950000 78.10650000 -48.13740000
-8.26540000 78.03830000 -47.11580000
-13.27830000 77.53110000 -45.25560000
-17.50980000 77.18700000 -43.07280000
4.11870000 -42.96940000 56.12890000
6.18280000 -46.13800000 59.10030000
5.14080000 -47.30050000 57.26600000
-15.44380000 -24.61050000 -56.70560000
-18.16300000 -27.72670000 -55.60580000
-19.70170000 -23.85610000 -54.39640000
-20.79450000 -27.48860000 -53.92810000
-20.90980000 -24.16000000 -53.45990000
29.32450000 41.88330000 -54.11820000
29.88150000 42.94850000 -52.44770000
30.80650000 41.45690000 -53.34810000
25.10750000 41.16150000 -56.06080000
19.18080000 40.91900000 -57.57030000
25.65640000 42.48710000 -56.32610000
45.25110000 -5.68170000 12.36550000
43.84590000 -5.79660000 15.87230000
45.63750000 8.14340000 12.57840000
-58.27800000 -31.45840000 23.35800000
-56.62000000 -36.14310000 25.99250000
-56.25100000 -33.68990000 27.70440000
-59.33090000 -30.99950000 20.16790000
-59.47890000 -32.01190000 18.88480000
-57.95970000 -34.22980000 23.12440000
-53.54230000 50.52620000 37.09170000
-54.90710000 47.19100000 34.52720000
-51.28770000 49.87400000 37.79810000
-60.29300000 47.48830000 25.93320000
-59.91600000 51.02920000 27.25510000
54.43600000 40.45800000 26.41070000
53.44390000 36.68280000 28.23570000
52.02580000 36.87460000 31.39110000
63.54970000 3.72080000 -2.55660000
63.14460000 10.91130000 -0.26010000
60.10260000 13.89770000 2.41280000
-29.55130000 -77.28390000 51.92370000
-24.81080000 -77.40810000 53.88040000
-33.58820000 -74.64840000 50.31380000
-34.96680000 -68.80530000 50.05750000
-52.02690000 -35.36880000 -28.16990000
-55.42690000 -38.21950000 -22.69100000
28.65830000 63.70410000 -54.20540000
27.03650000 63.23980000 -55.48640000
28.00410000 64.54550000 -55.21360000
27.42320000 61.34570000 -55.24970000
29.74440000 61.72300000 -53.76470000
-60.75820000 -34.96340000 17.49710000
-59.18460000 -36.40000000 19.84430000
-59.93450000 -33.67330000 17.73260000
-61.55830000 -32.76080000 14.99020000
19.52080000 59.53130000 55.44610000
23.48020000 61.45880000 54.18640000
24.31830000 65.58930000 53.95240000
16.53940000 53.06520000 56.51620000
11.77330000 54.10720000 57.52960000
60.90430000 31.37210000 14.73490000
60.24880000 30.60080000 15.31830000
61.20840000 28.96170000 12.65120000
61.93870000 30.63990000 11.80850000
29.16480000 14.52520000 -53.89900000
29.97490000 15.44040000 -54.27180000
31.18850000 13.28340000 -53.56710000
27.46910000 8.82180000 -55.28020000
30.26810000 12.12900000 -53.66900000
-40.56530000 23.77630000 -40.86440000
-34.38840000 27.90260000 -46.47830000
-39.24670000 21.46040000 -41.86690000
-41.88910000 19.38300000 -39.23230000
-26.25440000 -66.56150000 38.07240000
-31.64100000 -67.11440000 34.16230000
-20.56100000 -64.23070000 38.93670000
-15.75430000 -65.01680000 42.20590000
-23.13160000 -65.82490000 39.38550000
15.46250000 73.46470000 57.45960000
19.22770000 72.01740000 55.77460000
20.40600000 74.51870000 55.96580000
25.14210000 71.29310000 52.99280000
32.41970000 73.17690000 49.80180000
27.72920000 75.47950000 52.78590000
-22.22400000 52.59480000 57.29710000
-31.33200000 52.96460000 54.10730000
-31.03850000 56.29410000 53.74920000
-33.20860000 50.79660000 53.06160000
45.77960000 64.14270000 -19.94540000
44.96650000 65.28030000 -21.72490000
46.20350000 18.09840000 -19.83250000
46.05860000 77.38110000 -20.49810000
46.58550000 76.95160000 -18.10820000
39.24530000 55.83170000 -49.57550000
38.56200000 54.33800000 -49.53460000
43.41560000 59.53170000 -45.29910000
41.47410000 58.01160000 -47.67550000
-29.07230000 -13.93330000 -34.56600000
-25.20070000 -16.03930000 -37.82360000
-20.89680000 -3.16760000 -40.36100000
-23.38380000 -3.24990000 -38.76160000
-22.63910000 -8.68030000 -39.47670000
55.68540000 32.39600000 23.49370000
55.11130000 32.90570000 26.45040000
55.94620000 29.51940000 24.16370000
58.86360000 26.38610000 20.02640000
60.37010000 27.66240000 15.30340000
59.15710000 30.35610000 18.04960000
-49.17520000 17.89920000 40.43480000
-51.86100000 18.38710000 36.92490000
-52.37010000 16.93420000 36.73810000
-46.49390000 20.29500000 41.38890000
-45.00040000 23.47950000 39.98980000
-49.03640000 20.76670000 38.47900000
19.66510000 -59.37610000 -31.45580000
-32.37840000 4.90550000 -47.59290000
-38.58550000 2.29240000 -42.80890000
-39.94940000 5.26650000 -41.86720000
-44.88460000 6.62980000 -37.65250000
-44.58700000 4.09290000 -37.45740000
10.41300000 76.98760000 45.10520000
15.41720000 76.37340000 42.69130000
11.57350000 76.35700000 44.14080000
23.44030000 76.63700000 38.90350000
27.61000000 76.62960000 36.46460000
-41.35840000 37.09160000 -34.15560000
-39.83450000 37.39980000 -36.27950000
-7.48230000 49.69260000 58.74840000
8.72000000 50.42510000 58.47790000
17.26890000 54.27510000 -58.63310000
17.26290000 55.07860000 -59.07700000
10.91630000 57.55790000 -60.09140000
49.61520000 39.91830000 -39.03930000
47.85770000 48.88890000 -40.69520000
49.07750000 41.84200000 -39.51940000
45.90880000 47.05910000 -42.48180000
42.15630000 73.84840000 43.08120000
40.82930000 70.14490000 43.71310000
43.57250000 69.52520000 41.37470000
32.25960000 75.59230000 50.28550000
47.55280000 -6.01310000 -12.85010000
47.39570000 -15.58730000 -13.10440000
47.73400000 -19.06870000 -11.31420000
47.94630000 -16.01900000 -9.96570000
20.00140000 59.52240000 -58.17970000
20.93840000 57.24130000 -57.68320000
18.37810000 57.16680000 -58.87460000
22.08540000 59.70670000 -57.27830000
20.93310000 60.95080000 -57.75490000
22.70200000 63.40970000 -56.68890000
-52.21120000 -55.96750000 33.52180000
-52.82730000 -56.48120000 32.46730000
-52.75160000 -59.32720000 33.67490000
-49.77410000 -58.68610000 37.80910000
-55.92940000 45.62240000 -21.68320000
5.02410000 -64.80560000 43.23690000
6.86740000 -64.82010000 41.74180000
12.23290000 -65.28500000 41.31370000
6.24920000 -61.43600000 34.49420000
-34.13040000 -3.32970000 -29.83740000
-33.78670000 -43.33650000 -29.77260000
-33.97740000 -27.48360000 -29.81840000
-43.21310000 -52.22060000 13.76170000
-45.66800000 -52.22710000 3.86150000
59.11720000 46.75810000 -9.13070000
59.84200000 43.22770000 -10.08430000
60.28410000 47.72650000 -11.26920000
62.17950000 50.65870000 -10.76060000
29.73900000 71.61760000 50.92540000
27.40570000 70.55800000 52.49240000
22.70190000 66.65440000 54.83210000
19.89980000 63.39200000 55.87780000
-59.47050000 -47.08610000 21.49400000
-60.94250000 -36.76720000 17.63650000
-60.58660000 -48.45170000 17.88820000
-55.93190000 -62.52780000 27.88710000
