-41.60167313 -147.23931885 83.56223297
-35.11170959 -147.24346924 86.89045715
-47.96757126 -147.23858643 80.03206635
-51.00489426 -147.15919495 84.56147766
-44.31473923 -147.16163635 88.07065582
-37.55979156 -147.16748047 91.42752075
-28.68904495 -147.24963379 90.01166534
-30.90718651 -147.17395020 94.71399689
-47.09563446 -146.81158447 92.63894653
-40.22025681 -147.01110840 95.93992615
-53.96681595 -146.76010132 89.20923615
-56.71680069 -145.48965454 93.61965179
-49.70130157 -145.32495117 96.94717407
-42.78712463 -145.79658508 100.24082947
-33.31478882 -147.05442810 99.28323364
-35.71081543 -146.41012573 103.69092560
-51.99737930 -143.09725952 100.87007141
-44.97282028 -143.46716309 104.15946960
-59.18638611 -143.58274841 97.56445312
-61.46140671 -141.33786011 101.10434723
-53.90677261 -140.26119995 104.14494324
-46.79196167 -140.68626404 107.57302094
-37.86747742 -144.88380432 107.86167145
-39.78664017 -142.88427734 111.75101471
-55.44893646 -136.87776184 106.68634033
-48.21267319 -137.33935547 110.31944275
-63.26301575 -137.88272095 103.64710236
-64.02830505 -133.02381897 104.30640411
-56.25191498 -132.38662720 107.79809570
-48.85937500 -132.81391907 111.61263275
-41.48288727 -140.00352478 115.46568298
-42.04100037 -134.97817993 116.99024200
-33.68502426 -136.52978516 119.58224487
-33.23367691 -141.51681519 118.16796112
-24.79565430 -137.62928772 121.56088257
-24.24550629 -142.30479431 119.88246918
-41.93183517 -129.26597595 117.00804901
-33.62557983 -130.76780701 119.64988708
-49.08953857 -127.68505096 112.03651428
-49.27286911 -122.17304993 112.28966522
-41.84074783 -123.38279724 116.93469238
-33.54978561 -124.71803284 119.58376312
-24.92422295 -131.88177490 121.70399475
-25.00392532 -125.73973846 121.62859344
-16.36065102 -126.44596863 123.49119568
-16.08841133 -132.66854858 123.61268616
-7.57015610 -126.73667908 124.33576202
-7.16374111 -132.91424561 124.41111755
-25.10996819 -119.48549652 121.53429413
-16.60256958 -120.13225555 123.35946655
-33.55443573 -118.55867004 119.49138641
-33.61645508 -112.31291199 119.38211823
-25.23980713 -113.14875031 121.43458557
-16.82656288 -113.74403381 123.22729492
-7.93054199 -120.44598389 124.23419952
-8.25768757 -114.06744385 124.13085938
0.32155201 -114.25285339 124.65266418
0.74046201 -120.61235046 124.74903870
8.85604858 -114.43585968 124.32703400
9.34783745 -120.79129791 124.38412476
-8.56245899 -107.65618134 124.02619171
-0.06666400 -107.85488129 124.55351257
-17.04403305 -107.33081055 123.09194183
-17.25853348 -100.90550232 122.95251465
-8.84974670 -101.22736359 123.92269897
-0.42650300 -101.43305969 124.45240784
8.39756966 -108.03601837 124.26152039
7.97283602 -101.60870361 124.19100952
16.27700996 -101.73647308 123.48741913
16.75540924 -108.17921448 123.54474640
24.37620163 -101.80873871 122.02449036
24.88715935 -108.27346039 122.04207611
7.58228302 -95.17195129 124.11930847
15.83790970 -95.28717804 123.42005920
-0.76031601 -95.00393677 124.35090637
-1.07261705 -88.57131958 124.25281525
7.22171593 -88.73085022 124.04911041
15.43487072 -88.83585358 123.34617615
23.91054344 -95.34416199 121.99668121
23.48567390 -88.88269043 121.96245575
31.38067818 -88.84796143 120.14170074
31.81500244 -95.30864716 120.14940643
39.07309723 -88.71355438 117.79590607
39.49539566 -95.15322876 117.75442505
23.09744835 -82.42755127 121.92765045
30.98332214 -82.39553070 120.12900543
15.06460571 -82.38740540 123.26910400
14.72305298 -75.94246674 123.19392395
22.74167442 -75.97833252 121.89614105
30.61938477 -75.95022583 120.11588287
38.68619537 -82.27910614 117.82513428
38.32986450 -75.84964752 117.84544373
45.84554672 -75.72107697 115.04869080
46.18759155 -82.12877655 114.98769379
53.09076309 -75.61021423 111.59328461
53.41169739 -81.99639893 111.47435760
37.99869537 -69.42494202 117.85850525
45.52717209 -69.31564331 115.10488129
30.28489685 -69.51097107 120.10514832
29.97681618 -63.07717133 120.09549713
37.69281387 -63.00442886 117.87020874
45.23405838 -62.91213608 115.16167450
52.78792953 -69.22373199 111.69666290
52.50379944 -62.83660507 111.78546906
59.51507568 -62.81995392 107.91362762
59.81001282 -69.20092773 107.83927155
66.24347687 -62.90533447 103.62928009
66.51256561 -69.30165863 103.51686096
52.23926926 -56.44843674 111.86130524
59.24134827 -56.43703842 107.97738647
44.96480942 -56.51028442 115.21721649
44.71503067 -50.11010361 115.26696777
51.99200439 -50.06005859 111.92591095
58.98612976 -50.05353928 108.03234863
65.98986053 -56.51102829 103.72570038
65.74361420 -50.11927414 103.79860687
72.33516693 -50.23534012 99.39364624
72.54070282 -56.64269638 99.26515961
78.33742523 -50.38707352 94.31226349
78.55116272 -56.81024170 94.20903778
65.51087952 -43.73038864 103.86203766
72.13830566 -43.83338547 99.50774384
58.74610138 -43.67086029 108.07939148
58.52001953 -37.28899765 108.11809540
65.29026794 -37.34391022 103.91489410
71.94902039 -37.43610001 99.60614014
78.13175964 -43.97103882 94.40322876
77.93482971 -37.56163025 94.48206329
83.72302246 -37.69308853 89.20152283
83.90322876 -44.11369324 89.12137604
89.16563416 -37.81246185 83.62326813
89.32234955 -44.23954010 83.54116058
77.74708557 -31.15839386 94.54864502
83.55117035 -31.28019142 89.27103424
71.76733398 -31.04277611 99.68898773
71.59217834 -24.65293312 99.75653076
77.56796265 -24.76042747 94.60404968
83.38723755 -24.87390137 89.33078003
89.01468658 -31.39329720 83.69476318
88.86920166 -24.98108673 83.75634766
93.87445068 -25.07551575 77.80022430
93.99800873 -31.49078178 77.73851013
98.64105988 -25.14644432 71.68070984
98.74543762 -31.56159782 71.62319946
88.72882843 -18.57485771 83.80865479
93.75559235 -18.66630745 77.85433197
83.23062134 -18.47310638 89.38146210
83.08069611 -12.07711601 89.42350006
88.59298706 -12.17401123 83.85205841
93.64072418 -12.26269054 77.90106964
98.53599548 -18.73732948 71.72827148
98.43096161 -12.33376598 71.76721954
102.60596466 -12.39235497 65.21760559
102.67995453 -18.79337883 65.17406464
106.37155914 -12.43683434 58.43914413
106.42138672 -18.83325958 58.39725494
98.32373047 -5.93531704 71.79705048
102.52037048 -5.99619484 65.24773407
93.52892303 -5.86420918 77.94049835
93.41954803 0.52955502 77.97225189
98.21319580 0.45834199 71.81691742
102.41729736 0.39529401 65.26084900
106.30838013 -6.04492903 58.46844864
106.22898865 0.34272999 58.48383331
109.74224854 0.29900199 51.55501938
109.80213928 -6.08358908 51.53988266
112.81639862 0.25996599 44.42193985
112.86670685 -6.11652803 44.41160965
106.13114929 6.72639894 58.48422623
109.67427063 6.67826891 51.56216049
102.30107117 6.78241396 65.25962067
102.18854523 13.16573048 65.25443268
106.02443695 13.10643959 58.47476959
109.60078430 13.05439091 51.56243896
112.76085663 6.63388014 44.42678452
112.70063019 13.00516701 44.42611694
115.17978668 12.95311737 37.05788040
115.23246002 6.58678198 37.06095123
117.10961914 12.89455318 29.53128052
117.18271637 6.53276300 29.54323578
112.63823700 19.37384987 44.42062759
115.12644196 19.31725121 37.05109406
109.52383423 19.42757988 51.55678558
109.44521332 25.79801941 51.54628754
112.57514191 25.74012566 44.41129303
115.07556152 25.67938614 37.04161835
117.04109192 19.25457382 29.51721764
116.99253082 25.61306763 29.50449753
118.49224091 25.54049110 21.87661934
118.54834747 19.18479919 21.89591408
119.51786804 25.45954132 14.18027401
119.56588745 19.10503006 14.20342541
116.95684052 31.97009277 29.49126244
118.46162415 31.89489555 21.85862732
115.03135681 32.03976059 37.03085327
114.99715424 38.39862823 37.02013016
116.92292786 38.32578659 29.47546005
118.43908691 38.24810410 21.83940887
119.51641083 31.81278610 14.15993404
119.52719879 38.16474152 14.13893032
120.17424774 38.07709122 6.39927197
120.14511871 31.72554970 6.42449522
120.38229370 37.98643112 -1.35569704
120.36640167 31.63481712 -1.32466805
119.53321838 44.51549149 14.11554909
120.20846558 44.42723083 6.37281799
118.41698456 44.60021210 21.81805992
118.39833069 50.95119858 21.79472733
119.53528595 50.86502838 14.08984470
120.24848175 50.77596283 6.34531307
120.40246582 44.33655167 -1.38802505
120.44418335 50.68511200 -1.42163301
120.11479187 50.59486389 -9.17474365
120.08341217 44.24594879 -9.13417530
119.29214478 44.15741348 -16.83827019
119.32987213 50.50679779 -16.88755989
120.51766205 57.03210068 -1.45641994
120.17801666 56.94220734 -9.21772003
120.30425262 57.12331390 6.31740379
120.39732361 63.46910477 6.29064798
120.60560608 63.37754440 -1.49182999
120.26678467 63.28772736 -9.26268005
119.38120270 56.85468674 -16.93789673
119.44209290 63.20093536 -16.98919487
118.04821014 63.11904907 -24.62814522
118.00907135 56.77188492 -24.57101631
116.17841339 56.69355011 -32.10156631
116.23992920 63.04054642 -32.17436981
119.51270294 69.54541016 -17.04192734
118.11572266 69.46446991 -24.69060898
120.37037659 69.63129425 -9.30885983
120.48480225 75.97238922 -9.35623837
119.60214996 75.88728333 -17.09761429
118.22306061 75.80703735 -24.76079369
116.32197571 69.38631439 -32.25134659
116.42876434 75.73011780 -32.33354950
114.11962891 75.65699768 -39.76246643
114.02954102 69.31172943 -39.67352676
111.29349518 69.23862457 -46.94312286
111.38077545 75.58408356 -47.04319000
116.58424377 82.07077789 -32.42755127
114.23284149 82.00126648 -39.85731888
118.36789703 82.14585876 -24.83824158
118.54112244 88.47824097 -24.92073822
116.77539062 88.40589905 -32.52962112
114.38224030 88.34228516 -39.96249008
111.47543335 81.93053436 -47.14410019
111.58735657 88.27684021 -47.24988937
108.35649872 88.20717621 -54.35615921
108.24396515 81.85839081 -54.23490143
104.51519775 81.78376770 -61.07973099
104.63112640 88.13182831 -61.21860504
111.74495697 94.62114716 -47.37231064
108.48694611 94.55764008 -54.48361969
114.56721497 94.67802429 -40.07759476
114.77015686 101.00216675 -40.19705582
111.95767212 100.95511627 -47.51554489
108.66793823 100.90070343 -54.63277054
104.76515961 94.48247528 -61.36497879
104.92929840 100.82888031 -61.52433014
100.80038452 100.74134827 -68.19289398
100.66313934 94.39537048 -68.03079224
95.98490143 94.30801392 -74.30961609
96.17012024 100.64784241 -74.52803802
105.14089203 107.16397858 -61.70520401
100.97161102 107.07984924 -68.37110901
108.90225220 107.22815704 -54.80418015
109.15351868 113.51691437 -54.97940445
105.39308167 113.46099854 -61.90388489
101.18621826 113.38278961 -68.57129669
96.38140869 106.97957611 -74.75920105
96.60443115 113.28023529 -74.99116516
91.64398956 113.16488647 -81.12232971
91.44905853 106.86615753 -80.88757324
86.27640533 113.04992676 -86.90063477
86.09194183 106.75171661 -86.64858246
96.83448792 119.52649689 -75.21926880
91.85140991 119.41587830 -81.35904694
101.43978882 119.62276459 -68.79006958
101.70568848 125.72568512 -69.00947571
97.06965637 125.64237213 -75.44232178
92.07302856 125.54669952 -81.59902954
86.46978760 119.30313110 -87.15309143
86.67388916 125.45301819 -87.40738678
80.83141327 125.36190033 -92.76323700
80.64591217 119.18941498 -92.49596405
74.72500610 125.25640106 -97.79956818
74.54898071 119.05967712 -97.50862885
86.89097595 131.44126892 -87.66525269
81.03662872 131.40509033 -93.04376221
92.30659485 131.48526001 -81.84013367
92.54173279 137.23603821 -82.07286835
87.11351776 137.25408936 -87.91778564
81.25901794 137.28822327 -93.33236694
74.90933228 131.34625244 -98.09236908
75.10632324 137.29895020 -98.39095306
68.63986969 137.26260376 -103.02488708
68.45616150 131.24597168 -102.69953918
61.85800934 137.15475464 -107.17291260
61.70133972 131.07893372 -106.83967590
75.30391693 143.08555603 -98.67769623
68.82863617 143.14356995 -103.35050201
81.47686768 142.98197937 -93.60224152
81.67742920 148.36126709 -93.83702850
75.48860931 148.54241943 -98.93299866
69.00157928 148.67883301 -103.64063263
62.02940750 143.11555481 -107.53207397
62.18581772 148.71122742 -107.85630035
55.12629318 148.65202332 -111.64879608
54.96142197 143.01345825 -111.24061584
47.79834747 148.52859497 -114.89746857
47.56929016 142.86741638 -114.25358582
62.29541779 153.68908691 -108.08078003
55.21255112 153.62637329 -111.87779236
69.13508606 153.65556335 -103.85528564
69.21630859 158.13508606 -103.97874451
62.35361099 158.14782715 -108.20246887
55.24630737 158.07221985 -111.98525238
47.89987946 153.50091553 -115.20690155
47.93543625 157.93682861 -115.33690643
40.39999390 157.78068542 -118.13357544
40.36211395 153.33580017 -117.98966217
32.69526672 157.61676025 -120.41734314
32.63663483 153.15020752 -120.18415833
47.93685150 162.02223206 -115.36750793
40.41303635 161.86051941 -118.18067932
55.27904129 162.13677979 -112.08012390
55.41453552 165.65795898 -112.37157440
48.05197525 165.54850769 -115.66438293
40.52270508 165.35935974 -118.51036835
32.71420288 161.67929077 -120.47041321
32.78162766 165.19601440 -120.70692444
24.91760826 164.96031189 -122.42651367
24.88233757 161.43879700 -122.27718353
16.96990013 164.60723877 -123.75244141
16.95682144 161.09269714 -123.67629242
33.04247665 168.01087952 -121.70840454
25.09633827 167.89093018 -123.34954071
40.85218430 168.12985229 -119.51007080
41.52477646 169.67298889 -121.54686737
33.58253098 169.56698608 -123.79193115
25.49201393 169.62338257 -125.41900635
17.06373215 167.70805359 -124.50170898
17.31908989 169.60292053 -126.54885864
9.09965324 169.45471191 -127.18383026
8.98544407 167.40132141 -125.24819946
0.86055702 169.27853394 -127.24493408
0.87311602 167.22900391 -125.27484894
17.64331627 170.18569946 -129.13546753
9.25486279 170.17398071 -129.76612854
25.97422981 170.23875427 -127.95014191
26.46160698 170.28782654 -130.52317810
17.96345520 170.18637085 -131.70570374
9.41062641 170.18328857 -132.38850403
0.84267902 170.11648560 -129.81530762
0.82166499 170.14544678 -132.47344971
-7.75902891 170.16806030 -132.01876831
-7.55587101 170.15139771 -129.30049133
-16.29382324 170.27740479 -131.04487610
-15.90345478 170.16809082 -128.25529480
0.80076802 168.63458252 -134.76690674
-7.94233179 168.73533630 -134.45068359
9.53782940 168.58236694 -134.57514954
9.56029892 165.26774597 -134.88026428
0.79548699 165.30397034 -135.14366150
-7.97830009 165.31742859 -134.84020996
-16.64728928 168.79669189 -133.54176331
-16.71227455 165.25978088 -133.91018677
-25.37677574 165.19819641 -132.44439697
-25.27484512 168.78398132 -132.03897095
-33.81881332 168.81428528 -130.10820007
-33.95391846 165.19616699 -130.51800537
-16.73657227 161.75714111 -133.96794128
-25.42642403 161.68801880 -132.58776855
-7.99140596 161.85414124 -134.89277649
-8.00401115 158.14154053 -134.91905212
-16.76388168 158.04940796 -134.04542542
-25.46387291 157.98765564 -132.67213440
-34.01269150 161.65547180 -130.64418030
-34.05459213 157.92897034 -130.70779419
-42.48724365 157.86756897 -128.14411926
-42.42897034 161.60969543 -128.06872559
-50.78929901 157.81880188 -125.19927979
-50.72031021 161.57437134 -125.14223480
-34.09121323 154.09532166 -130.74726868
-42.53603745 153.98385620 -128.18351746
-25.49674416 154.18518066 -132.73333740
-25.53046417 150.11807251 -132.78599548
-34.12854385 149.99996948 -130.77731323
-42.58469009 149.84532166 -128.21214294
-50.84911346 153.91226196 -125.22550964
-50.90694046 149.75636292 -125.23913574
-59.01807022 149.74131775 -121.74296570
-58.93529892 153.89607239 -121.70720673
-66.81945038 149.80839539 -117.60385132
-66.71648407 153.95457458 -117.56058502
-50.96495056 145.25692749 -125.24570465
-59.09793472 145.24334717 -121.76944733
-42.63656998 145.34162903 -128.23678589
-42.69084549 140.54617310 -128.25799561
-51.02200699 140.47756958 -125.24617004
-59.17254639 140.46656799 -121.78530121
-66.91931152 145.30204773 -117.64122009
-67.01736450 140.50659180 -117.67838287
-74.47047424 140.60433960 -112.88584137
-74.40470123 145.44479370 -112.92219543
-81.74699402 140.76948547 -107.84254456
-81.66567230 145.68515015 -107.87296295
-67.11402893 135.49397278 -117.71958160
-74.53955078 135.54721069 -112.86540985
-59.23675156 135.47718811 -121.78348541
-59.28759766 130.25021362 -121.75754547
-67.19040680 130.24600220 -117.73073578
-74.60284424 130.26148987 -112.84566498
-81.81782532 135.65324402 -107.81119537
-81.88201141 130.31497192 -107.78292084
-88.84244537 130.36886597 -102.30213928
-88.81372833 135.75532532 -102.38428497
-95.46582794 130.38673401 -96.43057251
-95.42536163 135.79737854 -96.50507355
-81.94029999 124.73342133 -107.75746918
-88.87353516 124.73533630 -102.23405457
-74.66178131 124.73551178 -112.82751465
-74.71769714 118.98229218 -112.81367493
-81.99151611 118.93750000 -107.73403931
-88.90019226 118.89909363 -102.17491913
-95.48140717 124.73935699 -96.34045410
-95.47894287 118.89479065 -96.24678802
-101.67287445 118.94115448 -89.93415833
-101.61685944 124.77535248 -89.97454834
-107.37420654 124.87425995 -83.27172089
-107.38412476 119.05443573 -83.18862152
-95.47924805 112.89272308 -96.17637634
-101.73608398 112.93283844 -89.92112732
-88.91964722 112.90450287 -102.12430573
-88.96080017 106.79644775 -102.11772919
-95.59503174 106.77803802 -96.24710846
-101.80079651 106.80314636 -89.93326569
-107.43761444 113.03626251 -83.15787506
-107.49579620 106.88456726 -83.15395355
-112.81033325 106.99546814 -76.06613922
-112.72832489 113.17378235 -76.06537628
-117.52113342 107.11050415 -68.56432343
-117.46890259 113.31551361 -68.59282684
-107.47099304 100.66446686 -83.11293793
-112.73474884 100.75112915 -75.98027802
-101.86755371 100.60480499 -89.97392273
-101.84202576 94.36271667 -89.94077301
-107.37807465 94.40467072 -83.02530670
-112.49186707 94.47360992 -75.78562164
-117.44161224 100.84639740 -68.46769714
-117.22991943 94.55378723 -68.29573822
-121.52750397 94.64635468 -60.54577637
-121.75115967 100.94985199 -60.72120667
-125.54891968 101.06449127 -52.70179749
-125.26172638 94.75344849 -52.50667191
-117.20215607 88.25756836 -68.22728729
-121.44229126 88.34046936 -60.43959045
-112.42213440 88.18920898 -75.69767761
-112.40712738 81.90156555 -75.63535309
-117.21545410 81.96099091 -68.17736053
-121.43772125 82.03401947 -60.37338638
-125.12496185 88.43776703 -52.37616730
-125.10625458 82.11984253 -52.29815292
-128.37832642 82.21575165 -44.05241776
-128.41337585 88.54531860 -44.13854599
-131.09678650 88.66308594 -35.67529297
-131.07670593 82.32173157 -35.59742355
-125.13122559 75.80313873 -52.24250031
-128.36965942 75.88722992 -43.98169327
-121.46549225 75.72882080 -60.32278061
-121.49169922 69.42308044 -60.27114868
-125.15652466 69.48685455 -52.18994141
-128.38896179 69.55964661 -43.92572403
-131.06059265 75.98129272 -35.52692032
-131.04975891 69.64207458 -35.46314240
-133.21493530 69.72616577 -26.86393738
-133.21537781 76.07537842 -26.92065048
-134.70210266 76.15987396 -18.17181778
-134.69606018 69.80413818 -18.12159348
-131.04779053 63.30453491 -35.40608215
-133.22319031 63.37897110 -26.81262207
-128.41807556 63.23303223 -43.87699127
-128.44729614 56.90677261 -43.83094788
-131.06707764 56.96818161 -35.35789871
-133.23965454 57.03345108 -26.76558685
-134.70043945 63.45066071 -18.07521820
-134.72169495 57.09913635 -18.03279877
-135.67214966 57.15625000 -9.22536755
-135.65644836 63.50983047 -9.26282215
-135.89761353 63.54653931 -0.39276701
-135.89633179 57.19523621 -0.36112300
-134.75404358 50.74927902 -17.99275208
-135.69039917 50.80441666 -9.18756485
-133.26338196 50.68927765 -26.72164726
-133.29289246 44.34640884 -26.67957306
-134.79333496 44.40099335 -17.95322990
-135.71263123 44.45407867 -9.14816093
-135.91528320 50.84580231 -0.32823801
-135.96394348 44.49771118 -0.29301900
-135.64958191 44.52752686 8.57017517
-135.63478088 50.87195969 8.54105186
-134.79606628 50.88060760 17.38619423
-134.79855347 44.53890610 17.40676689
-136.03616333 38.15029907 -0.25433600
-135.70712280 38.18286896 8.60412693
-135.74047852 38.10490799 -9.10587883
-135.77580261 31.75681305 -9.06116104
-136.12251282 31.80275345 -0.21261100
-135.79803467 31.83658218 8.64190483
-134.84407043 38.19604111 17.43279076
-134.94869995 31.85079956 17.46588135
-133.59930420 31.85144997 26.23082161
-133.51322937 38.19649506 26.20673943
-131.56764221 38.18872070 34.87094116
-131.64988708 31.84281731 34.88817978
-135.09060669 25.50150299 17.50281525
-133.70774841 25.50167084 26.25612259
-135.90667725 25.48706055 8.68216610
-136.02775574 19.13323784 8.72282219
-135.23709106 19.14667511 17.53858948
-133.83564758 19.14638519 26.28247070
-131.74119568 25.49234772 34.90329742
-131.84382629 19.13698006 34.91810608
-129.26623535 19.12700272 43.40671539
-129.11303711 25.48108292 43.37992859
-126.07649231 25.48073196 51.72272491
-126.16139984 19.12595367 51.72311401
-131.96159363 12.77664566 34.93489456
-129.40184021 12.76884747 43.42663956
-134.00817871 12.78540707 26.31513977
-134.13728333 6.41784620 26.33873749
-132.06234741 6.41108322 34.94788361
-129.50199890 6.40606689 43.43601227
-126.25711060 12.76808453 51.72762299
-126.35446167 6.40677786 51.73411179
-122.74872589 6.41725779 59.84925461
-122.66250610 12.77851391 59.84858322
-118.57416534 6.43805885 67.68776703
-118.49155426 12.80016613 67.69126892
-126.44660187 0.04176800 51.74141693
-122.82559967 0.05267600 59.84703827
-129.58830261 0.03890700 43.44446564
-129.66400146 -6.33220100 43.45227432
-126.53145599 -6.32696199 51.74854279
-122.89149475 -6.31525612 59.84173203
-118.65959930 0.07288200 67.68714142
-118.73966980 -6.29530001 67.68583679
-114.15200043 -6.27433300 75.28263092
-114.06645966 0.09445400 75.28273773
-108.94358063 -6.26276302 82.46894073
-108.85456848 0.10540100 82.46788025
-118.81034088 -12.66636944 67.68269348
-114.21540070 -12.64551353 75.27292633
-122.94812775 -12.68656254 59.83479309
-123.00135803 -19.06069565 59.82983398
-118.87197113 -19.03988647 67.67871094
-114.25357819 -19.01866150 75.25196075
-109.02630615 -12.63244724 82.47211456
-109.11406708 -19.00310516 82.48609161
-103.46805573 -18.98984909 89.34181976
-103.39125061 -12.62269306 89.33476257
-97.41442108 -18.97452164 95.85724640
-97.34725189 -12.61297226 95.85482025
-109.20263672 -25.37439728 82.50774384
-103.53908539 -25.35715866 89.35256958
-114.29862976 -25.39303780 75.24137115
-114.37481689 -31.76859856 75.25715637
-109.27899933 -31.74664879 82.52656555
-103.60060883 -31.72482109 89.36280060
-97.47152710 -25.33605766 95.85955811
-97.52282715 -31.69776154 95.86453247
-90.97852325 -31.66709900 101.91367340
-90.90910339 -25.31191826 101.88256073
-84.07180023 -31.63232040 107.56121063
-83.99239349 -25.28261375 107.50904083
-97.57452393 -38.05981827 95.87704468
-91.04316711 -38.02276993 101.94684601
-103.65721130 -38.09295654 89.37552643
-103.71657562 -44.46165085 89.39746857
-97.61824799 -44.42231750 95.88899994
-91.10123444 -44.37882996 101.98011780
-84.14106750 -37.98238754 107.60940552
-84.20127106 -44.33269882 107.65443420
-76.84955597 -44.28848648 112.74831390
-76.80263519 -37.94329071 112.71145630
-69.20659637 -44.24732590 117.40817261
-69.14977264 -37.90724945 117.34327698
-84.25123596 -50.68316269 107.69430542
-76.89048767 -50.63386917 112.78585815
-91.15110779 -50.73516083 102.01189423
-91.19112396 -57.09238434 102.03930664
-84.28907013 -57.03433228 107.72531128
-76.92751312 -56.97991943 112.82456970
-69.25283051 -50.58857727 117.46458435
-69.28837585 -56.93137741 117.50893402
-61.37619400 -56.89378357 121.72219086
-61.33300018 -50.55240250 121.65888214
-53.15203476 -50.53042603 125.31300354
-53.21039200 -56.87221146 125.41401672
-69.31719971 -63.27602768 117.54476166
-61.40815353 -63.23788071 121.76634216
-76.95794678 -63.32716370 112.85763550
-76.97914886 -69.67560577 112.88039398
-69.34137726 -69.62216949 117.57554626
-61.43363190 -69.58383942 121.80191040
-53.25175858 -63.21736145 125.48136139
-53.28004837 -69.56448364 125.52621460
-44.86198807 -69.56235504 128.59101868
-44.84566116 -63.21426392 128.57304382
-36.27342606 -63.22669220 131.15110779
-36.28418350 -69.57399750 131.15557861
-53.29454803 -75.91233063 125.54857635
-44.86852264 -75.91065216 128.60031128
-61.45429611 -75.93091583 121.83311462
-61.47004318 -82.27813721 121.86028290
-53.29282761 -82.25965118 125.54256439
-44.86648178 -82.25799561 128.60290527
-36.28391266 -75.92169952 131.15150452
-36.27458572 -82.26876831 131.14268494
-27.53659058 -82.28940582 133.09632874
-27.54405975 -75.94288635 133.08543396
-18.70582771 -75.97109222 134.46127319
-18.69939423 -82.31719208 134.49008179
-36.25632095 -88.61423492 131.12586975
-27.51998138 -88.63550568 133.10140991
-44.85879898 -88.60321045 128.60615540
-44.84420013 -94.94573212 128.60382080
-36.23773956 -94.95743561 131.12828064
-27.49981308 -94.98055267 133.11791992
-18.68355942 -88.66432953 134.51548767
-18.66382599 -95.01213837 134.55998230
-9.75556946 -95.05196381 135.34089661
-9.77920055 -88.70083618 135.31060791
-0.83146101 -95.09880829 135.64859009
-0.85568702 -88.74437714 135.61325073
-18.64075089 -101.36039734 134.60705566
-9.72953033 -101.40545654 135.39175415
-27.47853851 -101.32398224 133.14700317
-27.45418358 -107.66622162 133.16368103
-18.61620522 -107.70945740 134.64909363
-9.70353985 -107.76160431 135.46258545
-0.80310601 -101.45709229 135.66592407
-0.77255100 -107.81923676 135.68739319
8.14391422 -107.87455750 135.45375061
8.11096764 -101.50785065 135.42446899
17.00484467 -107.91973877 134.55088806
16.96525002 -101.55099487 134.48545837
-0.74180400 -114.18539429 135.71783447
8.17830086 -114.24658966 135.48060608
-9.67704391 -114.12084961 135.50566101
-9.65116024 -120.48262787 135.49972534
-0.71400601 -120.55523682 135.70283508
8.20949078 -120.62406158 135.47665405
17.04303741 -114.29463196 134.58010864
17.07382584 -120.67462158 134.54486084
25.84539223 -120.70420837 133.02659607
25.81270027 -114.32509613 133.06845093
34.52002335 -120.71083069 131.06916809
34.48230743 -114.33451080 131.10531616
17.08874893 -127.05843353 134.39907837
25.85997963 -127.08577728 132.88681030
8.22696686 -127.00547791 135.32896423
8.23026943 -133.38438416 135.04924011
17.08158302 -133.43966675 134.12420654
25.83873558 -133.46087646 132.59069824
34.53232956 -127.08773804 130.92257690
34.49725342 -133.45404053 130.61361694
42.97166443 -133.41755676 128.01087952
42.99372482 -127.06083679 128.24729919
51.28264618 -127.02037048 125.13441467
51.26145935 -133.36688232 124.91518402
34.42312622 -139.80409241 130.20193481
42.89329147 -139.75225830 127.64179230
25.78274918 -139.82411194 132.17234802
25.70300102 -146.15141296 131.70123291
34.31479645 -146.10815430 129.72113037
42.75642395 -146.02679443 127.15252686
51.15356445 -139.68211365 124.50852203
50.99117279 -145.93130493 124.01883698
58.99444580 -145.84643555 120.37388611
59.16896820 -139.60823059 120.83721924
66.94123077 -139.55014038 116.72401428
66.75050354 -145.79800415 116.27869415
50.77422714 -152.07940674 123.47357178
58.75175858 -151.98283386 119.85485840
42.57312012 -152.20843506 126.59714508
42.35881805 -158.15760803 125.99242401
50.51824951 -158.00010681 122.87934875
58.43770218 -157.88424683 119.24277496
66.46780396 -151.94740295 115.75562286
66.13180542 -157.87454224 115.19548798
73.50798798 -157.90037537 110.63853455
73.87042999 -151.94274902 111.16360474
80.94208527 -151.94804382 106.11852264
80.55489349 -157.93627930 105.62831116
65.63049316 -163.44944763 114.37876129
72.95415497 -163.48616028 109.85874939
58.00141525 -163.44635010 118.40458679
57.24196625 -168.25276184 116.91176605
64.78253174 -168.28582764 112.95572662
72.01927185 -168.31762695 108.49966431
79.95568848 -163.51748657 104.88911438
78.94474792 -168.33387756 103.60330963
85.53220367 -168.33531189 98.27276611
86.63510132 -163.53044128 99.50621033
91.78083801 -168.35136414 92.54232025
92.93206024 -163.47250366 93.67544556
77.42518616 -172.21531677 101.60890961
83.87551880 -172.20280457 96.37348938
70.60507965 -172.18057251 106.37570190
68.30501556 -173.59030151 102.88719940
74.90173340 -173.62907410 98.27111053
81.12912750 -173.62312317 93.20383453
89.96749115 -172.26405334 90.72811890
86.92848206 -173.56628418 87.67174530
92.32607269 -173.52366638 81.74725342
95.64414215 -172.30160522 84.65963745
97.32796478 -173.46475220 75.48072815
100.86112976 -172.26051331 78.18766785
83.39116669 -172.71327209 84.10799408
88.56445312 -172.66281128 78.44699097
77.84502411 -172.80474854 89.40942383
93.38979340 -172.68641663 72.47338867
97.89402771 -172.72808838 66.22343445
71.90107727 -172.90002441 94.30377960
65.60659790 -172.89990234 98.79346466
63.48250198 -172.15011597 110.71063995
61.40810776 -173.58094788 107.08554077
56.08893967 -172.10559082 114.60353851
54.25973129 -173.53047180 110.88671112
59.01269150 -172.79339600 102.88441467
52.17352295 -172.68283081 106.60285950
49.93688202 -171.38621521 102.01848602
56.43374634 -171.46882629 98.38375854
45.14028549 -172.58294678 109.97106171
43.22493362 -171.32545471 105.28136444
46.92085648 -173.43673706 114.32944489
39.36936951 -173.23735046 117.29840088
37.90592194 -172.47068787 112.91936493
36.30970001 -171.26658630 108.14060974
41.17926407 -169.97042847 100.30464172
47.55160904 -170.00080872 97.16492462
34.60189819 -169.94020081 103.05179596
53.70171356 -170.05236816 93.65935516
30.46445084 -172.41772461 115.38266754
29.20025253 -171.23269653 110.56025696
31.60697365 -173.09529114 119.74396515
23.68348694 -173.10700989 121.68701172
22.84772301 -172.44276428 117.31206512
21.91684914 -171.25314331 112.45693970
27.83578300 -169.88580322 105.38088226
20.90108681 -169.88310242 107.20326233
19.80416298 -168.34999084 101.61919403
26.37314034 -168.40083313 99.89247894
13.82907867 -169.84124756 108.46192169
13.11465263 -168.28767395 102.82291412
14.48444271 -171.23236084 113.76084900
6.96409512 -171.17573547 114.50939941
6.66816616 -169.78518677 109.18320465
6.33779716 -168.24853516 103.51746368
12.33786297 -166.65815735 96.94020844
18.63464546 -166.72886658 95.79878235
5.95928812 -166.60327148 97.61763000
5.54173803 -164.93544006 91.56645966
11.51513577 -165.02673340 90.90463257
24.82355118 -166.80892944 94.17534637
-0.47400001 -166.52426147 97.86055756
-0.48222801 -164.84580994 91.83318329
-0.48971400 -168.16073608 103.74195099
-7.32970190 -168.08616638 103.50493622
-6.92792988 -166.49806213 97.65541840
-6.53004313 -164.81809998 91.67517853
-0.51409799 -163.31637573 85.70320129
5.09165812 -163.41424561 85.42655945
-6.13669300 -163.23474121 85.59443665
-5.74477482 -161.99662781 79.38024902
-0.55448300 -162.06228638 79.46887970
10.65990353 -163.53582764 84.79190063
-11.75622940 -163.17701721 85.06971741
-10.92650795 -161.97442627 78.89922333
-12.57331562 -164.80372620 91.08844757
-18.57165718 -164.72102356 90.11878967
-17.34321594 -163.15573120 84.15267944
-16.08870316 -161.96690369 78.05096436
-10.10574722 -161.08868408 72.61975861
-5.35220623 -161.07949829 73.06025696
-14.83923531 -161.09651184 71.85011292
-13.61737919 -160.33735657 65.70982361
-9.29676437 -160.33403015 66.38838959
-0.58655500 -161.08448792 73.15451813
-19.54435158 -161.10266113 70.76614380
-17.90313339 -160.33273315 64.75035095
-21.22014046 -161.96733093 76.85676575
-26.27034950 -161.94548035 75.34000397
-24.17852402 -161.13117981 69.37566376
-22.13215256 -160.34732056 63.50452423
-16.34941673 -159.67791748 58.92256546
-12.44058418 -159.67738342 59.76061630
-20.21174622 -159.67135620 57.82036972
-18.41544151 -159.14601135 52.40799332
-14.88896561 -159.14358521 53.37033463
-8.50012684 -159.67652893 60.33894348
-24.01249313 -159.66146851 56.44857788
-21.88887024 -159.14242554 51.20141602
-26.28482819 -160.34556580 61.97428131
-30.34485626 -160.33970642 60.16175079
-27.73724365 -159.65675354 54.81731796
-25.30092239 -159.13719177 49.75872040
-19.92044830 -158.76910400 46.32314301
-16.74297523 -158.76542664 47.35690308
-23.05350494 -158.77024841 45.07509995
-13.52689648 -158.75808716 48.17864609
-31.37205505 -159.65498352 52.93777466
-28.64308548 -159.13708496 48.08777618
-34.29471970 -160.35444641 58.06769562
-38.09782410 -160.38256836 55.66604233
-34.87675858 -159.66122437 50.78237534
-31.86984444 -159.14039612 46.16548920
-26.13626480 -158.77122498 43.61034012
-29.11334419 -158.77262878 41.90314865
-23.86260414 -158.48442078 39.56378174
-38.21052933 -159.68705750 48.32302475
-34.93530655 -159.15478516 43.96794510
-41.71680069 -160.42631531 52.92970657
-45.13834381 -160.47389221 49.91459656
-41.35425186 -159.74085999 45.59069443
-31.92950630 -158.77577209 39.92766953
-45.42218399 -161.33836365 57.73183823
-49.13762283 -161.38000488 54.44185638
-41.50044632 -161.28511047 60.73361588
-45.02119064 -162.24244690 65.86869812
-49.25371170 -162.33775330 62.60873032
-53.26393509 -162.41741943 59.05141449
-52.63355637 -161.41610718 50.92219925
-48.35025024 -160.50561523 46.67728806
-57.03924179 -162.48216248 55.24824142
-60.55262756 -162.54663086 51.21960449
-55.88645172 -161.46130371 47.19115829
-44.29170227 -159.79664612 42.61928558
-61.46119308 -163.69227600 59.54670715
-65.22125244 -163.77420044 55.23519897
-57.42160034 -163.60792542 63.61536026
-61.54643250 -165.01788330 68.14830017
-65.84854889 -165.11071777 63.82180405
-69.85184479 -165.20657349 59.23217773
-68.68647003 -163.85484314 50.70321655
-63.77957153 -162.60957336 46.98763275
-73.55324554 -165.30734253 54.40582275
-76.94133759 -165.37590027 49.37266159
-71.84864044 -163.92047119 45.97701263
-58.87482834 -161.51522827 43.26848984
-78.37220001 -166.83322144 58.10852051
-81.98171997 -166.90208435 52.76970291
-74.42928314 -166.75564575 63.22320938
-78.91508484 -168.27470398 67.16482544
-83.09043121 -168.36846924 61.75796509
-86.92269897 -168.43389893 56.11878967
-85.24469757 -166.93539429 47.22932434
-79.99993896 -165.40113831 44.15916824
-90.39345551 -168.47053528 50.25537872
-93.47984314 -168.50151062 44.19189453
-88.14354706 -166.95359802 41.50573730
-82.72054291 -165.39004517 38.77991867
-74.69958496 -163.95687866 41.08293915
-77.23474121 -163.97134399 36.03814697
-90.66257477 -166.96684265 35.61886597
-85.08731079 -165.38439941 33.24651718
-96.17034912 -168.49385071 37.95824814
-98.46803284 -168.44239807 31.58264732
-92.80582428 -166.94610596 29.60008621
-87.09352112 -165.36236572 27.58973312
-79.45364380 -163.95014954 30.86143494
-81.32763672 -163.93174744 25.56982040
-94.57391357 -166.87910461 23.47817039
-88.72750092 -165.32710266 21.83770561
-100.36697388 -168.38401794 25.09020615
-101.84222412 -168.34829712 18.50145721
-95.94824982 -166.80296326 17.26902580
-82.83737183 -163.90647888 20.18451881
-106.04784393 -169.88827515 26.64397812
-107.63314056 -169.85226440 19.68992996
-104.01681519 -169.91154480 33.49610138
-109.32759094 -171.32452393 35.30556870
-111.50652313 -171.27371216 28.11016464
-113.20935059 -171.20242310 20.80405617
-108.75788879 -169.74990845 12.65231419
-102.88700867 -168.28073120 11.84162140
-114.41265106 -171.06469727 13.40225029
-115.08146667 -170.95726013 5.94018078
-109.38633728 -169.62725830 5.56297779
-103.47313690 -168.17028809 5.14134979
-96.92135620 -166.70399475 10.99234390
-97.45806885 -166.61207581 4.68209887
-109.47847748 -169.55233765 -1.54505205
-103.55634308 -168.07952881 -1.57057405
-115.18639374 -170.91986084 -1.54426503
-114.74573517 -170.83251953 -8.99797726
-109.05593872 -169.43992615 -8.62173367
-103.15344238 -167.97900391 -8.25039482
-97.52426147 -166.55235291 -1.62655604
-97.13982391 -166.48126221 -7.89787102
-108.11818695 -169.32443237 -15.61827755
-102.27488708 -167.86885071 -14.85468864
-113.76308441 -170.72058105 -16.36966515
-112.28124237 -170.54925537 -23.62819481
-106.71469879 -169.17742920 -22.51097488
-96.31808472 -166.38438416 -14.09709358
-119.17041779 -171.91563416 -17.09593391
-117.62399292 -171.69508362 -24.70289612
-120.17241669 -172.07649231 -9.36865616
-125.03389740 -172.79974365 -9.70432091
-124.03077698 -172.68402100 -17.75312996
-122.44500732 -172.52247620 -25.68005753
-115.55115509 -171.51622009 -32.15003204
-110.33736420 -170.33958435 -30.74291039
-120.30364227 -172.45288086 -33.44513321
-117.69321442 -172.37724304 -41.05182648
-113.03476715 -171.41326904 -39.44400024
-104.88957977 -168.99899292 -29.27681923
-124.22743225 -171.32827759 -34.50749969
-121.64025116 -171.22302246 -42.40546799
-126.35397339 -171.44004822 -26.46235466
-128.66876221 -167.84291077 -26.87591934
-126.54138184 -167.61398315 -35.08723068
-124.00810242 -167.42616272 -43.17168045
-118.73222351 -171.15664673 -50.17882538
-114.71717834 -172.25148010 -48.50527954
-121.10886383 -167.23880005 -51.12137604
-117.65928650 -167.04301453 -58.83403397
-115.36759949 -171.09651184 -57.75288391
-110.15309143 -171.30451965 -46.58787155
-122.77825928 -162.36871338 -51.74579620
-119.21241760 -162.16410828 -59.53670502
-125.79489136 -162.61250305 -43.71235657
-126.73094940 -156.90173340 -43.93885422
-123.64313507 -156.68109131 -52.01805878
-119.99618530 -156.51708984 -59.84695053
-115.11448669 -162.08241272 -67.06141663
-113.62621307 -166.95362854 -66.26383209
-115.87567902 -156.46047974 -67.42716217
-111.32826233 -156.53332520 -74.75490570
-110.50482178 -162.11225891 -74.28662872
-111.38719940 -170.96093750 -65.01947021
-116.44023895 -150.60693359 -67.67559052
-111.87004089 -150.67694092 -75.03092957
-120.52294159 -150.63191223 -60.02828598
-121.02790833 -144.58485413 -60.20000076
-116.92454529 -144.56883240 -67.87784576
-112.32408142 -144.62916565 -75.25045776
-106.79293823 -150.84252930 -82.04268646
-106.28834534 -156.72422791 -81.75687408
-107.24106598 -144.76126099 -82.29020691
-101.70570374 -144.92016602 -88.98353577
-101.23542786 -151.02835083 -88.68425751
-105.44153595 -162.26164246 -81.20273590
-107.62956238 -138.58596802 -82.50617218
-102.11112213 -138.71815491 -89.24461365
-112.68946075 -138.48181152 -75.41834259
-112.98229218 -132.26818848 -75.53947449
-107.94242096 -132.34622192 -82.67346191
-102.39392090 -132.45118713 -89.41400146
-96.15930939 -138.84848022 -95.61819458
-95.75216675 -145.06137085 -95.32089996
-96.44661713 -132.56530762 -95.81282043
-90.01446533 -132.66320801 -101.73703766
-89.74163055 -138.95678711 -101.53856659
-95.28059387 -151.17085266 -94.97783661
-96.34044647 -126.24143982 -95.62978363
-90.05838013 -126.33438873 -101.68170929
-102.47209167 -126.15392303 -89.41738892
-102.78104401 -119.85276794 -89.63039398
-96.79774475 -119.93070984 -96.02508545
-90.49772644 -120.00790405 -102.10180664
-83.42535400 -126.40445709 -107.37635803
-83.28724670 -132.74006653 -107.33652496
-83.73129272 -120.06162262 -107.67051697
-76.53764343 -120.11143494 -112.69751740
-76.38640594 -126.46848297 -112.59008789
-83.03971100 -139.04658508 -107.15350342
-83.76023865 -113.70389557 -107.66878510
-76.51635742 -113.75437164 -112.63363647
-90.53855896 -113.65541840 -102.10813904
-90.46750641 -107.30159760 -102.02015686
-83.68547058 -107.34796906 -107.58403015
-76.44480896 -107.40399170 -112.56388855
-68.90844727 -113.82318115 -117.07041168
-68.97492218 -120.17774963 -117.19288635
-68.83423615 -107.48081207 -117.01483917
-60.91178513 -107.58038330 -120.96048737
-60.98999786 -113.91831970 -120.99106598
-68.95799255 -126.54711914 -117.27343750
-68.78668213 -101.14794922 -117.06148529
-60.85915375 -101.25173950 -121.02783203
-76.39243317 -101.06288147 -112.57398224
-76.34519196 -94.72939301 -112.62309265
-68.75944519 -94.82120514 -117.17348480
-60.83914948 -94.92783356 -121.17996979
-52.77014542 -101.37039185 -124.69525146
-52.80415344 -107.70496368 -124.55728149
-52.73865509 -95.03871155 -124.83579254
-44.51027298 -95.14010620 -128.18020630
-44.52847290 -101.48780060 -128.00166321
-52.87300110 -114.04814911 -124.51890564
-52.70017624 -88.70480347 -124.93691254
-44.48061371 -88.78964996 -128.29232788
-60.81401062 -88.60363007 -121.31273651
-60.77582169 -82.27734375 -121.40630341
-52.65574646 -82.36761475 -125.00175476
-44.43968964 -82.43624115 -128.34448242
-36.10848999 -88.84360504 -131.18229675
-36.14572525 -95.21639252 -131.10601807
-36.06261444 -82.47071075 -131.19865417
-27.50405312 -82.48652649 -133.34245300
-27.54883385 -88.87566376 -133.33509827
-36.17087173 -101.58789825 -130.94493103
-36.01234818 -76.09873962 -131.18316650
-27.46371651 -76.10240936 -133.36231995
-44.39289093 -76.07978821 -128.35754395
-44.35372162 -69.72206879 -128.37469482
-35.96813202 -69.72870636 -131.17623901
-27.42660713 -69.72317505 -133.39132690
-18.77480125 -76.11073303 -134.84121704
-18.82131386 -82.50103760 -134.83941650
-18.72729683 -69.72685242 -134.83795166
-9.95368671 -69.74175262 -135.74612427
-10.00723457 -76.12731171 -135.75851440
-18.86971092 -88.89826965 -134.85148621
-18.67983437 -63.34900284 -134.83810425
-9.89809990 -63.36264801 -135.73033142
-27.39172363 -63.34866714 -133.42671204
-27.34850311 -56.97981644 -133.42024231
-18.63046265 -56.97748184 -134.83656311
-9.84155560 -56.98973465 -135.72700500
-1.07559502 -63.39031982 -136.07147217
-1.13529396 -69.76959991 -136.05795288
-1.01435697 -57.01677322 -136.06809998
7.81679392 -57.05390549 -135.78681946
7.75261402 -63.42697525 -135.78092957
-1.19248998 -76.15528870 -136.03498840
-0.95254803 -50.64844131 -136.04574585
7.87961197 -50.68499756 -135.77569580
-9.78241920 -50.62285233 -135.71388245
-9.72148895 -44.26159668 -135.67793274
-0.89090103 -44.28464127 -136.00935364
7.94131899 -44.31936646 -135.75891113
16.67996979 -50.72777939 -134.98042297
16.61771584 -57.09602356 -135.00183105
16.73906517 -44.36199188 -134.94770813
25.47784233 -44.40969849 -133.63819885
25.42324448 -50.77474594 -133.69241333
16.55164528 -63.46749878 -135.00633240
16.79593086 -37.99784088 -134.91162109
25.52157974 -38.04627609 -133.54287720
8.00179577 -37.95601273 -135.74156189
8.06001663 -31.59496117 -135.70932007
16.85116005 -31.63559151 -134.86946106
25.57761383 -31.68427277 -133.51498413
34.14419556 -38.09819794 -131.60942078
34.08863831 -44.46067047 -131.63818359
34.18641281 -31.73804283 -131.52883911
42.65945816 -31.79108429 -129.00129700
42.62387085 -38.14804459 -129.09700012
34.03684616 -50.82415009 -131.69134521
34.21309280 -25.38170624 -131.37724304
42.68397141 -25.43825912 -128.85743713
25.63513756 -25.32443619 -133.48733521
25.67246819 -18.96960258 -133.33744812
34.25199127 -19.02903748 -131.25202942
42.70615005 -19.09002876 -128.69058228
50.99307632 -25.49081993 -125.81579590
50.94562531 -31.83885574 -125.89234161
51.02409363 -19.14751816 -125.68618011
59.06968307 -19.20530128 -121.98798370
59.09563446 -25.54125786 -122.22685242
50.88950348 -38.19060135 -125.93265533
51.06149673 -12.80877686 -125.56079865
59.09513474 -12.87184334 -121.84385681
42.77803040 -12.74519634 -128.65440369
42.85072708 -6.40419102 -128.61007690
51.12654495 -6.47229624 -125.49610901
59.16618729 -6.53930998 -121.79005432
66.92593384 -12.93298626 -117.69402313
66.86347961 -19.26235008 -117.76132202
66.99906921 -6.60354280 -117.64673615
74.58968353 -6.66355324 -113.06478882
74.52294159 -12.99143887 -113.11239624
66.81092072 -25.59316063 -117.84017944
67.08103180 -0.27249199 -117.62322998
74.66474915 -0.33291000 -113.03861237
59.23656464 -0.20657399 -121.73922729
59.31064606 6.12704420 -121.70274353
67.16710663 6.06045294 -117.61605835
74.74123383 6.00053692 -113.02375031
81.91015625 -0.38584000 -107.93320465
81.84579468 -6.71784782 -107.96373749
81.97435760 5.94938421 -107.91084290
88.85871124 5.90407419 -102.33765411
88.79723358 -0.43349701 -102.35411072
81.78697968 -13.04648590 -108.00988007
82.03698730 12.28764439 -107.89482117
88.91808319 12.24462032 -102.32582092
74.81517792 12.33682919 -113.01468658
74.88591766 18.67605400 -113.00926208
82.09796143 18.62888336 -107.88389587
88.97474670 18.58795929 -102.31695557
95.41890717 12.20464230 -96.32107544
95.36577606 5.86176491 -96.33296204
95.48160553 18.55002403 -96.32396698
101.55562592 18.51392746 -89.89678955
101.51053619 12.16692734 -89.90621185
95.31835938 -0.47824901 -96.35630798
95.54761505 24.89765549 -96.33470917
101.60488892 24.86311340 -89.89472961
89.02973938 24.93391609 -102.31130219
89.08482361 31.28243065 -102.30982208
95.61488342 31.24753761 -96.35036469
101.65927887 31.21435738 -89.90048981
107.23148346 24.82788849 -83.07992554
107.18247986 18.47817612 -83.07888031
107.28205109 31.17976189 -83.08446503
112.52268982 31.14570045 -75.96981049
112.46789551 24.79466820 -75.95983887
107.13395691 12.13098145 -83.08056641
107.33556366 37.53342438 -83.09352875
112.57649994 37.49851227 -75.97994232
101.71855927 37.56755829 -89.91338348
101.78163147 43.92281723 -89.93237305
107.39337158 43.88879776 -83.10809326
112.62928009 43.85296631 -75.99045563
117.16574860 37.46753693 -68.42539215
117.09136200 31.11742210 -68.40141296
117.24162292 43.81944275 -68.45026398
121.39618683 43.79227066 -60.64223480
121.32371521 37.44303131 -60.61862946
117.02078247 24.76922607 -68.37921143
117.31717682 50.17300034 -68.47541809
121.47364807 50.14336014 -60.66871262
112.68173218 50.20890427 -76.00207520
112.73301697 56.56628036 -76.01467896
117.39096069 56.52806091 -68.50086975
121.55332184 56.49611664 -60.69737244
125.12535858 50.12702942 -52.61203766
125.03722382 43.77813721 -52.57977676
125.21794891 56.47748947 -52.64735794
128.42617798 56.47029495 -44.40503693
128.34037781 50.12156677 -44.37210083
124.95818329 37.43099213 -52.55195999
125.31161499 62.82934570 -52.68476486
128.51161194 62.82016373 -44.43957520
121.63390350 62.85036087 -60.72839355
121.71402740 69.20598602 -60.76175690
125.40531921 69.18231201 -52.72452164
128.59602356 69.17073822 -44.47602081
131.06440735 62.82410431 -35.96966934
130.98667908 56.47588730 -35.93783188
131.14372253 69.17234039 -36.00417709
133.13212585 69.18286133 -27.38161659
133.05389404 62.83683395 -27.34915733
130.91313171 50.12823105 -35.90887451
131.22384644 75.52001190 -36.04160690
133.21029663 75.52754974 -27.41688919
128.67932129 75.52157593 -44.51491928
128.76167297 81.87154388 -44.55673981
131.30398560 81.86582947 -36.08217239
133.28794861 81.86952972 -27.45528221
134.60990906 75.54191589 -18.67239952
134.51939392 69.19985199 -18.63806152
134.69876099 81.88083649 -18.70989418
135.47459412 81.89694214 -9.87717247
135.38169861 75.56010437 -9.84328175
134.42803955 62.85596085 -18.60638428
134.78604126 88.21524048 -18.75115585
135.56690979 88.22911835 -9.91556454
133.36528015 88.20735931 -27.49722099
133.44270325 94.53492737 -27.54330444
134.87196350 94.53916931 -18.79699707
135.65739441 94.55097961 -9.95957565
135.74890137 88.24415588 -1.04001403
135.66925049 81.91342926 -1.00651205
135.83076477 94.56467438 -1.08046699
135.51336670 94.57691193 7.80254507
135.42599487 88.25453186 7.83831787
135.59304810 75.57752991 -0.97829598
135.91314697 100.87001801 -1.12953901
135.59799194 100.88516235 7.75608397
135.74543762 100.85704041 -10.01034641
135.82998657 107.12612915 -10.06770515
135.99418640 107.13697052 -1.18717098
135.68080139 107.15480804 7.69873190
134.82382202 100.90354919 16.61299515
134.73289490 94.58560181 16.65574837
134.91035461 107.18524170 16.55690575
133.69160461 107.22000885 25.35234261
133.61737061 100.92190552 25.40879059
134.63916016 88.25514221 16.68605042
134.99229431 113.40689087 16.48677444
133.74177551 113.46263885 25.27725983
135.76210022 113.36137390 7.63023806
135.83998108 119.44249725 7.55316210
135.06903076 119.50303650 16.40639877
133.75907898 119.58051300 25.18636894
131.79444885 113.51377869 33.92654037
131.74420166 107.25378418 33.99920273
131.81634521 119.65013123 33.83855438
129.28355408 119.70964813 42.33110046
129.25553894 113.56066895 42.41295242
131.67407227 100.94116974 34.05494690
131.82336426 125.59175873 33.74250031
129.29362488 125.66450500 42.23987579
133.76132202 125.50428772 25.08752823
133.77902222 131.22050476 24.98999977
131.82101440 131.33158875 33.64194107
129.29061890 131.42556763 42.14213943
126.22778320 125.71602631 50.55375290
126.22259521 119.75686646 50.64181900
126.21398926 131.48472595 50.45650482
122.59273529 131.51834106 58.54831696
122.61140442 125.75276184 58.64245987
126.18894196 113.60425568 50.71660614
126.19750214 137.06608582 50.35689163
122.58438873 137.09985352 58.45730972
129.28747559 136.99343872 42.04340363
129.29411316 142.36679077 41.94765472
126.20952606 142.46339417 50.26702881
122.59420013 142.50254822 58.37154007
118.54475403 137.11419678 66.36261749
118.51961517 131.53602600 66.43128204
118.58064270 142.50695801 66.29530334
113.88742065 142.49293518 73.84634399
113.83106995 137.11709595 73.89781952
118.50425720 125.78117371 66.50311279
118.60963440 147.70596313 66.21698761
113.94569397 147.65289307 73.78863525
122.61636353 147.73187256 58.28639603
122.65668488 152.63308716 58.20777130
118.63068390 152.58708191 66.13046265
113.99181366 152.50791931 73.71868134
108.71190643 147.62615967 80.98920441
