-0.44412750 1.34941101 1.92099845
-0.52632535 1.34941101 1.95656621
-0.34301421 1.26080692 2.17638183
-0.40937582 1.26080692 2.20509791
-0.22885369 1.18992352 2.46471834
-0.27733570 1.18992352 2.48569703
-0.11469316 1.18106282 2.75305486
-0.14529559 1.18106282 2.76629591
-0.08043743 1.19000566 2.84390283
-0.08161768 5.83918905 2.74700260
-0.09389031 5.67568159 2.70923185
-0.11281776 5.42174292 2.65097737
-0.13431215 5.18364143 2.58482409
-0.17915109 4.88470507 2.44682479
-0.21748325 4.73407841 2.32885098
-0.26129118 4.57459164 2.19402361
-0.32974187 4.41510439 1.98335409
-0.40640622 4.23789692 1.74740624
-0.46937993 4.06068993 1.55359125
-0.51592636 3.88348174 1.41033781
-0.55973488 3.65311241 1.27550805
-0.59806705 3.40502024 1.15753531
-0.61997133 3.18351102 1.09012163
-0.63639861 2.86453724 1.03956020
-0.63639861 2.57214403 1.03956020
-0.61723286 2.30633163 1.09854770
-0.59532857 2.09368420 1.16596138
-0.56247216 1.88989413 1.26708198
-0.51866424 1.68610501 1.40191174
-0.44747567 1.49117672 1.62100494
-0.35985920 1.34941101 1.89065969
-0.27498060 1.26080751 2.15188813
-0.17915048 1.18992352 2.44682598
-0.08331976 1.18106282 2.74175906
-0.05483891 1.19000566 2.83468699
-0.04992890 5.83918905 2.73779511
-0.05980550 5.67568159 2.69932890
-0.07503810 5.42174292 2.64000177
-0.09233630 5.18364143 2.57262897
-0.12842171 4.88470507 2.43208647
-0.15927029 4.73407841 2.31193852
-0.19452633 4.57459164 2.17462659
-0.24961321 4.41510439 1.96007395
-0.31131098 4.23789692 1.71977818
-0.36199099 4.06068993 1.52239299
-0.39945045 3.88348174 1.37649620
-0.43470591 3.65311241 1.23918426
-0.46555448 3.40502024 1.11903763
-0.48318249 3.18351102 1.05037928
-0.49640366 2.86453724 0.99888855
-0.49640366 2.57214403 0.99888855
-0.48097908 2.30633163 1.05896187
-0.46335104 2.09368420 1.12761784
-0.43690932 1.88989413 1.23060167
-0.40165329 1.68610501 1.36791360
-0.34436238 1.49117672 1.59104657
-0.27385092 1.34941101 1.86567020
-0.20554286 1.26080751 2.13171363
-0.12842050 1.18992352 2.43208766
-0.05129874 1.18106282 2.73245668
-0.02871196 1.19000566 2.82709861
-0.01772492 5.83918905 2.73059702
-0.02516638 5.67568159 2.69158649
-0.03664394 5.42174292 2.63141918
-0.04967792 5.18364143 2.56309438
-0.07686716 4.88470507 2.42056322
-0.10011058 4.73407841 2.29871440
-0.12667510 4.57459164 2.15945959
-0.16818149 4.41510439 1.94187355
-0.21466893 4.23789692 1.69817603
-0.25285545 4.06068945 1.49799824
-0.28107989 3.88348103 1.35003817
-0.30764380 3.65311241 1.21078348
-0.33088782 3.40502024 1.08893478
-0.34416977 3.18351102 1.01930618
-0.35413125 2.86453724 0.96708602
-0.35413125 2.57214403 0.96708602
-0.34250984 2.30633163 1.02800918
-0.32922727 2.09368420 1.09763777
-0.30930436 1.88989413 1.20208049
-0.28273985 1.68610501 1.34133518
-0.23957230 1.49117672 1.56762195
-0.18644388 1.34941101 1.84613609
-0.13497540 1.26080751 2.11594009
-0.07686596 1.18992352 2.42056060
-0.01875652 1.18106282 2.72518134
0.01127594 1.19000566 2.81903362
-0.00142883 5.83918905 2.72801614
-0.00763827 5.67568159 2.68881059
-0.02516638 5.67568159 2.69158649
-0.01772492 5.83918905 2.73059702
-0.01721514 5.42174292 2.62834239
-0.03664394 5.42174292 2.63141918
-0.02809084 5.18364143 2.55967450
-0.04967792 5.18364143 2.56309438
-0.05077873 4.88470507 2.41643071
-0.07686716 4.88470507 2.42056322
-0.07017383 4.73407841 2.29397297
-0.10011058 4.73407841 2.29871440
-0.09233991 4.57459164 2.15402126
-0.12667510 4.57459164 2.15945959
-0.12697482 4.41510439 1.93534696
-0.16818149 4.41510439 1.94187355
-0.16576561 4.23789692 1.69043124
-0.21466893 4.23789692 1.69817603
-0.19762954 4.06068993 1.48924947
-0.25285545 4.06068945 1.49799824
-0.22118051 3.88348222 1.34055042
-0.28107989 3.88348103 1.35003817
-0.24334659 3.65311241 1.20059991
-0.30764380 3.65311241 1.21078348
-0.26274228 3.40502024 1.07814217
-0.33088782 3.40502024 1.08893478
-0.27382502 3.18351102 1.00816691
-0.34416977 3.18351102 1.01930618
-0.28213736 2.86453724 0.95568430
-0.35413125 2.86453724 0.96708602
-0.28213736 2.57214403 0.95568430
-0.35413125 2.57214403 0.96708602
-0.27243954 2.30633163 1.01691318
-0.34250984 2.30633163 1.02800918
-0.26135680 2.09368420 1.08688843
-0.32922727 2.09368420 1.09763777
-0.24473208 1.88989413 1.19185126
-0.30930436 1.88989413 1.20208049
-0.22256601 1.68610501 1.33180654
-0.28273985 1.68610501 1.34133518
-0.18654560 1.49117672 1.55922472
-0.23957230 1.49117672 1.56762195
-0.14221343 1.34941101 1.83913040
-0.18644388 1.34941101 1.84613609
-0.09926616 1.26080692 2.11028743
-0.13497540 1.26080751 2.11594009
-0.05077813 1.18992352 2.41642952
-0.07686596 1.18992352 2.42056060
-0.00228949 1.18106282 2.72257638
-0.01875652 1.18106282 2.72518134
0.01127594 1.19000566 2.81903362
0.01486726 5.83918905 2.72543526
0.04771946 5.83918905 2.72232962
0.04522593 5.67568159 2.68269444
0.00988984 5.67568159 2.68603373
0.04138061 5.42174292 2.62156320
0.00221306 5.42174292 2.62526584
0.03701288 5.18364143 2.55214286
-0.00650435 5.18364143 2.55625606
0.02790185 4.88470507 2.40732694
-0.02469030 4.88470507 2.41229820
0.02011312 4.73407841 2.28352690
-0.04023767 4.73407841 2.28923130
0.01121154 4.57459164 2.14203930
-0.05800533 4.57459164 2.14858270
-0.00269696 4.41510439 1.92096710
-0.08576754 4.41510439 1.92882025
-0.01827502 4.23789692 1.67336714
-0.11686169 4.23789692 1.68268645
-0.03107067 4.06068993 1.46998024
-0.14240363 4.06068993 1.48050320
-0.04052837 3.88348222 1.31965125
-0.16128172 3.88348222 1.33106494
-0.04942995 3.65311241 1.17816246
-0.17904997 3.65311241 1.19041646
-0.05721869 3.40502024 1.05436122
-0.19459674 3.40502024 1.06734943
-0.06166948 3.18351102 0.98362046
-0.20348027 3.18351102 0.99702519
-0.06500802 2.86453724 0.93056250
-0.21014351 2.86453724 0.94428015
-0.06500802 2.57214403 0.93056250
-0.21014351 2.57214403 0.94428015
-0.06111335 2.30633163 0.99246305
-0.20236982 2.30633163 1.00581479
-0.05666196 2.09368420 1.06320620
-0.19348569 2.09368420 1.07613909
-0.04998608 1.88989413 1.16931987
-0.18015981 1.88989413 1.18162441
-0.04108450 1.68610501 1.31080866
-0.16239156 1.68610501 1.32227290
-0.02661928 1.49117672 1.54072094
-0.13351889 1.49117672 1.55082750
-0.00881612 1.34941101 1.82369375
-0.09798239 1.34941101 1.83212471
0.00843032 1.26080692 2.09782624
-0.06355692 1.26080692 2.10462976
0.02790245 1.18992352 2.40732455
-0.02468970 1.18992352 2.41229820
0.04737459 1.18106282 2.71682739
0.01417813 1.18106282 2.71996689
0.05179890 1.19000566 2.81434393
0.08070225 5.83918905 2.72129321
0.08070225 5.67568159 2.68157864
0.08070225 5.42174292 2.62032676
0.08070225 5.18364143 2.55076933
0.08070225 4.88470507 2.40566826
0.08070225 4.73407841 2.28162265
0.08070225 4.57459164 2.13985586
0.08070225 4.41510439 1.91834784
0.08070225 4.23789692 1.67025673
0.08070225 4.06068993 1.46646774
0.08070225 3.88348222 1.31584024
0.08070225 3.65311241 1.17407453
0.08070225 3.40502024 1.05002785
0.08070225 3.18351102 0.97914499
0.08070225 2.86453724 0.92598349
0.08070225 2.57214403 0.92598349
0.08070285 2.30633163 0.98800445
0.08070285 2.09368420 1.05888724
0.08070285 1.88989413 1.16521275
0.08070285 1.68610501 1.30698073
0.08070285 1.49117672 1.53735054
0.08070285 1.34941101 1.82088184
0.08070285 1.26080751 2.09555364
0.08070285 1.18992352 2.40566826
0.08070285 1.18106282 2.71578264
0.07899235 1.19000566 2.81349182
0.11368444 5.83918905 2.72232962
0.11617857 5.67568159 2.68269324
0.12002449 5.42174292 2.62156320
0.12439222 5.18364143 2.55214286
0.13350324 4.88470507 2.40732813
0.14129198 4.73407841 2.28352690
0.15019417 4.57459164 2.14203930
0.16410266 4.41510439 1.92096710
0.17968072 4.23789692 1.67336714
0.19247667 4.06068993 1.46998024
0.20193468 3.88348222 1.31964886
0.21083626 3.65311241 1.17816246
0.21862559 3.40502024 1.05436361
0.22307608 3.18351102 0.98361808
0.22641432 2.86453724 0.93056250
0.22641432 2.57214403 0.93056250
0.22251996 2.30633163 0.99246305
0.21806946 2.09368420 1.06320620
0.21139298 1.88989413 1.16931987
0.20249170 1.68610501 1.31080866
0.18802649 1.49117672 1.54072094
0.17022303 1.34941101 1.82369375
0.15297659 1.26080751 2.09782624
0.13350385 1.18992352 2.40732455
0.11403172 1.18106282 2.71682739
0.10618581 1.19000566 2.81434393
0.14653663 5.83918905 2.72543526
0.15151465 5.67568159 2.68603373
0.15919144 5.42174292 2.62526584
0.16790946 5.18364143 2.55625606
0.18609540 4.88470507 2.41229820
0.20164277 4.73407841 2.28923130
0.21941073 4.57459164 2.14858270
0.24717355 4.41510439 1.92882025
0.27826738 4.23789692 1.68268645
0.30380931 4.06068945 1.48050320
0.32268772 3.88348103 1.33106494
0.34045598 3.65311241 1.19041646
0.35600305 3.40502024 1.06734943
0.36488718 3.18351102 0.99702519
0.37155011 2.86453724 0.94428259
0.37155011 2.57214403 0.94428015
0.36377674 2.30633163 1.00581479
0.35489261 2.09368420 1.07613909
0.34156671 1.88989413 1.18162441
0.32379878 1.68610501 1.32227290
0.29492581 1.49117672 1.55082750
0.25938961 1.34941101 1.83212471
0.22496413 1.26080751 2.10462976
0.18609661 1.18992352 2.41229820
0.14722878 1.18106282 2.71996689
0.14670877 1.19000566 2.81903362
0.16283332 5.83918905 2.72801614
0.16904277 5.67568159 2.68881059
0.15151465 5.67568159 2.68603373
0.14653663 5.83918905 2.72543526
0.17862023 5.42174292 2.62834239
0.15919144 5.42174292 2.62526584
0.18949594 5.18364143 2.55967450
0.16790946 5.18364143 2.55625606
0.21218383 4.88470507 2.41643071
0.18609540 4.88470507 2.41229820
0.23157923 4.73407841 2.29397297
0.20164277 4.73407841 2.28923130
0.25374532 4.57459164 2.15402126
0.21941073 4.57459164 2.14858270
0.28838024 4.41510439 1.93534696
0.24717355 4.41510439 1.92882025
0.32717100 4.23789692 1.69043124
0.27826738 4.23789692 1.68268645
0.35903525 4.06068993 1.48924947
0.30380931 4.06068945 1.48050320
0.38258681 3.88348222 1.34055281
0.32268772 3.88348103 1.33106494
0.40475318 3.65311241 1.20059991
0.34045598 3.65311241 1.19041646
0.42414859 3.40502024 1.07814217
0.35600305 3.40502024 1.06734943
0.43523192 3.18351102 1.00816691
0.36488718 3.18351102 0.99702519
0.44354430 2.86453724 0.95568430
0.37155011 2.86453724 0.94428259
0.44354430 2.57214403 0.95568430
0.37155011 2.57214403 0.94428015
0.43384674 2.30633163 1.01691318
0.36377674 2.30633163 1.00581479
0.42276341 2.09368420 1.08688843
0.35489261 2.09368420 1.07613909
0.40613869 1.88989413 1.19185364
0.34156671 1.88989413 1.18162441
0.38397262 1.68610501 1.33180654
0.32379878 1.68610501 1.32227290
0.34795251 1.49117672 1.55922472
0.29492581 1.49117672 1.55082750
0.30362034 1.34941101 1.83913040
0.25938961 1.34941101 1.83212471
0.26067337 1.26080692 2.11028743
0.22496413 1.26080751 2.10462976
0.21218474 1.18992352 2.41642952
0.18609661 1.18992352 2.41229820
0.16369580 1.18106282 2.72257638
0.14722878 1.18106282 2.71996689
0.14670877 1.19000566 2.81903362
0.17912942 5.83918905 2.73059702
0.21133339 5.83918905 2.73779511
0.22121000 5.67568159 2.69932890
0.18657118 5.67568159 2.69158649
0.23644260 5.42174292 2.64000177
0.19804874 5.42174292 2.63141918
0.25374109 5.18364143 2.57262897
0.21108241 5.18364143 2.56309438
0.28982621 4.88470507 2.43208647
0.23827197 4.88470507 2.42056322
0.32067537 4.73407841 2.31193852
0.26151568 4.73407841 2.29871440
0.35593113 4.57459164 2.17462659
0.28808019 4.57459164 2.15945959
0.41101861 4.41510439 1.96007633
0.32958719 4.41510439 1.94187355
0.47271636 4.23789692 1.71977818
0.37607494 4.23789692 1.69817603
0.52339667 4.06068993 1.52239299
0.41426116 4.06068993 1.49799824
0.56085616 3.88348174 1.37649858
0.44248560 3.88348222 1.35003817
0.59611219 3.65311241 1.23918426
0.46905041 3.65311241 1.21078348
0.62696123 3.40502024 1.11903763
0.49229443 3.40502024 1.08893478
0.64458865 3.18351102 1.05038166
0.50557637 3.18351102 1.01930869
0.65780997 2.86453724 0.99888855
0.51553816 2.86453724 0.96708602
0.65780997 2.57214403 0.99888855
0.51553816 2.57214403 0.96708602
0.64238554 2.30633163 1.05896187
0.50391644 2.30633163 1.02801156
0.62475765 2.09368420 1.12761784
0.49063417 2.09368420 1.09763777
0.59831607 1.88989413 1.23060167
0.47071096 1.88989413 1.20208049
0.56306016 1.68610501 1.36791360
0.44414645 1.68610501 1.34133518
0.50576931 1.49117672 1.59104657
0.40097979 1.49117672 1.56762671
0.43525782 1.34941101 1.86567020
0.34785080 1.34941101 1.84613609
0.36694947 1.26080692 2.13171363
0.29638231 1.26080692 2.11594009
0.28982741 1.18992352 2.43208766
0.23827286 1.18992352 2.42056060
0.21270505 1.18106282 2.73245668
0.18016343 1.18106282 2.72518134
0.18669666 1.19000566 2.82709861
0.24302158 5.83918905 2.74700141
0.25529391 5.67568159 2.70923066
0.27422196 5.42174292 2.65097737
0.29571664 5.18364143 2.58482409
0.34055528 4.88470507 2.44682479
0.37888744 4.73407841 2.32885098
0.42269570 4.57459164 2.19402361
0.49114609 4.41510439 1.98335409
0.56781042 4.23789692 1.74740624
0.63078457 4.06068993 1.55359125
0.67733067 3.88348174 1.41033781
0.72113895 3.65311241 1.27550805
0.75947112 3.40502024 1.15753531
0.78137517 3.18351102 1.09012163
0.79780328 2.86453724 1.03956020
0.79780328 2.57214403 1.03956020
0.77863771 2.30633163 1.09854770
0.75673336 2.09368420 1.16596138
0.72387725 1.88989413 1.26708198
0.68006933 1.68610501 1.40191174
0.60888106 1.49117672 1.62100494
0.52126491 1.34941101 1.89065969
0.43638662 1.26080751 2.15188813
0.34055617 1.18992352 2.44682598
0.24472576 1.18106282 2.74175906
0.21282332 1.19000566 2.83468699
0.27406967 5.83918905 2.75818038
0.28868958 5.67568159 2.72125483
0.31123784 5.42174292 2.66430402
0.33684388 5.18364143 2.59963107
0.39025939 4.88470507 2.46471953
0.43592378 4.73407841 2.34938407
0.48811147 4.57459164 2.21757340
0.56965482 4.41510439 2.01162004
0.66098315 4.23789692 1.78094935
0.73600286 4.06068993 1.59147263
0.79145253 3.88348174 1.45142353
0.84364009 3.65311241 1.31961274
0.88930458 3.40502024 1.20427859
0.91539806 3.18351102 1.13837194
0.93496859 2.86453724 1.08894205
0.93496871 2.57214403 1.08894205
0.91213691 2.30633163 1.14661026
0.88604289 2.09368420 1.21251452
0.84690219 1.88989413 1.31137443
0.79471457 1.68610501 1.44318521
0.70990980 1.49117672 1.65737689
0.60553437 1.34941101 1.92099845
0.50442082 1.26080751 2.17638183
0.39026028 1.18992352 2.46471834
0.27609977 1.18106282 2.75305486
0.23842213 1.19000566 2.84390283
0.30435431 5.83918905 2.77128530
0.32126400 5.67568159 2.73535037
0.34734371 5.42174292 2.67992830
0.37695998 5.18364143 2.61699128
0.43874142 4.88470507 2.48569942
0.49155745 4.73407841 2.37346005
0.55191875 4.57459164 2.24518681
0.64623308 4.41510439 2.04475880
0.75186521 4.23789692 1.82027757
0.83863431 4.06068945 1.63588548
0.90276808 3.88348174 1.49959433
0.96312940 3.65311241 1.37132013
1.01594532 3.40502024 1.25907958
1.04612577 3.18351102 1.19494247
1.06876123 2.86453724 1.14684141
1.06876123 2.57214403 1.14684141
1.04235363 2.30633163 1.20295930
1.01217306 2.09368420 1.26709640
0.96690202 1.88989413 1.36330330
0.90654123 1.68610501 1.49157512
0.80845433 1.49117613 1.70002258
0.68773210 1.34941101 1.95657110
0.57078242 1.26080751 2.20509791
0.43874231 1.18992352 2.48569703
0.30670220 1.18106282 2.76629591
0.27551234 1.19000566 2.86088490
0.31905547 5.83918905 2.77877617
0.33707651 5.67568159 2.74340820
0.32126400 5.67568159 2.73535037
0.30435431 5.83918905 2.77128530
0.36487061 5.42174292 2.68885875
0.34734371 5.42174292 2.67992830
0.39643362 5.18364143 2.62691355
0.37695998 5.18364143 2.61699128
0.46227583 4.88470507 2.49769092
0.43874142 4.88470507 2.48569942
0.51856375 4.73407841 2.38721991
0.49155745 4.73407841 2.37346005
0.58289242 4.57459164 2.26096773
0.55191875 4.57459164 2.24518681
0.68340605 4.41510439 2.06369829
0.64623308 4.41510439 2.04475880
0.79598171 4.23789692 1.84275603
0.75186521 4.23789692 1.82027757
0.88845402 4.06068993 1.66126966
0.83863431 4.06068945 1.63588548
0.95680368 3.88348174 1.52712607
0.90276808 3.88348174 1.49959433
1.02113283 3.65311241 1.40087414
0.96312940 3.65311241 1.37132013
1.07742035 3.40502024 1.29040301
1.01594532 3.40502024 1.25907958
1.10958469 3.18351102 1.22727704
1.04612577 3.18351102 1.19494247
1.13370800 2.86453724 1.17993188
1.06876123 2.86453724 1.14684141
1.13370800 2.57214403 1.17993188
1.06876123 2.57214403 1.14684141
1.10556424 2.30633163 1.23516870
1.04235363 2.30633163 1.20295930
1.07339990 2.09368420 1.29829466
1.01217306 2.09368420 1.26709640
1.02515328 1.88989413 1.39298487
0.96690202 1.88989413 1.36330330
0.96082461 1.68610501 1.51923680
0.90654123 1.68610501 1.49157512
0.85629040 1.49117613 1.72439563
0.80845433 1.49117613 1.70002258
0.72763306 1.34941101 1.97689962
0.68773210 1.34941101 1.95657110
0.60299605 1.26080692 2.22151208
0.57078242 1.26080751 2.20509791
0.46227673 1.18992352 2.49769092
0.43874231 1.18992352 2.48569703
0.32155773 1.18106282 2.77386498
0.30670220 1.18106282 2.76629591
0.27551234 1.19000566 2.86088490
0.33375663 5.83918905 2.78626585
0.36215982 5.83918905 2.80306387
0.38343996 5.67568159 2.76953268
0.35288900 5.67568159 2.75146484
0.41626024 5.42174292 2.71781564
0.38239753 5.42174292 2.69778919
0.45353132 5.18364143 2.65908575
0.41590726 5.18364143 2.63683605
0.53128052 4.88470507 2.53657246
0.48581025 4.88470507 2.50968242
0.59774745 4.73407841 2.43183732
0.54556972 4.73407841 2.40098095
0.67370975 4.57459164 2.31214070
0.61386633 4.57459164 2.27674866
0.79240054 4.41510439 2.12511492
0.72057950 4.41510439 2.08264017
0.92533451 4.23789692 1.91564429
0.84009826 4.23789692 1.86523688
1.03452992 4.06068993 1.74357831
0.93827415 4.06068993 1.68665397
1.11524010 3.88348174 1.61640191
1.01083946 3.88348174 1.55465782
1.19120216 3.65311193 1.49670541
1.07913578 3.65311193 1.43042803
1.25766921 3.40502024 1.39196885
1.13889551 3.40502024 1.32172644
1.29564977 3.18351102 1.33212185
1.17304325 3.18351102 1.25961161
1.32413602 2.86453724 1.28723478
1.19865429 2.86453724 1.21302485
1.32413602 2.57214403 1.28723478
1.19865429 2.57214403 1.21302485
1.29090250 2.30633163 1.33960187
1.16877520 2.30633163 1.26737571
1.25292170 2.09368420 1.39944887
1.13462687 2.09368420 1.32949054
1.19595027 1.88989413 1.48922539
1.08340478 1.88989413 1.42266405
1.11998808 1.68610501 1.60891950
1.01510835 1.68610501 1.54689372
0.99654955 1.49117613 1.80342782
0.90412676 1.49117613 1.74876881
0.84462535 1.34941101 2.04282069
0.76753402 1.34941101 1.99722826
0.69744861 1.26080692 2.27473617
0.63520962 1.26080692 2.23792601
0.53128141 1.18992352 2.53657126
0.48581144 1.18992352 2.50968003
0.36511436 1.18106282 2.79841137
0.33641294 1.18106282 2.78143883
0.31105158 1.19000566 2.88091016
0.38945258 5.83918905 2.82161212
0.41279590 5.67568159 2.78948212
0.44879887 5.42174292 2.73992825
0.48968384 5.18364143 2.68365502
0.57497233 4.88470507 2.56626606
0.64788449 4.73407841 2.46590996
0.73121238 4.57459164 2.35122108
0.86141258 4.41510439 2.17201471
1.00723672 4.23789692 1.97130477
1.12702096 4.06068993 1.80643713
1.21555722 3.88348174 1.68457627
1.29888511 3.65311193 1.56988490
1.37179708 3.40502024 1.46952999
1.41346121 3.18351102 1.41218436
1.44470906 2.86453724 1.36917508
1.44470906 2.57214403 1.36917508
1.40825355 2.30633163 1.41935372
1.36658978 2.09368420 1.47669947
1.30409336 1.88989413 1.56271553
1.22076547 1.68610501 1.67740691
1.08535767 1.49117613 1.86378276
0.91870135 1.34941101 2.09316540
0.75725341 1.26080751 2.31537890
0.57497323 1.18992352 2.56626487
0.39269301 1.18106282 2.81715107
0.33355409 1.19000566 2.89620233
0.41552687 5.83918905 2.84183717
0.44084162 5.67568159 2.81123710
0.47988489 5.42174292 2.76404142
0.52422273 5.18364143 2.71044660
0.61671388 4.88470507 2.59864402
0.69578373 4.73407841 2.50306439
0.78614879 4.57459164 2.39383316
0.92734450 4.41510439 2.22315621
1.08548355 4.23789644 2.03199911
1.21538377 4.06068993 1.87497747
1.31139684 3.88348174 1.75891864
1.40176249 3.65311193 1.64968503
1.48083210 3.40502024 1.55410647
1.52601409 3.18351054 1.49949086
1.55990088 2.86453724 1.45852792
1.55990148 2.57214403 1.45852792
1.52036655 2.30633163 1.50631595
1.47518420 2.09368420 1.56093407
1.40741038 1.88989413 1.64285982
1.31704497 1.68610501 1.75209105
1.17020154 1.49117613 1.92959309
0.98947132 1.34941101 2.14806032
0.81438869 1.26080751 2.35969520
0.61671478 1.18992352 2.59864521
0.41904086 1.18106282 2.83759046
0.35505179 1.19000566 2.91288137
0.44027945 5.83918905 2.86365962
0.46746570 5.67568159 2.83470988
0.50939554 5.42174292 2.79005885
0.55701083 5.18364143 2.73935413
0.65633988 4.88470507 2.63357878
0.74125493 4.73407841 2.54315329
0.83830059 4.57459164 2.43981075
0.98993456 4.41510439 2.27833772
1.15976453 4.23789644 2.09748697
1.29926789 4.06068945 1.94893217
1.40237880 3.88348174 1.83912802
1.49942434 3.65311193 1.73578537
1.58433938 3.40502024 1.64536119
1.63286233 3.18351054 1.59368992
1.66925430 2.86453772 1.55493462
1.66925466 2.57214403 1.55493462
1.62679732 2.30633163 1.60014915
1.57827437 2.09368372 1.65182042
1.50549018 1.88989413 1.72932613
1.40844464 1.68610501 1.83266878
1.25074542 1.49117613 2.00060344
1.05665421 1.34941101 2.20728874
0.86862832 1.26080751 2.40751719
0.65634084 1.18992352 2.63357759
0.44405347 1.18106282 2.85964274
0.38507915 1.19000554 2.94049001
0.45194632 5.83918905 2.87532616
0.48001459 5.67568159 2.84725881
0.46746570 5.67568159 2.83470988
0.44027945 5.83918905 2.86365962
0.52330494 5.42174292 2.80396795
0.50939554 5.42174292 2.79005885
0.57246524 5.18364143 2.75480747
0.55701083 5.18364143 2.73935413
0.67501700 4.88470507 2.65225577
0.65633988 4.88470507 2.63357878
0.76268703 4.73407841 2.56458688
0.74125493 4.73407841 2.54315329
0.86288154 4.57459164 2.46439099
0.83830059 4.57459164 2.43981075
1.01943517 4.41510439 2.30783868
0.98993456 4.41510439 2.27833772
1.19477558 4.23789644 2.13249850
1.15976453 4.23789644 2.09748697
1.33880496 4.06068993 1.98846745
1.29926789 4.06068945 1.94893217
1.44526196 3.88348174 1.88201201
1.40237880 3.88348174 1.83912802
1.54545641 3.65311193 1.78181839
1.49942434 3.65311193 1.73578537
1.63312650 3.40502024 1.69414842
1.58433938 3.40502024 1.64536119
1.68322337 3.18351054 1.64405155
1.63286233 3.18351054 1.59368992
1.72079659 2.86453772 1.60647833
1.66925430 2.86453772 1.55493462
1.72079659 2.57214403 1.60647833
1.66925466 2.57214403 1.55493462
1.67696178 2.30633163 1.65031338
1.62679732 2.30633163 1.60014915
1.62686443 2.09368372 1.70041013
1.57827437 2.09368372 1.65182042
1.55171859 1.88989413 1.77555418
1.50549018 1.88989413 1.72932613
1.45152402 1.68610501 1.87574780
1.40844464 1.68610501 1.83266878
1.28870833 1.49117613 2.03856421
1.25074542 1.49117613 2.00060344
1.08831954 1.34941101 2.23895645
1.05665421 1.34941101 2.20728874
0.89419299 1.26080692 2.43307948
0.86862832 1.26080751 2.40751719
0.67501771 1.18992352 2.65225458
0.65634084 1.18992352 2.63357759
0.45584249 1.18106282 2.87142968
0.44405347 1.18106282 2.85964274
0.38507915 1.19000554 2.94049001
0.46361315 5.83918905 2.88699269
0.48543558 5.83918905 2.91174626
0.51603591 5.67568159 2.88643169
0.49256346 5.67568159 2.85980654
0.56323111 5.42174292 2.84738755
0.53721404 5.42174292 2.81787825
0.61682630 5.18364143 2.80305052
0.58791959 5.18364143 2.77026224
0.72862881 4.88470507 2.71055961
0.69369406 4.88470507 2.67093277
0.82420760 4.73407841 2.63149023
0.78411925 4.73407841 2.58601809
0.93344039 4.57459164 2.54112387
0.88746250 4.57459164 2.48897338
1.10411668 4.41510439 2.39992881
1.04893625 4.41510439 2.33733964
1.29527402 4.23789644 2.24179006
1.22978663 4.23789644 2.16751027
1.45229626 4.06068993 2.11189079
1.37834239 4.06068993 2.02800512
1.56835628 3.88348174 2.01587653
1.48814476 3.88348174 1.92489612
1.67758894 3.65311193 1.92551243
1.59148800 3.65311193 1.82784903
1.77316785 3.40502024 1.84644186
1.68191338 3.40502024 1.74293554
1.82778347 3.18351054 1.80126107
1.73358464 3.18351054 1.69441080
1.86874640 2.86453772 1.76737368
1.77233839 2.86453772 1.65801966
1.86874640 2.57214403 1.76737368
1.77233839 2.57214403 1.65801966
1.82095706 2.30633163 1.80690658
1.72712576 2.30633163 1.70047760
1.76634085 2.09368372 1.85208976
1.67545450 2.09368372 1.74899995
1.68441617 1.88989413 1.91986215
1.59794724 1.88989413 1.82178223
1.57518351 1.68610501 2.01022863
1.49460399 1.68610501 1.91883171
1.39768028 1.49117613 2.15707397
1.32667148 1.49117613 2.07652998
1.17921484 1.34941101 2.33780193
1.11998522 1.34941101 2.27061939
0.96757627 1.26080692 2.51288676
0.91975796 1.26080692 2.45864677
0.72862977 1.18992352 2.71055841
0.69369483 1.18992352 2.67093158
0.48968324 1.18106282 2.90823483
0.46763182 1.18106282 2.88322139
0.41269088 1.19000554 2.97052073
0.50566065 5.83918905 2.93782020
0.53779000 5.67568159 2.91447616
0.58734381 5.42174292 2.87847400
0.64361709 5.18364143 2.83758926
0.76100659 4.88470507 2.75230026
0.86136168 4.73407841 2.67938900
0.97605294 4.57459164 2.59605956
1.15525794 4.41510439 2.46585941
1.35596776 4.23789644 2.32003474
1.52083659 4.06068993 2.20025158
1.64269590 3.88348198 2.11171508
1.75738752 3.65311193 2.02838802
1.85774183 3.40502024 1.95547569
1.91508758 3.18351054 1.91381216
1.95809674 2.86453772 1.88256335
1.95809674 2.57214403 1.88256335
1.90791988 2.30633163 1.91901946
1.85057425 2.09368372 1.96068299
1.76455569 1.88989413 2.02318072
1.64986467 1.68610501 2.10650754
1.46349156 1.49117613 2.24191761
1.23410881 1.34941101 2.40857148
1.01189446 1.26080751 2.57002068
0.76100749 1.18992364 2.75229907
0.51012045 1.18106282 2.93458223
0.42936614 1.19000554 2.99201441
0.52420890 5.83918905 2.96511245
0.55774063 5.67568159 2.94383287
0.60945719 5.42174292 2.91101193
0.66818672 5.18364143 2.87374210
0.79069978 4.88470507 2.79599309
0.89543509 4.73407841 2.72952676
1.01513243 4.57459164 2.65356421
1.20215929 4.41510439 2.53487420
1.41162944 4.23789692 2.40193892
1.58369410 4.06068993 2.29274392
1.71087241 3.88348198 2.21203375
1.83057010 3.65311217 2.13607121
1.93530476 3.40502024 2.06960607
1.99515307 3.18351054 2.03162360
2.04003954 2.86453772 2.00313854
2.04004002 2.57214403 2.00313854
1.98767245 2.30633163 2.03637123
1.92782414 2.09368372 2.07435369
1.83805060 1.88989413 2.13132381
1.71835387 1.68610501 2.20728874
1.52384615 1.49117613 2.33072400
1.28445160 1.34941101 2.48264909
1.05253816 1.26080751 2.62982678
0.79070050 1.18992364 2.79599428
0.52886313 1.18106282 2.96216202
0.44465894 1.19000566 3.01451945
0.54100639 5.83918905 2.99351549
0.57580829 5.67568159 2.97438335
0.62948364 5.42174292 2.94487524
0.69043738 5.18364143 2.91136575
0.81759077 4.88470507 2.84146285
0.92629284 4.73407841 2.78170371
1.05052340 4.57459164 2.71340656
1.24463403 4.41510439 2.60669351
1.46203768 4.23789692 2.48717499
1.64061940 4.06068945 2.38899899
1.77261472 3.88348174 2.31643319
1.89684558 3.65311217 2.24813843
2.00554729 3.40502048 2.18837810
2.06766272 3.18351054 2.15423059
2.11424875 2.86453772 2.12862015
2.11424947 2.57214403 2.12862015
2.05989861 2.30633163 2.15849924
1.99778318 2.09368372 2.19264650
1.90461028 1.88989413 2.24386764
1.78037930 1.68610501 2.31216717
1.57850456 1.49117637 2.42314625
1.33004320 1.34941101 2.55974078
1.08934629 1.26080751 2.69206429
0.81759179 1.18992364 2.84146166
0.54583693 1.18106282 2.99085903
0.46005222 1.19000566 3.04096770
-0.38709176 5.83918905 3.00821662
-0.42246035 5.67568159 2.99019575
-0.43051693 5.67568159 3.00600791
-0.39458257 5.83918905 3.02291775
-0.47700858 5.42174292 2.96240163
-0.48593903 5.42174292 2.97992778
-0.53895432 5.18364143 2.93083858
-0.54887664 5.18364143 2.95031238
-0.66817707 4.88470507 2.86499572
-0.68016863 4.88470507 2.88853097
-0.77864695 4.73407841 2.80870819
-0.79240799 4.73407841 2.83571506
-0.90490013 4.57459164 2.74437833
-0.92068225 4.57459164 2.77535272
-1.10216856 4.41510439 2.64386463
-1.12110925 4.41510439 2.68103814
-1.32310951 4.23789644 2.53128934
-1.34558916 4.23789644 2.57540607
-1.50459707 4.06068993 2.43881655
-1.52998257 4.06068945 2.48863649
-1.63874066 3.88348198 2.37046623
-1.66627359 3.88348174 2.42450166
-1.76499271 3.65311217 2.30613661
-1.79454660 3.65311217 2.36414194
-1.87546253 3.40502048 2.24985027
-1.90678716 3.40502048 2.31132460
-1.93858850 3.18351054 2.21768403
-1.97092319 3.18351054 2.28114462
-1.98593366 2.86453748 2.19356132
-2.01902533 2.86453748 2.25850749
-1.98593366 2.57214403 2.19356132
-2.01902533 2.57214427 2.25850749
-1.93069816 2.30633163 2.22170448
-1.96290624 2.30633187 2.28491712
-1.86757207 2.09368372 2.25387073
-1.89876914 2.09368372 2.31509709
-1.77288318 1.88989413 2.30211854
-1.80256474 1.88989413 2.36036944
-1.64663112 1.68610477 2.36644578
-1.67429042 1.68610477 2.42072916
-1.44147110 1.49117637 2.47097778
-1.46584535 1.49117637 2.51881385
-1.18896711 1.34941101 2.59963727
-1.20929813 1.34941101 2.63953829
-0.94435358 1.26080692 2.72427607
-0.96076763 1.26080751 2.75648785
-0.66817707 1.18992364 2.86499691
-0.68016863 1.18992364 2.88852739
-0.39199999 1.18106282 3.00571299
-0.39956963 1.18106282 3.02057171
-0.30670068 1.19000554 3.05005360
-0.37960157 5.83918905 2.99351549
-0.36280352 5.83918905 2.96511245
-0.39633521 5.67568159 2.94383287
-0.41440320 5.67568159 2.97438335
-0.44805166 5.42174292 2.91101193
-0.46807811 5.42174292 2.94487524
-0.50678104 5.18364143 2.87374091
-0.52903193 5.18364143 2.91136456
-0.62929422 4.88470507 2.79599190
-0.65618551 4.88470507 2.84146166
-0.73402953 4.73407841 2.72952437
-0.76488715 4.73407841 2.78170133
-0.85372597 4.57459164 2.65356183
-0.88911808 4.57459164 2.71340394
-1.04075313 4.41510439 2.53487158
-1.08322787 4.41510439 2.60669112
-1.25022256 4.23789692 2.40193653
-1.30063105 4.23789692 2.48717260
-1.42228723 4.06068993 2.29274154
-1.47921276 4.06068993 2.38899660
-1.54946494 3.88348198 2.21203136
-1.61120784 3.88348198 2.31643081
-1.66916251 3.65311217 2.13606882
-1.73543870 3.65311217 2.24813366
-1.77389669 3.40502024 2.06960130
-1.84414029 3.40502048 2.18837571
-1.83374488 3.18351054 2.03161883
-1.90625513 3.18351054 2.15422583
-1.87863195 2.86453772 2.00313377
-1.95284188 2.86453772 2.12861538
-1.87863195 2.57214403 2.00313377
-1.95284188 2.57214403 2.12861538
-1.82626498 2.30633163 2.03636622
-1.89849114 2.30633163 2.15849423
-1.76641548 2.09368372 2.07434869
-1.83637500 2.09368372 2.19264174
-1.67664373 1.88989413 2.13131881
-1.74320281 1.88989413 2.24386287
-1.55694604 1.68610501 2.20728397
-1.61897182 1.68610501 2.31216240
-1.36243784 1.49117613 2.33071923
-1.41709793 1.49117637 2.42314148
-1.12304485 1.34941101 2.48264432
-1.16863608 1.34941101 2.55973601
-0.89113069 1.26080692 2.62982178
-0.92793953 1.26080692 2.69205952
-0.62929422 1.18992364 2.79598951
-0.65618551 1.18992364 2.84146166
-0.36745712 1.18106282 2.96215725
-0.38443092 1.18106282 2.99085903
-0.28667483 1.19000566 3.01451468
-0.34425583 5.83918905 2.93782020
-0.37638521 5.67568159 2.91447616
-0.42593855 5.42174292 2.87847400
-0.48221168 5.18364143 2.83758807
-0.59960061 4.88470507 2.75230026
-0.69995552 4.73407841 2.67938662
-0.81464690 4.57459164 2.59605956
-0.99385214 4.41510439 2.46585941
-1.19456208 4.23789644 2.32003474
-1.35942972 4.06068993 2.20024920
-1.48128927 3.88348198 2.11171246
-1.59598064 3.65311193 2.02838564
-1.69633555 3.40502024 1.95547330
-1.75368118 3.18351054 1.91380978
-1.79669046 2.86453772 1.88256097
-1.79669046 2.57214403 1.88256097
-1.74651301 2.30633163 1.91901708
-1.68916738 2.09368372 1.96068060
-1.60314882 1.88989413 2.02317595
-1.48845744 1.68610501 2.10650277
-1.30208397 1.49117613 2.24191284
-1.07270253 1.34941101 2.40857148
-0.85048795 1.26080751 2.57001567
-0.59960061 1.18992364 2.75229907
-0.34871447 1.18106282 2.93457723
-0.27138206 1.19000554 2.99201441
-0.32403079 5.83918905 2.91174626
-0.35463080 5.67568159 2.88643050
-0.40182602 5.42174292 2.84738755
-0.45542088 5.18364143 2.80304933
-0.56722331 4.88470507 2.71055841
-0.66280121 4.73407841 2.63148785
-0.77203488 4.57459164 2.54112387
-0.94271052 4.41510439 2.39992642
-1.13386762 4.23789644 2.24178767
-1.29088926 4.06068993 2.11188841
-1.40694809 3.88348174 2.01587391
-1.51618052 3.65311193 1.92550766
-1.61175907 3.40502024 1.84643948
-1.66637588 3.18351054 1.80125618
-1.70733762 2.86453772 1.76736879
-1.70733762 2.57214403 1.76736879
-1.65954840 2.30633163 1.80690408
-1.60493279 2.09368372 1.85208488
-1.52300811 1.88989413 1.91986215
-1.41377568 1.68610501 2.01022363
-1.23627245 1.49117613 2.15706921
-1.01780760 1.34941101 2.33780193
-0.80616903 1.26080751 2.51288199
-0.56722271 1.18992352 2.71055841
-0.32827693 1.18106282 2.90823007
-0.25470680 1.19000554 2.97051597
-0.30220836 5.83918905 2.88699389
-0.33115867 5.67568159 2.85980654
-0.37580922 5.42174292 2.81787705
-0.42651451 5.18364143 2.77026105
-0.53228867 4.88470507 2.67093277
-0.62271345 4.73407841 2.58601809
-0.72605723 4.57459164 2.48897099
-0.88753033 4.41510439 2.33733726
-1.06838107 4.23789644 2.16750789
-1.21693575 4.06068945 2.02800512
-1.32673752 3.88348174 1.92489374
-1.43008137 3.65311193 1.82784665
-1.52050555 3.40502024 1.74293315
-1.57217681 3.18351054 1.69440842
-1.61093092 2.86453772 1.65801728
-1.61093092 2.57214403 1.65801728
-1.56571889 2.30633163 1.70047522
-1.51404750 2.09368372 1.74899757
-1.43653941 1.88989413 1.82178223
-1.33319676 1.68610501 1.91882694
-1.16526449 1.49117613 2.07652521
-0.95857805 1.34941101 2.27061939
-0.75835091 1.26080751 2.45864201
-0.53228807 1.18992352 2.67093158
-0.30622521 1.18106282 2.88322139
-0.22709504 1.19000554 2.94049001
-0.43527105 5.83918905 3.14814305
-0.42807275 5.83918905 3.11593843
-0.46653852 5.67568159 3.10606194
-0.47428152 5.67568207 3.14070153
-0.52586615 5.42174292 3.09082985
-0.53444874 5.42174339 3.12922406
-0.59323829 5.18364143 3.07353115
-0.60277367 5.18364143 3.11618996
-0.73378158 4.88470507 3.03744555
-0.74530488 4.88470554 3.08900142
-0.85392940 4.73407841 3.00659657
-0.86715358 4.73407841 3.06575727
-0.99124247 4.57459164 2.97133923
-1.00640821 4.57459211 3.03919339
-1.20579290 4.41510439 2.91625166
-1.22399449 4.41510534 2.99768639
-1.44608855 4.23789692 2.85455346
-1.46769190 4.23789692 2.95119834
-1.64347494 4.06068993 2.80387402
-1.66787100 4.06068993 2.91301131
-1.78936946 3.88348198 2.76641393
-1.81582975 3.88348222 2.88478875
-1.92668247 3.65311217 2.73115897
-1.95508444 3.65311241 2.85822225
-2.04683042 3.40502048 2.70030737
-2.07693315 3.40502095 2.83497834
-2.11548615 3.18351054 2.68268013
-2.14656043 3.18207049 2.82442641
-2.16697812 2.86453772 2.66946077
-2.19878078 2.86453795 2.81173682
-2.16697812 2.57214403 2.66946077
-2.19878078 2.57214427 2.81173682
-2.10690475 2.30633163 2.68488526
-2.13785768 2.30633187 2.82335758
-2.03824782 2.09368396 2.70251274
-2.06822896 2.09368372 2.83663940
-1.93526387 1.88989389 2.72895622
-1.96378744 1.88989413 2.85656118
-1.79795206 1.68610477 2.76421118
-1.82453275 1.68610477 2.88312507
-1.57481909 1.49117637 2.82149887
-1.59824359 1.49117637 2.92629576
-1.30019414 1.34941101 2.89201355
-1.31973302 1.34941161 2.97942352
-1.03415179 1.26080692 2.96032262
-1.04992676 1.26080692 3.03089023
-0.73378158 1.18992352 3.03744316
-0.74530607 1.18992424 3.08900142
-0.43341067 1.18106282 3.11456871
-0.44068483 1.18106282 3.14710784
-0.34048876 1.19000566 3.13886952
-0.34855255 1.19000626 3.17886233
-0.41886601 5.83918905 3.08425021
-0.45663664 5.67568159 3.07197833
-0.51489055 5.42174292 3.05305076
-0.58104330 5.18364143 3.03155589
-0.71904308 4.88470507 2.98671699
-0.83701700 4.73407841 2.94838405
-0.97184438 4.57459164 2.90457559
-1.18251276 4.41510439 2.83612418
-1.41846180 4.23789644 2.75946116
-1.61227667 4.06068993 2.69648695
-1.75553012 3.88348198 2.64993858
-1.89035749 3.65311193 2.60613012
-2.00833273 3.40502048 2.56779861
-2.07574630 3.18351054 2.54589534
-2.12630653 2.86453772 2.52946687
-2.12630653 2.57214427 2.52946687
-2.06731892 2.30633187 2.54863262
-1.99990535 2.09368372 2.57053590
-1.89878488 1.88989413 2.60339284
-1.76395750 1.68610477 2.64719892
-1.54486299 1.49117637 2.71838760
-1.27520716 1.34941101 2.80600452
-1.01397848 1.26080751 2.89088678
-0.71904308 1.18992352 2.98671317
-0.42410767 1.18106282 3.08254457
-0.33289805 1.19000554 3.11274385
-0.40768820 5.83918905 3.05320239
-0.44461319 5.67568159 3.03858328
-0.50156403 5.42174292 3.01603365
-0.56623685 5.18364143 2.99042797
-0.70114845 4.88470507 2.93701243
-0.81648260 4.73407841 2.89134908
-0.94829339 4.57459164 2.83916020
-1.15424788 4.41510439 2.75761700
-1.38491750 4.23789644 2.66628766
-1.57439530 4.06068993 2.59126878
-1.71444452 3.88348174 2.53581786
-1.84625530 3.65311193 2.48362899
-1.96158946 3.40502048 2.43796420
-2.02749491 3.18351054 2.41187215
-2.07692361 2.86453748 2.39230204
-2.07692361 2.57214427 2.39230204
-2.01925659 2.30633187 2.41513419
-1.95335114 2.09368372 2.44122624
-1.85449362 1.88989413 2.48036671
-1.72268283 1.68610477 2.53255582
-1.50848997 1.49117637 2.61736083
-1.24486828 1.34941101 2.72173858
-0.98948503 1.26080751 2.82285190
-0.70114845 1.18992352 2.93700886
-0.41281247 1.18106282 3.05117059
-0.32368171 1.19000554 3.08714771
-0.39458257 5.83918905 3.02291775
-0.43051693 5.67568159 3.00600791
-0.48593903 5.42174292 2.97992778
-0.54887664 5.18364143 2.95031238
-0.68016863 4.88470507 2.88853097
-0.79240799 4.73407841 2.83571506
-0.92068225 4.57459164 2.77535272
-1.12110925 4.41510439 2.68103814
-1.34558916 4.23789644 2.57540607
-1.52998257 4.06068945 2.48863649
-1.66627359 3.88348174 2.42450166
-1.79454660 3.65311217 2.36414194
-1.90678716 3.40502048 2.31132460
-1.97092319 3.18351054 2.28114462
-2.01902533 2.86453748 2.25850749
-2.01902533 2.57214427 2.25850749
-1.96290624 2.30633187 2.28491712
-1.89876914 2.09368372 2.31509709
-1.80256474 1.88989413 2.36036944
-1.67429042 1.68610477 2.42072916
-1.46584535 1.49117637 2.51881385
-1.20929813 1.34941101 2.63953829
-0.96076763 1.26080751 2.75648785
-0.68016863 1.18992364 2.88852739
-0.39956963 1.18106282 3.02057171
-0.30670068 1.19000554 3.05005360
0.54849720 5.83918905 3.00821662
0.58386517 5.67568159 2.99019575
0.57580829 5.67568159 2.97438335
0.54100639 5.83918905 2.99351549
0.63841397 5.42174292 2.96240282
0.62948364 5.42174292 2.94487524
0.70035970 5.18364143 2.93083978
0.69043738 5.18364143 2.91136575
0.82958227 4.88470507 2.86499691
0.81759077 4.88470507 2.84146285
0.94005299 4.73407841 2.80871058
0.92629284 4.73407841 2.78170371
1.06630516 4.57459164 2.74438071
1.05052340 4.57459164 2.71340656
1.26357460 4.41510439 2.64386702
1.24463403 4.41510439 2.60669351
1.48451614 4.23789644 2.53129172
1.46203768 4.23789692 2.48717499
1.66600394 4.06068993 2.43881893
1.64061940 4.06068945 2.38899899
1.80014706 3.88348198 2.37047100
1.77261472 3.88348174 2.31643319
1.92639959 3.65311217 2.30614138
1.89684558 3.65311217 2.24813843
2.03687000 3.40502048 2.24985266
2.00554729 3.40502048 2.18837810
2.09999609 3.18351054 2.21768904
2.06766272 3.18351054 2.15423059
2.14734054 2.86453748 2.19356608
2.11424875 2.86453772 2.12862015
2.14734125 2.57214403 2.19356608
2.11424947 2.57214403 2.12862015
2.09210563 2.30633163 2.22170949
2.05989861 2.30633163 2.15849924
2.02897954 2.09368372 2.25387311
1.99778318 2.09368372 2.19264650
1.93429065 1.88989413 2.30211854
1.90461028 1.88989413 2.24386764
1.80803800 1.68610477 2.36645055
1.78037930 1.68610501 2.31216717
1.60287833 1.49117637 2.47098255
1.57850456 1.49117637 2.42314625
1.35037386 1.34941101 2.59964204
1.33004320 1.34941101 2.55974078
1.10575974 1.26080692 2.72427607
1.08934629 1.26080751 2.69206429
0.82958293 1.18992364 2.86499691
0.81759179 1.18992364 2.84146166
0.55340630 1.18106282 3.00571775
0.54583693 1.18106282 2.99085903
0.46005222 1.19000566 3.04096770
0.55598766 5.83918905 3.02291775
0.56909299 5.83918905 3.05320239
0.60601830 5.67568159 3.03858328
0.59192216 5.67568159 3.00600910
0.66296870 5.42174292 3.01603484
0.64734429 5.42174292 2.97992897
0.72764176 5.18364143 2.99042916
0.71028203 5.18364143 2.95031238
0.86255360 4.88470507 2.93701363
0.84157360 4.88470507 2.88853216
0.97788823 4.73407841 2.89134908
0.95381343 4.73407841 2.83571506
1.10969913 4.57459164 2.83916259
1.08208728 4.57459164 2.77535510
1.31565392 4.41510439 2.75761938
1.28251529 4.41510439 2.68104053
1.54632318 4.23789644 2.66629004
1.50699484 4.23789644 2.57540846
1.73580098 4.06068993 2.59127116
1.69138849 4.06068993 2.48863888
1.87585020 3.88348174 2.53582263
1.82767928 3.88348174 2.42450643
2.00766087 3.65311193 2.48363376
1.95595360 3.65311217 2.36414433
2.12299562 3.40502048 2.43796897
2.06819344 3.40502048 2.31132936
2.18890119 3.18351054 2.41187692
2.13232994 3.18351054 2.28114963
2.23832989 2.86453748 2.39230680
2.18043232 2.86453748 2.25851226
2.23832989 2.57214427 2.39230680
2.18043232 2.57214427 2.25851226
2.18066287 2.30633187 2.41513658
2.12431312 2.30633187 2.28492212
2.11475801 2.09368372 2.44123125
2.06017661 2.09368372 2.31510186
2.01589990 1.88989413 2.48037171
1.96397102 1.88989413 2.36037421
1.88408911 1.68610477 2.53256059
1.83569670 1.68610477 2.42073393
1.66989589 1.49117637 2.61736560
1.62725198 1.49117637 2.51881886
1.40627432 1.34941101 2.72173858
1.37070441 1.34941101 2.63954329
1.15089047 1.26080692 2.82285190
1.12217331 1.26080692 2.75649285
0.86255431 1.18992352 2.93701363
0.84157419 1.18992364 2.88853216
0.57421815 1.18106282 3.05117536
0.56097502 1.18106282 3.02057171
0.48166519 1.19000554 3.08714771
0.47086021 1.19000554 3.06217742
0.58027083 5.83918905 3.08425021
0.61804146 5.67568159 3.07197833
0.67629522 5.42174292 3.05305076
0.74244839 5.18364143 3.03155589
0.88044804 4.88470507 2.98671699
0.99842232 4.73407841 2.94838405
1.13324988 4.57459164 2.90457559
1.34391809 4.41510439 2.83612680
1.57986689 4.23789644 2.75946116
1.77368176 4.06068993 2.69648695
1.91693580 3.88348198 2.64994097
2.05176377 3.65311193 2.60613251
2.16973782 3.40502048 2.56780100
2.23715138 3.18351054 2.54589796
2.28771162 2.86453772 2.52946925
2.28771234 2.57214427 2.52946925
2.22872519 2.30633187 2.54863524
2.16131163 2.09368372 2.57053828
2.06019115 1.88989413 2.60339761
1.92536318 1.68610477 2.64720368
1.70626807 1.49117637 2.71839237
1.43661284 1.34941101 2.80600929
1.17538393 1.26080751 2.89088678
0.88044864 1.18992352 2.98671818
0.58551323 1.18106282 3.08254933
0.49088126 1.19000554 3.11274862
0.58947742 5.83918905 3.11593962
0.62794375 5.67568159 3.10606313
0.68727112 5.42174292 3.09082985
0.75464356 5.18364143 3.07353234
0.89518636 4.88470507 3.03744698
1.01533484 4.73407841 3.00659895
1.15264726 4.57459164 2.97134161
1.36719799 4.41510439 2.91625428
1.60749459 4.23789692 2.85455823
1.80488062 4.06068993 2.80387640
1.95077574 3.88348198 2.76641870
2.08808827 3.65311217 2.73116136
2.20823598 3.40502048 2.70031238
2.27689195 3.18351054 2.68268490
2.32838440 2.86453772 2.66946554
2.32838440 2.57214403 2.66946554
2.26831055 2.30633163 2.68488765
2.19965458 2.09368396 2.70251751
2.09667015 1.88989389 2.72896099
1.95935774 1.68610477 2.76421595
1.73622537 1.49117637 2.82150388
1.46160078 1.34941101 2.89201832
1.19555748 1.26080751 2.96032262
0.89518696 1.18992352 3.03744817
0.59481621 1.18106282 3.11456871
0.49847168 1.19000566 3.13887429
0.59667599 5.83918858 3.14814305
0.63568664 5.67568159 3.14070153
0.69585323 5.42174292 3.12922406
0.76417887 5.18364143 3.11618996
0.90671027 4.88470459 3.08900023
1.02855837 4.73407793 3.06575727
1.16781366 4.57459116 3.03919101
1.38539982 4.41510439 2.99768639
1.62909639 4.23789644 2.95119834
1.82927549 4.06068945 2.91301131
1.97723424 3.88348174 2.88478637
2.11648893 3.65311193 2.85822225
2.23833776 3.40501976 2.83497834
2.30796504 3.18351054 2.82169628
2.36018586 2.86453676 2.81173420
2.36018586 2.57214427 2.81173420
2.29926205 2.30633187 2.82335520
2.22963357 2.09368300 2.83663702
2.12519312 1.88989413 2.85656118
1.98593783 1.68610477 2.88312507
1.75964808 1.49117637 2.92629075
1.48113823 1.34941041 2.97942352
1.21133101 1.26080692 3.03089023
0.90671039 1.18992293 3.08900142
0.60208994 1.18106282 3.14710784
0.50440663 1.19000494 3.16542387
0.59925711 5.83918905 3.16443920
0.60183805 5.83918905 3.18073535
0.64123899 5.67568159 3.17575788
0.63846290 5.67568159 3.15822911
0.70200759 5.42174292 3.16808033
0.69893056 5.42174292 3.14865232
0.77101690 5.18364143 3.15936303
0.76759809 5.18364143 3.13777661
0.91497433 4.88470459 3.14117575
0.91084224 4.88470411 3.11508870
1.03804135 4.73407793 3.12562847
1.03329992 4.73407745 3.09569168
1.17868972 4.57459116 3.10786152
1.17325151 4.57459116 3.07352614
1.39845276 4.41510439 3.08009863
1.39192641 4.41510391 3.03889012
1.64458716 4.23789644 3.04900384
1.63684177 4.23789597 3.00009871
1.84676921 4.06068945 3.02346063
1.83802235 4.06068945 2.96823597
1.99620807 3.88348174 3.00458384
1.98672152 3.88348103 2.94468379
2.13685656 3.65311193 2.98681450
2.12667322 3.65311122 2.92251587
2.25992370 3.40501976 2.97126698
2.24913096 3.40501976 2.90312147
2.33024788 3.18351054 2.96238351
2.31910682 3.18350983 2.89203763
2.38299108 2.86453676 2.95571971
2.37158823 2.86453676 2.88372707
2.38299108 2.57214427 2.95571971
2.37158823 2.57214355 2.88372469
2.32145762 2.30633163 2.96349335
2.31035995 2.30633116 2.89342427
2.25113344 2.09368396 2.97237921
2.24038410 2.09368300 2.90450811
2.14564681 1.88989389 2.98570204
2.13542008 1.88989329 2.92112923
2.00499892 1.68610477 3.00347400
1.99546838 1.68610418 2.94329715
1.77644551 1.49117637 3.03234434
1.76804650 1.49117565 2.97931767
1.49514866 1.34941041 3.06788325
1.48814356 1.34941041 3.02364850
1.22264254 1.26080692 3.10230494
1.21698678 1.26080620 3.06659770
0.91497433 1.18992293 3.14117575
0.91084242 1.18992293 3.11508870
0.60730612 1.18106282 3.18004179
0.60469812 1.18106222 3.16357493
0.50813037 1.19000483 3.18893504
0.63568664 5.67568159 3.14070153
0.59667599 5.83918858 3.14814305
0.69585323 5.42174292 3.12922406
0.76417887 5.18364143 3.11618996
0.90671027 4.88470459 3.08900023
1.02855837 4.73407793 3.06575727
1.16781366 4.57459116 3.03919101
1.38539982 4.41510439 2.99768639
1.62909639 4.23789644 2.95119834
1.82927549 4.06068945 2.91301131
1.97723424 3.88348174 2.88478637
2.11648893 3.65311193 2.85822225
2.23833776 3.40501976 2.83497834
2.30796504 3.18351054 2.82169628
2.36018586 2.86453676 2.81173420
2.36018586 2.57214427 2.81173420
2.29926205 2.30633187 2.82335520
2.22963357 2.09368300 2.83663702
2.12519312 1.88989413 2.85656118
1.98593783 1.68610477 2.88312507
1.75964808 1.49117637 2.92629075
1.48113823 1.34941041 2.97942352
1.21133101 1.26080692 3.03089023
0.90671039 1.18992293 3.08900142
0.60208994 1.18106282 3.14710784
0.50440663 1.19000494 3.16542387
0.59925711 5.83918905 3.32870126
0.59667587 5.83918905 3.34499741
0.63568646 5.67568207 3.35243893
0.63846290 5.67568159 3.33491015
0.69585323 5.42174339 3.36391640
0.69893056 5.42174292 3.34448695
0.76417887 5.18364143 3.37695050
0.76759809 5.18364143 3.35536265
0.90671027 4.88470554 3.40413904
0.91084242 4.88470507 3.37805057
1.02855861 4.73407841 3.42738175
1.03330016 4.73407841 3.39744520
1.16781378 4.57459211 3.45394826
1.17325199 4.57459116 3.41961050
1.38539982 4.41510534 3.49545264
1.39192677 4.41510439 3.45424676
1.62909639 4.23789692 3.54194069
1.63684213 4.23789692 3.49303555
1.82927608 4.06069040 3.58012795
1.83802295 4.06068993 3.52490091
1.97723424 3.88348222 3.60835052
1.98672211 3.88348198 3.54845047
2.11648965 3.65311217 3.63491678
2.12667370 3.65311241 3.57061601
2.23833776 3.40502143 3.65815854
2.24913144 3.40502024 3.59001303
2.30796504 3.18351078 3.67144036
2.31910729 3.18351054 3.60109448
2.36018586 2.86453795 3.68140244
2.37158871 2.86453772 3.60940742
2.36018634 2.57214427 3.68140244
2.37158871 2.57214427 3.60940742
2.29926205 2.30633163 3.66978168
2.31036043 2.30633187 3.59971023
2.22963524 2.09368396 3.65649724
2.24038458 2.09368372 3.58862615
2.12519312 1.88989413 3.63657808
2.13542056 1.88989389 3.57200027
1.98593843 1.68610477 3.61000919
1.99546897 1.68610477 3.54983735
1.75964868 1.49117625 3.56684351
1.76804769 1.49117637 3.51381683
1.48113823 1.34941161 3.51371574
1.48814392 1.34941101 3.46948600
1.21133137 1.26080763 3.46224904
1.21698725 1.26080680 3.42653680
0.90671057 1.18992412 3.40413785
0.91084272 1.18992364 3.37805057
0.60209006 1.18106294 3.34603143
0.60469842 1.18106294 3.32955956
0.50493872 1.19000626 3.32436895
0.60183805 5.83918905 3.31240511
0.64123911 5.67568159 3.31738257
0.64457917 5.67568207 3.28204584
0.60494351 5.83918905 3.27955294
0.70200777 5.42174292 3.32505870
0.70570999 5.42174339 3.28589177
0.77101707 5.18364143 3.33377624
0.77513063 5.18364143 3.29025888
0.91497433 4.88470507 3.35196209
0.91994566 4.88470507 3.29937005
1.03804171 4.73407793 3.36750841
1.04374659 4.73407793 3.30715823
1.17868996 4.57459116 3.38527775
