-0.18288499 1.91564894 -2.89241624
-0.21892868 2.48056555 -3.64082360
-0.20821753 2.26565337 -3.38330150
-0.76086056 2.14112544 -3.13327003
-0.69172972 1.91729951 -2.82787800
-0.79593581 2.26593971 -3.29246235
-0.85125953 2.48245096 -3.55095983
-1.28821492 2.14039207 -2.94891381
-1.17637181 1.91897225 -2.67349100
-1.34868157 2.26687121 -3.09899426
-1.44691575 2.48393297 -3.34485865
-1.76730323 2.14048719 -2.67656493
-1.61757493 1.92032933 -2.42852163
-1.98677146 2.48499656 -3.03834438
-1.85064471 2.26808882 -2.81422496
-2.19635749 2.14000297 -2.33314109
-2.01364470 1.92156184 -2.12152290
-2.47227931 2.48549557 -2.64929557
-2.30120897 2.26899147 -2.45378065
-2.55884838 2.14027452 -1.92121017
-2.34085488 1.92162788 -1.74272299
-2.87192178 2.48431444 -2.17518139
-2.68177700 2.27078867 -2.02129316
-2.82262111 2.13932061 -1.43657553
-2.59112144 1.92357934 -1.30598044
-3.17724013 2.48553967 -1.63137138
-2.96021509 2.27130985 -1.51294005
-3.01039624 2.14009833 -0.91886842
-2.75528765 1.92361629 -0.82933515
-3.38956261 2.48497486 -1.04566324
-3.15933204 2.27206540 -0.96962893
-3.07756805 2.13929129 -0.36691508
-2.82370687 1.92561901 -0.32919869
-3.47230244 2.48589206 -0.42703679
-3.23198438 2.27271843 -0.39021543
-2.77701068 1.92835546 0.17130455
-3.01650000 2.13872647 0.18005687
-3.17287517 2.27176452 0.18599936
-3.43669176 2.48908329 0.19638768
-2.63645267 1.93013096 0.65446454
-2.86410093 2.13904929 0.70584130
-2.62666607 1.78858972 0.16637450
-2.28682971 1.55257082 0.58169490
-2.49414897 1.78558207 0.62385720
-2.38226891 1.54822040 0.15932424
-2.10433698 1.55262959 0.97518224
-2.30496550 1.78663826 1.05857503
-2.18444300 1.37993824 0.56441039
-1.92004693 1.07505250 0.91662318
-2.01058531 1.37920463 0.94061315
-2.07405972 1.07293236 0.55322242
-1.68911946 1.07642448 1.23984993
-1.76532257 1.37951279 1.27672994
-1.84706450 1.55499923 1.32688880
-2.01894879 1.78635955 1.44211411
-1.41199458 1.07746625 1.52648258
-1.47172010 1.37950552 1.57498348
-1.67232633 1.78509033 1.76837814
-1.53817308 1.55815387 1.63682938
-1.47172010 1.37950552 1.57498348
-1.41199458 1.07746625 1.52648258
-1.13918352 1.38010705 1.82339370
-1.09045517 1.07748091 1.75885546
-1.67232633 1.78509033 1.76837814
-1.53817308 1.55815387 1.63682938
-1.28246319 1.78320491 2.03220224
-1.18964326 1.56165314 1.89538574
-0.76419860 1.38002622 1.99408948
-0.73352510 1.07823658 1.92762923
-0.85910213 1.78375518 2.22612476
-0.79731506 1.56218886 2.07298493
-0.36870843 1.37978423 2.09911728
-0.35395494 1.07868397 2.03237820
-0.41486165 1.78495097 2.35753417
-0.38453302 1.56068492 2.18385267
0.04018531 1.38004100 2.12311459
0.04001658 1.07853734 2.05370522
0.04471920 1.78466499 2.37820077
0.04144717 1.56182194 2.20840764
0.43054733 1.07862544 2.01229835
0.44433242 1.37963009 2.07630849
0.46224052 1.56196892 2.15807986
0.49839428 1.78445959 2.32207751
0.79777771 1.07803106 1.87637711
0.82602286 1.37993824 1.93970478
0.85964549 1.56233549 2.01716256
0.92513013 1.78451073 2.16958332
1.13871455 1.07755423 1.68332005
1.17869782 1.37971818 1.74017704
1.22688317 1.56237221 1.80913186
1.32080364 1.78429079 1.94384992
1.43699002 1.07616043 1.43110216
1.49440467 1.37976956 1.48790801
1.67835736 1.78375518 1.66352642
1.55776167 1.56127930 1.54886603
1.75938046 1.37905800 1.18008041
1.68993425 1.07546341 1.13463867
1.83544409 1.55887282 1.22924149
1.98432887 1.78401935 1.32495940
1.95444036 1.37855899 0.82533646
1.87734962 1.07491314 0.79337913
2.21904206 1.78488493 0.93019545
2.04093647 1.55632710 0.85995692
2.08125734 1.37824357 0.43960372
1.99698412 1.07428956 0.42112333
2.38019323 1.78608084 0.49988684
2.17586732 1.55353916 0.45904514
2.13867927 1.37774467 0.03676983
2.05234456 1.07407677 0.03460559
2.44974947 1.78583872 0.04357066
2.23608446 1.55231428 0.03897075
2.12515092 1.37782526 -0.37167639
2.03665209 1.07368064 -0.35573441
2.22284222 1.55153644 -0.38808790
2.43779826 1.78576541 -0.42310449
2.03857422 1.37752461 -0.76731330
1.95380211 1.07349718 -0.73433620
2.35577750 1.78731334 -0.89122492
2.13362432 1.54857981 -0.80440611
1.87073219 1.37745857 -1.14040542
1.79242361 1.07318187 -1.08969629
1.95700073 1.54884398 -1.19514239
2.15520072 1.78668249 -1.31981683
1.56649935 1.07241154 -1.40952635
1.63956249 1.37786937 -1.47774732
1.90029049 1.78801048 -1.72152090
1.71698332 1.54667974 -1.55011356
1.29179561 1.07124484 -1.68819165
1.35648060 1.37839031 -1.77834129
1.58324099 1.78900814 -2.07686639
1.42263269 1.54467678 -1.86664951
1.02357709 1.37835360 -2.01797724
0.97426927 1.07078266 -1.91622877
1.20147729 1.78942621 -2.35975742
1.07448435 1.54343700 -2.11750984
0.65272254 1.37828767 -2.19668436
0.62091202 1.07040131 -2.08562613
0.68670475 1.54173493 -2.30516028
0.77551174 1.79022586 -2.57768488
0.25376233 1.37902856 -2.30287862
0.62091202 1.07040131 -2.08562613
0.24068153 1.06924212 -2.17848277
0.65272254 1.37828767 -2.19668436
0.77551174 1.79022586 -2.57768488
0.26851580 1.54045117 -2.41892576
0.30910805 1.79066610 -2.71310759
0.68670475 1.54173493 -2.30516028
-0.15607782 1.37918270 -2.33107972
-0.14833058 1.06880927 -2.20363927
-0.17485166 1.78978562 -2.73070741
-0.16196160 1.54177153 -2.44732475
-0.56294674 1.37992358 -2.26735568
-0.53161299 1.06877255 -2.14133120
-0.65581077 1.79118681 -2.66998434
-0.58997399 1.54108953 -2.38214827
-0.90028864 1.06811225 -2.02173328
-0.95484203 1.38073802 -2.14813924
-1.00165558 1.54160309 -2.25793576
-1.11496615 1.79074693 -2.52538395
-1.31781733 1.38111937 -1.95514095
-1.24077058 1.06800222 -1.83714986
-1.53385937 1.79040182 -2.29342914
-1.38231885 1.54257143 -2.05551744
-1.54533350 1.06721723 -1.60108674
-1.64607680 1.38191175 -1.71275401
-1.72689450 1.54345918 -1.80211127
-1.90959990 1.78945565 -2.00378847
-1.90657735 1.38230062 -1.39670217
-1.78974533 1.06761336 -1.30295038
-2.21799231 1.79028463 -1.64373326
-2.00108457 1.54341495 -1.47192228
-2.11778474 1.38251328 -1.04516447
-1.98703551 1.06776750 -0.96989304
-2.45538354 1.78923535 -1.23060632
-2.22254848 1.54474282 -1.10350335
-2.25073481 1.38230062 -0.65720874
-2.11455679 1.06858182 -0.60579532
-2.60858917 1.78919148 -0.77894878
-2.36223316 1.54569662 -0.69631171
-2.30294037 1.38130283 -0.25053057
-2.17334318 1.07009315 -0.22311449
-2.67166018 1.78946292 -0.30682272
-2.41625857 1.54624689 -0.26963454
-2.27355814 1.37987220 0.15983044
-2.16018152 1.07220602 0.16818660
-2.14462113 0.87551731 0.17988814
-2.15408516 0.87496710 -0.21029781
-2.21578407 0.56605375 -0.19652741
-2.20605612 0.56640583 0.20787647
-2.05869746 0.87630975 0.56267166
-2.11870909 0.56642056 0.60285306
-2.19134665 0.38210836 0.64047408
-2.28150368 0.38072920 0.23067798
-2.45986605 0.10648756 0.27474034
-2.36590147 0.10595933 0.72124040
-2.19134665 0.38210836 0.64047408
-2.36590147 0.10595933 0.72124040
-2.02833939 0.38332629 1.02891397
-2.19184542 0.10557781 1.14245188
-1.90812528 0.87705797 0.92569828
-1.96190107 0.56664795 0.97797740
-1.79455793 0.38345826 1.37756121
-1.93417680 0.10604000 1.51464176
-1.68135023 0.87842995 1.24883687
-1.73520648 0.56646460 1.31506252
-1.50441837 0.38434598 1.68108237
-1.62420702 0.10573187 1.84149265
-1.40708649 0.87910485 1.53424454
-1.45378995 0.56658930 1.60931790
-1.25875938 0.10546048 2.10952759
-1.16395116 0.38521174 1.92613995
-1.40708649 0.87910485 1.53424454
-1.12406325 0.56652325 1.84601176
-1.08636153 0.87958902 1.76365340
-1.45378995 0.56658930 1.60931790
-0.84668159 0.10536511 2.31133723
-0.78262025 0.38615808 2.10899925
-0.75609916 0.56664062 2.02209258
-0.73121417 0.87987518 1.93351305
-0.39464256 0.10620876 2.41903543
-0.37000698 0.38550517 2.21585393
-0.36005881 0.56709558 2.12744308
-0.35168800 0.87977988 2.03832054
0.06767477 0.10612809 2.44257069
0.05397773 0.38527036 2.23922038
0.04798389 0.56684607 2.15016389
0.04188002 0.87983125 2.05929542
0.47608432 0.38511631 2.18460822
0.52654403 0.10573922 2.38290358
0.43277758 0.87917817 2.01714039
0.45428789 0.56705892 2.09960890
0.87378275 0.38400862 2.04367614
0.95512861 0.10585662 2.22462082
0.80019873 0.87923694 1.88127780
0.83754826 0.56631780 1.96337938
1.23939168 0.38226983 1.82776630
1.34581339 0.10617944 1.98468423
1.14123082 0.87845194 1.68681955
1.19099355 0.56594366 1.75731480
1.34581339 0.10617944 1.98468423
1.55766642 0.38121337 1.54706848
1.23939168 0.38226983 1.82776630
1.68927395 0.10554849 1.68124390
1.43744493 0.87764496 1.43064737
1.49792612 0.56532741 1.48765123
1.98077810 0.10622345 1.32477593
1.83348536 0.37951139 1.22827303
1.76376033 0.56476247 1.18267727
1.69045508 0.87747622 1.13491750
2.20042229 0.10642152 0.92267567
2.03822184 0.37910783 0.85851163
1.96070576 0.56440300 0.82746404
1.87825191 0.87710202 0.79363590
2.35209489 0.10614271 0.48785517
2.17673302 0.37954062 0.45786399
2.09223986 0.56386751 0.44200271
1.99886227 0.87724143 0.42153418
2.43607450 0.10580526 0.03333640
2.24967885 0.38083190 0.03500175
2.15992546 0.56341261 0.03520718
2.05639434 0.87773299 0.03420943
2.25650167 0.38316482 -0.39122787
2.45324898 0.10517432 -0.42642054
2.04379034 0.87908292 -0.35625529
2.16167879 0.56265694 -0.37498513
2.16795874 0.38554925 -0.80924076
2.37459540 0.10375109 -0.88304484
1.96076441 0.87908292 -0.73581815
2.07413363 0.56260562 -0.77586752
1.99050605 0.38317224 -1.19498086
2.16471601 0.10535042 -1.29154241
1.79942250 0.87905353 -1.09081149
1.90588820 0.56256896 -1.14849007
1.73799491 0.38150680 -1.53800118
1.88693821 0.10582730 -1.65520728
1.57139277 0.87845194 -1.40937221
1.66402209 0.56249565 -1.48036647
1.55109286 0.10613544 -1.97277772
1.43016732 0.38057512 -1.83393645
1.29452467 0.87771827 -1.68478763
1.36950266 0.56278908 -1.76584017
1.16614521 0.10633350 -2.22322011
1.07455778 0.37951139 -2.06906772
1.02904272 0.56326592 -1.99440539
0.97553849 0.87648576 -1.91055048
0.68445981 0.37795606 -2.23149538
0.74142689 0.10653158 -2.39233851
0.62171161 0.87522388 -2.07602262
0.65546638 0.56392610 -2.15488148
0.27433357 0.37607062 -2.31918001
0.68445981 0.37795606 -2.23149538
0.29761192 0.10689840 -2.47758007
0.74142689 0.10653158 -2.39233851
0.24252297 0.87449765 -2.16503501
0.62171161 0.87522388 -2.07602262
0.26083460 0.56384552 -2.24244142
0.65546638 0.56392610 -2.15488148
-0.14363530 0.37500674 -2.33441758
-0.15099370 0.10747799 -2.48688984
-0.14502187 0.87380791 -2.18797612
-0.14211667 0.56422698 -2.26023221
-0.55572772 0.37389904 -2.26103902
-0.59001064 0.10741930 -2.40418673
-0.52641147 0.87366855 -2.12453103
-0.53981507 0.56412429 -2.19115257
-0.94529003 0.37374499 -2.12056208
-1.00756872 0.10714048 -2.25403285
-0.89186645 0.87333119 -2.00185919
-0.91631132 0.56443238 -2.05742478
-1.30466318 0.37410447 -1.91666889
-1.39233303 0.10681032 -2.03820372
-1.22911298 0.87332374 -1.81650519
-1.26389480 0.56471854 -1.86127925
-1.62114036 0.37418506 -1.65941834
-1.73051858 0.10711117 -1.76056516
-1.52928877 0.87338251 -1.57954705
-1.57079077 0.56505591 -1.61410880
-2.01550078 0.10678834 -1.42711151
-1.88198566 0.37571114 -1.34255230
-1.82164383 0.56535679 -1.30691218
-1.77168310 0.87377870 -1.28312016
-2.23799133 0.10669298 -1.04580259
-2.08602548 0.37664279 -0.98805791
-2.01907349 0.56576031 -0.96497762
-1.96598017 0.87401348 -0.95199960
-2.38955402 0.10715517 -0.62425369
-2.22553420 0.37739116 -0.60062313
-2.15297723 0.56580430 -0.59248710
-2.09353781 0.87455630 -0.59100515
-2.46799445 0.10670761 -0.17901543
-2.29165721 0.37923250 -0.18890490
-2.51310611 -0.05447286 -0.64222050
-2.82405901 -0.28167355 -0.16363102
-2.59613204 -0.05230863 -0.17293355
-2.72898674 -0.28156349 -0.67384034
-2.58655071 -0.05109809 0.30461413
-2.81356049 -0.28149745 0.35616693
-2.96779370 -0.41214392 0.38787481
-2.98067641 -0.41322970 -0.16142276
-3.24960637 -0.60068917 -0.16382177
-3.23545456 -0.60035175 0.43796036
-3.10012746 -0.59979409 1.02347767
-2.85146785 -0.41241539 0.92648333
-2.70545888 -0.28168088 0.86724192
-2.48686385 -0.05004903 0.77458334
-3.10012746 -0.59979409 1.02347767
-2.88963914 -0.60019022 1.58976638
-2.65360546 -0.41052991 1.44094765
-2.85146785 -0.41241539 0.92648333
-2.70545888 -0.28168088 0.86724192
-2.51834440 -0.28303081 1.35487711
-2.30440784 -0.04766468 1.21734178
-2.48686385 -0.05004903 0.77458334
-2.55001545 -0.60068184 2.07873678
-2.34320998 -0.41050059 1.88910580
-2.22435308 -0.28359571 1.78073990
-2.03260922 -0.04718052 1.60702157
-2.13211989 -0.60021961 2.49910474
-1.96275938 -0.41069132 2.27931380
-1.86453247 -0.28330955 2.15240145
-1.70652127 -0.04712182 1.94924223
-1.51796138 -0.41045657 2.60034680
-1.64802086 -0.59924388 2.84145737
-1.44246984 -0.28281069 2.45890856
-1.32210898 -0.04654223 2.23070288
-1.09944963 -0.59889174 3.10621309
-1.01293886 -0.40930474 2.84160399
-0.96412253 -0.28208438 2.68861103
-0.88780946 -0.04599202 2.44268060
-0.46224007 -0.40827763 2.97409201
-0.50064605 -0.59936130 3.25900793
-0.41095135 -0.04566186 2.55482459
-0.44181556 -0.28239250 2.81379914
0.10466485 -0.40860778 3.00079632
0.12169261 -0.59976476 3.28731918
0.07686726 -0.04581592 2.57891726
0.09446727 -0.28267860 2.83955002
0.66574472 -0.40981826 2.92863560
0.73785406 -0.59919256 3.19596648
0.56020337 -0.04570587 2.51585364
0.62496901 -0.28325084 2.77264929
1.19699478 -0.40869582 2.73786736
1.32656276 -0.60078454 3.00087714
1.12636006 -0.28420460 2.59130096
1.01224971 -0.04596264 2.34851789
1.83657396 -0.60100466 2.65926528
1.66843855 -0.41047123 2.43023801
1.57347631 -0.28366169 2.30043530
1.42293358 -0.04809021 2.09384990
1.83657396 -0.60100466 2.65926528
2.29995513 -0.60221511 2.25406909
2.08588648 -0.41049322 2.05608940
1.66843855 -0.41047123 2.43023801
1.96811545 -0.28403586 1.94638109
1.42293358 -0.04809021 2.09384990
1.57347631 -0.28366169 2.30043530
1.78455889 -0.04933741 1.77399051
2.66174173 -0.60213447 1.75647855
2.42173910 -0.41236404 1.61007345
2.28751993 -0.28320685 1.52547765
2.08886504 -0.05180978 1.39552808
2.95428753 -0.60327160 1.22362912
2.68187284 -0.41131490 1.11421418
2.53444815 -0.28265664 1.05529559
2.31955051 -0.05255071 0.96991473
3.12661958 -0.60105598 0.64191937
2.86646390 -0.41392666 0.58680105
2.71212077 -0.28305277 0.55559206
2.47947645 -0.05170707 0.51110417
3.21633649 -0.59981614 0.05058426
2.96259975 -0.41490239 0.04098826
2.80599737 -0.28284734 0.03689455
2.56733704 -0.05080466 0.03378392
3.22545552 -0.59809941 -0.54827797
2.98137379 -0.41455758 -0.51475805
2.82651711 -0.28231183 -0.49096608
2.58551669 -0.04910261 -0.44956684
2.88845849 -0.41418344 -1.06487727
3.11758137 -0.59666884 -1.14131510
2.50458884 -0.04752531 -0.92949152
2.74016070 -0.28202569 -1.01371324
2.66267347 -0.41374326 -1.57498384
2.87433577 -0.59665412 -1.69631314
2.28443122 -0.04544909 -1.35900056
2.52400112 -0.28481352 -1.49567747
2.50602674 -0.60028571 -2.18215823
2.29749012 -0.41171843 -2.00380325
2.17653513 -0.28292811 -1.90024269
1.98928821 -0.04942543 -1.73972988
2.05335689 -0.60105598 -2.59386182
1.88249242 -0.41198251 -2.37548685
1.78370786 -0.28193033 -2.25230145
1.63517535 -0.05134024 -2.07228851
1.41437936 -0.41110948 -2.67558908
1.54774034 -0.60230321 -2.93230438
1.33998096 -0.28176156 -2.53596306
1.22983241 -0.05224993 -2.33526134
0.97691035 -0.60153288 -3.12145090
0.89552045 -0.41443285 -2.86668015
0.84813464 -0.28144610 -2.71881533
0.78145427 -0.05453891 -2.51155496
0.38104138 -0.60117340 -3.19271660
0.89552045 -0.41443285 -2.86668015
0.97691035 -0.60153288 -3.12145090
0.35643512 -0.41880539 -2.94971347
0.84813464 -0.28144610 -2.71881533
0.33946601 -0.28127742 -2.79937601
0.78145427 -0.05453891 -2.51155496
0.31392807 -0.05745877 -2.59797740
-0.20224571 -0.60052776 -3.17346621
-0.18300971 -0.42161518 -2.94721174
-0.17151357 -0.28081521 -2.79928064
-0.15810999 -0.05896274 -2.60527730
-0.76306140 -0.60179693 -3.07045579
-0.70376873 -0.42152718 -2.84405494
-0.61846119 -0.06039333 -2.51724052
-0.66626513 -0.28094724 -2.70057702
-1.29375386 -0.60219312 -2.87516832
-1.19740498 -0.42216542 -2.66291189
-1.05667841 -0.06105359 -2.35928822
-1.13569140 -0.28110132 -2.52864122
-1.78717756 -0.60262597 -2.60220337
-1.65175521 -0.42177659 -2.40693045
-1.45989382 -0.06117833 -2.13320994
-1.56700516 -0.28117469 -2.28549862
-2.06791925 -0.42048538 -2.08404136
-2.24224663 -0.60197306 -2.25031328
-1.81643510 -0.05924883 -1.84200644
-1.95936990 -0.28202569 -1.97995257
-2.42207599 -0.41816708 -1.68163300
-2.63382649 -0.60178965 -1.81630707
-2.11841559 -0.05744408 -1.49164987
-2.29319048 -0.28183496 -1.60045576
-2.69725680 -0.41606155 -1.21558142
-2.93832326 -0.60156220 -1.31302333
-2.35375977 -0.05607955 -1.08847845
-2.55350018 -0.28162220 -1.16039705
-2.88278675 -0.41302428 -0.70149851
-3.15802622 -0.60244989 -0.75875169
-3.37458920 -0.88781351 -1.49236143
-3.32752609 -0.71282589 -0.79423046
-3.09783125 -0.71300197 -1.37818515
-3.60851717 -0.88571531 -0.85342783
-3.42249584 -0.71125591 -0.16727722
-3.72123361 -0.88594270 -0.17640369
-4.07605076 -1.15904713 -0.95624733
-3.89824605 -0.99003881 -0.18155384
-3.78195691 -0.98915106 -0.89096081
-4.18016148 -1.15676558 -0.18935974
-3.85576105 -0.98909974 0.54058915
-4.14435244 -1.15739644 0.58308148
-3.40491056 -0.71242237 0.46776077
-3.68133831 -0.88410866 0.51337111
-3.97205019 -1.15664089 1.33679295
-3.70297337 -0.98955458 1.24621058
-3.53626847 -0.88509172 1.18715262
-3.26124930 -0.71117520 1.08483934
-3.97205019 -1.15664089 1.33679295
-3.66381168 -1.15478480 2.04363942
-3.43523908 -0.99127132 1.91382217
-3.70297337 -0.98955458 1.24621058
-3.53626847 -0.88509172 1.18715262
-3.28374267 -0.88394725 1.82593942
-3.03715181 -0.71099913 1.67988658
-3.26124930 -0.71117520 1.08483934
-3.01885486 -0.99072838 2.49779129
-3.22651124 -1.15642810 2.67776775
-2.88713002 -0.88402790 2.38178849
-2.67794013 -0.71198225 2.19459295
-2.67992115 -1.15688300 3.19976664
-2.50846958 -0.99155003 2.98864007
-2.40053654 -0.88348502 2.85130262
-2.23649478 -0.71286261 2.63548803
-2.05960703 -1.15657485 3.62896037
-1.93094158 -0.99070638 3.38642645
-1.85014582 -0.88258260 3.23159194
-1.72776759 -0.71253979 2.99305654
-1.38559818 -1.15584850 3.98616171
-1.29657841 -0.98745638 3.70947719
-1.15318871 -0.70992798 3.27037954
-1.24200308 -0.88274401 3.54140043
-0.59054625 -0.98903364 3.88438392
-0.62798381 -1.15361094 4.15076828
-0.52475345 -0.70961988 3.43059158
-0.56567585 -0.88202506 3.71081972
0.15331246 -0.98903364 3.92667079
0.16640791 -1.15344954 4.19535160
0.13097315 -0.70934111 3.46074414
0.14483893 -0.88282478 3.75104523
0.96550226 -1.15438128 4.07394886
0.89898318 -0.98960590 3.81103492
0.78225386 -0.71018475 3.36291337
0.85513365 -0.88327229 3.64083791
1.60983551 -0.98995072 3.56621933
1.72772384 -1.15447664 3.80812955
1.40409374 -0.71047825 3.15624714
1.53187895 -0.88297147 3.40914726
2.39119029 -1.15628135 3.38998461
2.22554207 -0.99020022 3.16934276
2.11887836 -0.88464415 3.02906346
1.94088280 -0.71079373 2.79793072
2.96909261 -1.15832818 2.88522625
2.22554207 -0.99020022 3.16934276
2.39119029 -1.15628135 3.38998461
2.75560355 -0.98926842 2.68291044
2.11887836 -0.88464415 3.02906346
2.62745881 -0.88397652 2.56176472
2.42647099 -0.71275258 2.37223649
1.94088280 -0.71079373 2.79793072
3.43972945 -1.15835750 2.27635717
3.20206714 -0.99022949 2.11436963
3.05517793 -0.88635355 2.01522565
2.80802941 -0.71163738 1.85002482
3.53227067 -0.99000943 1.47483444
3.80058455 -1.15926731 1.59724939
3.11427975 -0.71320742 1.29070568
3.37100959 -0.88515770 1.40282786
3.74104977 -0.99018550 0.79277760
4.03113794 -1.16016233 0.86745465
3.29394794 -0.71352285 0.68056750
3.56939268 -0.88613343 0.74926537
3.83867502 -0.99062568 0.09056024
4.13501358 -1.16020632 0.11027312
3.66255021 -0.88564193 0.07866062
3.38643050 -0.71433717 0.05970339
4.08932304 -1.15783668 -0.65185314
3.82015800 -0.99290729 -0.62269837
3.39240241 -0.71557707 -0.57025778
3.64760590 -0.88336027 -0.60247922
3.89746881 -1.15660417 -1.39993024
3.65372467 -0.99438190 -1.32243586
3.27464604 -0.71786594 -1.19446731
3.49172974 -0.88008827 -1.26893902
3.36191225 -0.99345016 -1.97880816
3.58838654 -1.15664089 -2.10930061
3.01795292 -0.71785134 -1.77922893
3.21409869 -0.87946469 -1.89326584
2.95613647 -0.99284858 -2.57836723
3.15108657 -1.15542305 -2.74813128
2.63467050 -0.71463799 -2.29424357
2.82624578 -0.88198107 -2.46421313
2.43666124 -0.99221033 -3.09179735
2.59939718 -1.15529835 -3.29618907
2.15878820 -0.71248108 -2.73038483
2.32924914 -0.88427007 -2.95393920
1.83057284 -0.99207830 -3.49727964
1.94736087 -1.15556967 -3.73348212
1.62637901 -0.71229035 -3.08689666
1.75274837 -0.88456351 -3.34050107
1.20522618 -1.15861428 -3.99716640
1.13699770 -0.99201959 -3.72489858
1.09367633 -0.88561988 -3.55462074
1.02436948 -0.71438855 -3.28622651
0.44958529 -1.16041172 -4.10482073
1.13699770 -0.99201959 -3.72489858
1.20522618 -1.15861428 -3.99716640
0.43238142 -0.99357492 -3.82479811
0.41982153 -0.88819498 -3.64892268
1.02436948 -0.71438855 -3.28622651
1.09367633 -0.88561988 -3.55462074
0.39647713 -0.71551102 -3.36234856
-0.29362783 -1.16298687 -4.07420588
-0.26263157 -0.99484408 -3.78806496
-0.24451800 -0.88876718 -3.61311388
-0.21763748 -0.71836489 -3.34063315
-0.92538637 -0.99565113 -3.65952396
-1.00533843 -1.16425598 -3.93882775
-0.87786865 -0.88908267 -3.49050832
-0.80674964 -0.71948737 -3.23278069
-1.68022025 -1.16422665 -3.69394612
-1.55793011 -0.99616468 -3.43490577
-1.48267329 -0.88996303 -3.27601409
-1.36479223 -0.71920860 -3.02797079
-2.14989614 -0.99550438 -3.10798883
-2.31869912 -1.16388917 -3.34306860
-2.04698849 -0.88989699 -2.96500230
-1.88487625 -0.71878308 -2.74024487
-2.90742970 -1.16280341 -2.89170456
-2.69726443 -0.99381697 -2.68687987
-2.36503553 -0.71705163 -2.36766624
-2.57009506 -0.88929546 -2.56402469
-3.17517138 -0.99146938 -2.17534280
-3.42267919 -1.16100597 -2.34055090
-2.77759027 -0.71414649 -1.91004419
-3.02713037 -0.88892126 -2.07654357
-3.53902698 -0.98904103 -1.56235790
-3.82547641 -1.16080797 -1.68800819
-3.98609185 -1.26832271 -1.75682366
-3.56851196 -1.26867485 -2.43690705
-3.79968166 -1.45210660 -2.58801460
-4.22941065 -1.44911349 -1.85846937
-4.24631357 -1.26740575 -0.99354559
-4.50547171 -1.44835043 -1.04953694
-4.60162973 -1.78398299 -2.01126432
-4.66432667 -1.57329655 -1.08442140
-4.37925625 -1.57466841 -1.92041051
-4.90186453 -1.78302193 -1.13752222
-4.78300762 -1.57239413 -0.20936608
-5.02769136 -1.78214145 -0.21698859
-4.35346937 -1.26673079 -0.19475199
-4.62012482 -1.44787359 -0.20399584
-4.73887157 -1.57254088 0.67003971
-4.97639465 -1.78149581 0.70942885
-4.31634712 -1.26663542 0.60801053
-4.57836628 -1.44731593 0.64537477
-4.77439451 -1.78214145 1.61671293
-4.54219770 -1.57192469 1.53304875
-4.38829517 -1.44758010 1.47899425
-4.13629723 -1.26647389 1.39258611
-4.77439451 -1.78214145 1.61671293
-4.39781046 -1.78333008 2.45987701
-4.17758656 -1.57163107 2.33256125
-4.54219770 -1.57192469 1.53304875
-4.03581810 -1.44694912 2.25205898
-4.13629723 -1.26647389 1.39258611
-4.38829517 -1.44758010 1.47899425
-3.81306314 -1.26801455 2.12769985
-3.87435150 -1.78336668 3.22147489
-3.68618774 -1.57293689 3.06061721
-3.35835361 -1.26764774 2.78913426
-3.56132221 -1.44824028 2.95601511
-3.22785401 -1.78454781 3.87885976
-3.06625533 -1.57224011 3.67869353
-2.96276069 -1.45019174 3.55035090
-2.78897643 -1.26690686 3.33460212
-2.34131718 -1.57159448 4.16979885
-2.46227956 -1.78423238 4.39866495
-2.14002132 -1.26688468 3.78238630
-2.26501870 -1.44920135 4.02387094
-1.62364209 -1.77805519 4.77797794
-1.56216311 -1.57373679 4.56889153
-1.43744457 -1.26422894 4.15265369
-1.51639867 -1.44658971 4.41511297
-0.68955815 -1.57204938 4.73593378
-0.71320331 -1.78024149 4.97066116
-0.64844501 -1.26613653 4.32125139
-0.67356479 -1.44515908 4.57558918
0.20540084 -1.57245278 4.77119970
0.22113739 -1.77999198 5.00330877
0.17664218 -1.26699483 4.36603975
0.19424953 -1.44409525 4.61156702
1.10366845 -1.57283425 4.64394236
1.15561008 -1.78026330 4.87037325
1.00684285 -1.26677477 4.24070549
1.06672978 -1.44536448 4.48761129
2.04891109 -1.78217816 4.56814289
1.95870292 -1.57240152 4.34229183
1.89700377 -1.44566536 4.19318008
1.79896760 -1.26769912 3.96379304
2.85889268 -1.78378487 4.10994148
2.73045444 -1.57249677 3.89534473
2.64271855 -1.44897401 3.75714898
2.49147153 -1.26649606 3.53121734
2.85889268 -1.78378487 4.10994148
3.57209253 -1.78563356 3.52462220
2.73045444 -1.57249677 3.89534473
3.39476466 -1.57122028 3.32755947
3.28231263 -1.44960487 3.20645761
2.49147153 -1.26649606 3.53121734
2.64271855 -1.44897401 3.75714898
3.09276199 -1.26653993 3.00822067
3.94832468 -1.57207859 2.64303732
4.15595913 -1.78536952 2.79922915
3.81499314 -1.45115292 2.54475904
3.58288455 -1.26595306 2.37685108
4.36595583 -1.57251155 1.86494708
4.60006762 -1.78564847 1.97456741
4.21645498 -1.45124829 1.79420221
3.95936584 -1.26631260 1.67136908
4.64355040 -1.57251155 1.02285409
4.89586306 -1.78570700 1.08357739
4.48257542 -1.45194530 0.98288548
4.20145941 -1.26623178 0.91112089
5.01954746 -1.78635252 0.15494442
4.75612736 -1.57252610 0.14643419
4.30978155 -1.26738369 0.12143911
4.59063292 -1.45156384 0.13862094
4.69090652 -1.57287848 -0.73192257
4.94967604 -1.78632331 -0.77222127
4.26090622 -1.26872623 -0.67260778
4.52786303 -1.45052207 -0.70836538
4.72806501 -1.78641856 -1.68229318
4.47889996 -1.57242334 -1.58913589
4.06156206 -1.26857221 -1.45213604
4.32249546 -1.45107949 -1.53519130
4.12476492 -1.57303238 -2.40547061
4.34209824 -1.78386557 -2.53135562
3.98143387 -1.45029449 -2.32518125
3.73914218 -1.26774323 -2.19365430
3.61994791 -1.57213736 -3.14094377
3.81392932 -1.78302920 -3.30179429
3.49357128 -1.44940674 -3.03590131
3.28240037 -1.26691413 -2.85999680
3.13412476 -1.78239834 -3.94651604
2.97773504 -1.57287097 -3.75822783
2.87412310 -1.44796884 -3.63275361
2.70742559 -1.26778710 -3.42979956
2.35020208 -1.78342545 -4.46181726
2.22372270 -1.57284164 -4.24722004
2.14424014 -1.44704449 -4.10590649
2.02569866 -1.26921034 -3.88545537
1.47754574 -1.78647006 -4.80786705
1.38528323 -1.57311308 -4.56368256
1.33140481 -1.44944358 -4.40902424
1.25246513 -1.26970935 -4.16310835
0.56693083 -1.78936052 -4.97820377
1.38528323 -1.57311308 -4.56368256
1.47754574 -1.78647006 -4.80786705
0.52173132 -1.57459509 -4.71589136
0.49799079 -1.45326579 -4.55217171
1.25246513 -1.26970935 -4.16310835
1.33140481 -1.44944358 -4.40902424
0.46516776 -1.26974607 -4.27787876
-0.34708807 -1.79197967 -4.98023558
-0.33435944 -1.57565153 -4.70749092
-0.32551175 -1.45661128 -4.54064655
-0.30828589 -1.27004671 -4.24880457
-1.24002230 -1.79343224 -4.83485031
-1.16906464 -1.57584953 -4.56534815
-1.12677765 -1.45844531 -4.40254593
-1.05144763 -1.27001011 -4.10873842
-1.96257603 -1.57580554 -4.27620602
-2.08496904 -1.79427600 -4.53072739
-1.75629139 -1.27043557 -3.85244894
-1.88911664 -1.45873153 -4.12459993
-2.69338322 -1.57645845 -3.85965347
-2.85833478 -1.79290414 -4.07639217
-2.59395313 -1.45760894 -3.72526526
-2.42121768 -1.27049434 -3.48557091
-3.36504459 -1.57603300 -3.32421422
-3.55783010 -1.78999889 -3.49937797
-3.03392386 -1.26962864 -3.01318812
-3.24354649 -1.45526862 -3.21149063
-3.93735623 -1.57595968 -2.67597818
-4.14493942 -1.78658009 -2.80527449
-4.26940870 -1.93020451 -2.88206482
-3.66891766 -1.93098223 -3.59819913
-3.83717036 -2.17452836 -3.74425173
-4.45377207 -2.17194605 -2.99459004
-4.73603249 -1.92886198 -2.06555367
-4.93041706 -2.16875458 -2.14301848
-4.72020769 -2.60785961 -3.16479445
-5.21385145 -2.60449958 -2.26118588
-4.56114054 -2.33309722 -3.06190157
-5.04572296 -2.33154178 -2.19021368
-5.55013704 -2.60151386 -1.27276850
-5.37390280 -2.32970023 -1.23461199
-5.25181055 -2.16705990 -1.20928681
-5.04439545 -1.92711592 -1.16781414
-5.69720268 -2.59995103 -0.23538826
-5.51467323 -2.32784438 -0.23097175
-5.38902187 -2.16599607 -0.22761169
-5.17408895 -1.92553139 -0.22139776
-5.46685505 -2.32707405 0.78841245
-5.64917850 -2.59939361 0.81929129
-5.12156677 -1.92443824 0.73301536
-5.34131384 -2.16648030 0.76788521
-5.24200106 -2.32652378 1.78646970
-5.41565371 -2.59911489 1.85508704
-4.91338253 -1.92435741 1.66667378
-5.12259436 -2.16617227 1.74168098
-4.82398129 -2.32722068 2.71817660
-5.24200106 -2.32652378 1.78646970
-5.41565371 -2.59911489 1.85508704
-4.97987986 -2.59962082 2.81802487
-5.12259436 -2.16617227 1.74168098
-4.71592379 -2.16667843 2.65096068
-4.52559566 -1.92462885 2.53546381
-4.91338253 -1.92435741 1.66667378
-4.24874210 -2.32816720 3.55799532
-4.38134718 -2.60010505 3.68432069
-4.15504885 -2.16797709 3.47146988
-3.98598909 -1.92488575 3.31927657
-3.52998114 -2.32805705 4.28002834
-3.63858199 -2.60006094 4.42794418
-3.45419621 -2.16771293 4.17761946
-3.31939745 -1.92512059 3.99660873
-2.77444291 -2.59932756 5.00916338
-2.69376469 -2.32793236 4.84797430
-2.63614464 -2.16752219 4.73462057
-2.53154993 -1.92427683 4.53137302
-1.81773365 -2.59942269 5.41006756
-1.76453006 -2.32788825 5.23831463
-1.72767210 -2.16544604 5.11898088
-1.66485059 -1.92510569 4.91503716
-0.79768187 -2.59965014 5.64092827
-0.77474093 -2.32757282 5.46216345
-0.75857157 -2.16629696 5.33700371
-0.72987896 -1.92384386 5.11618567
0.25884643 -2.60097075 5.67545319
0.24710822 -2.32766080 5.49136972
0.24013864 -2.16617966 5.36541080
0.22964028 -1.92471695 5.14839983
1.26446021 -2.32774878 5.34727478
1.30751753 -2.60177803 5.52969503
1.18791974 -1.92504704 5.01202345
1.23595822 -2.16660523 5.22386265
2.23295903 -2.32833600 5.01977873
2.30970502 -2.60224724 5.19133282
2.10330319 -1.92590547 4.70379210
2.18368053 -2.16700125 4.90331316
3.12237191 -2.32937026 4.52485847
3.22604966 -2.60226202 4.67726469
3.05311632 -2.16799164 4.41927290
2.93610811 -1.92633092 4.23531294
3.22604966 -2.60226202 4.67726469
3.91314650 -2.32994986 3.89039969
3.12237191 -2.32937026 4.52485847
4.03620005 -2.60129356 4.01803827
3.82653332 -2.16855669 3.79901791
2.93610811 -1.92633092 4.23531294
3.05311632 -2.16799164 4.41927290
3.67312932 -1.92563415 3.63492465
4.70728922 -2.60228395 3.19477057
4.55996704 -2.33022141 3.09213471
4.45715475 -2.16897464 3.01899076
4.27579165 -1.92606676 2.88775730
5.22302294 -2.60380244 2.25428915
5.05075741 -2.32981038 2.17779279
4.93464422 -2.16905546 2.12596846
4.73474169 -1.92712319 2.03636909
5.55997562 -2.60258484 1.22026908
5.38372612 -2.33068347 1.18761480
5.26005650 -2.16938567 1.16290581
5.04111004 -1.92644835 1.11656177
5.70737076 -2.60171199 0.16234683
5.52611017 -2.32978845 0.16253024
5.39877367 -2.16951013 0.16162786
5.16962767 -1.92588341 0.15848054
5.44793415 -2.32931900 -0.85847527
5.63140297 -2.60226202 -0.89402741
5.09747505 -1.92621350 -0.79648280
5.32182837 -2.16957617 -0.83543897
5.19793987 -2.32983971 -1.85852075
5.36050653 -2.60010505 -1.92329371
4.86865282 -1.92594218 -1.73471177
5.08045387 -2.16848326 -1.81346059
4.77118158 -2.32851195 -2.78636146
4.92317629 -2.59931302 -2.88025999
4.47017670 -1.92525256 -2.60642886
4.66305780 -2.16743398 -2.72099400
4.18867207 -2.32807922 -3.61646676
4.32122612 -2.59799957 -3.73050332
3.92729139 -1.92518651 -3.39630890
4.09360743 -2.16564393 -3.53581762
3.56827760 -2.59846163 -4.45334339
3.45335293 -2.32840180 -4.32153797
3.37174296 -2.16631889 -4.22677374
3.22889638 -1.92505455 -4.05922508
2.69320774 -2.60017109 -5.03592587
2.60134149 -2.32901073 -4.88280153
2.53697181 -2.16699386 -4.77527094
2.42533398 -1.92597151 -4.58847237
1.71145177 -2.60257006 -5.44961739
1.65124202 -2.33104300 -5.28204012
1.60811877 -2.17022920 -5.16303635
1.52973676 -1.92639697 -4.94825649
1.71145177 -2.60257006 -5.44961739
0.66473961 -2.60585666 -5.66354656
1.65124202 -2.33104300 -5.28204012
0.64284778 -2.33340526 -5.48389387
1.60811877 -2.17022920 -5.16303635
0.62549722 -2.17342067 -5.35748720
1.52973676 -1.92639697 -4.94825649
0.59098691 -1.92828965 -5.12697792
-0.39555228 -2.60886455 -5.68328953
-0.37809902 -2.33467436 -5.49747276
-0.36859107 -2.17583418 -5.36875677
-0.35494539 -1.92969835 -5.13182735
-1.37147570 -2.33637667 -5.33052683
-1.42138517 -2.61020732 -5.50825071
-1.27863359 -1.93114376 -4.98151207
-1.33795571 -2.17671466 -5.20687819
-2.30959463 -2.33693409 -4.99008131
-2.39215827 -2.61115384 -5.15724802
-2.15117979 -1.93184781 -4.66721392
-2.25301623 -2.17727208 -4.87503147
-3.17200947 -2.33622980 -4.47982788
-3.28583336 -2.61135936 -4.63113356
-3.09348798 -2.17690539 -4.37786674
-2.95055318 -1.93152523 -4.19581413
-3.93214011 -2.33507061 -3.82904577
-4.07032108 -2.60986996 -3.95662594
-3.41736770 -3.09537745 -4.81723547
-4.14221048 -2.78873110 -4.02490568
-3.34368110 -2.79049897 -4.71070385
-4.23726797 -3.09431386 -4.11884069
-4.90890694 -3.09133506 -3.29279256
-4.80226517 -2.78692627 -3.21928167
-4.28248930 -3.28816295 -4.16632891
-5.02330399 -3.60698819 -3.37879682
-4.96127462 -3.28561735 -3.33058214
-4.33399105 -3.61019421 -4.22624540
-5.55297613 -3.60380411 -2.41233754
-5.47951031 -3.28254342 -2.38078356
-5.42023230 -3.08834195 -2.35419655
-5.30292988 -2.78441715 -2.30017877
-5.90248871 -3.59994507 -1.34546483
-5.82488441 -3.27935934 -1.33330107
-5.76303959 -3.08444619 -1.32087326
-5.64332390 -2.78226042 -1.29342782
-6.05811644 -3.59663630 -0.22926237
-5.98546410 -3.27709985 -0.23697293
-5.92264223 -3.08239937 -0.23888771
-5.79447603 -2.77981710 -0.23727371
-5.93783665 -3.27566910 0.87676460
-6.01094294 -3.59534526 0.89918453
-5.74613619 -2.77861428 0.83675921
-5.87491894 -3.08153367 0.86192304
-5.68548584 -3.27513385 1.97088456
-5.75074387 -3.59458208 2.00678873
-5.50713825 -2.77812266 1.89239252
-5.62755108 -3.08083701 1.94367385
-5.21566391 -3.27586746 2.98473716
-5.68548584 -3.27513385 1.97088456
-5.75074387 -3.59458208 2.00678873
-5.27572632 -3.59549928 3.03334808
-5.06092405 -2.77922297 2.87235093
-5.50713825 -2.77812266 1.89239252
-5.62755108 -3.08083701 1.94367385
-5.16446257 -3.08137989 2.94636774
-4.58694220 -3.27653503 3.89056134
-4.64239788 -3.59655571 3.94628096
-4.45110178 -2.77979541 3.75260043
-4.54144192 -3.08229661 3.84448862
-3.84954715 -3.59681988 4.71829700
-3.80180907 -3.27686501 4.65796232
-3.76480460 -3.08190036 4.60724592
-3.69468307 -2.78030896 4.50612831
-2.93436146 -3.59640908 5.33029842
-2.89809060 -3.27668166 5.26333189
-2.86997747 -3.08176112 5.20716476
-2.81666398 -2.77989054 5.09521151
-1.92282736 -3.59723067 5.76153851
-1.89882267 -3.27678442 5.68631172
-1.88041580 -3.08236265 5.62466383
-1.84545779 -2.77975845 5.50247669
-0.84415054 -3.59880805 5.99744034
-0.83291852 -3.27778220 5.91992426
-0.82468712 -3.08283949 5.85746908
-0.80964017 -2.78043342 5.73555374
0.27206662 -3.60078120 6.04251575
0.27053329 -3.27913952 5.96409655
0.26860383 -3.08465171 5.90002823
0.26395258 -2.78080797 5.77252913
1.37262785 -3.27958703 5.81579924
1.38649368 -3.60076666 5.89025545
1.32992280 -2.78091764 5.62564707
1.35922432 -3.08525300 5.75310230
2.42877483 -3.27946949 5.46123838
2.46070266 -3.60058355 5.53344250
2.34978366 -2.78125501 5.28159237
2.40251040 -3.08540726 5.40159369
3.39791918 -3.27872133 4.92799997
3.44774795 -3.59983516 4.99564934
3.28203392 -2.78110123 4.75952721
3.35886049 -3.08562756 4.87234592
4.24725342 -3.27896357 4.22381687
3.39791918 -3.27872133 4.92799997
3.44774795 -3.59983516 4.99564934
4.30854893 -3.59978366 4.27702761
4.10449457 -2.78150463 4.08697844
3.28203392 -2.78110123 4.75952721
3.35886049 -3.08562756 4.87234592
4.19892836 -3.08516526 4.17880058
5.02791166 -3.60129476 3.39832616
4.95606565 -3.27995396 3.35697079
4.89939928 -3.08636117 3.32179999
4.78814363 -2.78215003 3.24949265
5.57541180 -3.60188937 2.39443636
5.50260544 -3.28077555 2.36657286
5.44114780 -3.08710933 2.34267068
5.31505013 -2.78228211 2.29315758
5.92584181 -3.60123634 1.29307544
5.85153866 -3.28058457 1.27781570
5.78774929 -3.08665466 1.26494765
5.65618515 -2.78231907 1.23867595
6.06457996 -3.59871984 0.16318318
5.99153185 -3.27927876 0.16233949
5.92924595 -3.08429217 0.16211206
5.80373478 -2.78202558 0.16224413
5.91312027 -3.27877975 -0.95056164
5.98441553 -3.59802294 -0.96458149
5.72734833 -2.78170300 -0.91297728
5.85177374 -3.08394003 -0.93825120
5.62442541 -3.27800965 -2.03251052
5.69290400 -3.59747291 -2.06061625
5.44907904 -2.78099847 -1.95931542
5.56627035 -3.08326507 -2.00835180
5.15405273 -3.27712202 -3.02359104
5.21224499 -3.59580731 -3.05916500
5.00325394 -2.78060985 -2.92989039
5.10375500 -3.08113027 -2.99247718
4.53293228 -3.27650571 -3.90344429
4.58357525 -3.59500790 -3.94493151
4.39329863 -2.77955294 -3.79085255
4.48718977 -3.08055067 -3.86641002
3.80028367 -3.59542584 -4.70488596
3.75336742 -3.27692389 -4.65945196
3.71270919 -3.08121085 -4.61614513
3.63080573 -2.77976608 -4.52437449
2.88349152 -3.59753895 -5.32349777
2.84095502 -3.27842045 -5.26990557
2.80719328 -3.08276629 -5.22039223
2.74264741 -2.78117442 -5.11700821
1.84787202 -3.60075951 -5.76973391
1.81127810 -3.28108358 -5.70903301
1.78640771 -3.08563495 -5.65376711
1.74389327 -2.78363228 -5.53884315
1.84787202 -3.60075951 -5.76973391
0.72822136 -3.60459638 -6.01622200
1.81127810 -3.28108358 -5.70903301
0.70652032 -3.28414273 -5.94451618
1.78640771 -3.08563495 -5.65376711
0.69433463 -3.08924413 -5.88320637
1.74389327 -2.78363228 -5.53884315
0.67703533 -2.78629541 -5.75889778
-0.41446552 -3.60783911 -6.05079079
-0.41673976 -3.28687215 -5.97399330
-0.41428944 -3.09247231 -5.90999794
-0.40412116 -2.78827620 -5.78092146
-1.49782300 -3.28862548 -5.78671026
-1.51509285 -3.60950422 -5.86051416
-1.44756138 -2.79002953 -5.60193586
-1.48178554 -3.09401274 -5.72530413
-2.51498437 -3.29001188 -5.41578245
-2.54437375 -3.61122847 -5.48239708
-2.43464351 -2.79088783 -5.24473476
-2.48890328 -3.09503269 -5.35929966
-3.45249414 -3.28997517 -4.86988211
-3.49196410 -3.61168337 -4.93295240
-3.51013637 -3.81386709 -4.96185780
-2.55757189 -3.81336069 -5.51485300
-2.57056475 -4.14173031 -5.55246639
-3.52910805 -4.14253712 -4.99176836
-4.35766554 -3.81194496 -4.25406504
-4.38255072 -4.14045382 -4.28387260
-4.39505196 -4.34505081 -4.29211903
-3.53804398 -4.34730339 -5.00286865
-3.54780865 -4.67711067 -5.00867844
-4.41038465 -4.67483664 -4.28889084
-5.10046053 -4.34086180 -3.42729783
-5.11897755 -4.67022181 -3.42005682
-5.08469439 -4.13634539 -3.42268324
-5.05256844 -3.80875349 -3.40063000
-5.64981699 -4.33738422 -2.43477941
-5.66798878 -4.66659784 -2.42559457
-5.63105726 -4.13304377 -2.43466949
-5.58887291 -3.80529785 -2.42510271
-5.98953581 -4.33348894 -1.33069670
-5.99485397 -4.66260672 -1.31150472
-5.97612476 -4.12896490 -1.33908963
-5.93840075 -3.80171037 -1.34683681
-6.13511848 -4.33013582 -0.19184677
-6.13573503 -4.65903378 -0.17039518
-6.09126949 -3.79880548 -0.22140509
-6.12453938 -4.12560463 -0.20397384
-6.07913494 -4.32855129 0.94787616
-6.07275963 -4.65733147 0.96706820
-6.04289293 -3.79730868 0.91305768
-6.07201862 -4.12396145 0.93502283
-5.80842209 -4.32800102 2.05958152
-5.79705048 -4.65691376 2.06906748
-5.77903223 -3.79675126 2.02546000
-5.80412340 -4.12325001 2.04919314
-5.33312702 -4.32872009 3.08627987
-5.80842209 -4.32800102 2.05958152
-5.79705048 -4.65691376 2.06906748
-5.32925272 -4.65714836 3.08675671
-5.30215979 -3.79749942 3.05576801
-5.77903223 -3.79675126 2.02546000
-5.80412340 -4.12325001 2.04919314
-5.32666349 -4.12385130 3.07889247
-4.70376730 -4.65828562 3.99576497
-4.70084715 -4.32984257 3.99813485
-4.66742992 -3.79848981 3.97043252
-4.69218302 -4.12495184 3.99209690
-3.92173004 -4.65891647 4.77891016
-3.91150308 -4.33029032 4.77996731
-3.89988208 -4.12560463 4.77199888
-3.87286949 -3.79871011 4.74542665
-2.99905396 -4.65827799 5.39203453
-2.98803473 -4.32977676 5.39434528
-2.97711086 -4.12503958 5.38663435
-2.95317936 -3.79841638 5.35965919
-1.98371208 -4.65934944 5.84453535
-1.96861386 -4.33055401 5.84358168
-1.95745516 -4.12605953 5.83208609
-1.93674457 -3.79885674 5.79614496
-0.88012826 -4.66205645 6.09205770
-0.86706209 -4.33290195 6.08021736
-0.86004120 -4.12822390 6.06596231
-0.85059190 -3.80071259 6.03209019
0.26249996 -4.66467571 6.14322996
0.26886061 -4.33539629 6.13047838
0.27116424 -4.13071823 6.11506462
0.27222067 -3.80263472 6.07828760
1.41052783 -4.66469765 5.98456526
1.40499604 -4.33538914 5.97292995
1.39320648 -3.80285501 5.92415810
1.40088046 -4.13063765 5.95857954
2.50723743 -4.33453083 5.61106300
2.52237964 -4.66361189 5.61759901
2.47674012 -3.80234146 5.56606770
2.49639440 -4.12993336 5.59882498
3.50836873 -4.33307791 5.05499315
3.51472211 -4.66203451 5.04998922
3.47147393 -3.80128503 5.02426100
3.49807572 -4.12831211 5.04886770
4.38005638 -4.33345222 4.32446480
3.50836873 -4.33307791 5.05499315
3.51472211 -4.66203451 5.04998922
4.38576412 -4.66259909 4.32269669
4.33731461 -3.80142426 4.29959440
3.47147393 -3.80128503 5.02426100
3.49807572 -4.12831211 5.04886770
4.36853838 -4.12869358 4.31896973
5.10054111 -4.66428661 3.44509578
5.10235357 -4.33505154 3.44130993
5.09278679 -4.13029289 3.43456054
5.06027269 -3.80280352 3.41669655
5.65235567 -4.66554117 2.44817543
5.65189362 -4.33615923 2.43565965
5.64143896 -4.13148117 2.42626166
5.60834455 -3.80374265 2.40859580
6.01215410 -4.66463900 1.34324908
6.00503016 -4.33530807 1.32553887
5.99247742 -4.13066673 1.31575954
5.95933962 -3.80328798 1.30209184
6.12982988 -4.66105843 0.19425279
6.13573503 -4.33228540 0.17819344
6.12792253 -4.12747574 0.17131190
6.09712458 -3.80107951 0.16531806
6.06740427 -4.65998745 -0.95494884
6.06508589 -4.33155203 -0.96811026
6.05328941 -4.12682295 -0.97159511
6.01785421 -3.80028009 -0.96959955
5.77130795 -4.65926838 -2.06526756
5.76763296 -4.33084059 -2.07929468
5.72439194 -3.79971504 -2.07216382
5.75645161 -4.12604523 -2.08093810
5.28345966 -4.65761805 -3.07679439
5.27827311 -4.32943916 -3.08966994
5.23946333 -3.79846787 -3.07487226
5.26777506 -4.12459230 -3.08920026
4.64049864 -4.65711880 -3.96911240
4.63716030 -4.32896948 -3.98069644
4.60661888 -3.79795432 -3.96310377
4.62906837 -4.12399101 -3.97925115
3.85918021 -4.65843964 -4.72974205
3.85053039 -4.32974720 -4.73875141
3.84152150 -4.12468052 -4.73726130
3.82141995 -3.79846787 -4.72354984
2.95698023 -4.66063309 -5.36029053
2.94554281 -4.33169889 -5.36841869
2.93329835 -4.12691069 -5.36506605
2.90555215 -3.80014062 -5.34624815
1.93227720 -4.66455078 -5.80902100
1.91494131 -4.33503675 -5.81740570
1.89990902 -4.13041782 -5.81400919
1.86899340 -3.80311155 -5.79477358
1.91494131 -4.33503675 -5.81740570
0.81500357 -4.66868830 -6.08535337
0.78970772 -4.33873463 -6.08511829
1.93227720 -4.66455078 -5.80902100
1.89990902 -4.13041782 -5.81400919
0.77287799 -4.13440132 -6.07613802
1.86899340 -3.80311155 -5.79477358
0.74397993 -3.80653811 -6.04750395
-0.35391095 -4.67134428 -6.14322996
-0.37930217 -4.34167624 -6.13541603
-0.39228025 -4.13732862 -6.12180710
-0.40865508 -3.80969977 -6.08587408
-1.49535060 -4.67320776 -5.95705414
-1.51235640 -4.34375238 -5.94869852
-1.51818883 -4.13921404 -5.93409061
-1.51992762 -3.81146812 -5.89550924
-2.57320571 -4.67591476 -5.58253145
-2.57426238 -4.34630537 -5.56851149
-1.48308420 -4.87759209 -5.94831657
-2.55182028 -5.20632076 -5.54769754
-2.56785011 -4.88068819 -5.57753563
-1.46075225 -5.20368004 -5.91201639
-3.54458809 -5.20730448 -4.97792530
-3.54934931 -4.88215542 -5.00268507
-2.54158592 -5.40873194 -5.51662874
-3.51296091 -5.73344803 -4.88843584
-3.53593111 -5.41030931 -4.95072842
-2.52474165 -5.73308086 -5.44639683
-4.36344624 -5.73134279 -4.15170765
-4.39420080 -5.40800571 -4.20846176
-4.40596819 -5.20528650 -4.23802757
-4.41296721 -4.87942648 -4.27600098
-5.07562685 -5.40305376 -3.32479382
-5.03232670 -5.72732925 -3.26816416
-5.11790609 -4.87420321 -3.40335202
-5.09585285 -5.20128107 -3.35676575
-5.60342121 -5.39909935 -2.34038949
-5.55024004 -5.72422647 -2.28619576
-5.66333723 -4.87052727 -2.41016603
-5.63008881 -5.19767141 -2.36963224
-5.92983246 -5.39535046 -1.24793494
-5.87425852 -5.71919346 -1.21188390
-5.98701143 -4.86701298 -1.29660463
-5.95660973 -5.19284391 -1.26805866
-6.04798412 -5.39188766 -0.12735991
-5.98736382 -5.71536350 -0.11078700
-6.12266922 -4.86319828 -0.15771788
-6.08013248 -5.18938875 -0.13851123
-5.98630047 -5.39052343 0.97977483
-5.92846775 -5.71377945 0.98144752
-6.05799198 -4.86175251 0.97425050
-6.01715708 -5.18751812 0.97805810
-5.64125538 -5.71358156 2.03769708
-5.70015144 -5.39041376 2.05034494
-5.73293114 -5.18779707 2.05769610
-5.77912807 -4.86116600 2.06862736
-5.70015144 -5.39041376 2.05034494
-5.17842436 -5.71332407 3.02546144
-5.23863363 -5.39012718 3.04612803
-5.64125538 -5.71358156 2.03769708
-5.77912807 -4.86116600 2.06862736
-5.27096558 -5.18775272 3.05915737
-5.31448507 -4.86144495 3.08031559
-5.73293114 -5.18779707 2.05769610
-4.57264376 -5.71393299 3.90633440
-4.62714577 -5.39108086 3.93529844
-4.65579462 -5.18861151 3.95407963
-4.69307041 -4.86257410 3.98529601
-3.82439065 -5.71452093 4.66624546
-3.86818171 -5.39198303 4.70599413
-3.89016128 -5.18923473 4.72999859
-3.91665292 -4.86329365 4.76702499
-2.96440411 -5.39162350 5.31360865
-2.93024588 -5.71399212 5.26913500
-2.99723458 -4.86276579 5.37905550
-2.98039031 -5.18859673 5.33982801
-1.96049249 -5.39254856 5.76131916
-1.92857921 -5.71543741 5.70869493
-1.98496664 -4.86378527 5.83193922
-1.97391808 -5.18982124 5.79065752
-0.87553567 -5.39526320 6.02028561
-0.84867710 -5.71778488 5.96849108
-0.88415593 -4.86669064 6.08433247
-0.88400185 -5.19211817 6.04792929
0.25330746 -5.39792633 6.08352518
0.25835490 -5.72005177 6.02754211
0.25341752 -5.19443655 6.11001682
0.25881708 -4.86959553 6.13829994
1.37207770 -5.72102785 5.87907553
1.39393282 -5.39852715 5.92820024
1.40300786 -5.19489145 5.95223379
1.41003621 -4.86964703 5.97958374
2.43642640 -5.72136497 5.51702404
2.48133993 -5.39711905 5.56354475
2.50142694 -5.19417953 5.58602285
2.52096391 -4.86840725 5.61161232
3.38599777 -5.71979570 4.97673655
3.44383049 -5.39570284 5.00178957
3.47237635 -5.19299078 5.01704979
3.50616026 -4.86661005 5.04096556
3.44383049 -5.39570284 5.00178957
4.23411369 -5.72075605 4.26898670
4.29958391 -5.39623785 4.28715181
3.38599777 -5.71979570 4.97673655
3.47237635 -5.19299078 5.01704979
4.33284712 -5.19397402 4.29840612
3.50616026 -4.86661005 5.04096556
4.37456179 -4.86702061 4.31651211
5.00199890 -5.39747047 3.42937374
4.93176842 -5.72193050 3.42059183
5.08535480 -4.86861277 3.44356227
5.03833580 -5.19549274 3.43480992
5.54744482 -5.39843225 2.45746326
5.47491026 -5.72294235 2.46094060
5.63667774 -4.86965418 2.45289993
5.58567476 -5.19671774 2.45556307
5.83519363 -5.72211409 1.41417718
5.90609217 -5.39714098 1.39039993
5.94443226 -5.19588900 1.37652695
5.99786997 -4.86834097 1.35531735
5.98087883 -5.71826172 0.30884722
6.04114771 -5.39334774 0.26481420
6.07278204 -5.19186115 0.24130106
6.11492252 -4.86501789 0.20921904
5.92760229 -5.71749830 -0.81544000
5.99349070 -5.39123535 -0.87446123
6.02398777 -5.19054794 -0.90360141
6.05765390 -4.86417389 -0.93963039
5.65286160 -5.71599483 -1.90223086
5.70544195 -5.39042044 -1.97026134
5.73124409 -5.18975544 -2.00439000
5.76269484 -4.86324263 -2.04749870
5.19174004 -5.71338320 -2.90285587
5.23267031 -5.38863039 -2.97423887
5.25285959 -5.18770123 -3.01081824
5.27744389 -4.86159945 -3.05807924
4.57310629 -5.71226072 -3.79919410
4.60402203 -5.38844728 -3.86985826
4.61893654 -5.18695354 -3.90584326
4.63616228 -4.86134958 -3.95130682
3.80814838 -5.71416807 -4.57107019
3.83701682 -5.39023018 -4.64246845
3.85880589 -4.86302996 -4.71490049
3.84899735 -5.18835449 -4.67651653
2.93643832 -5.39275312 -5.26836491
2.90767241 -5.71780729 -5.19312286
2.95761132 -4.86512041 -5.34500885
2.94820595 -5.19118595 -5.30419636
1.92827880 -5.39778614 -5.71314812
1.90753889 -5.72197390 -5.64873552
1.93709719 -4.86882544 -5.79235220
1.93527770 -5.19550037 -5.74718952
0.83481914 -5.40196085 -5.98973703
1.92827880 -5.39778614 -5.71314812
1.90753889 -5.72197390 -5.64873552
0.82777625 -5.72684574 -5.92025423
1.93527770 -5.19550037 -5.74718952
0.83428359 -5.19985771 -6.02543640
1.93709719 -4.86882544 -5.79235220
0.82556790 -4.87278700 -6.07120132
-0.31036210 -5.40440369 -6.05371141
-0.30623171 -5.72929621 -5.98392725
-0.31822672 -5.20238876 -6.08876419
-0.33943626 -4.87533236 -6.13216639
-1.44351161 -5.72993422 -5.81604099
-1.45133960 -5.40622330 -5.88060141
-1.44045234 -5.92988062 -5.76951361
-0.30709007 -5.92851591 -5.93438530
-0.31405231 -6.25076723 -5.84314919
-1.43842757 -6.25126505 -5.68387604
-2.49340057 -6.25362730 -5.30484867
-2.51340675 -5.93192673 -5.39657593
-1.43225765 -6.44744778 -5.62393761
-2.43903780 -6.76280212 -5.14073372
-2.47588134 -6.44912815 -5.24463940
-1.41423941 -6.76218653 -5.51519012
-3.37367201 -6.76281786 -4.60252905
-3.42960477 -6.44933319 -4.69929600
-3.45806980 -6.25400877 -4.75574923
