-31.04540000 62.01430000 -9.25450000
-30.23530000 61.20410000 -9.55780000
-30.76980000 56.68410000 -8.95780000
-19.84300000 40.33060000 -4.24460000
11.54050000 -48.55900000 -44.51550000
-33.95560000 -87.81810000 0.54400000
-33.88580000 -87.22040000 -1.73220000
-63.73520000 47.78460000 -6.83670000
-60.60630000 44.13730000 -8.16990000
-31.15560000 58.13770000 -8.19750000
-62.93710000 41.20820000 -7.15290000
-34.60470000 -85.61430000 1.02070000
-50.60320000 -35.96230000 42.00790000
-63.23250000 48.71460000 -7.47100000
-62.47750000 45.61450000 -7.83370000
-15.56780000 70.28940000 7.01560000
-61.69310000 45.91510000 -8.16470000
-35.55470000 -83.81260000 -0.27520000
-60.81530000 45.38370000 -8.16220000
-61.64690000 45.94040000 -8.17410000
-59.88060000 45.40150000 -7.48640000
14.34590000 -13.36380000 -34.44020000
-56.88620000 -36.72550000 -1.81230000
11.93690000 -12.40250000 -33.55700000
14.16530000 -76.32590000 -35.02420000
-61.69430000 45.96590000 -8.16590000
10.10050000 -11.49220000 -33.13370000
-29.85640000 43.86050000 -0.92000000
-30.42810000 44.92460000 -5.06270000
-28.64260000 42.77350000 -1.96420000
6.85860000 -84.12410000 31.37660000
19.77920000 91.99140000 9.03300000
19.42440000 92.34230000 9.82660000
19.89070000 91.90000000 10.32880000
45.25070000 -36.64800000 -8.38230000
7.05450000 -10.77310000 -32.88690000
-56.91620000 -35.10030000 -4.19590000
-56.02720000 -35.53030000 -5.59000000
19.27040000 92.36940000 8.48510000
18.41530000 92.25890000 9.13300000
45.09180000 -36.10910000 -10.56250000
-29.17470000 58.47470000 -9.59130000
-28.32040000 59.29700000 -9.29720000
-28.17650000 53.64090000 -9.30920000
-27.75980000 55.34670000 -8.96080000
0.64050000 -8.31790000 -30.38870000
14.46030000 4.74420000 -20.82770000
44.93800000 -33.30780000 -12.79610000
19.15410000 -90.35870000 27.17090000
-55.94890000 -34.00140000 -6.68140000
14.15410000 6.45000000 -19.80800000
44.66780000 -33.32560000 -14.08890000
-53.99400000 -34.07050000 -9.27890000
-28.27230000 42.70660000 -3.91680000
-27.65270000 42.23620000 -2.07380000
-38.61810000 -78.27390000 -6.82850000
-10.95360000 -1.82270000 -24.06360000
-6.97980000 73.28220000 -17.43380000
-7.43110000 69.48480000 -16.74320000
-8.66900000 70.79590000 -16.90050000
-24.11920000 41.47910000 -1.79560000
21.78130000 -88.25360000 26.47300000
-54.30650000 -31.61790000 -9.61530000
-26.23940000 42.23340000 -6.43020000
19.91700000 90.58870000 10.09070000
-40.80110000 -74.42650000 -10.35510000
-28.28160000 84.96810000 -2.75100000
43.50400000 -27.72290000 -17.76090000
-52.41430000 -30.96550000 -13.54990000
-25.87980000 41.73670000 -1.34020000
-27.76980000 -90.47520000 3.44790000
-27.51230000 84.46410000 0.42880000
-19.04910000 -72.96720000 36.58370000
-26.68580000 -90.23650000 -1.03250000
-26.16150000 -89.87170000 -5.17070000
-50.23270000 -21.55920000 15.10440000
19.26390000 88.36190000 13.83310000
43.57430000 14.38210000 2.88620000
42.56340000 16.03440000 -0.07090000
41.89880000 12.84760000 -1.24100000
-27.15690000 57.62690000 -8.02560000
-26.60430000 55.38230000 -6.94630000
42.10070000 -23.82600000 -21.94610000
-49.34160000 -19.88910000 11.92480000
-2.85550000 16.47070000 -18.12570000
-49.77390000 -20.85300000 15.25260000
40.94850000 -22.56640000 -22.25100000
-22.68590000 -89.28970000 -7.30620000
-16.30040000 74.14950000 -10.89420000
-15.57480000 72.43760000 -11.46280000
38.07060000 -53.11750000 41.87420000
-16.98300000 79.49450000 14.48340000
-27.37040000 42.14340000 0.58160000
33.47870000 -71.50800000 10.85370000
12.74210000 -61.30340000 42.40790000
-15.93540000 -89.72090000 -14.14470000
38.51900000 -52.77190000 40.97110000
-13.76440000 -89.71540000 -15.33370000
-10.19710000 -89.78380000 -13.84340000
-48.04330000 -20.56020000 -32.26260000
-45.36950000 -18.52410000 -37.61300000
-54.54800000 70.87780000 -2.82130000
-55.95840000 69.80320000 -4.70450000
3.40330000 -60.11290000 43.12780000
-34.60370000 -20.49800000 -44.83000000
-9.77970000 -89.97200000 -18.67250000
-11.21020000 -89.66730000 -18.46150000
-45.80710000 -56.28880000 41.07960000
-8.05090000 38.60500000 -16.23490000
-8.87920000 42.62550000 -15.95130000
-5.55750000 40.22650000 -16.12740000
13.71440000 -38.59640000 47.17790000
-47.34210000 -54.61870000 40.15290000
44.89170000 14.41780000 4.75030000
44.86600000 9.45960000 5.48160000
45.36730000 15.15040000 4.84570000
43.75450000 9.92840000 4.28460000
44.05510000 9.31830000 4.86470000
46.47900000 6.88350000 6.04290000
46.24500000 17.56520000 4.61530000
-4.44120000 -52.97070000 45.05990000
27.87230000 -11.14360000 -26.92750000
29.09850000 -12.99320000 -24.43130000
27.83470000 -11.56860000 -30.49500000
9.93690000 91.25450000 18.42040000
-43.37900000 -69.13930000 -13.13130000
-54.82280000 70.13030000 -0.76590000
-56.64090000 68.11520000 -3.26250000
27.32870000 -11.07520000 -30.89290000
40.19400000 -57.61620000 -10.13100000
-17.50070000 68.11100000 9.03250000
-16.97790000 65.86630000 10.13940000
22.41930000 -7.12480000 -27.19100000
24.79530000 -9.40510000 -30.89250000
-56.06330000 68.58250000 0.24960000
-28.93350000 86.18790000 17.70920000
19.59580000 -6.60370000 -28.44070000
-51.49110000 -35.63300000 -26.65970000
47.60870000 6.98760000 6.08380000
-28.45820000 85.65390000 19.60220000
-47.00500000 -59.28190000 -21.05230000
7.60980000 92.06390000 19.44140000
-50.04300000 -46.13390000 32.59810000
-51.09140000 -43.50240000 26.41010000
-18.01320000 39.59850000 -9.95220000
-18.26560000 39.07750000 -5.84640000
-17.67390000 38.54630000 -10.13840000
-50.40710000 -29.01680000 -37.15960000
-61.52050000 25.70300000 2.95240000
-46.76690000 -58.23980000 -29.01640000
40.42290000 -46.92250000 37.24060000
-28.25460000 85.23070000 18.44040000
-17.52190000 37.42520000 -2.64120000
-64.42310000 33.55030000 -0.69750000
-51.39260000 -41.81450000 25.88150000
-22.83560000 -26.40350000 -47.44070000
3.17710000 -31.91420000 47.58700000
-57.53420000 65.66560000 1.01690000
-56.53550000 67.90100000 0.91680000
-57.82750000 65.80670000 4.22810000
-64.11950000 30.95410000 -1.37210000
-17.30620000 35.73720000 -2.03300000
-56.10940000 69.20640000 2.55130000
-30.08780000 -4.61770000 16.46620000
-15.24810000 69.15380000 -8.59900000
-14.96410000 69.18870000 -9.84360000
-18.85060000 39.53660000 -3.17590000
-56.26060000 70.25920000 5.91560000
-38.55210000 -32.36660000 46.14850000
-40.41320000 -31.78950000 -47.06580000
-33.96210000 -56.34640000 -42.96350000
-39.89960000 -71.56930000 35.15040000
-3.95120000 -26.91670000 47.13300000
-36.72530000 -54.16050000 -43.58780000
-25.10570000 0.80990000 4.19610000
-25.67140000 0.22490000 7.11400000
-52.37620000 -29.40080000 12.45010000
-24.93610000 1.19010000 1.93420000
7.94870000 71.24180000 1.88740000
-6.63050000 -91.10320000 -21.57240000
-4.33200000 -91.46000000 -21.63550000
-15.51040000 64.10060000 11.00240000
-4.84780000 -90.16710000 -19.83960000
-53.37740000 -30.69820000 10.50040000
-17.38060000 37.44300000 -1.22860000
-23.70910000 3.55330000 2.17320000
-2.26600000 -91.89760000 -22.93760000
-49.05920000 -26.36100000 -45.11350000
-2.84080000 -90.21510000 26.99790000
-12.07800000 -22.53880000 45.26670000
-1.35850000 -90.95650000 23.89150000
18.34620000 -21.29620000 -44.24040000
-0.61090000 -90.60970000 22.34530000
-0.35720000 -90.84800000 26.14550000
-24.16680000 -37.84200000 -47.35260000
1.03540000 -91.95800000 -25.26070000
-0.03940000 -91.28890000 -26.41820000
-0.11990000 -90.85620000 22.87400000
-48.78900000 -25.58160000 44.52970000
19.01080000 86.33510000 12.90830000
-49.53690000 -25.18890000 43.10240000
4.82390000 -90.65780000 -27.05930000
10.26950000 -90.23960000 16.42720000
-26.79140000 -39.41700000 -46.99810000
-8.72400000 -90.21450000 -19.31120000
28.38400000 -80.19150000 8.98790000
13.90580000 -90.29410000 12.11340000
12.78540000 -90.20650000 10.90680000
30.68420000 -77.55680000 3.14150000
-31.75230000 55.66810000 -4.13730000
-31.52310000 54.21540000 -5.44200000
-31.93740000 55.40010000 -0.45040000
-1.60850000 60.06760000 -16.36050000
-0.70690000 53.85470000 -16.29220000
-4.70730000 58.62730000 -16.16120000
-10.65250000 7.11810000 -20.21230000
19.94610000 -23.29800000 -46.04450000
31.53080000 -76.29460000 0.57760000
-30.95350000 -36.78200000 -47.24980000
1.21900000 -87.95390000 -28.59010000
-20.30580000 13.17530000 -17.67550000
-19.39870000 14.24050000 -17.87430000
-17.07810000 35.43470000 3.43570000
-17.42770000 34.57040000 -4.98340000
42.62510000 -41.58280000 -41.35270000
42.81890000 -39.89490000 -42.34100000
-41.58060000 -14.69710000 24.07610000
-42.53540000 -15.56260000 27.75050000
-7.41130000 -88.99470000 27.95430000
18.56650000 85.64410000 18.30830000
-61.18890000 71.52670000 2.43150000
-63.53440000 68.65410000 0.81090000
-24.11360000 -90.44150000 22.89990000
-26.40920000 -90.05890000 25.13050000
9.63770000 71.06290000 1.63860000
-23.97380000 -90.22570000 21.53520000
-21.58620000 -90.42530000 22.09460000
34.92810000 -70.24580000 -15.80200000
38.42370000 -32.07680000 -46.13240000
-39.76560000 -13.38400000 23.67920000
-30.10240000 -89.25290000 25.85600000
-7.60610000 60.82760000 8.17860000
-33.91290000 -85.73650000 27.57960000
10.31900000 90.15460000 21.18330000
-15.29880000 -8.41250000 30.04130000
-17.24360000 -7.33550000 29.12260000
-47.28430000 -18.34580000 12.05520000
2.85410000 -89.90210000 21.37400000
-48.18030000 -18.03410000 8.73890000
2.92590000 -89.53280000 20.27560000
-48.13840000 -17.61740000 7.60830000
36.37880000 -63.93720000 21.03100000
-46.57700000 -17.12010000 6.93850000
-38.16410000 -79.76000000 24.22830000
-46.44410000 -16.69090000 4.73020000
-12.20730000 -6.18140000 27.49220000
10.22670000 88.34410000 20.68120000
13.15730000 86.67400000 20.31190000
-60.85590000 67.61200000 6.06660000
-60.81590000 69.29990000 5.22120000
-61.54550000 67.59420000 5.16330000
-6.43660000 63.15410000 10.44600000
-9.26980000 62.48270000 10.66890000
37.68470000 -61.92610000 15.38320000
-52.57930000 -14.88020000 6.35300000
5.57250000 -89.95290000 17.24730000
-51.70650000 -14.20610000 6.11720000
-15.69100000 -4.66630000 25.12960000
-16.53930000 -3.81500000 24.00270000
-52.61420000 -13.76530000 6.33950000
-52.59360000 -13.77760000 6.33760000
-23.59850000 -88.87870000 19.92750000
-53.40660000 -13.20860000 6.29120000
-52.59380000 -13.75260000 6.33730000
-54.56100000 -9.83280000 5.74650000
-57.41330000 30.19520000 -7.08270000
-21.59850000 -88.56130000 18.55430000
-18.97070000 69.58500000 -8.93570000
-18.52700000 67.73880000 -5.17880000
-18.87490000 70.78760000 -2.87400000
-57.92950000 30.85550000 -7.63860000
-50.67550000 -14.00450000 4.87610000
-57.89530000 66.18250000 5.33080000
-57.21710000 68.55850000 6.06120000
-63.62040000 33.39490000 -4.36170000
-58.02180000 67.53250000 6.37020000
38.44080000 -52.39190000 -42.63930000
-19.04440000 -88.58000000 17.77780000
-62.59250000 35.54970000 -6.78190000
-13.86340000 -2.16340000 22.18170000
40.95070000 -54.73560000 3.61650000
-43.75140000 -15.79310000 4.10300000
-60.32220000 31.01050000 -7.86390000
-13.55590000 60.94430000 10.75590000
-9.90950000 67.08660000 11.27010000
-42.98880000 -68.22910000 33.31480000
-60.06410000 65.06370000 6.52230000
-58.91800000 68.21200000 6.58080000
-60.40520000 67.05530000 6.43220000
2.55590000 70.28600000 9.29370000
-31.01240000 45.79360000 -0.33070000
1.42080000 1.15750000 -22.49430000
-30.01670000 44.24600000 1.25880000
-25.23190000 -60.82580000 -41.79160000
-58.48670000 65.07580000 5.86960000
42.42610000 -42.50450000 26.02080000
17.46600000 -4.43670000 -26.37730000
42.66710000 -47.47490000 -12.69900000
1.09180000 -89.98220000 4.19220000
27.69640000 -40.74440000 -45.92800000
43.32760000 -40.13970000 20.28450000
-48.09090000 -53.75050000 -30.97170000
6.03200000 48.19460000 -16.35280000
6.87590000 51.10680000 -16.32580000
7.16940000 45.32770000 -16.30350000
7.50930000 48.28770000 -16.08130000
-48.49260000 -50.96690000 -34.51880000
-57.51510000 -4.54130000 1.03740000
3.38230000 -90.15990000 0.78050000
3.83940000 -90.09520000 -1.07860000
43.51960000 -39.18210000 18.75750000
-50.08580000 -10.40730000 0.83120000
7.72270000 92.37720000 20.73860000
-28.39430000 42.62920000 0.65460000
-48.33710000 -49.94510000 -40.80880000
43.81510000 -36.93900000 13.75530000
6.41630000 92.43460000 20.50740000
-18.02830000 66.28050000 -2.01910000
-49.22670000 -44.05750000 -42.94260000
6.22030000 91.70210000 21.24110000
43.82880000 -37.93960000 -20.93120000
-44.23190000 -48.77580000 -44.69870000
29.05120000 -60.56850000 41.91690000
44.05400000 -35.05130000 14.01260000
43.66310000 -35.35060000 -22.85470000
8.00620000 45.46850000 -15.71000000
7.79640000 52.25590000 -15.66110000
8.11500000 49.05460000 -14.10950000
15.25920000 -31.75810000 -47.03480000
45.37920000 -33.96310000 7.21000000
45.53700000 -32.15420000 8.55550000
28.92850000 -58.60260000 42.39980000
7.89210000 90.58870000 21.25670000
-57.50350000 -2.33260000 -3.65270000
-39.79970000 -50.14730000 -44.54730000
-8.42920000 46.42150000 -15.91010000
-10.96570000 48.09170000 -15.90690000
-10.89160000 50.35410000 -16.02430000
-47.15570000 -44.11150000 -45.41500000
-50.77730000 -2.57780000 -6.41550000
49.55800000 -28.69730000 -0.04680000
-17.36280000 30.17020000 5.85970000
-17.67010000 27.87210000 3.10620000
-15.97800000 70.12530000 -4.70220000
-15.55090000 67.21270000 0.49030000
-15.08580000 65.99650000 -4.67790000
8.14120000 -30.14150000 -47.40840000
-48.54360000 -44.79970000 -44.55830000
-51.87180000 0.22360000 -7.77560000
50.06390000 -27.47340000 -2.24020000
19.93450000 -37.36080000 -46.62340000
37.56800000 -21.27410000 -41.72570000
-42.54610000 -71.26210000 15.21170000
-56.01410000 -26.80120000 7.46060000
-36.74310000 -10.37170000 -8.47100000
16.34830000 85.18460000 19.44650000
-31.80070000 -89.66940000 5.21600000
-35.58120000 -8.78260000 -11.78780000
49.14820000 -21.90640000 -9.23010000
8.55660000 40.01050000 -14.80970000
8.39880000 47.22770000 -10.70810000
8.67280000 43.29520000 -8.56180000
-56.52710000 -22.32980000 3.20850000
49.97760000 -21.88850000 -8.45650000
-52.61240000 -41.54290000 1.53050000
-29.60100000 -90.53580000 5.23360000
-53.20040000 -40.33240000 2.15700000
6.05830000 59.91140000 2.71020000
-27.01600000 -90.32200000 0.96330000
-45.10170000 -65.66300000 14.40570000
-45.77710000 -64.45160000 8.97560000
-25.47440000 -89.17800000 -2.07930000
42.29610000 -18.60180000 -10.65900000
40.96680000 -17.85630000 -10.47440000
-57.46490000 -18.25950000 -0.08410000
38.78210000 -17.48200000 -10.47570000
-54.42680000 -39.29820000 1.62290000
-17.40480000 28.27390000 10.13810000
37.33340000 -15.80040000 -8.42710000
38.41900000 -16.73260000 -9.69110000
-20.50710000 -89.43410000 -4.95980000
34.39990000 -14.71620000 -5.78960000
-56.04420000 -38.26880000 1.44580000
-55.88540000 -17.31940000 -4.44360000
31.49760000 -19.06510000 -40.76870000
-56.76130000 -37.31760000 1.84920000
-14.94140000 -89.88390000 -10.72280000
8.74140000 46.99200000 -7.55650000
-16.63970000 58.21930000 -15.48820000
-15.14280000 49.54410000 -15.64250000
33.38230000 -18.76440000 -39.80460000
-57.39310000 -35.95800000 -0.32670000
-10.02250000 -89.75590000 -17.18250000
-30.35780000 -4.80460000 -22.24050000
-54.76150000 -17.65860000 -6.57830000
-33.17490000 -88.24840000 5.33090000
-33.25990000 -88.84070000 3.10630000
16.39940000 -91.62850000 9.55350000
16.07450000 -91.45060000 8.57040000
17.22590000 -91.74300000 8.63470000
-50.62400000 -18.26250000 -8.00100000
-53.36910000 -17.89390000 -7.53990000
14.97350000 -90.51510000 9.30960000
29.45830000 -12.01720000 -5.23280000
-17.65460000 54.23770000 -13.64480000
-17.99650000 51.66170000 -12.83720000
53.14430000 80.63420000 -12.64420000
-50.34090000 -18.94480000 -8.87180000
-47.64100000 -18.05720000 -9.49130000
-48.58130000 -19.22530000 -11.67960000
28.23020000 -10.17040000 -7.73100000
19.91430000 -91.73100000 8.00280000
50.46140000 76.51070000 -12.56520000
42.83220000 -26.30230000 -41.10140000
20.86570000 -91.41610000 6.67600000
42.32380000 -25.24900000 -40.75660000
-17.93490000 53.15550000 -11.86040000
41.69690000 -24.78950000 -42.60740000
41.03120000 -24.07540000 -42.56510000
26.97780000 -8.62100000 -9.07980000
38.48510000 -21.83080000 -41.79330000
9.03440000 43.88750000 -6.59410000
23.08820000 -89.29310000 3.19110000
9.28240000 41.21000000 -4.62250000
-5.07380000 -12.98980000 -34.19120000
42.25230000 -39.52490000 39.24310000
42.07680000 -38.34020000 44.01290000
41.76410000 -39.36690000 44.46580000
41.49870000 -41.19500000 42.29490000
-38.47560000 -12.16100000 19.19010000
-38.03600000 -11.67310000 19.66350000
-38.42950000 81.40550000 -2.99780000
-37.52530000 81.34710000 -1.99580000
-37.72690000 80.31550000 -4.69300000
-18.69800000 51.46750000 -10.34350000
20.10730000 -3.09940000 -10.60030000
-42.36490000 -71.57120000 -9.68780000
41.09730000 -41.96200000 43.74770000
9.60130000 37.72850000 -3.10340000
41.24890000 -39.67080000 45.08670000
18.31030000 -0.59780000 -10.18420000
-51.04880000 -48.41940000 -7.49410000
-51.19080000 -46.02270000 -13.31410000
51.06090000 80.83010000 -11.36080000
50.22910000 80.06580000 -11.08090000
-15.12570000 24.18690000 12.59240000
-11.67670000 21.50740000 12.77970000
-8.42860000 28.12030000 11.57480000
9.50940000 39.99060000 -1.54700000
-25.11320000 -89.13670000 -4.04170000
-34.17430000 79.12030000 -1.97140000
-35.92770000 79.16080000 -5.10680000
-31.49750000 -23.20130000 45.51590000
-23.22760000 -89.11460000 -2.01110000
-30.97330000 -22.28600000 44.90480000
58.60060000 79.43680000 -11.69330000
-54.14910000 3.18530000 5.85620000
-54.88190000 3.74200000 5.75270000
-12.51350000 77.26770000 13.46930000
-20.61870000 -89.69330000 -7.43130000
-55.44410000 7.54930000 5.61920000
-52.56450000 6.78800000 4.01750000
-61.91140000 39.87010000 5.32690000
-59.82390000 41.59370000 5.66770000
-61.50420000 41.57590000 5.68430000
34.68040000 -67.95490000 -36.05540000
-21.43020000 5.12240000 17.55990000
32.46930000 -68.80360000 -37.51350000
17.06810000 -91.63110000 -13.87330000
33.98080000 -67.65460000 -37.39760000
38.50550000 -40.49650000 45.65930000
39.69340000 -39.12540000 45.76290000
34.81730000 -38.39370000 46.12270000
30.91060000 -66.37800000 -38.93940000
-27.00740000 -1.78060000 -10.78440000
-4.91720000 18.00460000 13.00500000
-4.41360000 21.19570000 12.37160000
-20.67700000 10.99270000 13.98180000
-40.85490000 82.79560000 -2.48730000
-39.45280000 81.81050000 -3.07170000
-25.69030000 -0.03780000 -12.89310000
56.51640000 77.23540000 -11.36410000
-39.80830000 83.58280000 -1.96400000
21.02680000 -92.21450000 -14.31280000
10.99160000 -73.26160000 37.34200000
-20.73420000 11.47810000 7.07600000
21.71100000 -91.86020000 -15.44710000
-36.38350000 -12.15300000 32.92430000
-20.32000000 12.86010000 6.99860000
-7.21940000 -20.80020000 -44.73170000
24.24770000 -89.28790000 -21.42540000
-18.99800000 51.85120000 -8.03740000
-20.84450000 48.48060000 -8.85020000
-18.93630000 52.72630000 -5.61960000
-24.20390000 2.85430000 -18.34640000
9.42790000 -25.59870000 -47.15670000
-45.90820000 -63.69990000 -12.71120000
-23.57330000 3.62590000 -20.01860000
-24.23640000 2.64640000 -19.59230000
-20.01410000 51.19830000 -5.60460000
-36.45160000 -11.03960000 31.41950000
-35.09970000 -10.36560000 31.05540000
27.70820000 -78.18960000 30.50450000
-34.77340000 -8.77710000 29.81250000
-21.28460000 49.94480000 -5.79710000
-36.31300000 -9.10990000 28.57310000
-19.52330000 15.94960000 1.22310000
24.93740000 -87.91340000 -25.38540000
-34.84860000 -8.31410000 28.97450000
55.97490000 75.78120000 -7.24450000
-56.14870000 7.11790000 5.31230000
-57.57090000 9.91920000 4.25650000
25.81410000 -85.73650000 -27.88140000
25.80930000 -85.17970000 -28.66090000
-19.74500000 51.97550000 -4.13910000
-22.56920000 49.47050000 -4.82910000
-22.74960000 49.52650000 -3.84770000
-32.60790000 77.49620000 -2.70740000
-31.49450000 76.75390000 -1.50830000
-51.81260000 8.21350000 -1.82590000
-48.00270000 78.88870000 -9.19910000
-46.66570000 80.03770000 -8.92130000
-42.02890000 79.51660000 -9.35540000
-43.71740000 78.36760000 -9.30690000
16.64610000 -87.89860000 29.17270000
29.44530000 -37.29480000 46.48340000
33.81820000 -35.57450000 46.21780000
27.19770000 -33.57680000 46.41430000
22.74340000 -81.00180000 -32.45080000
48.97190000 79.63080000 -7.73200000
-58.60090000 41.28690000 3.39530000
-25.26210000 53.17330000 -3.51280000
-27.53060000 50.26500000 -8.29230000
-32.89870000 -6.73510000 25.19590000
-18.88170000 22.07330000 -7.99690000
-9.20590000 13.51410000 14.26480000
-3.28610000 14.85840000 13.58580000
-30.88670000 75.87990000 -2.02940000
-25.15200000 50.91080000 -3.56640000
-52.38400000 11.01350000 -5.19360000
-1.47430000 70.56940000 11.08310000
-52.86260000 11.53590000 -7.09870000
-15.71890000 32.98830000 -16.26300000
-53.23020000 12.09260000 -7.54150000
24.53070000 -80.06930000 -32.87740000
22.58340000 -87.72620000 24.98550000
23.27040000 -87.03480000 23.37390000
-53.52350000 13.22380000 -7.29340000
-54.52400000 14.33720000 -7.93240000
-6.89010000 -90.04250000 -19.68760000
-24.71110000 50.03880000 -3.60870000
-24.77110000 51.01470000 -2.49760000
-46.59390000 80.70840000 -8.36370000
-42.52820000 80.48600000 -8.68800000
-59.37890000 17.04750000 -5.67240000
-49.96930000 79.66870000 -8.47160000
48.13710000 78.48220000 -6.27970000
-2.83030000 -90.25650000 -20.01830000
-2.07510000 -91.62430000 -21.93100000
-15.29130000 24.70040000 -16.97810000
-62.94650000 42.11470000 4.69580000
-0.22660000 -92.01810000 -23.09280000
-0.17940000 -91.80620000 -21.86620000
-0.27130000 -91.39620000 -20.78950000
-23.80460000 49.37500000 -3.80820000
-22.56870000 49.54810000 -2.47720000
0.99490000 -92.08800000 -24.12860000
-43.61510000 -40.74980000 45.39890000
3.00670000 -91.89610000 -25.48920000
-29.68280000 74.27460000 -1.90860000
-29.48030000 73.87720000 -0.51490000
0.62250000 -6.62000000 -28.05680000
-32.71460000 77.83130000 -0.47090000
-66.00500000 47.12510000 0.47960000
6.92300000 -91.81220000 -25.97440000
-49.55810000 80.19710000 -8.02880000
-47.89680000 80.89420000 -7.41540000
-57.26440000 -34.73930000 -3.39520000
6.20170000 -8.46990000 -30.63220000
-23.56630000 49.47590000 -2.37580000
-24.41960000 50.22040000 -2.11910000
-57.69170000 -34.82680000 -0.07380000
-58.04830000 38.90480000 0.46330000
-24.00880000 49.69390000 -1.67670000
2.08910000 -85.60850000 -30.00440000
-50.73950000 80.20990000 -6.94970000
-56.93340000 -32.66570000 -5.39020000
28.67610000 -39.02170000 46.43440000
6.16810000 -9.61890000 -32.12040000
-2.24100000 -83.76030000 -31.14050000
3.46360000 -7.04730000 -28.52420000
-58.56720000 42.90590000 -3.62260000
44.58040000 -38.87150000 1.64690000
-55.75380000 -32.29540000 -7.64700000
-55.85630000 -30.58110000 -7.75730000
-46.20810000 77.90660000 -9.12380000
-46.36800000 77.21860000 -8.36500000
2.02760000 -89.67170000 -27.71930000
-42.98190000 77.83300000 -9.17660000
-17.63740000 25.14200000 11.62720000
-16.83050000 27.08890000 11.93220000
-17.02620000 29.66690000 10.96230000
-16.75740000 25.15980000 12.35380000
-46.83570000 -54.60090000 41.22640000
10.49650000 72.11940000 9.61760000
9.80790000 67.83940000 9.15800000
-60.82980000 46.51490000 -8.17310000
-43.28770000 77.10880000 -8.33020000
-59.84030000 47.66400000 -7.57250000
9.44800000 66.71210000 4.96130000
-44.13790000 76.44780000 -6.89450000
-53.45870000 -30.96080000 -11.05370000
-38.91800000 75.76230000 5.59390000
-35.69080000 74.65220000 5.72940000
-41.03140000 76.96930000 5.85650000
-62.51330000 46.70990000 -7.87220000
12.37840000 -26.18180000 46.62300000
17.47080000 -27.25960000 46.54980000
17.38170000 -26.26720000 46.42450000
45.63890000 -36.59460000 -4.11150000
10.27780000 72.10550000 10.55770000
-15.83160000 26.86560000 12.22950000
-62.55460000 47.79680000 -7.91670000
-61.69620000 47.06000000 -8.16790000
-61.67640000 47.07160000 -8.17100000
-61.69650000 47.08290000 -8.16820000
-60.84940000 47.64620000 -8.17920000
-61.72060000 48.17260000 -8.19430000
-61.67070000 48.20290000 -8.20060000
45.54520000 -35.51680000 -8.68000000
-61.72130000 48.23230000 -8.19500000
45.68170000 -33.27210000 -10.39920000
-7.42910000 -75.79460000 -35.55190000
15.47840000 4.25880000 -14.81410000
15.62210000 3.52550000 -18.95760000
-18.47290000 -43.37100000 -46.26950000
-50.76280000 81.08050000 -3.44770000
-53.38370000 79.80120000 -3.91880000
-35.77170000 73.65340000 5.64230000
9.08740000 62.82400000 9.27570000
43.96530000 -29.11920000 -15.47510000
30.18950000 -72.65710000 34.35230000
13.28420000 8.13790000 -19.80850000
9.24690000 69.39670000 10.62320000
-39.19190000 75.18780000 5.08850000
-35.26090000 72.40420000 5.35840000
12.30930000 8.12010000 -20.44700000
-53.64180000 80.72710000 -1.84550000
-11.34930000 -71.91470000 -37.42240000
10.38070000 10.62870000 -19.89940000
-50.70630000 -42.87440000 31.44350000
6.79020000 65.45620000 10.32890000
0.12830000 66.61900000 10.45190000
-49.73860000 -22.00470000 -23.94770000
-55.00240000 79.60180000 -2.13500000
-54.51260000 81.41150000 -0.43180000
-21.34230000 41.42900000 4.68060000
-18.96170000 41.46470000 5.55750000
-21.69010000 42.17410000 5.52310000
-44.26750000 83.01730000 1.91280000
-46.36990000 81.95390000 2.45880000
43.16450000 -26.03500000 -18.25400000
42.76470000 -24.90370000 -17.90720000
9.05930000 73.28500000 11.59680000
7.95200000 66.32910000 10.40440000
-43.55230000 82.41020000 1.96600000
-23.06870000 42.18850000 5.21410000
-56.03250000 79.39910000 -0.89290000
-55.50330000 80.61220000 0.04480000
-45.89840000 81.51930000 2.96660000
-31.32650000 -20.43240000 -44.82790000
-49.93950000 -21.44930000 20.95260000
-41.69540000 82.29860000 1.61430000
-4.90190000 20.75050000 -17.54640000
36.81100000 -19.53700000 -22.00400000
-17.99780000 40.41650000 4.79660000
-18.06650000 41.48250000 6.27000000
-42.22470000 80.97490000 3.39580000
19.54490000 92.15710000 6.42940000
19.10140000 92.37350000 7.12740000
19.85100000 91.68430000 7.04010000
19.73660000 91.81920000 4.28440000
18.92740000 92.37020000 5.76440000
19.81600000 91.67910000 5.54560000
-56.88840000 78.66920000 -0.63900000
45.40590000 -1.27440000 -10.39660000
44.30260000 2.17710000 -10.40910000
46.32560000 2.07990000 -10.58190000
-18.36850000 40.11480000 3.22180000
-19.02280000 40.32190000 2.51710000
-42.57560000 -16.65650000 -38.13120000
-56.22740000 79.48100000 0.74160000
-51.48470000 -37.32090000 -25.85730000
28.79420000 -77.17630000 24.75530000
-43.00730000 80.41650000 4.90440000
37.81940000 -52.33130000 42.56910000
-25.96180000 -58.48380000 -42.57760000
-47.55030000 80.53170000 4.71470000
39.66380000 -48.30040000 42.20400000
-17.50020000 -27.59930000 -47.57340000
-55.36350000 78.87540000 2.17890000
-55.78620000 77.97390000 2.89940000
-57.24250000 78.33870000 0.15530000
-56.73470000 78.34980000 1.23690000
18.01150000 91.99900000 8.30510000
8.42030000 91.99710000 -26.71330000
8.71500000 91.29840000 -27.57160000
7.07010000 91.97120000 -26.99170000
5.49640000 92.00230000 -26.33510000
27.08120000 -10.30460000 -26.60370000
19.70070000 90.09410000 6.59710000
-49.26470000 -25.78920000 -44.15910000
7.29810000 91.54660000 -25.57040000
10.05370000 -32.98700000 47.38380000
-8.93540000 29.43530000 -16.61910000
-0.49660000 29.52440000 -16.73650000
1.67030000 26.14850000 -17.13190000
20.48670000 -5.77450000 -26.65130000
-33.46810000 70.64150000 -9.51210000
-35.59220000 73.61990000 -9.44830000
-34.60170000 73.64900000 -9.55730000
-19.51540000 -25.28520000 -47.39220000
34.09920000 -71.84090000 -8.07950000
-33.29830000 69.28580000 -9.32930000
50.48440000 -2.10090000 -10.12460000
47.65050000 -3.42780000 -10.33080000
-27.22480000 -22.09930000 -46.28910000
40.33850000 -56.78780000 -14.67810000
-47.02290000 80.18190000 5.28260000
-35.16470000 71.96900000 -8.98790000
-58.91120000 24.46370000 5.41250000
10.06630000 17.16990000 -18.55880000
8.84990000 21.32100000 -18.02090000
9.89680000 21.13810000 -17.71460000
-44.55130000 79.85300000 5.59290000
-32.38520000 69.93440000 -9.52170000
19.15650000 88.32630000 10.84540000
-48.44670000 -25.28440000 -45.62960000
-47.86720000 -26.00850000 -46.18130000
8.37780000 18.26230000 -18.52930000
-50.37720000 78.47450000 6.13960000
-47.22460000 78.46590000 6.24110000
-39.89380000 -69.28900000 36.64010000
-42.57950000 79.91570000 5.36500000
-49.00810000 -43.72980000 -44.23240000
10.94500000 17.18770000 -17.83100000
10.48790000 17.74440000 -18.19060000
-37.60830000 -70.51400000 -33.37360000
-35.02400000 -71.93170000 35.83980000
-32.59570000 -73.99920000 34.92780000
-41.76450000 78.56360000 5.86070000
-47.65750000 -25.70990000 45.22870000
42.02940000 -50.43660000 -23.62390000
-48.65600000 -24.03980000 43.80380000
-3.32790000 -89.36610000 27.82320000
0.92730000 -30.09930000 47.51550000
-48.82130000 -22.36970000 41.60520000
-48.39770000 -20.85080000 39.07270000
-48.93250000 -39.22270000 -45.94360000
0.05140000 -90.71530000 26.58550000
-47.63540000 -19.98750000 38.71790000
-3.74930000 -25.78550000 46.92120000
-27.01440000 -37.45590000 -47.23820000
-16.66930000 68.14660000 11.34780000
-25.00080000 1.24360000 6.62550000
10.91390000 19.46800000 -16.30700000
11.72200000 14.36860000 -17.71980000
-30.16830000 -90.45740000 7.21880000
-30.92410000 -90.27120000 9.68710000
-31.57430000 -89.90070000 7.74040000
-31.42220000 71.14820000 -8.98790000
-30.42990000 68.32910000 -9.07670000
5.65480000 -91.14200000 23.21440000
3.80520000 -90.75890000 22.39820000
1.64510000 -24.60080000 46.51890000
-6.13870000 -23.55870000 46.00380000
-33.25140000 -88.05270000 7.18080000
-17.47090000 39.77670000 4.98150000
-17.53240000 40.86180000 6.47350000
-16.97380000 39.23780000 6.84770000
15.77220000 89.42190000 10.87630000
39.40240000 -52.37410000 -41.98840000
-45.15570000 77.27510000 6.11780000
9.47300000 49.87380000 8.51530000
-27.51090000 -90.42910000 6.30870000
5.32140000 -90.23750000 21.67970000
-6.00990000 -22.11920000 44.74740000
41.18130000 0.12590000 -4.62200000
41.99660000 -0.10620000 -8.18980000
41.31250000 -1.91560000 -6.57510000
-26.54500000 -89.91850000 1.52650000
7.89170000 -89.89580000 19.74490000
-9.42630000 -20.92390000 43.41960000
8.98010000 56.13010000 9.16010000
-30.54910000 -88.33770000 26.55060000
-25.41940000 -89.24040000 26.19640000
8.27100000 49.72190000 9.43050000
-25.71700000 -89.10900000 1.18640000
-25.84200000 -89.75260000 25.74130000
-22.71200000 -90.17230000 24.99470000
-6.80700000 -17.68750000 39.18630000
-24.70450000 -88.94770000 1.10120000
-17.65170000 -90.28140000 25.15610000
-42.51510000 76.56450000 5.43440000
13.06550000 -90.31130000 15.91120000
-20.38500000 -89.40190000 1.05020000
-20.11690000 -89.97510000 21.32560000
17.22690000 86.17500000 -26.69140000
-19.82870000 -89.27740000 20.46030000
-18.88830000 -90.41090000 22.64870000
-16.27600000 60.34870000 -15.68720000
-17.54400000 66.48710000 -15.87710000
-14.75060000 65.75730000 -16.39580000
22.06950000 -22.14500000 -44.93350000
14.97440000 -90.71220000 12.08850000
-19.02250000 -88.68340000 18.97700000
40.36430000 -3.90460000 -2.89350000
41.19300000 3.52630000 -3.17670000
40.43430000 -1.59420000 -1.64240000
-17.48850000 -88.50220000 17.79220000
27.53270000 -39.67990000 -46.10420000
15.93600000 -91.55300000 13.12400000
51.48130000 38.35100000 -6.20530000
53.04310000 25.77460000 -4.52340000
10.83900000 88.86520000 16.24120000
-12.20460000 -89.98510000 -10.12700000
-27.88890000 71.27300000 -1.46270000
-16.63750000 38.04180000 9.78860000
-16.75020000 38.69900000 8.96780000
-16.91620000 34.81760000 8.31290000
-32.01230000 -86.80970000 27.32630000
5.85950000 89.73270000 -23.59270000
-12.54540000 -11.18510000 31.83080000
-29.03530000 72.69670000 -0.03570000
1.60100000 22.06890000 -17.59750000
6.68910000 21.22530000 -17.99650000
-35.11610000 -84.04850000 27.88860000
-5.88950000 -13.84380000 34.29590000
-6.20940000 -89.89520000 -14.25180000
-56.37840000 24.82170000 4.61300000
-55.97460000 23.51180000 4.02620000
39.59210000 -57.40650000 11.98750000
4.30520000 92.03730000 19.40970000
-31.68150000 49.13990000 -2.88540000
-3.50300000 -87.66030000 28.72120000
-12.14230000 -10.31330000 31.08920000
-30.01010000 72.42200000 2.02630000
-37.20370000 -81.12370000 27.61400000
-33.97450000 -86.54260000 6.80870000
13.80760000 11.39750000 3.77780000
13.74260000 11.82000000 1.35640000
13.19450000 13.48680000 2.54930000
40.38610000 -56.11300000 5.35980000
13.02090000 12.87670000 -1.13670000
-34.24180000 -86.00370000 4.72910000
-18.27230000 64.08000000 -10.78290000
-19.10320000 69.97800000 -12.85340000
-17.91060000 60.17200000 -13.92050000
-10.74970000 -7.41950000 29.06190000
-56.09000000 27.68040000 -3.30620000
-31.78810000 50.23530000 1.70250000
-55.26020000 -26.78340000 8.30430000
-18.41230000 65.34230000 -14.46080000
-37.78370000 -79.88000000 -0.60620000
-55.22480000 -23.96420000 7.43870000
-56.47300000 29.63560000 -4.13530000
-47.43280000 -18.70440000 14.75920000
-55.69640000 -20.60620000 4.71630000
41.79280000 -51.61130000 -1.35510000
14.49400000 8.96190000 1.43990000
-58.10660000 32.97580000 -7.32250000
-41.19700000 -70.45590000 34.78710000
-31.82780000 75.46680000 1.65980000
-40.36640000 -70.13150000 35.96490000
-39.39260000 -77.06080000 0.05520000
-45.63290000 -17.09840000 9.13090000
-42.75970000 -67.06220000 36.16520000
-31.80360000 73.83280000 4.03720000
-13.65650000 59.94290000 -15.97920000
-11.43870000 66.54600000 -16.35620000
15.23870000 7.55940000 6.49470000
8.24140000 25.88570000 -17.50050000
-62.11270000 35.70120000 -7.44080000
-13.89790000 -0.80570000 20.96880000
-56.97640000 -16.45080000 -3.08510000
-61.35850000 33.77670000 -7.80430000
-15.83070000 0.60080000 20.06300000
-55.89300000 -14.50030000 -5.26920000
-51.76850000 -9.94110000 6.05040000
-60.84440000 35.56480000 -8.42630000
-51.21110000 -9.98490000 5.47500000
-58.88490000 32.95800000 -8.14360000
-51.61090000 -17.87610000 -7.62880000
-52.55880000 -17.31940000 -7.53260000
-59.79890000 33.79670000 -8.47610000
-51.50720000 -16.17040000 -6.98970000
14.48290000 88.11740000 13.91060000
-20.71200000 3.91240000 18.33340000
-54.78050000 -13.57490000 -6.59880000
-48.27100000 -17.71570000 -7.81840000
-31.23070000 50.55970000 4.65410000
-31.03500000 48.10950000 4.27280000
9.64050000 86.53080000 -20.69650000
11.62850000 15.86110000 -15.02850000
-46.10010000 -17.46800000 -10.18320000
-30.78650000 72.18710000 3.95680000
14.73240000 9.22370000 7.12510000
-29.85640000 70.40940000 3.78280000
-30.43820000 49.25850000 5.23800000
43.22670000 -39.11080000 25.20440000
17.51930000 85.61830000 -26.17890000
42.77760000 -26.24880000 -36.41960000
-45.76300000 -63.03700000 -18.05010000
-8.08880000 65.39410000 -16.27580000
-9.41770000 59.42180000 -16.04370000
-29.00630000 45.88270000 5.52510000
-30.22720000 46.99610000 5.09070000
39.83820000 -22.64200000 -41.08200000
-35.86950000 -10.61060000 -30.90930000
-33.75160000 -11.40130000 -33.33120000
16.67360000 85.11800000 -26.05500000
17.67350000 84.96700000 18.52230000
17.66990000 84.69300000 17.34270000
-26.90250000 47.81960000 4.61260000
-28.12920000 46.33460000 5.64290000
-24.56490000 45.36160000 5.27240000
18.04070000 -12.77900000 -33.98820000
44.59820000 -31.85180000 12.24720000
16.58330000 84.57080000 18.52380000
-31.21110000 71.33300000 4.67530000
-50.37310000 -4.59120000 -1.85240000
-24.98080000 44.23040000 5.68280000
12.28020000 86.24270000 13.88980000
-53.22500000 -39.24480000 5.13820000
-29.42950000 68.23760000 4.24260000
48.52440000 -28.05760000 4.71860000
-27.46490000 47.33750000 5.18250000
-28.37190000 47.79430000 5.38140000
17.17960000 84.47540000 -24.33440000
16.47370000 84.42380000 -25.09460000
-53.73420000 -38.68810000 4.82700000
-54.28660000 -38.70590000 3.79620000
-1.42200000 -21.81900000 -45.54250000
48.74710000 33.09200000 1.54090000
47.25720000 31.38620000 2.18900000
-55.98070000 -37.59250000 3.80130000
-30.53600000 -53.55700000 -43.97660000
8.55620000 87.00410000 20.46050000
-56.55610000 -36.53960000 4.42160000
-5.78520000 -89.94360000 -16.14630000
-2.99150000 -90.06340000 -19.01620000
-34.31830000 -7.58900000 -11.60350000
-26.91330000 44.32400000 5.77660000
10.86570000 86.08160000 20.13650000
40.95390000 2.21860000 -1.08280000
39.92930000 -5.78960000 0.16510000
50.60330000 -25.45350000 -2.44810000
-0.57990000 -91.01410000 -19.47230000
3.15150000 -91.81720000 -21.80620000
16.08120000 83.59230000 -21.99020000
1.45530000 -90.79210000 -20.10580000
50.73210000 -22.98410000 -6.04540000
40.32280000 -4.12210000 0.58890000
21.73670000 -90.70770000 6.43830000
6.52900000 -92.17360000 -22.87160000
15.46110000 83.38680000 -22.65800000
46.81180000 -20.89170000 -10.05830000
15.56240000 85.46890000 19.77580000
-28.98670000 -3.98160000 -24.67280000
45.43070000 -19.75980000 -10.36990000
50.43660000 32.64360000 0.89940000
49.64370000 33.47980000 1.22120000
13.37100000 9.78400000 -13.15200000
13.21400000 11.17120000 -5.09120000
13.64220000 9.78180000 -5.80590000
-26.42350000 -4.01330000 -25.43950000
-32.93210000 72.11420000 5.17320000
-32.92470000 69.87570000 5.18120000
5.65860000 -92.21200000 -23.80890000
6.84080000 -92.19730000 -24.88720000
44.08370000 33.61300000 1.99980000
-35.85840000 -8.65380000 10.25170000
-23.26570000 44.24820000 5.63400000
-23.27840000 43.11690000 5.67010000
40.72190000 -16.91380000 -10.00550000
41.49520000 -16.33930000 -9.96400000
44.44250000 -16.95950000 -10.25850000
35.86640000 -15.04380000 -6.56160000
38.53590000 -15.50600000 -8.38950000
51.80980000 -4.34560000 -9.76290000
52.60280000 -5.45900000 -8.93120000
51.76010000 -6.60800000 -9.66810000
-58.22130000 -1.07330000 -2.07440000
-57.19550000 -0.82240000 -4.49680000
-28.83460000 66.65900000 -8.20600000
-30.21690000 70.60940000 -7.77930000
-28.17340000 67.25130000 -6.51650000
-21.81170000 43.13480000 5.85190000
5.60550000 -87.80170000 -28.56890000
52.52920000 -9.40940000 -8.00600000
53.27210000 -2.04750000 -8.08200000
30.01800000 -12.57850000 -3.45440000
-52.70960000 -1.60510000 -7.89560000
8.21420000 83.62610000 -18.71700000
-12.63180000 90.93590000 -27.63360000
-27.83870000 64.41430000 -7.53830000
-11.78430000 90.37920000 -27.63660000
5.06670000 92.42640000 20.22970000
-25.92690000 64.91830000 -2.56660000
-26.27300000 67.07930000 -1.76370000
27.47990000 -9.04870000 -2.51070000
-26.33670000 -1.06350000 -7.71080000
25.60390000 -7.41420000 -6.20830000
-27.50890000 62.15190000 -7.79600000
-0.79870000 -82.20150000 -31.93860000
-36.27590000 -71.90140000 -33.36890000
-37.69690000 -71.02380000 -32.74810000
16.88100000 -91.54680000 -10.54770000
-60.79690000 59.03110000 -8.37510000
-61.02270000 63.66780000 -8.61840000
-60.31260000 59.53300000 -8.16110000
-14.64890000 91.72180000 -26.86750000
-21.94900000 4.09640000 -20.62080000
20.01140000 -2.87680000 -7.17650000
4.86200000 91.85550000 21.18490000
-14.27800000 90.91810000 -27.64870000
-15.17430000 91.35600000 -27.43330000
4.44600000 92.37430000 20.73700000
-60.02990000 58.97630000 -7.63960000
22.14810000 -4.75560000 -2.52410000
-16.55580000 91.65380000 -26.56970000
3.15050000 92.44810000 20.51750000
-17.71320000 60.73100000 -5.47810000
-17.54840000 58.30840000 -6.92570000
19.08320000 -1.72480000 -9.35180000
2.94140000 91.66650000 21.19820000
17.23920000 1.33430000 -6.63490000
-61.82590000 55.06500000 -8.30770000
-61.91270000 63.97600000 -8.40110000
-32.83600000 -75.16890000 -32.10040000
-35.79640000 -75.38200000 -29.05460000
-58.75390000 41.39100000 4.40620000
-62.69140000 61.03250000 -8.06400000
-22.20240000 5.91110000 16.27950000
-21.43120000 8.17350000 15.51470000
-21.25180000 7.61680000 16.13220000
-33.79790000 -74.85980000 -32.18270000
-26.74720000 61.61300000 -6.17550000
-54.08720000 14.91170000 -7.57830000
-54.23950000 16.04300000 -7.46120000
-14.45100000 59.96320000 2.96710000
-14.75520000 62.93360000 1.76800000
-14.52170000 61.55150000 3.85800000
11.80460000 80.53670000 -19.99100000
-14.25140000 59.81110000 1.74480000
-16.30060000 33.63520000 10.97530000
-16.03210000 38.16010000 10.62870000
-18.86360000 19.62160000 0.14560000
-25.49440000 63.37220000 -1.97230000
-25.28910000 61.68430000 -1.35450000
-25.44900000 59.00580000 -3.22770000
-56.02500000 17.55950000 -7.93900000
11.35080000 79.19420000 -17.67900000
-59.34320000 61.83110000 -6.02250000
-59.65390000 56.42790000 -5.96860000
-18.13030000 28.23280000 -14.23140000
-60.00600000 56.78170000 -7.52350000
-25.57190000 61.12750000 -0.30800000
-25.27090000 57.60520000 -0.68450000
-25.60270000 57.99120000 0.13390000
-7.86290000 23.57660000 -17.20820000
-66.08200000 59.55080000 -1.26010000
-64.58110000 62.92670000 -4.27050000
-64.56900000 59.25300000 -5.38330000
12.67360000 -10.12220000 -32.74610000
-57.83770000 -32.68100000 -1.66130000
-40.45110000 76.44430000 -8.80250000
-40.25160000 77.27200000 -9.41340000
-57.55020000 -31.46870000 -3.36560000
-56.97920000 -31.48650000 -5.43950000
-37.04680000 -48.70450000 -45.19570000
-16.91310000 28.95100000 -16.37320000
9.09010000 78.29920000 -11.61510000
-41.68390000 76.35280000 -7.77870000
-35.08420000 -50.37460000 -44.66610000
-6.58730000 85.75510000 -26.41560000
-8.22180000 85.05430000 -25.82450000
-43.02010000 -43.11960000 -45.94550000
-63.47490000 43.80270000 4.37810000
-59.14740000 56.26490000 -3.07170000
-59.35500000 52.22450000 -5.03300000
-52.99660000 -28.53060000 -11.73180000
-66.27000000 47.75470000 -0.16100000
-52.74570000 -26.73000000 10.60050000
-41.20520000 75.92920000 -7.26320000
-39.07290000 75.34610000 -8.49400000
-40.17290000 75.45600000 -7.32720000
43.75360000 -41.02710000 5.45930000
-49.82010000 -38.94890000 -44.75730000
-33.78530000 -79.46280000 -23.35690000
10.88370000 77.91320000 -12.30350000
-10.90150000 87.00330000 -26.83970000
41.29340000 -5.93180000 3.98550000
42.70630000 0.80730000 3.98400000
-47.70740000 -40.71110000 -46.00910000
-37.17690000 74.14430000 -8.80350000
-14.11810000 57.87790000 4.30050000
-13.94520000 61.28640000 5.47300000
-58.82230000 46.60400000 -2.31860000
-58.74230000 45.89950000 -0.28410000
-59.02390000 52.63080000 -1.76300000
50.29990000 78.98760000 -12.18030000
-32.12280000 -89.44650000 10.74760000
-32.64790000 -89.32900000 12.53350000
-35.66050000 72.10620000 -8.34610000
8.42220000 75.93820000 -10.15110000
-59.37360000 48.28330000 -5.66670000
-59.84790000 48.79520000 -7.58980000
-30.07930000 -90.40000000 11.77260000
-28.27050000 -90.47900000 10.19340000
-27.28680000 -90.34980000 7.72570000
-33.87950000 -87.48750000 10.03150000
-12.90890000 57.73660000 6.38300000
-13.04030000 60.75670000 6.49710000
-9.33550000 83.10640000 -22.80570000
-11.77260000 59.51790000 7.09560000
-60.85670000 48.77740000 -8.19680000
-38.00220000 73.26070000 -6.16520000
-46.77400000 -19.42930000 -30.89570000
-60.66620000 50.90640000 -8.23440000
44.88410000 -29.91410000 -12.81890000
39.32410000 -9.44500000 1.16860000
40.04430000 -9.96610000 4.37130000
55.09500000 76.56420000 -12.23660000
-13.53890000 56.68470000 5.43500000
-25.89440000 -89.13280000 4.52240000
43.20460000 -25.67440000 -16.29430000
42.33550000 -5.96220000 6.01800000
-24.90540000 -88.88440000 4.41180000
-16.87750000 62.41920000 5.48790000
-16.78810000 60.13890000 3.90980000
-16.79720000 62.40950000 8.44090000
-41.41540000 74.82880000 -3.96260000
41.07880000 -22.67690000 -19.47770000
13.43220000 9.30480000 -16.88280000
12.95380000 10.19330000 -18.30400000
12.28320000 9.82580000 -19.68740000
10.97000000 12.64500000 -19.30070000
-38.95550000 73.59300000 -4.84050000
41.37920000 -10.48710000 7.00320000
42.77560000 -8.20690000 7.20170000
42.34740000 -7.65020000 6.81520000
17.74250000 -2.61770000 -24.48930000
-59.51480000 55.40030000 4.76240000
-59.29460000 50.62570000 3.43790000
-59.28410000 53.49320000 2.65940000
34.86700000 61.49910000 -8.81360000
-15.93880000 -89.77140000 -3.56720000
3.96920000 15.63110000 -18.57420000
55.28250000 74.91190000 -8.51490000
33.56110000 59.39970000 -8.85700000
32.35900000 -15.83500000 -22.09570000
41.28690000 -12.47120000 7.50560000
-44.53490000 75.82750000 -4.97060000
-46.48790000 75.82510000 -4.72250000
41.75030000 -14.06770000 8.00460000
-66.01070000 56.85280000 -2.23310000
37.87690000 -48.34320000 43.80670000
-16.38550000 59.07890000 9.73520000
-15.55800000 57.96550000 10.53480000
-15.61810000 59.09670000 10.56620000
-16.27950000 56.81650000 9.68540000
-48.07060000 -23.59210000 -45.22460000
-15.49420000 56.83430000 10.49990000
-14.89120000 58.54000000 10.67530000
-66.17020000 59.25180000 -0.05350000
-66.34370000 54.26420000 -1.41600000
13.61090000 -37.47630000 47.26540000
-46.65660000 -23.91180000 -46.05310000
16.34900000 -38.01520000 47.05060000
-46.35500000 -25.69210000 45.56290000
-45.49350000 75.38860000 -2.47580000
-65.43350000 55.63610000 2.08210000
-65.86490000 59.01190000 0.86610000
-66.19980000 53.91250000 0.51460000
7.42240000 -31.30330000 47.45600000
-47.47250000 -22.33400000 43.44020000
-48.21420000 -21.23850000 41.01710000
25.74430000 -6.76560000 14.28120000
26.28410000 -6.98890000 19.56530000
27.17330000 -8.15470000 11.11740000
-47.61810000 -21.22060000 42.00740000
0.99430000 -89.88710000 27.68120000
3.47610000 -90.85980000 26.74660000
10.00320000 75.82780000 -8.55770000
30.66590000 -44.10330000 45.46800000
-5.92320000 79.71170000 -19.82200000
0.14580000 79.23520000 -19.80880000
-43.56020000 -69.30650000 -8.62370000
27.31880000 -8.45510000 13.62540000
47.13850000 76.00750000 -4.06440000
39.95790000 -50.11160000 -42.55290000
7.56240000 -91.17670000 22.91740000
-63.91360000 52.75520000 4.72800000
-63.39710000 56.26400000 5.58210000
7.29400000 -90.17370000 21.45260000
-29.47870000 -79.29100000 -30.00870000
-27.92350000 -75.96530000 -31.65590000
9.90960000 -90.02370000 20.74230000
-21.21450000 -89.66110000 26.02200000
48.39230000 76.59980000 -2.92520000
15.83360000 -91.53940000 17.79760000
15.09300000 -91.31390000 15.74320000
7.05640000 22.01560000 11.92600000
-1.64900000 20.79530000 12.31530000
5.71080000 19.17860000 12.46440000
27.70890000 -8.79920000 18.88880000
27.31250000 -7.98890000 21.84860000
-16.34060000 -90.36390000 21.86530000
-57.40340000 -14.48240000 -2.32300000
2.99350000 -25.71420000 46.83490000
49.46340000 76.70560000 -2.50000000
-17.62940000 -89.04100000 20.25080000
-36.17190000 70.28850000 -4.19420000
-17.64940000 -88.63950000 19.28010000
20.20840000 -91.55730000 12.19150000
-50.67510000 -16.79660000 -6.88040000
-49.71810000 -16.35110000 -5.84970000
-14.04540000 -89.00540000 20.01020000
-16.23540000 -88.68260000 18.45150000
-8.72730000 78.80350000 -16.93410000
-5.04250000 76.60170000 -16.20410000
50.81160000 73.08110000 -2.22380000
-48.72330000 -16.88110000 -5.95410000
-59.32820000 47.24980000 5.08580000
-0.16690000 -90.42830000 -15.97430000
-1.19540000 -90.78820000 -17.08190000
-0.23850000 -90.88460000 -18.40280000
-3.08040000 -90.17690000 -16.76060000
-36.90110000 71.14820000 -3.90030000
2.68400000 -90.59310000 -19.95830000
-24.07500000 -81.40330000 -28.71880000
30.66560000 -12.46850000 21.93240000
29.26160000 -11.46890000 18.06910000
28.69200000 -10.45150000 21.87170000
-34.75190000 68.29570000 -5.01630000
10.12520000 -90.51190000 -27.22860000
-59.78800000 51.61260000 5.64390000
-60.34560000 50.64350000 5.95750000
-59.73170000 44.84860000 5.70450000
19.65790000 91.96040000 3.02400000
19.15130000 92.32200000 3.65410000
29.42410000 -11.42350000 22.94690000
18.73720000 92.34220000 4.38390000
-34.74660000 -9.14690000 -30.87570000
43.69990000 -42.68850000 -13.40960000
-0.86140000 -12.70230000 32.65660000
19.12830000 92.30670000 2.45360000
18.51320000 92.26300000 2.96690000
-61.64080000 37.94710000 -8.10830000
-35.50370000 68.74220000 -2.29890000
19.84510000 91.05630000 1.65470000
-7.93880000 -8.38360000 29.73760000
-59.47100000 36.90840000 -8.45630000
32.69140000 -14.62310000 21.76270000
-59.89040000 37.26890000 -8.57460000
-1.41170000 73.49460000 -17.80780000
17.76040000 91.79830000 5.68330000
17.74230000 91.82140000 0.96110000
9.34960000 71.72030000 -3.21610000
-17.21170000 34.11120000 -15.51920000
46.94700000 -18.33450000 8.17830000
48.71370000 -8.58080000 7.27390000
47.01780000 -11.67390000 7.79890000
-12.51060000 -3.56060000 23.63850000
45.29350000 -16.21200000 8.29330000
-15.17400000 42.95660000 -15.74900000
49.77700000 -12.45570000 7.24330000
-46.26440000 75.23030000 -0.95470000
-49.15140000 74.60920000 -0.53670000
-9.16310000 -2.36820000 22.10680000
-8.70710000 -0.82750000 20.68040000
-17.77140000 32.20100000 -13.87800000
-17.47970000 38.43160000 -13.51070000
-17.36050000 38.91400000 -14.50370000
-17.44500000 3.90070000 18.32450000
-50.59250000 -7.16240000 1.43840000
-10.87000000 2.10320000 18.96340000
50.46420000 -13.45220000 6.80760000
48.15580000 -21.12550000 7.84870000
