7.06130000 -45.01260000 6.81450000
-9.65290000 -31.79390000 -3.75190000
-1.22570000 2.79790000 -0.36990000
6.29460000 -44.34340000 8.00760000
7.09130000 -44.79870000 8.44080000
-10.26700000 -30.56610000 -6.15700000
-0.30030000 2.45530000 6.53690000
8.19120000 -45.05010000 9.20110000
-7.20190000 -0.06840000 -6.00940000
-5.49220000 1.00310000 -4.07100000
-7.24630000 -0.18970000 -1.91350000
-5.66680000 0.63580000 -1.14750000
7.06890000 -44.55120000 9.36530000
7.96290000 -44.37460000 10.88100000
-3.86430000 1.70920000 -2.64270000
10.25730000 -45.95350000 7.85250000
10.26230000 -44.94710000 11.03290000
13.69580000 -45.56670000 10.91760000
4.40780000 -44.33250000 0.48550000
3.81100000 -43.76210000 0.65160000
5.13040000 -44.50290000 3.29880000
6.17530000 -45.01780000 4.39130000
5.78140000 -45.11290000 1.99820000
-4.13540000 1.91750000 -5.26090000
-1.07570000 2.97840000 -3.86520000
-2.18840000 2.57670000 -6.80270000
-4.51840000 1.54980000 -7.43970000
7.68390000 -45.65330000 4.09780000
6.71530000 -45.81030000 0.23920000
10.49840000 -46.68570000 2.71100000
0.37630000 3.32800000 -7.89070000
5.01320000 -45.05790000 -1.09060000
15.41650000 -46.94590000 7.98060000
14.71150000 -47.29310000 5.29400000
12.35880000 -46.99150000 2.16040000
17.11490000 -47.07880000 1.56740000
12.43070000 -43.53440000 13.96920000
16.25910000 -45.02440000 13.02080000
13.95450000 -43.19750000 15.18100000
15.47410000 -43.37340000 15.40460000
15.64180000 -44.18810000 14.40180000
18.30000000 -44.51150000 14.82180000
19.73220000 -45.50040000 12.50970000
17.50490000 -46.16500000 10.63440000
-32.18870000 -7.42340000 -3.92920000
-30.32890000 -7.74330000 -2.83780000
-32.33950000 -7.17130000 -2.60010000
23.34680000 -45.25590000 11.59000000
21.62690000 -44.63960000 13.99380000
35.11730000 0.34790000 -1.28620000
35.01570000 0.14110000 2.31610000
34.39190000 1.12100000 0.43230000
24.39990000 -43.94170000 13.15790000
32.34440000 2.73890000 -0.60670000
33.39460000 1.64000000 1.86620000
31.44060000 2.81750000 3.14840000
33.77360000 1.71160000 -1.17980000
18.72330000 -46.77160000 8.57420000
31.57300000 2.95750000 -2.57780000
30.69250000 3.62590000 -1.08700000
30.39070000 3.33750000 -4.74650000
32.63410000 2.26920000 -3.77830000
34.29300000 1.12920000 -3.68560000
31.97020000 2.44060000 -7.68880000
33.78380000 1.44510000 -5.95110000
35.43830000 -0.24060000 -4.40050000
34.81380000 0.65160000 -5.49420000
-7.48400000 -33.16790000 -6.49080000
-7.68740000 -33.72070000 -3.54580000
-5.96440000 -35.18680000 -4.38250000
-8.90800000 -30.41750000 -8.79500000
-6.29170000 -32.56130000 -10.26090000
28.33770000 -27.05490000 21.05790000
27.64410000 -30.46790000 19.34650000
26.10420000 -29.65260000 21.34730000
29.63240000 -28.44380000 18.98620000
25.21390000 -32.66220000 19.69210000
1.93130000 -28.70150000 21.37720000
26.75630000 -33.36810000 18.06700000
7.66390000 -23.61090000 26.48670000
-6.48170000 -34.98720000 -1.09280000
12.26050000 -22.38120000 28.03190000
29.67760000 -31.43050000 17.00280000
5.34110000 -26.95790000 24.17730000
-4.67060000 -35.30240000 -7.80930000
-4.56380000 -36.56130000 -4.54790000
-5.03580000 -36.36520000 -2.49130000
-3.87380000 -37.55500000 -2.52130000
31.86710000 -29.96530000 16.02720000
31.58150000 -27.71820000 17.68520000
-2.68020000 -38.47860000 -2.61050000
-3.15970000 -38.41070000 -0.24050000
27.82590000 -34.67850000 16.39460000
35.77300000 -27.07270000 12.65230000
35.02610000 -28.43100000 13.12240000
35.37730000 -26.83710000 14.06890000
35.22710000 -28.68100000 12.32350000
35.55100000 -28.23840000 11.89430000
4.68070000 -30.79690000 21.60080000
34.30070000 -30.05980000 12.98420000
34.50370000 -28.49590000 14.09330000
34.84630000 -29.28620000 12.61650000
10.13120000 -26.74190000 25.37150000
33.83450000 -30.01330000 13.91780000
-3.06020000 -37.39220000 -5.24520000
28.69810000 -36.36070000 14.61380000
29.22220000 -36.84590000 13.68360000
27.61050000 -37.62200000 14.72080000
29.62570000 -35.70580000 14.16220000
2.67750000 -43.10370000 -2.94300000
3.76280000 -44.29290000 -3.80920000
2.54180000 -42.91000000 -7.07180000
34.34520000 -2.02970000 -13.69670000
32.65000000 0.11450000 -14.93930000
33.62710000 -2.85050000 -16.17490000
27.97440000 -40.87720000 12.02500000
27.31150000 -42.36960000 11.40050000
26.22120000 -42.46460000 12.90780000
34.99350000 -4.25380000 -14.81390000
35.52880000 -3.76610000 -12.40110000
34.95770000 -1.62900000 -11.43440000
35.65590000 -2.56440000 -10.64840000
36.10330000 -3.85180000 -10.51180000
34.60570000 -4.90550000 -16.40060000
35.17260000 -5.16960000 -15.63780000
35.46080000 -5.51140000 -15.14740000
35.73110000 -5.68390000 -13.94120000
-4.31280000 -24.46350000 16.91190000
35.29900000 -6.02530000 -16.00200000
35.69640000 -6.41380000 -15.11360000
-2.50170000 -28.13750000 16.33740000
34.71450000 -6.09990000 -17.04790000
-0.15150000 -29.49230000 18.36690000
-3.06260000 -30.26930000 13.64560000
-1.24490000 -31.06540000 15.59550000
-2.03260000 -32.81490000 13.08240000
1.37510000 -30.95350000 19.03130000
-1.89560000 -39.31670000 -0.21410000
-1.62730000 -39.04520000 -2.88820000
-1.00380000 -39.66430000 -1.42850000
-0.73640000 -39.48560000 -3.56120000
34.69030000 -7.43370000 -17.60100000
35.24190000 -6.97640000 -16.59530000
35.48090000 -8.22540000 -16.36050000
35.61750000 -7.08090000 -15.75660000
9.15210000 -10.85930000 28.64690000
13.00170000 -14.56450000 29.58350000
9.22390000 -14.17700000 29.36350000
9.16420000 -15.51670000 29.23220000
12.84450000 -17.09080000 29.53900000
34.29530000 -10.07080000 -18.94930000
34.91510000 -9.81320000 -17.75140000
33.81470000 -8.36300000 -19.11570000
1.82510000 -42.36180000 -4.90190000
1.62060000 -42.03730000 -4.87090000
1.73240000 -42.18290000 -4.03710000
1.73230000 -41.95670000 -6.14310000
16.41380000 -15.98560000 29.67750000
17.97640000 -13.18780000 29.55470000
0.29640000 -40.01220000 -5.11300000
-0.00170000 -40.26680000 -1.15330000
1.26100000 -41.24570000 -1.10990000
2.03080000 -42.27560000 -2.24450000
1.38360000 -41.51460000 -4.42030000
15.08700000 -20.06270000 28.95980000
33.99080000 1.11250000 -8.14550000
35.31650000 -0.25380000 -6.42450000
35.77500000 -1.09010000 -5.95680000
35.75090000 -1.14850000 -7.02390000
18.58550000 -16.62360000 29.29270000
-31.96360000 -8.23620000 -5.75090000
-30.52640000 -7.71750000 -4.39900000
-28.93510000 -8.46230000 -5.35940000
-29.37240000 -8.99240000 -6.70330000
1.25140000 -40.67490000 -7.44800000
34.70510000 0.55550000 -6.92630000
35.10310000 -0.05410000 -7.33000000
34.85920000 0.05130000 -8.15240000
35.43470000 -0.67170000 -7.79170000
20.54160000 -18.79240000 28.35690000
19.55120000 -23.01610000 27.25970000
-2.08600000 -38.33720000 -4.42980000
-1.35640000 -38.73870000 -4.98830000
-0.72170000 -39.08740000 -5.74850000
35.19550000 -0.68520000 -8.84620000
21.09010000 -15.09050000 28.93710000
21.88520000 -12.46710000 28.60990000
34.53720000 -0.13600000 -9.82930000
35.84980000 -1.56360000 -8.00430000
-1.86000000 -37.98850000 -6.28630000
34.32720000 -11.54930000 -18.73650000
-1.22560000 -38.48250000 -6.85590000
3.60760000 -44.67220000 -8.42750000
23.63830000 -14.70550000 28.19740000
4.06560000 -44.80180000 -5.70180000
33.26110000 1.47060000 -10.29090000
22.86460000 -17.97310000 27.82630000
26.10920000 -13.85030000 27.19950000
26.88140000 -16.38520000 26.70710000
35.35020000 -1.43410000 -9.74500000
24.41980000 -18.35590000 27.50260000
35.62960000 -1.38430000 -8.66590000
35.91800000 -2.37690000 -8.98510000
33.83290000 -0.10710000 -12.11660000
35.86120000 -1.72180000 -8.57210000
-3.88550000 -33.44440000 -12.07530000
-5.68450000 -31.42260000 -13.17980000
-2.27280000 -34.81450000 -12.99990000
-2.74900000 -35.39740000 -10.54260000
23.81640000 -22.58700000 26.41490000
35.08710000 -12.85710000 -17.45760000
34.37380000 -13.90130000 -18.68680000
34.71920000 -14.74160000 -18.21600000
-2.34580000 -36.91180000 -8.18220000
2.53880000 -0.63160000 17.36680000
0.71920000 -0.21960000 15.11150000
3.58980000 1.29150000 15.26310000
5.56460000 0.17250000 18.29900000
15.55940000 -26.41550000 26.39620000
7.04720000 1.99510000 16.49050000
-0.67210000 -0.25100000 13.73230000
0.29900000 0.86210000 12.52980000
-2.71870000 -33.37920000 -14.37660000
16.97010000 -24.76400000 27.16170000
-1.80580000 -34.40270000 -15.03630000
-1.60250000 -35.25660000 -13.97560000
2.44770000 2.37050000 12.42700000
19.91130000 -27.42720000 25.30390000
-1.53670000 -35.57680000 -12.76810000
-1.80610000 -35.64190000 -11.67260000
-1.69000000 -36.27560000 -10.22910000
-30.16440000 -11.43770000 -8.85450000
-32.50440000 -11.36810000 -8.42880000
-30.40250000 -12.54590000 -9.26870000
-0.88400000 -36.30870000 -11.41040000
-1.20930000 -37.51280000 -9.14540000
-31.07220000 -9.19160000 -7.31210000
-31.30740000 -10.17360000 -8.13450000
-27.71440000 -10.71750000 -8.22060000
-0.82980000 -35.65690000 -13.31960000
8.53480000 1.20740000 18.70640000
14.09750000 -29.76230000 24.39920000
-0.34110000 -36.07610000 -12.30130000
0.06510000 -35.98340000 -12.80810000
-27.13230000 -13.24240000 -9.49210000
11.01820000 3.09280000 17.42770000
18.59900000 -31.33010000 23.10690000
10.59180000 0.63170000 21.07670000
5.36800000 2.83800000 14.15530000
7.91630000 2.91020000 15.07830000
1.96170000 -39.79570000 -11.06080000
1.82550000 -41.47750000 -8.56990000
-33.76450000 -12.98500000 -7.94370000
-31.51050000 -13.07970000 -9.08130000
28.45320000 -18.36800000 25.24890000
26.18150000 -24.70520000 24.19630000
-30.21020000 -14.61690000 -9.01580000
-32.12620000 -15.98860000 -7.90590000
14.61310000 2.67900000 18.11370000
16.54760000 2.05920000 19.26220000
13.51690000 1.51560000 20.29440000
16.08030000 0.55430000 21.72780000
23.25430000 -28.90080000 23.58530000
18.16890000 1.24160000 20.49370000
19.50670000 2.38180000 18.35810000
20.82450000 0.90630000 20.58240000
18.31550000 2.76950000 16.15910000
2.27250000 -41.67600000 -11.07490000
3.26350000 -43.55530000 -12.10960000
3.95470000 -40.27290000 -14.35130000
21.28100000 2.82990000 16.31390000
22.02580000 1.98980000 17.71940000
-32.19050000 -17.64040000 2.49370000
-35.99750000 -15.60880000 1.36810000
-33.89810000 -14.79960000 2.95250000
24.01870000 0.93420000 18.52040000
24.26140000 2.15370000 15.02850000
27.53020000 0.39190000 15.86100000
25.97210000 -0.05320000 19.84540000
28.56490000 -1.60100000 19.14710000
-1.55850000 -37.93980000 -7.74070000
2.03970000 2.58250000 10.23790000
0.11040000 1.84930000 9.40770000
0.91870000 2.52410000 8.68400000
-0.56590000 -38.61610000 -8.09240000
-1.19210000 -38.26660000 -8.00530000
3.52720000 -44.72740000 -11.69340000
28.56470000 -4.27770000 21.37370000
26.41910000 -4.90620000 24.02960000
25.85140000 -2.37410000 22.61410000
28.75650000 -7.47760000 23.41460000
29.85220000 -0.88140000 16.67940000
30.31410000 -2.15970000 17.57630000
0.58200000 -39.05140000 -9.34010000
30.35770000 -3.56460000 18.73610000
1.18190000 -37.58690000 -12.15930000
30.97140000 -6.12520000 19.88490000
0.00620000 -38.08270000 -10.03390000
-0.45830000 -37.55390000 -10.05380000
0.06430000 -36.78490000 -11.40450000
31.16290000 -2.98640000 17.30860000
0.56770000 -37.61520000 -11.01500000
0.62750000 -36.58010000 -12.15130000
3.44000000 -45.23350000 -11.66360000
4.76870000 -45.67960000 -10.57640000
5.30240000 -44.85970000 -14.04640000
24.67350000 -7.84260000 26.24500000
27.19610000 -11.05510000 25.69280000
31.29010000 -31.86110000 15.37090000
30.42790000 -32.48430000 15.73940000
32.42030000 -30.94490000 14.92280000
32.89460000 -29.68870000 15.23330000
32.17520000 -9.83870000 20.52520000
30.38680000 -11.63900000 23.23200000
33.22040000 -30.39230000 14.45700000
32.20260000 -32.11350000 14.40130000
32.93750000 -31.49960000 14.08590000
33.67550000 -29.06200000 14.79260000
-30.69450000 -19.64650000 -4.07640000
-35.17730000 -16.93430000 -3.66940000
-33.47180000 -18.90410000 -2.76710000
-32.55550000 -17.82110000 -5.80710000
29.13550000 -14.59250000 25.03330000
33.44130000 -30.98840000 13.83150000
33.74830000 -30.93030000 13.37910000
33.76850000 -31.35240000 12.85370000
33.29510000 -31.54840000 13.68240000
33.49710000 -31.39280000 13.50370000
33.13230000 -31.98710000 13.57950000
33.53330000 -31.62340000 13.21060000
33.37170000 -31.74460000 13.44390000
32.13550000 -14.44590000 22.88390000
32.71460000 -32.33790000 13.77220000
33.00790000 -32.33880000 13.46480000
33.77030000 -31.89740000 11.86930000
33.39390000 -32.12380000 12.83910000
29.86980000 -33.59630000 15.47330000
29.06560000 -35.22780000 15.06460000
30.80080000 -32.94490000 15.12980000
31.53800000 -33.00850000 14.40180000
32.73850000 -12.74760000 21.45760000
30.35860000 -34.55280000 14.31970000
30.69070000 -35.40720000 13.11560000
32.24680000 -35.06170000 10.93540000
31.87580000 -34.19650000 12.78210000
-35.09350000 -14.76560000 -6.05760000
33.98580000 -12.74820000 19.71100000
32.19780000 -32.86590000 13.88860000
34.01210000 -15.39800000 20.50660000
22.04540000 3.03690000 14.87460000
-26.44390000 -11.59360000 1.82950000
-29.46910000 -10.73100000 2.68230000
-28.25020000 -10.37490000 1.54760000
24.66480000 2.88060000 12.76850000
33.16000000 -32.21510000 13.37760000
32.81790000 -32.63270000 13.40580000
-31.54170000 -11.34170000 3.93390000
-28.29130000 -12.88040000 3.72090000
33.11740000 -32.38710000 13.21640000
33.30430000 -32.04010000 13.27270000
30.76750000 -33.61580000 14.68850000
31.17170000 -33.83530000 14.13070000
31.86120000 -33.50010000 13.65310000
31.88500000 -33.15210000 13.97790000
31.89550000 -17.19000000 22.97410000
25.41220000 2.57440000 12.73720000
31.21500000 -34.33140000 13.60070000
-29.86030000 -13.23750000 3.99230000
32.57120000 -32.74080000 13.61820000
27.06460000 2.16480000 11.76410000
32.47680000 -33.01910000 13.42440000
32.90220000 -32.81040000 12.96540000
33.22460000 -32.57130000 12.50500000
30.14420000 0.63260000 11.69480000
-25.31460000 -13.00630000 2.63090000
29.34030000 2.07730000 9.05260000
32.75430000 -33.34870000 12.34910000
32.39350000 -33.40180000 13.03380000
31.50810000 -19.75020000 22.56540000
28.77880000 -22.86720000 23.14370000
28.23580000 2.89000000 8.45740000
25.62560000 3.43000000 9.70820000
25.73460000 2.83450000 11.70370000
-4.08290000 -13.41590000 22.71650000
-7.26670000 -14.67270000 19.58890000
-5.29660000 -10.98830000 21.03620000
-5.32830000 -7.55530000 19.76710000
-7.74860000 -10.80350000 18.51490000
33.66350000 -19.13600000 20.03980000
31.10870000 -22.60380000 21.18290000
32.67810000 -22.75760000 19.53560000
-9.41630000 -4.13930000 10.70220000
-7.17620000 -4.51300000 15.25890000
-8.75670000 -6.46350000 14.96180000
-10.15770000 -6.32390000 11.91800000
-4.76180000 -3.47460000 16.70180000
-5.92780000 -5.80760000 17.90670000
30.17440000 -36.99370000 12.30850000
30.75380000 -25.32620000 19.92640000
-3.58090000 -1.61620000 13.64880000
-7.44420000 -2.40290000 11.36700000
-0.85600000 -1.92850000 16.87470000
-29.23520000 -13.81590000 -9.49590000
-22.75630000 -11.33170000 -8.28590000
-25.83990000 -9.80290000 -6.51360000
-21.26040000 -11.11920000 -6.81140000
28.96120000 -41.66210000 9.73950000
27.12690000 -43.24470000 10.41080000
31.37710000 -1.99270000 15.80370000
30.35190000 -0.42410000 14.31880000
-27.53900000 -14.30930000 -9.65430000
-5.51690000 -0.93340000 9.17190000
-27.79010000 -14.95850000 -9.52130000
-25.79230000 -15.15010000 -9.75510000
-1.58670000 -0.95510000 14.21460000
-23.07360000 -15.07880000 -10.09020000
-21.78950000 -13.32790000 -9.77390000
32.38520000 -4.39950000 16.94920000
29.43630000 3.25840000 6.28460000
29.99150000 2.82600000 6.35980000
32.91850000 -2.80690000 14.60520000
30.31920000 3.46330000 4.46700000
-1.12960000 -34.22200000 -16.83300000
-1.08370000 -33.93570000 -18.55670000
-1.98310000 -32.65460000 -18.35920000
-0.48180000 -35.04090000 -18.01220000
-19.21620000 -12.37940000 -8.06980000
-15.57260000 -12.82770000 -8.45160000
-17.15480000 -11.66800000 -6.43240000
-14.54900000 -11.58940000 -7.07870000
-12.18060000 -12.04660000 -8.48130000
30.59660000 -44.22450000 1.49630000
31.92610000 -41.08240000 3.32820000
-19.16790000 -16.04160000 -10.77200000
32.14710000 -0.83860000 12.86710000
30.89190000 -0.18040000 12.95920000
1.57400000 -36.17760000 -16.61490000
1.52880000 -36.84010000 -18.93310000
0.77810000 -35.89130000 -17.37610000
-10.21710000 -13.44100000 15.24170000
-11.61310000 -13.06080000 12.51970000
-11.22590000 -10.41090000 12.96490000
0.16180000 -35.88190000 -18.41740000
-0.11220000 -35.54530000 -17.17750000
-12.69340000 -12.29390000 8.30090000
0.75990000 -35.56980000 -15.93350000
30.63350000 3.99670000 2.15940000
34.36490000 -4.48610000 14.60490000
34.10080000 -2.52380000 12.65680000
-10.95580000 -14.83530000 10.28920000
1.89200000 -36.25200000 -15.19820000
2.52490000 -37.70040000 -15.63150000
-13.03330000 -10.60740000 7.38520000
-11.55980000 -8.93680000 10.98600000
-17.04260000 -14.56740000 -10.08480000
33.86510000 -1.08740000 10.75250000
-8.98460000 -8.49650000 15.89050000
33.29900000 -7.51900000 17.98000000
34.06640000 -6.11420000 16.22900000
-13.39000000 -14.58850000 -10.60630000
-14.81330000 -15.70640000 -11.32590000
1.45420000 -35.90110000 -20.49750000
1.41920000 -35.51460000 -20.65780000
1.33070000 -36.05320000 -20.21880000
1.72910000 -36.10490000 -20.46380000
-11.14090000 -5.07170000 -8.74840000
-8.94450000 -4.50590000 -13.21520000
-8.57130000 -2.35300000 -11.30070000
-7.50890000 -0.61610000 -9.37250000
-9.73060000 -2.28630000 -7.20340000
0.89920000 -34.65720000 -20.66330000
0.33290000 -34.84440000 -20.04170000
0.89860000 -35.63060000 -20.07600000
-0.39440000 -34.55130000 -19.40800000
-0.87680000 -32.92910000 -19.66500000
0.14730000 -33.75800000 -20.37980000
0.98550000 -33.58390000 -21.08560000
0.26010000 -35.61850000 -19.43830000
-0.20930000 -35.34290000 -18.91740000
1.90010000 -34.59660000 -21.28120000
2.06050000 -35.58890000 -20.93560000
2.31330000 -35.99080000 -20.83640000
3.09990000 -35.70110000 -21.22380000
1.95880000 -32.91740000 -21.85210000
-11.67100000 -8.13260000 -8.49410000
-12.74890000 -7.51290000 -5.99280000
-11.96180000 -9.22280000 -7.29580000
3.27350000 -34.17170000 -21.96650000
-10.50490000 -5.85600000 -11.45620000
-32.89650000 -12.31160000 3.26870000
-11.50220000 -7.15520000 -10.12580000
-10.91920000 -9.82770000 -9.82710000
-27.94130000 -15.49290000 3.89030000
-10.87130000 -8.84990000 -11.88260000
36.31000000 -6.14840000 13.36350000
36.51300000 -5.78980000 12.35510000
36.77300000 -6.85750000 12.77400000
-27.32490000 -14.42490000 3.89710000
-24.43410000 -14.94270000 3.50680000
-1.10430000 -35.21380000 -15.31310000
-25.53550000 -15.57150000 3.83830000
-6.72850000 -2.39080000 -14.67610000
35.16470000 -3.85690000 12.85910000
35.37120000 -4.80200000 13.68940000
35.95440000 -4.90470000 12.75280000
-6.06160000 0.58060000 -8.27710000
-4.89420000 -0.39260000 -14.48120000
-0.67600000 -35.17100000 -16.75780000
-4.89240000 0.90170000 -10.43180000
-3.32230000 -16.01260000 23.52830000
-5.66910000 -17.96660000 21.63640000
-10.13670000 -7.97800000 -13.79100000
35.10460000 -6.31540000 15.16670000
-0.82410000 1.57040000 -14.16290000
36.51940000 -7.79150000 13.87810000
0.11560000 -35.53690000 -14.34920000
1.25720000 -36.18550000 -14.04050000
-4.27050000 -31.92170000 10.43330000
-7.34740000 -28.89110000 7.73150000
-5.37760000 -27.44320000 12.85020000
-0.35750000 -35.28110000 -16.07220000
34.90760000 -8.01440000 16.25210000
-12.89400000 -10.33140000 -6.35760000
-11.83510000 -10.45720000 -7.51870000
-3.56950000 -18.98330000 23.14620000
-11.38470000 -9.96390000 -8.31600000
2.26830000 3.98770000 -7.38900000
-7.47380000 -17.30170000 19.67620000
-7.08850000 -18.84910000 20.01120000
35.87020000 -6.42340000 14.30320000
35.75720000 -7.62710000 15.01010000
-9.24050000 -19.18860000 16.18200000
-6.90350000 -22.05380000 18.44470000
35.36100000 -5.45450000 14.34550000
35.81530000 -5.50590000 13.72690000
-5.94610000 -33.26260000 7.13840000
-11.18990000 -12.57210000 -12.24330000
-10.03260000 -15.91270000 12.35720000
-1.59550000 1.99320000 -10.29830000
2.02910000 -37.82830000 -13.72320000
-9.58600000 -17.03250000 16.09960000
-10.06730000 -11.78350000 -15.41860000
-9.72660000 -19.04220000 11.08050000
-2.38660000 -34.96110000 10.88190000
1.09550000 3.25020000 -10.54960000
2.78450000 4.27300000 -10.04700000
-10.58990000 -16.61460000 9.54940000
6.33840000 -42.92410000 -16.75870000
-3.81630000 -35.81240000 7.75710000
-9.89320000 -21.27110000 13.38020000
-10.62290000 -20.44790000 10.38290000
-11.02540000 -18.15480000 9.05540000
5.03000000 -45.33870000 -4.87480000
-12.89990000 -17.04770000 -12.05310000
7.12800000 -46.06280000 -3.04050000
-9.40720000 -24.58770000 10.85580000
-6.30850000 -31.59320000 5.04260000
-3.55240000 -2.09330000 -18.43620000
-11.36230000 -21.73390000 8.09810000
-8.04810000 -28.20290000 5.59630000
34.75780000 -10.92360000 17.66680000
-7.25180000 -31.50250000 2.90090000
-5.13570000 -4.46630000 -18.73460000
-5.47920000 -35.57310000 3.43860000
0.31240000 2.49290000 -12.24250000
37.07040000 -11.06650000 13.94190000
36.73150000 -13.75790000 15.54090000
36.13480000 -9.76950000 15.21960000
-7.09760000 -5.49080000 -17.25290000
2.51100000 2.94360000 -13.84440000
-8.80280000 -7.56930000 -15.84710000
5.13810000 -40.71100000 -17.90950000
7.19260000 -41.48070000 -18.98690000
6.03710000 -45.88860000 -6.61200000
-8.58440000 -9.70890000 -17.36980000
-5.68890000 -7.56250000 -19.99740000
8.40250000 -45.88490000 -7.14980000
6.15210000 -40.40300000 -19.41060000
35.39790000 -15.09950000 18.04210000
36.42930000 -17.15660000 16.17430000
2.96880000 -39.12190000 -13.50120000
1.92930000 2.34120000 -15.36030000
34.89250000 -17.52930000 18.81040000
35.76630000 -18.57590000 17.20830000
0.68760000 -36.16200000 -13.12950000
2.46620000 1.92530000 -17.21000000
3.84710000 2.71190000 -16.08960000
37.09800000 -17.45130000 14.71400000
-3.10960000 -5.75200000 -21.55830000
-7.04630000 -23.94500000 14.28750000
11.88090000 -46.30630000 -5.09770000
14.38650000 -46.85180000 -0.49930000
-3.47510000 -9.91260000 -22.95650000
-0.60900000 0.29200000 -18.67710000
15.59080000 -47.13940000 -0.07050000
16.35740000 -46.75110000 -1.75810000
6.79500000 2.62920000 -18.49440000
7.48900000 -40.52610000 -20.04230000
-1.61490000 -0.95010000 -19.30090000
-9.10960000 -14.90510000 -17.78100000
3.08270000 0.19390000 -21.43840000
4.09310000 1.42190000 -19.90270000
-9.68420000 -15.08550000 -14.95290000
-0.02400000 -2.10560000 -21.61490000
-11.10410000 -15.75090000 -12.97980000
14.58310000 -46.38090000 -6.07390000
-10.85430000 -17.45350000 -13.17190000
-9.69630000 -16.88040000 -14.26720000
-8.49710000 -17.64780000 -16.39310000
9.13080000 -42.60390000 -18.99070000
34.73410000 -2.06330000 11.05730000
35.17110000 -2.92280000 11.62960000
35.39410000 -2.49600000 10.46420000
2.55770000 -36.51430000 -20.47070000
4.45820000 -37.66020000 -20.48670000
35.64920000 -3.08100000 10.97320000
35.77300000 -3.77810000 11.63230000
5.45000000 -35.31030000 -22.16950000
6.79950000 -37.27510000 -21.69160000
-6.75540000 -13.66010000 -20.81160000
-6.01220000 -10.27540000 -20.56970000
36.37530000 -4.82660000 11.34490000
2.62870000 -2.01490000 -23.21740000
36.04330000 -3.40830000 10.03180000
6.92680000 -38.53290000 -21.14440000
18.59060000 -46.70330000 -3.84700000
-7.00620000 -16.14540000 -20.77560000
5.86770000 -0.51790000 -23.50090000
-4.91110000 -16.32640000 -22.73060000
4.16270000 -32.30310000 -23.02450000
-7.58220000 -17.92690000 -19.64390000
-5.94730000 -19.13200000 -20.97560000
-26.05570000 -16.71530000 -9.25430000
8.10440000 -33.50070000 -23.79490000
6.67460000 -45.73320000 -10.83530000
7.31040000 -45.27680000 -13.13650000
12.07250000 -45.82420000 -9.12270000
8.56790000 -36.47090000 -22.60570000
-32.54320000 -8.79160000 1.55300000
-29.85840000 -8.69980000 -0.31160000
-29.87190000 -9.40410000 1.22190000
-27.99050000 -9.87730000 0.41330000
-23.10270000 -16.40050000 -9.98540000
-31.90910000 -7.53270000 -1.08990000
-30.17050000 -8.06490000 -1.51550000
-28.30230000 -8.77590000 -1.98260000
-22.06730000 -17.80960000 -9.85130000
11.02170000 -45.34960000 -13.17760000
-27.23710000 -9.71210000 -0.89130000
8.77180000 -38.33120000 -21.82900000
-26.06360000 -9.90710000 -2.06480000
-26.29280000 -18.49600000 -8.22610000
-28.04770000 -8.49610000 -3.30090000
-28.21830000 -19.01080000 -6.91570000
-26.42690000 -9.39660000 -3.07840000
-27.87870000 -18.42490000 -7.70990000
-26.57860000 -18.93160000 -7.83780000
-25.89520000 -19.25440000 -7.83630000
-26.15480000 -19.86460000 -7.12030000
-26.33610000 -19.41360000 -7.50340000
-25.30580000 -20.12310000 -7.27690000
-24.83760000 -20.77140000 -6.73000000
-27.89800000 -20.23520000 -5.38230000
13.58150000 -45.61590000 -9.04720000
6.34730000 -39.45380000 -20.33630000
4.97070000 -39.56670000 -19.35260000
-26.23270000 -10.99520000 0.80620000
-21.23500000 -19.87230000 -9.18960000
16.03290000 -46.49090000 -7.24680000
15.12010000 -45.87450000 -10.02920000
-24.45690000 -20.05720000 -7.71710000
8.54500000 -39.80380000 -20.99590000
17.34300000 -46.36140000 -8.31170000
-25.90900000 -10.67730000 -0.23030000
15.35570000 -45.81420000 -12.18970000
9.44440000 -41.36020000 -20.17040000
-21.39910000 -16.22240000 -10.35640000
10.72890000 -40.61280000 -21.13040000
-20.43940000 -17.25160000 -10.43200000
11.89080000 -41.60210000 -20.70750000
-17.71380000 -18.07210000 -11.01450000
10.55310000 -39.54560000 -21.70190000
18.75870000 -46.29530000 -10.06360000
-19.70780000 -18.63250000 -10.26180000
20.93250000 -46.39310000 -7.56720000
9.05380000 -3.39830000 -26.54720000
6.64720000 -2.49160000 -25.25630000
6.37900000 -5.04630000 -26.52350000
-15.88540000 -16.82330000 -11.47770000
-13.96980000 -19.36620000 -11.79030000
22.42030000 -46.84100000 -0.32900000
-17.26720000 -20.00570000 -10.71830000
9.49660000 -5.46770000 -27.31120000
12.29980000 -7.34430000 -27.68720000
8.86850000 -7.91170000 -27.80170000
-8.31450000 -33.10750000 0.86900000
10.88680000 -2.24780000 -26.06660000
-8.72830000 -32.93270000 -1.71180000
14.07790000 -4.15110000 -27.20590000
-17.98970000 -22.76080000 -8.78830000
-16.41840000 -22.19490000 -10.13600000
5.81340000 -9.59050000 -27.61810000
23.06760000 -46.59150000 -3.88620000
25.39230000 -46.28310000 -2.31530000
-25.16080000 -10.65330000 -1.30020000
-14.57320000 -21.59900000 -11.33890000
-23.71850000 -11.52210000 -0.71750000
-24.83790000 -11.39630000 0.16300000
-24.21840000 -10.78130000 -2.29750000
-23.71610000 -11.23730000 -1.63150000
-23.30670000 -12.30200000 0.75720000
-24.65130000 -21.78660000 -5.31730000
27.13250000 -46.13560000 -0.00570000
27.34560000 -46.29760000 2.07300000
27.62530000 -46.16170000 1.22240000
28.30790000 -45.94160000 1.11050000
28.22190000 -46.04610000 3.00490000
15.78680000 -6.89560000 -27.88680000
-24.80830000 -12.50360000 1.73230000
-23.89200000 -12.94310000 1.70870000
-21.11950000 -23.27300000 -5.86320000
10.49740000 -11.09740000 -28.22440000
-4.45530000 -37.08540000 0.15380000
-4.24120000 -37.24420000 2.14190000
-22.01840000 -13.64890000 1.88000000
-21.43450000 -14.92090000 2.87150000
12.93470000 -10.44120000 -28.22780000
15.98240000 -10.50030000 -28.01730000
-16.87260000 -24.84750000 -7.42860000
-17.26840000 -25.79360000 -5.34730000
29.47870000 -45.49180000 1.87430000
-21.05220000 -21.97240000 -7.63440000
-24.84490000 -20.35010000 -7.25310000
19.10010000 -5.86790000 -27.30250000
17.98720000 -3.31980000 -26.45740000
15.49130000 -2.81770000 -26.64270000
15.81390000 -5.18740000 -27.75170000
26.12340000 -46.19060000 -3.11800000
28.29950000 -45.55600000 -1.91640000
21.69940000 -2.32560000 -25.25760000
-21.66680000 -12.06530000 -0.73520000
-22.39100000 -11.83430000 -1.13380000
29.19280000 -45.58620000 0.36320000
-22.58980000 -11.63410000 -1.57940000
24.52970000 -4.08240000 -25.14600000
-22.81810000 -11.35290000 -2.21850000
29.64170000 -45.09350000 -0.28030000
-21.56100000 -11.91600000 -1.46820000
-21.28940000 -11.64060000 -2.24650000
29.35970000 -44.19830000 -3.64870000
-19.90660000 -11.85240000 -1.55640000
-19.07600000 -12.46080000 -0.18750000
-14.53260000 -24.66590000 -9.41280000
-13.18400000 -23.68990000 -10.90400000
17.72340000 -8.12830000 -27.86600000
-19.82420000 -13.41530000 1.14050000
23.30980000 -46.60590000 -5.75110000
20.06610000 -9.20500000 -27.72650000
-18.21910000 -14.80680000 2.49040000
-11.88120000 -18.65160000 -12.58290000
-11.56080000 -17.93770000 -12.70160000
-16.52890000 -12.74810000 1.26770000
-28.86900000 -8.02470000 -4.09420000
24.61910000 -45.79950000 -7.68950000
26.47260000 -45.70080000 -5.29280000
-11.44070000 -22.37420000 -12.15020000
23.40580000 -45.64290000 -10.29830000
22.96550000 -7.82940000 -27.11410000
18.24650000 -45.51270000 -14.05170000
7.37580000 -12.81660000 -28.30690000
-13.56810000 -26.50480000 -8.24350000
26.42730000 -45.33430000 -7.24790000
9.78610000 -14.36960000 -28.47640000
6.56950000 -15.99500000 -28.50740000
-11.35200000 -28.19930000 -8.43470000
-10.87940000 -29.42350000 -7.45230000
34.52890000 -22.10780000 17.89000000
24.53570000 -45.19050000 -11.58050000
22.73110000 -45.41020000 -12.66840000
35.32220000 -22.67590000 16.81940000
34.93000000 -24.18210000 16.55300000
13.13230000 -13.56650000 -28.35790000
11.99280000 -12.12860000 -28.41240000
33.46640000 -25.25020000 17.39690000
35.00380000 -19.66660000 18.17700000
-11.98020000 -25.36910000 -10.33640000
13.59430000 -11.55320000 -28.33360000
12.41130000 -11.74940000 -28.39000000
17.42160000 -14.88420000 -27.98480000
28.09210000 -45.06840000 -4.79930000
-11.93700000 -26.53690000 -9.50740000
-10.79780000 -26.33140000 -10.36160000
27.47000000 -45.16250000 -6.23900000
-9.92040000 -27.78070000 -10.12460000
-9.88940000 -25.53430000 -11.55540000
-8.83170000 -23.78570000 -13.06070000
11.42240000 -18.44590000 -28.50700000
-7.15350000 -26.10060000 -14.71730000
28.34440000 -44.69180000 -5.68860000
-7.45600000 -29.17920000 -12.01220000
7.67900000 -21.75320000 -28.47380000
27.98930000 -44.31070000 -7.46780000
27.25720000 -44.95020000 -7.43510000
27.92580000 -44.83880000 -6.57670000
15.25200000 -17.52640000 -28.18240000
18.67550000 -19.00400000 -27.78310000
-26.36470000 -9.16970000 -4.50860000
29.51280000 -42.50230000 -8.03660000
15.65150000 -21.62220000 -27.84950000
25.94850000 -44.99310000 -9.42870000
-24.74660000 -10.08680000 -3.71990000
28.03100000 -44.95670000 -5.85130000
35.61490000 -21.18440000 16.85600000
36.60040000 -20.98910000 14.88440000
20.96660000 -12.67110000 -27.47310000
-25.03210000 -10.20010000 -2.87440000
-23.64290000 -10.73900000 -3.18870000
-10.76100000 -18.57010000 -13.14010000
-9.31990000 -18.47440000 -14.02870000
20.58830000 -16.25590000 -27.48450000
-10.36880000 -20.30880000 -13.39060000
-8.10440000 -20.01040000 -15.16860000
-24.25990000 -10.12880000 -4.43870000
-8.18190000 -22.67300000 -15.26970000
-22.61520000 -10.79080000 -4.11630000
35.78210000 -23.21930000 15.93820000
23.15110000 -15.52020000 -26.89230000
22.47990000 -19.04610000 -26.62170000
-9.58720000 -22.30540000 -13.34740000
9.78490000 -44.60420000 -17.25230000
-7.13340000 -21.33760000 -18.26110000
-23.27040000 -10.37130000 -5.29300000
-3.36850000 -37.60580000 4.90790000
-6.33150000 -24.32610000 -17.82150000
-3.03660000 -38.36530000 3.27830000
-2.23400000 -38.95480000 4.46780000
13.89520000 -45.22310000 -15.66460000
-3.83540000 -37.56290000 3.13300000
-3.48210000 -38.07670000 1.76040000
-2.51890000 -38.97900000 2.01790000
9.81930000 -43.61320000 -18.42230000
-22.99360000 -11.14620000 -2.75990000
-22.18780000 -11.19690000 -3.28040000
-22.06000000 -11.41770000 -2.72780000
31.79820000 -3.57660000 -19.68360000
31.35740000 -1.35840000 -18.41540000
30.47470000 -2.21120000 -19.80120000
-21.10890000 -11.41900000 -3.01410000
10.87870000 -43.36070000 -19.22680000
32.21790000 -25.31870000 18.57210000
-19.44710000 -11.38140000 -3.04960000
30.23600000 -3.16720000 -20.90950000
-20.98030000 -11.23000000 -3.70720000
13.67770000 -44.12510000 -18.56850000
31.46220000 -5.45090000 -20.90910000
33.31900000 -5.18340000 -18.41850000
32.87110000 -6.87990000 -19.91510000
-4.33860000 -23.99310000 -20.16330000
-4.67520000 -27.87410000 -17.59440000
-16.78040000 -11.25680000 -1.62210000
-15.85270000 -11.39660000 -0.35370000
-20.03770000 -11.14610000 -5.02580000
-16.69250000 -10.89060000 -4.14860000
-15.02760000 -10.11430000 -2.47050000
32.37810000 -8.59850000 -20.91760000
-5.96940000 -29.27750000 -14.76390000
33.43080000 -10.67050000 -19.91650000
33.20180000 -27.96410000 15.99910000
34.54650000 -26.26900000 15.80230000
16.31670000 -43.62360000 -19.43290000
19.27470000 -44.25880000 -18.12570000
-4.31600000 -31.43780000 -15.38560000
-19.35600000 -11.59360000 -6.59700000
-15.06860000 -10.91590000 -5.72060000
27.50490000 -3.23570000 -23.22640000
27.14620000 -5.57150000 -24.69930000
11.64130000 -34.57660000 -24.02490000
10.55510000 -33.03430000 -24.58240000
11.10290000 -36.04680000 -23.31680000
-9.06250000 -1.82030000 7.06360000
-10.59930000 -3.39930000 5.55880000
-11.11670000 -4.72970000 7.44050000
2.66820000 -42.39340000 1.38220000
11.53330000 -38.20450000 -22.43220000
11.64980000 -32.26190000 -25.04420000
12.57310000 -33.58310000 -24.53410000
14.89840000 -32.59020000 -24.73660000
3.53250000 -43.77090000 -1.07860000
28.61630000 -8.67760000 -24.27180000
-12.29960000 -6.97420000 7.13480000
14.67760000 -35.06490000 -23.92260000
26.04790000 -8.45010000 -26.11330000
13.27010000 -35.98500000 -23.61430000
13.87310000 -37.34360000 -23.01980000
15.29110000 -36.60770000 -23.32760000
-12.17600000 -5.12120000 2.92470000
-12.55510000 -6.33900000 4.28050000
35.34600000 -25.29350000 15.49200000
23.46720000 -10.18920000 -27.32000000
-11.32050000 -3.39180000 -0.21020000
14.74380000 -38.89410000 -22.33920000
34.28140000 -27.67180000 15.09120000
34.76260000 -26.88810000 15.18430000
34.88770000 -27.22730000 14.69990000
-13.49790000 -8.78490000 3.17580000
25.70370000 -12.57990000 -25.87310000
20.37060000 -31.78260000 -23.61890000
16.94530000 -30.93600000 -25.32860000
18.20670000 -34.76880000 -23.32580000
17.08200000 -36.31070000 -23.19250000
-13.83730000 -8.95920000 0.08240000
-12.78990000 -6.32510000 -2.30960000
30.68300000 -7.42440000 -22.51210000
17.52570000 -38.01500000 -22.51750000
35.99630000 -24.78190000 14.68170000
19.50220000 -36.60600000 -22.58680000
36.45010000 -24.65710000 13.44410000
35.93490000 -25.87240000 13.71760000
35.47110000 -25.98430000 14.83150000
21.38650000 -37.65670000 -21.61560000
30.91220000 -10.55380000 -22.48340000
35.21340000 -26.21960000 15.14460000
35.05580000 -26.09260000 15.44090000
32.32420000 -10.86430000 -21.16200000
29.03210000 -12.56430000 -23.90700000
32.80070000 -12.23230000 -20.74240000
17.38020000 -40.17300000 -21.77500000
35.22700000 -26.62250000 14.75350000
20.73910000 -39.82960000 -21.55980000
25.30340000 -16.98440000 -25.85130000
11.50180000 -42.67490000 -19.82150000
-13.43190000 -9.49330000 5.16740000
13.56990000 -40.49250000 -21.51040000
35.03710000 -26.70870000 15.01990000
34.95180000 -26.45960000 15.31840000
28.04150000 -15.65190000 -24.39090000
5.26060000 4.43520000 -9.95340000
24.79180000 -19.49450000 -25.65910000
26.79870000 -19.18950000 -24.73410000
3.23580000 -43.24870000 0.04520000
14.58090000 -42.57460000 -20.25220000
5.77610000 4.23070000 -12.78810000
-13.73570000 -11.91280000 4.43850000
-13.10630000 -13.18040000 6.67890000
8.20400000 4.78900000 -11.24720000
29.43110000 -18.09500000 -23.11470000
17.57010000 -41.90940000 -20.89030000
-15.04070000 -13.80380000 3.52540000
-13.80730000 -15.09020000 6.26270000
-15.99460000 -15.40820000 4.55120000
17.90640000 -43.17560000 -19.88070000
-3.13850000 -30.80360000 -17.84540000
-2.33050000 -32.76080000 -16.26350000
30.78110000 -13.51330000 -22.65120000
-2.33720000 -7.43580000 -23.29490000
-1.72920000 -4.33580000 -22.05030000
21.91520000 -43.08310000 -19.87220000
29.66600000 -14.44890000 -23.51560000
30.34550000 -14.82560000 -23.05720000
30.80550000 -15.65270000 -22.49910000
33.69150000 -13.06770000 -19.63960000
31.88680000 -12.28890000 -21.66930000
32.29620000 -14.31450000 -21.17610000
-14.75640000 -10.39260000 -0.23720000
-14.26880000 -11.29640000 2.19420000
20.22530000 -41.49240000 -21.21720000
34.39450000 -12.84010000 -18.64080000
33.80050000 -16.02690000 -19.40350000
-0.32930000 -5.64580000 -23.55840000
29.27560000 -29.67920000 -19.90840000
27.31650000 -31.46310000 -20.39330000
28.93320000 -31.34860000 -19.45750000
28.34220000 -32.75650000 -19.24130000
29.74300000 -15.72810000 -23.36230000
-9.62180000 -1.43030000 -3.72100000
-12.08250000 -4.93480000 -4.69450000
29.66200000 -31.90420000 -18.70930000
30.81240000 -27.63110000 -19.67790000
30.51480000 -21.05640000 -21.75320000
31.69710000 -17.48400000 -21.36360000
30.43530000 -29.97990000 -19.03000000
30.87480000 -29.04750000 -19.08470000
31.14440000 -29.73070000 -18.61250000
30.80640000 -30.51370000 -18.51430000
29.95650000 -30.81820000 -19.00450000
30.46960000 -31.33230000 -18.37400000
31.18330000 -31.01870000 -17.93220000
31.52580000 -30.09540000 -18.11070000
35.42690000 -16.20920000 -17.23150000
34.47750000 -18.81560000 -18.50620000
0.61740000 -9.54000000 -25.79910000
32.83120000 -19.78040000 -19.99940000
2.76410000 -6.28590000 -25.57280000
25.43330000 -44.31750000 -14.74000000
22.84510000 -44.93820000 -15.10270000
24.19700000 -45.00340000 -13.25390000
25.54160000 -44.70600000 -12.12510000
4.55190000 -3.00560000 -25.04190000
3.24560000 -2.98910000 -24.04060000
12.91790000 5.48750000 -11.27720000
10.42950000 5.11930000 -11.12210000
11.72670000 5.17970000 -13.53280000
32.49990000 0.07420000 9.60200000
16.51750000 5.62180000 -11.95460000
6.62510000 -27.70540000 -25.90830000
9.52690000 -25.62190000 -27.92720000
23.57330000 -44.20430000 -17.57020000
5.62320000 3.38340000 -15.51300000
12.13810000 -24.02480000 -28.27280000
-13.82990000 -8.84520000 -3.11300000
9.21690000 4.05880000 -16.20220000
27.10880000 -43.85710000 -11.29350000
26.71560000 -43.47880000 -13.95680000
-3.90910000 -13.80310000 -23.65750000
-14.44850000 -9.78700000 -4.63900000
-13.53860000 -9.00630000 -5.16010000
-0.34200000 -12.29170000 -25.83860000
16.46460000 -27.38670000 -26.98310000
11.43250000 3.25830000 -19.43610000
27.93960000 -42.44000000 -12.84460000
-31.64020000 -14.91240000 3.66790000
-29.07140000 -17.60770000 3.33090000
9.48560000 2.24040000 -21.14050000
0.44030000 -31.98900000 17.13810000
25.97000000 -43.11980000 -16.51270000
1.87510000 -32.99520000 18.19500000
1.00860000 -15.37270000 -26.73770000
-2.48400000 -16.95880000 -24.62640000
0.98370000 -33.73080000 16.59850000
2.72990000 -31.62740000 20.03630000
30.02010000 -40.15680000 -11.61580000
31.77170000 -40.30610000 -6.83080000
-3.59650000 -4.99260000 20.05000000
-0.08600000 -4.11950000 21.29310000
-1.66530000 -6.19690000 22.32320000
4.11470000 -32.99590000 20.18680000
2.97410000 -33.26400000 19.25440000
19.90030000 -22.81750000 -26.78950000
-2.52520000 -3.52840000 18.90200000
3.67950000 -34.17600000 19.23480000
4.12100000 -13.03020000 -27.98630000
22.47480000 -34.90980000 -21.71620000
23.92490000 -29.98940000 -22.81760000
24.48770000 -31.89910000 -21.75700000
2.15700000 -35.78660000 16.59270000
1.89810000 -34.92330000 16.89880000
2.89690000 -36.00820000 17.09270000
-23.55330000 -18.63150000 3.43270000
26.01350000 -33.52800000 -20.34910000
-23.10650000 -20.49760000 2.45220000
25.74720000 -35.58390000 -19.82620000
0.97300000 -35.02040000 15.65460000
13.80610000 4.51450000 -16.88420000
3.20490000 -4.83870000 24.06680000
3.24910000 -3.28210000 22.25070000
1.80740000 -36.38080000 15.64710000
16.91090000 5.30590000 -14.99360000
0.14700000 -18.29170000 -26.09390000
2.83340000 -34.45940000 18.23650000
3.88320000 -35.33900000 18.51510000
15.59850000 3.43940000 -19.50190000
2.51580000 -6.90610000 25.26880000
9.90310000 -28.52560000 -26.38420000
5.00510000 -34.74180000 19.52020000
29.49290000 -32.71460000 -18.45750000
4.81310000 -35.79420000 18.69630000
23.90720000 -36.99040000 -20.57880000
-22.03780000 -17.30630000 3.86110000
-20.65720000 -16.30770000 3.55730000
27.54930000 -34.32990000 -19.10560000
3.00040000 -16.99250000 -27.71950000
29.17240000 -33.73000000 -18.14920000
3.80950000 -22.38100000 -26.80900000
2.31620000 -2.10420000 19.66110000
25.94560000 -37.53240000 -19.18400000
17.36650000 4.20730000 -17.43810000
28.27230000 -35.83910000 -17.89830000
4.58500000 -36.72530000 17.71940000
5.26680000 -1.63960000 21.07420000
20.60870000 4.48560000 -16.33330000
5.41640000 -6.40120000 26.52440000
6.31690000 -3.89020000 24.92010000
23.63950000 -38.85940000 -20.37800000
-0.21050000 -33.70390000 15.00990000
-17.88470000 -16.40530000 3.59350000
7.13630000 -6.43630000 26.88330000
10.72600000 -2.52710000 25.16050000
8.73050000 -5.43820000 26.94520000
10.81090000 -4.75800000 26.73300000
8.12050000 -1.22670000 22.84220000
7.64750000 -0.11840000 20.42060000
26.00590000 -39.55990000 -18.59340000
0.46690000 -36.32710000 14.01420000
1.23610000 -36.83280000 14.71070000
-19.54900000 -19.78340000 3.78120000
-1.03310000 -34.95780000 12.91370000
30.61460000 -32.29500000 -17.68770000
-0.96280000 -36.94800000 11.52210000
8.19950000 -31.14030000 22.49640000
6.22150000 -33.27770000 20.78680000
30.53500000 -34.23290000 -16.42580000
31.69160000 -31.22090000 -17.26890000
32.24230000 -31.81040000 -16.05890000
11.73080000 -31.58210000 23.00200000
-31.96860000 -18.57610000 1.46000000
29.75770000 -35.81100000 -16.42330000
29.28640000 -37.07580000 -16.23200000
-27.20170000 -20.14400000 1.42710000
6.80990000 -35.19630000 19.82500000
8.80280000 -34.71210000 20.66390000
-2.37930000 -21.79820000 -23.07790000
-3.97980000 -18.68330000 -23.12650000
27.70630000 -38.01410000 -17.57320000
10.64630000 -33.83590000 21.67220000
12.84540000 -34.58800000 21.58680000
14.76160000 -33.34660000 22.20680000
-34.20130000 -17.99360000 0.52930000
0.57160000 -22.66520000 -24.96540000
27.68360000 -39.21200000 -17.15260000
27.42510000 -40.16450000 -16.83190000
28.21910000 -39.45570000 -16.35710000
5.98980000 -36.31270000 18.74350000
1.88180000 -10.73940000 26.25810000
-1.25160000 -9.27660000 23.82810000
11.94970000 -30.46690000 -25.76960000
12.35470000 -27.71130000 -26.92060000
28.70710000 -38.60840000 -16.13320000
-1.65150000 -12.16900000 24.56280000
-0.88470000 -26.26570000 -22.30980000
-1.09500000 -14.86090000 25.22790000
10.78870000 -35.50120000 20.80960000
10.87840000 -37.06170000 19.72600000
8.25030000 -36.86160000 19.06430000
-0.18660000 -12.47040000 25.34970000
9.23220000 -31.00990000 -25.23990000
11.76820000 -35.30330000 21.16550000
-2.58290000 -27.86380000 -20.11440000
6.86400000 -30.81650000 -24.68240000
12.03510000 -36.43370000 20.53730000
5.88750000 -31.69560000 -24.01160000
23.29370000 -41.03840000 -20.30060000
0.48000000 -24.76960000 -24.03960000
21.64150000 6.43900000 -8.32320000
24.47450000 5.63170000 -9.24740000
23.80260000 5.99310000 -6.55760000
25.64300000 5.47240000 -5.97030000
12.74190000 -35.93820000 20.95020000
14.28670000 -30.14720000 -26.03570000
25.63230000 -41.53790000 -18.13100000
-30.27900000 -19.95940000 0.41300000
27.71620000 -41.22920000 -15.24180000
-32.20230000 -19.42370000 -0.62220000
-36.09470000 -16.95150000 -1.11620000
-32.80700000 -19.31830000 -1.65030000
-30.95160000 -20.16620000 -1.37210000
-29.31580000 -20.74780000 -0.88170000
19.57840000 -29.55110000 -25.17400000
28.78850000 -39.64900000 -15.10160000
3.42420000 -25.53540000 -25.63710000
4.77000000 -8.83520000 26.91060000
1.56720000 -37.72300000 14.32860000
4.80560000 -12.12810000 27.61830000
-27.07800000 -21.17860000 -0.14350000
6.74130000 -9.08230000 27.52990000
8.08290000 -7.85300000 27.82540000
-22.66580000 -22.87080000 -0.24210000
11.25500000 -6.60150000 27.48770000
0.60570000 -38.90820000 12.03980000
2.19270000 -40.01550000 11.69980000
2.15220000 -39.34610000 13.53450000
22.51900000 -28.67930000 -24.05870000
28.00310000 4.25960000 -3.85970000
27.71220000 4.49450000 -6.80070000
-1.74790000 -30.67400000 -19.70880000
31.33800000 1.55050000 7.28870000
33.27540000 0.55980000 6.64690000
-19.41850000 -21.13300000 3.14720000
0.17620000 -32.00230000 -20.99710000
29.74430000 3.58250000 -7.64310000
32.69290000 1.54970000 4.64690000
-3.06870000 -29.27110000 -18.90680000
-0.47210000 -29.37590000 -21.45250000
33.89550000 0.79000000 4.24070000
34.19370000 -0.56730000 8.38810000
1.10790000 -14.23010000 26.38100000
34.93440000 -1.55720000 9.66970000
19.75510000 5.65530000 -10.00650000
-21.81150000 -22.17980000 1.23700000
34.87680000 -0.46700000 5.65890000
35.43260000 -1.47280000 7.89320000
21.50760000 5.75500000 -12.96880000
2.52320000 -27.55630000 -24.08530000
1.03360000 -28.77250000 -22.76320000
-17.93010000 -23.27960000 2.31430000
13.26460000 -38.92630000 18.94320000
10.44530000 -39.31490000 17.89880000
7.55850000 -14.24550000 28.64860000
35.60840000 -2.24590000 9.29500000
12.71320000 -37.53350000 19.89540000
1.55650000 -30.86780000 -22.29820000
13.55390000 -40.82760000 17.37950000
13.97690000 -38.04150000 19.68200000
2.74000000 -29.90010000 -23.34980000
-0.60690000 -0.81700000 14.97430000
-18.78240000 -24.20150000 0.69160000
26.59040000 4.28010000 -12.76630000
23.98270000 4.47730000 -15.24830000
-17.14020000 -22.52140000 3.25340000
21.29680000 -26.41110000 -25.51260000
3.90890000 -1.05230000 19.08760000
28.01760000 4.18450000 -9.52620000
27.35880000 3.04300000 -16.71110000
-34.95160000 -18.35090000 -1.92480000
28.35030000 3.37150000 -14.35150000
-29.61060000 -20.63790000 -2.35480000
13.52630000 -37.01170000 20.34970000
29.10670000 3.62370000 -11.23640000
30.10080000 3.34460000 -9.50900000
-28.11510000 -20.94100000 -3.64620000
-25.80890000 -22.02820000 -3.09460000
-26.01100000 -21.94320000 -1.52330000
31.76000000 -41.77660000 -2.49350000
-21.71800000 -23.94090000 -2.50070000
13.90180000 -3.13120000 26.05680000
33.33910000 -40.40870000 -2.43300000
33.46910000 -39.96410000 -0.30560000
29.20970000 3.38680000 -12.91340000
15.22270000 -5.27570000 27.26590000
-23.25190000 -22.90130000 -4.23080000
16.08880000 -32.12330000 22.89660000
31.24440000 2.64750000 -11.49490000
13.57210000 -0.55260000 23.13620000
33.85340000 -40.00150000 -1.72470000
17.36890000 -33.79790000 21.70330000
30.40890000 2.43580000 -14.58500000
33.97360000 -39.74480000 -1.32920000
34.21500000 -39.55450000 -2.12800000
4.72990000 -30.01920000 -24.24320000
32.25550000 -27.28060000 -18.71100000
33.01460000 -25.88690000 -18.59030000
32.03090000 -25.72960000 -19.46890000
33.10640000 -24.44230000 -18.92170000
17.19900000 -1.35420000 24.47990000
31.50560000 -28.24280000 -18.95050000
31.92970000 -28.89240000 -18.29510000
17.33320000 -2.95200000 25.84900000
30.53850000 -25.68700000 -20.59850000
18.44570000 0.03650000 22.33140000
32.06230000 1.81880000 -13.34920000
32.91070000 1.37030000 -12.43500000
-28.23380000 -20.64370000 -4.36990000
20.40410000 -1.33810000 24.19260000
-26.30380000 -21.47410000 -4.34260000
8.06470000 1.45250000 -22.42220000
32.12780000 -29.78960000 -17.67620000
18.95740000 -3.60310000 26.41790000
11.24740000 2.24130000 -21.96920000
9.97360000 0.77610000 -23.58680000
31.80940000 -30.50590000 -17.60430000
22.21860000 -3.92710000 25.72850000
19.49490000 -5.96480000 27.48600000
13.71920000 2.46520000 -22.19260000
-17.62340000 -25.68780000 -1.13040000
-17.70200000 -25.91810000 -3.43310000
14.88750000 -35.63280000 20.97420000
28.11870000 -24.64400000 -22.63900000
29.28120000 -22.92270000 -22.40990000
27.97930000 -21.90920000 -23.46430000
13.73760000 -36.08410000 20.87140000
24.30410000 -22.48100000 -25.13720000
16.84670000 -35.47930000 20.74620000
11.75700000 1.45660000 -23.50450000
14.57500000 1.30220000 -23.58190000
19.19880000 -34.05500000 21.23450000
8.11700000 -0.43870000 -24.40500000
19.29700000 -35.59800000 20.15630000
-20.17320000 -24.42690000 -4.27670000
18.54890000 -36.81300000 19.60760000
13.13380000 -0.55880000 -25.24920000
21.69210000 -33.22910000 21.53520000
26.36330000 -26.18690000 -23.11990000
26.34110000 -24.38430000 -23.77870000
21.95480000 -34.58810000 20.14050000
23.91400000 -32.17250000 21.11250000
-13.57200000 -17.58210000 7.01640000
-12.18930000 -16.74330000 8.17870000
-15.48210000 -16.97220000 5.61960000
-17.48520000 -17.84420000 4.15350000
-12.15830000 -18.95220000 7.99920000
-14.03980000 -19.56060000 6.38730000
30.04590000 -23.93880000 -21.58170000
21.82930000 -6.25150000 27.00300000
19.72150000 2.98760000 -19.68140000
35.78450000 -20.03200000 -17.02680000
17.01090000 2.60380000 -21.58170000
23.27210000 -1.87570000 23.80800000
31.93360000 -23.24770000 -20.15360000
-16.86820000 -19.79040000 4.65980000
34.02870000 -22.06080000 -18.55970000
-12.73240000 -22.57930000 5.73760000
35.23470000 -22.86890000 -17.22260000
