11.27250000 -75.38090000 -29.34500000
9.01520000 -74.62730000 -30.93290000
8.79740000 -75.47780000 -30.20080000
6.56980000 -73.89230000 -32.16970000
9.13650000 -73.68790000 -31.34330000
6.48830000 -74.74970000 -31.69110000
6.31710000 -75.47880000 -30.81280000
4.00620000 -74.93790000 -32.21080000
3.89600000 -75.72720000 -31.34640000
6.12330000 -76.21120000 -29.87720000
3.78630000 -76.45250000 -30.33920000
1.51180000 -75.98630000 -31.65610000
1.45910000 -76.63330000 -30.51740000
3.60820000 -76.71310000 -29.00390000
1.38890000 -76.82400000 -29.16250000
-0.83520000 -76.63700000 -30.47530000
-0.81190000 -76.84960000 -29.14830000
1.27320000 -76.89800000 -27.69770000
-0.81600000 -76.92750000 -27.72570000
-3.00960000 -76.88010000 -29.00180000
-2.89910000 -76.96940000 -27.56940000
1.12880000 -76.94120000 -26.16190000
-0.82000000 -76.97020000 -26.08280000
-2.76560000 -77.00350000 -25.88000000
-4.98390000 -77.01030000 -27.29820000
-4.67580000 -77.02250000 -25.51810000
-0.75570000 -76.97050000 -24.03760000
-2.51970000 -76.98530000 -23.78830000
-4.24180000 -76.99690000 -23.41300000
-6.61890000 -77.03930000 -25.04680000
-5.95650000 -77.00620000 -22.91080000
-2.17300000 -76.92260000 -21.66760000
-3.63260000 -76.91920000 -21.28500000
-5.17020000 -76.90830000 -20.74510000
-7.64040000 -77.00920000 -22.25370000
-6.70010000 -76.88730000 -20.05800000
-4.22550000 -76.73200000 -18.61280000
-2.85470000 -76.75450000 -19.22910000
-5.62560000 -76.71080000 -17.90550000
-8.18690000 -76.86070000 -19.25430000
-7.01440000 -76.71950000 -17.05320000
-4.50650000 -76.60470000 -16.02180000
-3.13000000 -76.60740000 -16.85920000
-5.88530000 -76.62740000 -15.09830000
-7.24250000 -76.65790000 -14.07350000
-4.78380000 -76.57710000 -13.38130000
-8.38150000 -76.74120000 -16.09140000
-3.38720000 -76.56120000 -14.41600000
-9.59260000 -76.86130000 -18.27050000
-9.65560000 -76.75830000 -14.95030000
-9.28990000 -77.01250000 -21.45910000
-8.46330000 -77.05290000 -24.43610000
-7.06560000 -77.05470000 -26.88460000
-5.22220000 -76.97590000 -28.75310000
-3.15600000 -76.76710000 -30.33960000
-0.88540000 -76.12200000 -31.59580000
1.53270000 -75.26270000 -32.57750000
4.06280000 -74.03800000 -32.75610000
6.53340000 -72.79150000 -32.05920000
9.03950000 -72.62050000 -31.08320000
8.90100000 -71.49160000 -30.65100000
11.54000000 -72.45340000 -29.95450000
11.34070000 -71.31670000 -29.57670000
13.62090000 -71.09760000 -28.27910000
11.21640000 -70.00250000 -29.47190000
13.59430000 -69.84060000 -28.27080000
15.76820000 -70.92190000 -26.74730000
15.86160000 -69.72480000 -26.87380000
17.82440000 -70.79620000 -25.08860000
17.99730000 -69.64540000 -25.25950000
19.71740000 -70.65760000 -23.22260000
19.94010000 -69.53470000 -23.42140000
21.56640000 -70.56460000 -21.31680000
21.81530000 -69.50160000 -21.49940000
23.53510000 -69.46480000 -19.44780000
22.48450000 -68.62130000 -22.03080000
24.25270000 -68.61880000 -19.90130000
25.85290000 -68.62520000 -17.69980000
25.03590000 -67.76050000 -20.43580000
26.71850000 -67.79450000 -18.15650000
28.10660000 -67.71450000 -15.72830000
27.63480000 -66.92070000 -18.64890000
29.10630000 -66.82630000 -16.13250000
30.36840000 -66.78520000 -13.51680000
30.18310000 -65.81460000 -16.59150000
31.44840000 -65.81680000 -13.84970000
32.45500000 -65.86020000 -11.00100000
32.59360000 -64.76050000 -14.16890000
33.64550000 -64.85300000 -11.24730000
34.33650000 -64.96270000 -8.21870000
35.07880000 -63.42690000 -11.52610000
35.77290000 -63.61160000 -8.39050000
36.26180000 -63.73100000 -5.20320000
37.67680000 -61.74400000 -8.60440000
38.17010000 -61.76430000 -5.25850000
38.52220000 -61.79950000 -1.88730000
40.26250000 -59.39120000 -5.30240000
40.65300000 -59.44290000 -1.76550000
40.84040000 -59.60050000 1.86330000
42.71020000 -56.91210000 -1.60530000
43.08590000 -57.25450000 2.17830000
42.91910000 -57.41730000 6.02980000
44.82010000 -54.43460000 2.52880000
44.54170000 -54.53010000 6.49300000
43.56260000 -54.37980000 10.43300000
45.98610000 -51.51730000 6.94830000
45.15420000 -51.53820000 11.03320000
44.00780000 -51.56210000 15.14700000
46.58510000 -48.54450000 11.58290000
45.41430000 -48.61000000 15.80510000
43.86860000 -48.73030000 19.98010000
46.58500000 -45.51140000 16.36030000
44.97870000 -45.63470000 20.63410000
42.91480000 -45.81540000 24.79400000
46.06170000 -42.50530000 21.24080000
43.90010000 -42.71630000 25.51240000
41.26890000 -43.00750000 29.62350000
44.75130000 -39.59300000 26.20810000
42.07370000 -39.94370000 30.46550000
38.99080000 -40.31580000 34.53000000
42.83490000 -36.87710000 31.28090000
39.61860000 -37.26970000 35.41630000
35.96070000 -37.63140000 39.29230000
40.04570000 -34.17330000 36.17580000
36.33460000 -34.55400000 40.11300000
32.27550000 -34.94690000 43.73020000
36.51380000 -31.42350000 40.76900000
32.45560000 -31.83280000 44.50380000
27.83510000 -32.15720000 47.56590000
32.30280000 -28.64490000 44.89780000
27.69620000 -28.95850000 47.99450000
22.80650000 -29.25560000 50.70870000
27.47470000 -25.74820000 48.27040000
22.58030000 -26.03170000 50.99910000
17.37090000 -26.32000000 53.16420000
22.34980000 -22.80270000 51.21830000
17.13450000 -23.07540000 53.38700000
11.74360000 -23.32300000 55.08790000
16.86760000 -19.81460000 53.36670000
11.50310000 -20.03780000 55.06020000
5.95490000 -20.16550000 56.21180000
11.19150000 -16.77920000 54.68120000
5.68100000 -16.90930000 55.84370000
-0.01020000 -16.94920000 56.66570000
5.33580000 -13.73820000 55.07020000
-0.30030000 -13.84540000 55.70240000
-6.05150000 -13.90880000 55.63930000
-0.58610000 -10.81930000 54.48350000
-6.18050000 -10.84550000 54.46400000
-11.67680000 -10.84360000 53.64480000
-6.29610000 -7.80600000 53.15270000
-11.65680000 -7.75150000 52.45560000
-16.93930000 -7.71110000 51.13970000
-11.62390000 -4.79540000 50.94410000
-16.76450000 -4.77710000 49.64300000
-21.73910000 -4.75780000 47.80040000
-16.51770000 -2.06830000 47.77580000
-21.32010000 -2.04810000 45.98010000
-25.88140000 -2.01380000 43.72070000
-20.87490000 0.59240000 44.03130000
-25.24890000 0.63870000 41.85020000
-29.24870000 0.68060000 39.19030000
-24.60030000 3.26230000 39.87730000
-28.42820000 3.32250000 37.30970000
-31.91750000 3.33950000 34.47070000
-27.59820000 5.93310000 35.33400000
-30.93580000 5.93860000 32.59330000
-33.88050000 5.86690000 29.67140000
-30.00010000 8.54620000 30.60680000
-32.74270000 8.43960000 27.82350000
-35.05990000 8.34480000 25.16610000
-31.65210000 11.08760000 25.84290000
-33.68390000 10.92690000 23.43190000
-36.82760000 8.18720000 22.65690000
-35.32430000 10.72630000 21.22460000
-38.13210000 8.12570000 20.58780000
-36.49680000 10.59980000 19.49130000
-37.52060000 10.46280000 17.96710000
-39.27080000 8.21920000 18.58080000
-38.53820000 10.53980000 16.40460000
-40.36920000 8.50010000 16.98950000
-39.94660000 11.38270000 15.93260000
-41.82140000 9.51460000 16.55430000
-43.92850000 7.89350000 16.67340000
-43.35980000 10.97300000 16.44460000
-45.54090000 9.56430000 16.33140000
-46.01850000 6.51470000 15.79170000
-47.49580000 8.23080000 15.30530000
-47.57300000 5.24210000 13.43920000
-48.93650000 7.07140000 13.09690000
-49.29160000 4.06780000 10.84560000
-50.49460000 6.00790000 10.71060000
-48.72050000 2.13940000 11.19540000
-50.64120000 3.25890000 8.09960000
-49.99670000 1.39470000 8.08580000
-48.98320000 0.22560000 11.79560000
-50.32610000 3.34780000 4.92790000
-51.36960000 5.28480000 5.12300000
-51.74010000 5.15990000 8.12920000
-50.73920000 5.69180000 2.06320000
-49.82950000 3.67950000 1.71620000
-49.61390000 6.41480000 -0.79270000
-50.99310000 8.41180000 -0.41380000
-52.08230000 7.66960000 2.33520000
-49.37530000 9.37330000 -2.73100000
-47.97830000 7.40420000 -3.23390000
-47.28440000 10.46040000 -4.36640000
-45.75880000 8.84250000 -4.68290000
-44.75150000 11.88400000 -4.65170000
-43.35930000 10.58550000 -4.74590000
-41.99430000 9.62260000 -5.75100000
-41.09900000 12.44010000 -4.51700000
-39.84990000 11.67230000 -5.51370000
-41.10980000 9.33620000 -7.73140000
-39.00780000 11.64450000 -7.38900000
-40.32630000 9.42440000 -10.01900000
-38.23770000 11.77220000 -9.39770000
-39.16290000 9.73850000 -12.57690000
-37.23300000 12.05670000 -11.60040000
-40.98430000 7.52200000 -13.39760000
-39.14940000 7.96560000 -16.68400000
-37.53990000 10.13740000 -15.44160000
-42.65820000 5.43570000 -14.16220000
-35.36160000 10.61070000 -18.76260000
-33.94220000 12.79450000 -17.12750000
-35.90070000 12.40320000 -14.04660000
-31.30590000 13.04630000 -20.45220000
-30.08330000 15.22280000 -18.58390000
-32.57000000 15.03210000 -15.28390000
-27.15850000 15.39910000 -22.00100000
-26.15250000 17.55880000 -19.94830000
-28.94110000 17.42750000 -16.57100000
-22.92680000 17.60390000 -23.06510000
-22.08620000 19.73520000 -20.87200000
-25.13640000 19.70300000 -17.81730000
-18.70980000 19.69600000 -23.47170000
-19.34860000 17.52230000 -25.76710000
-15.10010000 19.62470000 -25.53710000
-15.52680000 17.44400000 -27.89070000
-11.32950000 19.65940000 -26.91770000
-11.09110000 21.76710000 -24.53200000
-14.65990000 21.79460000 -23.21080000
-7.43280000 21.79520000 -25.38810000
-7.37380000 23.89200000 -23.03690000
-10.80550000 23.90790000 -22.22460000
-3.89050000 23.90470000 -23.48100000
-3.98030000 25.95390000 -21.16030000
-7.22110000 25.98140000 -20.71260000
-0.75380000 25.89900000 -21.22290000
-1.00170000 27.93270000 -18.91860000
-3.99410000 27.99450000 -18.81770000
1.92790000 27.89830000 -18.61880000
1.47860000 30.00170000 -16.37670000
-1.18210000 30.12570000 -16.74790000
4.00980000 29.87870000 -15.64660000
3.45900000 32.39180000 -13.85430000
1.10800000 32.49290000 -14.51780000
5.69810000 32.25730000 -12.96590000
5.24410000 35.10990000 -11.71340000
3.13010000 35.25190000 -12.54430000
7.18680000 34.88120000 -10.63120000
6.91740000 37.95140000 -9.83520000
5.08200000 38.19250000 -10.86270000
8.46730000 37.60130000 -8.46930000
8.30560000 40.71420000 -7.77220000
6.84620000 41.10670000 -9.09080000
9.71150000 40.28540000 -6.40420000
9.83720000 43.38140000 -5.98200000
8.46650000 43.88650000 -7.21270000
11.02420000 42.87190000 -4.47080000
11.35940000 45.90210000 -4.26050000
10.29420000 46.49290000 -5.73350000
12.23200000 45.31520000 -2.48240000
12.79340000 48.18530000 -2.29360000
11.93280000 48.88270000 -4.09580000
13.55310000 47.48400000 -0.23230000
14.28780000 50.07710000 0.08090000
13.57580000 50.93150000 -2.05370000
14.93970000 49.28040000 2.43930000
16.02460000 51.46290000 2.91360000
15.45980000 52.35890000 0.40550000
16.47150000 50.77220000 5.60090000
17.45360000 53.30370000 3.39840000
17.72510000 52.68180000 6.18420000
17.00280000 53.06620000 8.89260000
19.20310000 54.35760000 6.73150000
18.38580000 54.92650000 9.39840000
17.00960000 56.13550000 11.59510000
20.04650000 56.54490000 9.85610000
18.98430000 57.49700000 12.25490000
18.06720000 58.08530000 14.65210000
21.15740000 58.55470000 12.87820000
20.32470000 59.15970000 15.37300000
19.69470000 59.85000000 17.24270000
22.51310000 60.08680000 17.84490000
22.91890000 59.68920000 15.83380000
25.56660000 60.78580000 17.66580000
25.87950000 59.94870000 15.81070000
28.80720000 60.50470000 17.42490000
28.95660000 59.67060000 15.71480000
31.94960000 59.79060000 17.13510000
31.95960000 59.14070000 15.55040000
32.03750000 60.51960000 18.68960000
35.04070000 59.57690000 18.29880000
34.87210000 58.91720000 16.82910000
35.44020000 60.61130000 19.45320000
32.39080000 61.77320000 19.78220000
36.06380000 61.93600000 20.05290000
38.83060000 60.33640000 20.16600000
38.11280000 59.12700000 19.34930000
39.68290000 61.67620000 20.48360000
41.29200000 58.56590000 20.14230000
42.28430000 59.81680000 20.65860000
43.33750000 61.07120000 20.26910000
45.68790000 58.95350000 20.40230000
44.51890000 57.75270000 20.64450000
46.88770000 60.15840000 19.62380000
48.71130000 57.42490000 19.77800000
47.49850000 56.26210000 20.45430000
49.93040000 58.50890000 18.85770000
51.56380000 55.16310000 19.19550000
50.27220000 54.25120000 19.84490000
52.78800000 55.92060000 18.12280000
54.39490000 52.34230000 18.60720000
53.11730000 51.68060000 19.60100000
55.31770000 52.77190000 16.96670000
56.53480000 49.14320000 17.02420000
55.54270000 48.52720000 18.54550000
57.17400000 49.54490000 14.96960000
57.83400000 45.53590000 16.76370000
58.96050000 45.91050000 15.17260000
59.61580000 45.98220000 13.29320000
59.66250000 41.74890000 13.38430000
59.12940000 41.71990000 15.23920000
59.69830000 41.75130000 11.48450000
58.80510000 37.92440000 11.43510000
58.81210000 37.90630000 13.47920000
59.19260000 37.88950000 9.66210000
58.65690000 34.35280000 9.60550000
58.45760000 34.34050000 11.49900000
59.03590000 34.32320000 7.84610000
58.03890000 30.97860000 9.49020000
58.39060000 30.96860000 7.74640000
58.03110000 31.03110000 6.11290000
57.91040000 27.64050000 7.61830000
57.43700000 27.77370000 5.99980000
56.85960000 27.91840000 4.30170000
56.23200000 24.74360000 4.23330000
57.07060000 24.50460000 5.80040000
55.98820000 24.79360000 2.08470000
55.26940000 21.74060000 2.19180000
55.30260000 21.72890000 4.23830000
54.27520000 21.96880000 0.10330000
53.67290000 19.00400000 0.33210000
54.46340000 18.75800000 2.32920000
52.46770000 19.32040000 -1.43570000
52.04180000 16.50980000 -1.26010000
53.06440000 16.15550000 0.52000000
50.77930000 16.83050000 -2.65920000
50.47670000 14.13350000 -2.63640000
51.53940000 13.78680000 -1.22420000
49.36330000 14.42250000 -3.78630000
49.20490000 11.76550000 -3.93950000
50.25700000 11.40230000 -2.79710000
47.88680000 12.00610000 -4.58680000
47.94030000 9.25610000 -5.22440000
49.23950000 8.98210000 -4.50830000
48.33230000 6.09830000 -6.19720000
49.59670000 5.86910000 -5.24220000
49.98440000 2.90210000 -6.53170000
50.62140000 2.75950000 -5.26110000
51.85680000 -0.20580000 -5.74370000
52.25660000 -0.08560000 -4.95930000
51.20470000 -0.50430000 -7.06100000
53.88670000 -3.46300000 -4.57940000
54.46960000 -2.78030000 -4.23610000
57.37340000 -5.60480000 -2.65660000
56.89350000 -6.63720000 -2.45760000
59.10180000 -8.04990000 -0.08540000
58.81050000 -9.52050000 0.58350000
58.13240000 -10.57340000 1.13280000
59.81910000 -10.63910000 2.63260000
58.81710000 -11.07080000 3.65770000
57.39430000 -11.43470000 2.32240000
57.85260000 -11.23010000 4.88500000
59.02850000 -10.30530000 5.20760000
57.94830000 -10.11880000 6.32590000
56.70800000 -9.71420000 7.68250000
55.03560000 -9.08380000 9.30340000
57.96070000 -8.79570000 6.99200000
56.78350000 -8.20890000 8.25750000
55.47510000 -7.53280000 9.97510000
53.84570000 -8.59920000 12.23490000
54.41220000 -7.07890000 12.33410000
57.30440000 -6.75670000 8.77350000
56.12640000 -5.93310000 10.34290000
54.92090000 -5.46420000 12.52650000
53.87570000 -5.20080000 14.68240000
53.41300000 -6.80650000 14.88760000
53.76460000 -3.35230000 14.15320000
53.29330000 -1.53210000 13.97430000
52.60570000 0.20250000 13.94150000
52.14780000 2.22140000 11.14190000
52.11800000 2.18510000 14.00710000
51.83970000 4.50750000 11.42010000
51.79470000 4.42270000 14.00220000
52.06240000 6.96480000 11.64120000
51.83400000 6.90850000 14.04500000
51.23780000 6.96920000 15.99510000
52.05680000 9.56880000 14.03750000
51.37320000 9.64340000 15.99120000
50.15100000 9.72990000 17.49150000
51.56880000 12.36320000 16.01670000
50.27500000 12.44970000 17.47190000
48.63230000 12.55220000 18.37450000
48.95220000 15.40300000 18.38920000
50.70840000 15.21130000 17.75830000
47.20530000 15.63940000 18.79550000
47.85650000 18.67370000 19.05470000
49.64890000 18.32590000 18.82500000
46.18300000 19.07750000 18.85960000
47.05680000 22.22410000 18.95320000
48.74390000 21.78660000 19.32610000
45.64450000 22.55230000 17.96410000
46.48210000 25.64250000 17.84660000
47.92630000 25.30480000 18.90330000
45.52340000 25.79210000 16.37450000
46.39550000 28.78560000 16.26140000
47.36220000 28.61800000 17.78600000
46.16300000 28.75200000 14.50320000
46.96420000 31.74560000 14.54570000
47.19510000 31.73510000 16.34250000
47.30930000 31.62800000 12.97830000
47.82510000 34.65660000 13.11260000
47.52770000 34.71940000 14.72340000
48.21520000 34.59490000 11.73460000
48.58320000 37.62250000 11.94560000
48.17330000 37.63980000 13.24560000
48.98590000 37.63170000 10.75070000
49.03560000 40.62850000 10.95640000
48.66670000 40.59840000 12.16030000
49.38820000 40.65930000 9.77030000
48.74440000 43.51550000 11.05550000
49.15350000 43.60110000 9.77810000
49.47940000 43.65370000 8.52420000
48.46950000 46.36670000 9.82130000
48.78220000 46.48940000 8.48930000
48.01680000 46.28820000 7.39430000
47.85490000 49.08250000 8.56170000
47.18600000 48.89740000 7.07990000
46.34570000 48.79670000 5.73820000
46.20670000 51.26720000 7.03330000
45.40370000 51.35710000 5.39400000
44.88240000 51.49860000 3.77000000
44.24930000 53.71210000 5.41950000
43.76830000 53.85450000 3.59000000
43.91840000 54.21010000 1.83390000
42.45340000 56.00050000 3.50740000
42.44890000 56.30660000 1.65970000
42.66450000 56.63520000 0.03740000
40.57130000 57.94120000 1.61240000
40.72360000 58.32800000 -0.09770000
40.95380000 58.75130000 -1.62090000
38.50610000 59.54850000 -0.18210000
38.83330000 60.28620000 -1.55010000
39.35860000 61.25110000 -2.66890000
36.56200000 61.62670000 -1.36690000
37.01800000 62.66710000 -2.42040000
37.68370000 63.94370000 -3.05670000
35.08230000 65.11140000 -2.94690000
34.45050000 63.77920000 -2.26590000
35.83590000 66.53240000 -2.81020000
33.22100000 67.53400000 -2.90490000
32.40850000 65.97230000 -3.00030000
33.93760000 69.14210000 -2.25880000
31.48680000 70.15490000 -3.01860000
30.74620000 68.44300000 -3.67750000
29.15840000 71.07250000 -4.07550000
28.40260000 69.27990000 -4.70350000
26.97500000 71.87070000 -5.40610000
26.06910000 70.03090000 -5.63190000
24.71130000 72.33480000 -6.26600000
23.91520000 70.31110000 -6.25370000
22.66700000 72.26940000 -6.61210000
21.96980000 70.52770000 -6.47870000
23.04520000 74.07850000 -6.35460000
21.08630000 73.45840000 -6.52350000
20.82430000 72.04310000 -6.71200000
21.08130000 74.74160000 -5.96350000
19.35440000 73.77910000 -6.57930000
19.32240000 72.84560000 -6.84590000
19.11420000 74.75600000 -6.24440000
17.72230000 73.84420000 -7.56220000
17.95880000 73.16390000 -7.95480000
17.31970000 74.03970000 -6.91280000
16.51690000 73.48580000 -9.31050000
16.87160000 72.83650000 -9.77400000
15.26500000 72.58700000 -12.04930000
16.99210000 72.00510000 -10.06950000
15.26790000 71.72380000 -12.29550000
12.87700000 71.45680000 -14.69350000
14.91400000 70.86000000 -12.23740000
12.49420000 70.52410000 -14.47520000
9.49970000 70.21330000 -16.65820000
11.99920000 69.67100000 -14.18220000
9.00370000 69.39580000 -16.17500000
5.45880000 69.22480000 -17.99250000
8.49740000 68.58820000 -15.65130000
5.11840000 68.43050000 -17.35960000
1.35200000 68.65740000 -18.28720000
4.78340000 67.70250000 -16.59690000
1.15890000 67.74180000 -17.62800000
-2.46430000 67.30800000 -18.83980000
0.96640000 66.78940000 -16.94960000
-2.54770000 66.42650000 -18.10070000
-6.27890000 66.57110000 -18.14210000
-2.67220000 65.49530000 -17.31300000
-6.24890000 65.55800000 -17.33690000
-9.71320000 66.07500000 -16.55700000
-9.49080000 64.90520000 -15.77700000
-6.18200000 64.53480000 -16.46300000
-12.73750000 64.25400000 -15.21330000
-9.22670000 63.62340000 -14.90870000
-12.23680000 63.17160000 -14.22550000
-14.56630000 63.55540000 -12.06610000
-11.67960000 61.87280000 -13.06990000
-14.00580000 62.00650000 -11.22800000
-16.12480000 62.07470000 -8.95890000
-13.45430000 59.87360000 -10.36850000
-15.55410000 59.89300000 -8.43520000
-17.45960000 59.67660000 -6.21250000
-15.03880000 57.13820000 -7.91870000
-16.71490000 57.05250000 -5.73070000
-17.98530000 56.98060000 -3.23570000
-16.22690000 54.12040000 -5.39090000
-17.45120000 54.06670000 -3.01640000
-18.34490000 53.98600000 -0.49480000
-17.28930000 50.95400000 -2.92960000
-18.17640000 50.88390000 -0.46040000
-18.58960000 50.77060000 2.12840000
-18.15130000 47.70380000 -0.44730000
-18.55650000 47.58780000 2.12660000
-18.47770000 47.45200000 4.72930000
-18.71510000 44.36410000 2.09440000
-18.58830000 44.23400000 4.73440000
-18.11880000 44.10480000 7.34210000
-18.74970000 40.99350000 4.73290000
-18.19960000 40.85240000 7.39140000
-17.41950000 40.74560000 9.97210000
-18.59360000 37.60500000 7.54780000
-17.81190000 37.49270000 10.25550000
-16.37780000 37.35960000 12.57330000
-18.43870000 34.26800000 10.69520000
-17.04700000 34.12340000 13.23110000
-15.20820000 34.02180000 15.31900000
-17.94810000 31.01110000 14.16050000
-15.98760000 30.91890000 16.41520000
-13.77700000 30.87510000 18.28830000
-17.07470000 28.16430000 18.05310000
-14.60750000 28.16870000 20.06340000
-12.01530000 28.15540000 21.66670000
-15.48010000 25.68490000 22.07120000
-12.64470000 25.66370000 23.77310000
-9.72860000 25.70190000 25.01540000
-13.21490000 23.26650000 25.98180000
-10.04850000 23.25240000 27.24690000
-6.84570000 23.23550000 28.04290000
-10.36110000 20.83880000 29.51360000
-6.94280000 20.79050000 30.30730000
-3.50650000 20.74490000 30.67040000
-7.01160000 18.32830000 32.57180000
-3.35630000 18.31560000 32.94420000
0.29290000 18.28270000 32.80730000
-3.17200000 15.90430000 35.23170000
0.68230000 15.83430000 35.00290000
4.49540000 15.84320000 34.47850000
1.09250000 13.37990000 37.19220000
5.10670000 13.39020000 36.59270000
9.00660000 13.37490000 35.44800000
5.71280000 10.90610000 38.67110000
9.82090000 10.94790000 37.49380000
6.34080000 8.41810000 40.74400000
10.61110000 8.50110000 39.52720000
6.96640000 5.92630000 42.81420000
11.38340000 5.99480000 41.49830000
7.57410000 3.36870000 44.81450000
12.13040000 3.43700000 43.43420000
16.52330000 3.51070000 41.55510000
12.89290000 0.85590000 45.30410000
17.44120000 0.97250000 43.39030000
21.78170000 1.15100000 41.07590000
22.82650000 -1.41040000 42.77820000
18.38150000 -1.56540000 45.19910000
26.96220000 -1.24890000 39.99890000
28.04940000 -3.93180000 41.47120000
23.83440000 -4.07430000 44.33970000
31.81750000 -3.84120000 38.27080000
32.79510000 -6.71100000 39.41230000
28.98570000 -6.78780000 42.71150000
36.20590000 -6.58300000 35.89130000
37.21990000 -9.47450000 36.74850000
33.71760000 -9.65030000 40.37100000
34.61480000 -12.63340000 41.15740000
38.22750000 -12.40100000 37.43310000
35.43110000 -15.65790000 41.78900000
39.06610000 -15.40880000 37.85440000
35.87280000 -18.80200000 41.92770000
39.60790000 -18.50340000 37.93950000
36.14730000 -21.96620000 41.81620000
39.96240000 -21.62020000 37.82030000
36.35930000 -25.12290000 41.60330000
40.19840000 -24.74390000 37.58130000
43.60570000 -24.32850000 33.21920000
40.27610000 -27.87950000 37.21670000
43.74640000 -27.46260000 32.93240000
46.70090000 -26.96470000 28.25140000
46.59900000 -30.14270000 27.92810000
43.66810000 -30.61300000 32.52500000
48.95170000 -29.66110000 23.11120000
48.52740000 -32.90760000 22.78010000
46.18230000 -33.31440000 27.45490000
50.37670000 -32.54990000 18.07490000
49.70400000 -35.86710000 17.78120000
47.82950000 -36.12910000 22.34220000
51.14690000 -35.64190000 13.23280000
50.16750000 -38.96480000 12.92460000
48.73720000 -39.11230000 17.35440000
51.05560000 -38.79070000 8.48210000
49.09040000 -42.24320000 12.53740000
49.95690000 -42.10630000 8.17740000
50.39290000 -41.94050000 3.82980000
48.75210000 -45.33870000 7.80010000
49.20170000 -45.21490000 3.53080000
49.39100000 -45.10840000 -0.67180000
47.84890000 -48.38350000 3.20360000
48.00260000 -48.30260000 -0.92190000
47.83510000 -48.16800000 -4.99570000
46.36020000 -51.30830000 -1.16760000
46.05490000 -51.11740000 -5.14660000
45.56160000 -51.04860000 -9.05930000
44.26640000 -54.02920000 -5.26590000
43.75090000 -53.98860000 -9.03890000
42.91300000 -53.93080000 -12.74800000
41.83610000 -56.80440000 -8.95090000
41.02470000 -56.73810000 -12.53230000
39.90390000 -56.65170000 -16.04850000
38.96510000 -59.30530000 -12.23510000
37.92410000 -59.16170000 -15.61280000
36.57410000 -59.03720000 -18.91940000
35.94100000 -61.42070000 -15.10640000
34.64460000 -61.25670000 -18.25860000
33.04240000 -61.12950000 -21.30470000
32.84470000 -63.22000000 -17.61840000
31.32560000 -63.09080000 -20.51960000
29.60350000 -63.05330000 -23.31740000
29.89270000 -64.65880000 -19.81150000
28.20250000 -64.59030000 -22.43630000
26.23090000 -64.52840000 -24.90610000
26.96880000 -65.82020000 -21.66720000
25.04920000 -65.79480000 -24.00770000
22.98040000 -65.76130000 -26.24010000
24.08520000 -66.83170000 -23.26890000
22.04810000 -66.84990000 -25.39290000
19.80490000 -66.83530000 -27.27890000
21.27470000 -67.79160000 -24.65490000
19.11760000 -67.75750000 -26.52360000
16.88880000 -67.76450000 -28.29100000
18.51130000 -68.67700000 -25.84700000
16.33630000 -68.71140000 -27.51860000
13.99800000 -68.79370000 -28.96560000
20.58220000 -68.66480000 -24.01850000
23.25300000 -67.74730000 -22.60910000
25.93950000 -66.84560000 -20.98480000
28.68440000 -65.87110000 -19.20240000
31.38780000 -64.69140000 -17.05770000
34.09790000 -63.29830000 -14.61420000
36.91470000 -61.55380000 -11.87740000
39.73630000 -59.37020000 -8.79020000
42.34850000 -56.80610000 -5.30910000
44.62370000 -54.19090000 -1.40910000
46.36900000 -51.45090000 2.87580000
47.42210000 -48.46890000 7.38460000
47.89680000 -45.44220000 12.08670000
47.69080000 -42.33140000 16.86800000
46.96850000 -39.32100000 21.80420000
45.56040000 -36.47190000 26.88650000
43.35880000 -33.75700000 31.96260000
40.23890000 -31.02980000 36.76170000
36.49110000 -28.27280000 41.25640000
32.12620000 -25.45090000 45.20860000
31.88590000 -22.25950000 45.36440000
27.24190000 -22.53560000 48.46180000
31.61330000 -19.07580000 45.42390000
26.98620000 -19.32380000 48.51940000
22.05380000 -19.57190000 51.18050000
26.60440000 -16.13180000 48.25210000
21.72320000 -16.34810000 50.91910000
16.55590000 -16.56520000 53.08370000
21.22690000 -13.22740000 50.15740000
16.13260000 -13.40680000 52.35050000
10.79250000 -13.60380000 53.89670000
15.65060000 -10.33630000 51.35580000
10.37440000 -10.49470000 52.93540000
4.94050000 -10.64550000 54.02830000
9.94020000 -7.45420000 51.86450000
4.55480000 -7.59270000 52.88550000
-0.87950000 -7.72450000 53.36920000
4.16110000 -4.70100000 51.41180000
-1.12430000 -4.81300000 51.80320000
-6.39440000 -4.84190000 51.64560000
-1.35350000 -2.07740000 49.94010000
-6.45600000 -2.09050000 49.76920000
-11.52090000 -2.07860000 49.04700000
-6.53160000 0.57150000 47.75910000
-11.44350000 0.56710000 47.04010000
-16.26690000 0.57610000 45.78910000
-11.36710000 3.15990000 44.96840000
-16.01210000 3.20580000 43.75170000
-20.44370000 3.24040000 42.04640000
-15.75310000 5.83040000 41.69240000
-19.98640000 5.84270000 39.95830000
-23.94790000 5.88610000 37.83690000
-19.51600000 8.43900000 37.82870000
-23.31170000 8.51790000 35.74140000
-26.78020000 8.51900000 33.24400000
-22.67330000 11.11870000 33.54770000
-26.01590000 11.13330000 31.07610000
-29.10700000 11.20060000 28.50760000
-25.31740000 13.77330000 28.83820000
-28.21960000 13.81380000 26.16260000
-30.60330000 13.74130000 23.56240000
-27.28250000 16.35760000 23.64430000
-29.57820000 16.28430000 20.96100000
-32.44420000 13.54260000 21.26660000
-31.40170000 16.07810000 18.74330000
-33.93380000 13.29120000 19.35140000
-32.68380000 15.78030000 17.06060000
-35.01590000 13.01530000 17.94760000
-33.74970000 15.35910000 15.77040000
-35.97060000 12.81210000 16.61360000
-34.66020000 14.89210000 14.58120000
-37.02520000 12.81050000 15.45420000
-35.87440000 14.97330000 13.78500000
-38.33180000 13.45550000 15.00160000
-37.15050000 15.38600000 13.26650000
-39.58580000 14.52810000 14.93620000
-38.28080000 16.23800000 13.08980000
-41.34290000 12.60140000 15.86020000
-42.85890000 14.26200000 15.79040000
-40.89100000 15.85510000 14.80650000
-45.02130000 12.80690000 16.15490000
-44.37790000 16.20840000 15.67350000
-46.59690000 14.77870000 15.82110000
-47.18080000 11.44540000 15.94340000
-48.78410000 13.43720000 15.55020000
-49.03920000 10.15260000 14.83950000
-50.58640000 12.13170000 14.40820000
-50.43770000 9.03460000 12.76970000
-51.95130000 11.04070000 12.42370000
-51.87590000 8.02530000 10.52880000
-53.33880000 10.03670000 10.33470000
-53.08450000 7.17960000 8.10580000
-54.38450000 9.33390000 7.99730000
-54.12100000 9.34640000 5.29360000
-52.71840000 7.28210000 5.24480000
-53.55610000 9.65920000 2.51550000
-54.89660000 11.64050000 2.66050000
-55.38900000 11.41010000 5.30510000
-53.78480000 12.38280000 0.14440000
-52.47850000 10.46350000 -0.12620000
-52.14200000 13.33310000 -2.06240000
-50.83210000 11.41920000 -2.37520000
-50.22100000 14.24220000 -3.96140000
-48.81420000 12.36870000 -4.12400000
-47.64820000 15.31870000 -4.36880000
-46.22610000 13.53590000 -4.52080000
-45.10750000 16.62510000 -4.41210000
-43.74240000 15.05280000 -4.39720000
-42.42220000 13.64810000 -4.36090000
-41.56710000 16.81730000 -3.87540000
-40.43010000 15.55620000 -3.83760000
-39.19920000 14.47200000 -4.09680000
-37.73960000 16.26770000 -2.84810000
-38.82750000 17.38410000 -2.71490000
-36.61260000 15.73710000 -3.66720000
-38.04680000 13.79190000 -4.90000000
-35.76000000 15.96480000 -4.96430000
-37.23200000 13.87280000 -6.50460000
-34.88940000 16.36860000 -6.42830000
-36.42040000 14.16740000 -8.21530000
-34.08130000 16.66370000 -8.06410000
-35.52080000 14.44470000 -10.08340000
-32.91310000 17.05650000 -10.29250000
-34.30890000 14.74040000 -12.37590000
-31.17530000 17.30440000 -13.29540000
-27.80480000 19.68930000 -14.44270000
-26.75250000 21.83150000 -12.21630000
-24.12810000 21.83670000 -15.71200000
-23.06490000 23.93410000 -13.67860000
-25.64950000 23.80540000 -10.21970000
-20.28990000 23.98770000 -16.59800000
-21.23330000 21.88500000 -18.70240000
-17.32840000 24.00050000 -19.02860000
-18.05900000 21.86550000 -21.22420000
-14.15030000 23.95730000 -20.95910000
-13.55100000 26.12170000 -18.75520000
-16.44690000 26.05940000 -16.88530000
-10.41940000 26.03370000 -19.96040000
-9.91880000 28.13560000 -17.71330000
-12.81710000 28.22940000 -16.59880000
-6.94790000 28.03450000 -18.38160000
-6.68770000 30.25030000 -16.24110000
-9.41700000 30.28840000 -15.53150000
-3.93650000 30.22680000 -16.68720000
-3.86060000 32.74120000 -14.91730000
-6.43710000 32.78330000 -14.50610000
-1.31890000 32.66350000 -14.94500000
-1.38740000 35.49680000 -13.55960000
-3.78140000 35.56410000 -13.60890000
0.90840000 35.36290000 -13.11980000
-1.31530000 38.56370000 -12.72970000
0.94680000 38.47970000 -12.28170000
3.07940000 38.36750000 -11.67310000
1.10490000 41.69030000 -11.62290000
3.21280000 41.59010000 -10.97680000
5.12340000 41.39460000 -10.10090000
3.52010000 44.90500000 -10.34840000
5.35470000 44.70750000 -9.35080000
6.97230000 44.33640000 -8.32500000
5.94730000 48.13040000 -8.87150000
7.53390000 47.65060000 -7.80770000
9.01390000 47.06820000 -6.91150000
9.82050000 50.27700000 -6.82560000
8.35630000 51.04740000 -7.53780000
10.99720000 49.54930000 -5.62280000
11.91120000 52.56340000 -5.45380000
10.73540000 53.55200000 -6.72740000
12.73870000 51.79420000 -3.89730000
13.94410000 54.44290000 -3.53680000
13.20190000 55.45300000 -5.18320000
14.72110000 53.40720000 -1.69130000
16.27730000 55.53370000 -1.32320000
15.62060000 56.72310000 -3.06160000
16.90070000 54.35350000 0.83910000
18.33680000 56.99820000 -0.97440000
18.90450000 55.65830000 1.19980000
19.29320000 54.62750000 3.85460000
20.98290000 56.74870000 1.71010000
21.23000000 55.76170000 4.42770000
20.82910000 55.86490000 7.25470000
23.25580000 56.70500000 5.03740000
22.78590000 56.90230000 7.82180000
22.00610000 57.78730000 10.35270000
24.98600000 57.57460000 8.36770000
24.33300000 58.28360000 10.91190000
23.60880000 59.08080000 13.39590000
26.31640000 59.17450000 13.70140000
26.82910000 58.55690000 11.33820000
29.19770000 59.03210000 13.77360000
29.53470000 58.53560000 11.57700000
32.11490000 58.69870000 13.67540000
32.33600000 58.43460000 11.60320000
34.96140000 58.21350000 13.48260000
35.13930000 58.10820000 11.54550000
34.83000000 58.41620000 15.27020000
37.45060000 57.30640000 14.98520000
37.60570000 57.25550000 13.24810000
37.41040000 57.54640000 16.64640000
39.68900000 56.00710000 16.36480000
39.83440000 55.97010000 14.64540000
39.93930000 56.55740000 17.96200000
37.62800000 58.17640000 18.12760000
40.53300000 57.46890000 19.20650000
42.60650000 55.62630000 18.98270000
42.05330000 54.89820000 17.59710000
43.39020000 56.58650000 20.03100000
45.08230000 54.22710000 19.98940000
44.26920000 53.43060000 18.78500000
46.21570000 55.19940000 20.73850000
47.61840000 52.39270000 20.61870000
46.47070000 51.60080000 19.80040000
48.99470000 53.34270000 20.50490000
50.25880000 50.21780000 20.39330000
48.82260000 49.50390000 20.33850000
51.70490000 50.99400000 20.18320000
52.65610000 47.55060000 19.96000000
51.16800000 47.02310000 20.23990000
54.15780000 48.00100000 19.43140000
54.83800000 44.59190000 19.10400000
53.24540000 44.27940000 19.88790000
56.42500000 44.96970000 18.06730000
56.38480000 41.61020000 18.05250000
55.04090000 41.40730000 19.34950000
57.84410000 41.83790000 16.69590000
57.18190000 38.15110000 16.88680000
56.16950000 38.11210000 18.38200000
58.09410000 38.04120000 15.28630000
57.61830000 34.43460000 15.33660000
56.99290000 34.47800000 17.05250000
58.36170000 34.32410000 13.55570000
57.24640000 30.84180000 15.19570000
57.82870000 30.86150000 13.38370000
57.88410000 30.92040000 11.35410000
57.13680000 27.49020000 12.96330000
57.29250000 27.57060000 11.03230000
57.75470000 27.58550000 9.32110000
56.71860000 24.31750000 10.62360000
57.28130000 24.26850000 9.04470000
57.47580000 24.32620000 7.40330000
55.82260000 21.42710000 8.45720000
56.06990000 21.43400000 7.20060000
55.87560000 21.55290000 5.82120000
55.48920000 18.44730000 6.81170000
55.27780000 18.50960000 5.52430000
54.66390000 18.67340000 4.19810000
54.67040000 15.55370000 5.15330000
53.97350000 15.69680000 3.94480000
53.57420000 15.88570000 2.44150000
53.45620000 12.92470000 3.52630000
52.82970000 13.20190000 2.18680000
52.41670000 13.44290000 0.45190000
52.13930000 10.57050000 1.67790000
51.73390000 10.77970000 0.15320000
51.14360000 11.05660000 -1.38010000
51.01520000 8.04640000 -0.26990000
50.57180000 8.28640000 -1.76450000
50.10620000 8.59570000 -3.26860000
50.45150000 5.40730000 -2.29780000
50.20630000 5.57460000 -3.83590000
51.17550000 2.64310000 -2.72390000
50.93240000 2.58740000 -4.18070000
52.61320000 0.15640000 -3.59610000
52.78090000 0.35700000 -2.59070000
54.88750000 -1.92300000 -2.76360000
54.94290000 -1.67680000 -1.83100000
54.87680000 -2.24590000 -3.58190000
57.53880000 -4.05470000 -1.55620000
57.61550000 -4.52060000 -2.23660000
57.36580000 -3.63330000 -0.81740000
57.20800000 -3.33030000 -0.02660000
59.43200000 -4.92220000 1.39750000
55.04160000 -1.51210000 -0.84250000
55.13550000 -1.38090000 0.18240000
57.13110000 -3.05150000 1.04370000
53.07420000 0.48940000 -1.28170000
53.43730000 0.60670000 0.00900000
54.07220000 0.80130000 1.21430000
55.32140000 -1.25300000 1.24170000
52.11990000 2.81570000 0.27960000
51.40700000 2.62280000 -1.13430000
53.05980000 3.03500000 1.34920000
53.90040000 3.19620000 2.53170000
54.76170000 0.99040000 2.36450000
51.24290000 5.25100000 0.75820000
52.24960000 5.34400000 1.82760000
53.15080000 5.44120000 2.87460000
54.40280000 3.20040000 3.89910000
53.53850000 5.41780000 4.17970000
52.39340000 7.86940000 2.32020000
53.29440000 7.80360000 3.39260000
53.17180000 7.72000000 4.84570000
53.62470000 5.24700000 5.50460000
53.32320000 7.46170000 6.16720000
53.64920000 10.14870000 4.10260000
53.62640000 10.07600000 5.52100000
53.86830000 9.88070000 6.83200000
53.39420000 7.25550000 7.53480000
53.76650000 9.81010000 8.02040000
54.20610000 12.69510000 6.05210000
54.49300000 12.58050000 7.30990000
54.14960000 12.59720000 8.46930000
53.10920000 9.75990000 9.59080000
53.48750000 12.54910000 9.96030000
55.02130000 15.47320000 7.66310000
54.45290000 15.48070000 8.76950000
53.83320000 15.43800000 10.33940000
53.12110000 12.38450000 11.99690000
53.69470000 15.22360000 12.43570000
54.74910000 18.43130000 9.20890000
54.58440000 18.27810000 10.97240000
54.41490000 18.06540000 13.04100000
52.97550000 15.10790000 14.48450000
53.62620000 17.96450000 14.98000000
55.49710000 21.14670000 11.73390000
55.14710000 21.00250000 13.67360000
54.48600000 20.93100000 15.53100000
53.58130000 20.89900000 17.24770000
52.77740000 17.89750000 16.82080000
55.89560000 24.13050000 14.22050000
55.30210000 24.06420000 15.99740000
54.45420000 24.03590000 17.63590000
53.07990000 24.19050000 18.75790000
52.26340000 21.02070000 18.56060000
56.13150000 27.30330000 16.48640000
55.24080000 27.31690000 18.03940000
53.87810000 27.42900000 19.12850000
52.18730000 27.68700000 19.50680000
51.39390000 24.51100000 19.24110000
54.45950000 30.84570000 19.43280000
55.82420000 30.79830000 18.41040000
52.81130000 30.95530000 19.77300000
51.12270000 31.13010000 19.61670000
50.45190000 27.99930000 19.39180000
53.18910000 34.35880000 19.90680000
54.79360000 34.42360000 19.58700000
51.56430000 34.37090000 19.82790000
50.02260000 34.45180000 19.25040000
49.49400000 31.36760000 19.07280000
51.77020000 37.63500000 19.96350000
53.34140000 37.79170000 19.97910000
50.29260000 37.56020000 19.44970000
49.12070000 37.57160000 18.28610000
48.77240000 34.57430000 18.07310000
50.38360000 40.64460000 19.56680000
51.81780000 40.87200000 20.12070000
49.24960000 40.56000000 18.43780000
48.47170000 40.52990000 16.92230000
48.31530000 37.61860000 16.72020000
49.05180000 43.43390000 18.67320000
50.17310000 43.64220000 19.82860000
48.37110000 43.34890000 17.14290000
48.03250000 43.33470000 15.43990000
48.11620000 40.53430000 15.17660000
47.90150000 46.08320000 17.45530000
48.60260000 46.26400000 18.93860000
47.52710000 46.01630000 15.78850000
47.49100000 46.02830000 14.09770000
48.09250000 43.36460000 13.76960000
46.57180000 48.48520000 16.24390000
46.95060000 48.64350000 17.94470000
46.58090000 48.51080000 14.51420000
46.80340000 48.63060000 12.91740000
47.73590000 46.12270000 12.61570000
45.35690000 50.79980000 14.96540000
45.35080000 50.82130000 16.73420000
45.57410000 50.92260000 13.27530000
45.97420000 51.18140000 11.69760000
47.18520000 48.81560000 11.42400000
43.99900000 52.91520000 13.69620000
43.85750000 52.87720000 15.47000000
44.36600000 53.19620000 12.03580000
44.70100000 53.48550000 10.36430000
46.34720000 51.37790000 10.14270000
42.34610000 54.79620000 12.50890000
42.08650000 54.61540000 14.20780000
42.69000000 55.14930000 10.76470000
43.27760000 55.78590000 8.97110000
45.27140000 53.79630000 8.77100000
40.45280000 56.52840000 11.13640000
40.09060000 56.16040000 12.90220000
40.84300000 57.02000000 9.28150000
40.81830000 57.09670000 7.40480000
43.29160000 55.85730000 7.22040000
38.07670000 57.66520000 9.42730000
37.86350000 57.43330000 11.38520000
38.15990000 57.82710000 7.44520000
40.60450000 57.22520000 5.44810000
38.13500000 58.10640000 5.42080000
35.48150000 58.34140000 7.34710000
35.33770000 58.20680000 9.46450000
35.62860000 58.78000000 5.21330000
38.22080000 58.58300000 3.41690000
35.74750000 59.27810000 3.18000000
32.81850000 58.59230000 7.08660000
33.00810000 59.00090000 4.84680000
33.18090000 59.69600000 2.83020000
35.93220000 59.96760000 1.37260000
33.37160000 60.57570000 1.07970000
30.41180000 58.97460000 4.33380000
30.54230000 59.83030000 2.30270000
30.67930000 60.82730000 0.56400000
33.63350000 61.56690000 -0.31600000
30.89260000 61.90520000 -0.82540000
27.92610000 59.65770000 1.61820000
27.87000000 60.95340000 -0.06420000
27.98790000 62.33820000 -1.18740000
31.20310000 63.24570000 -1.74600000
28.23420000 63.90290000 -2.00630000
25.08130000 60.98020000 -0.65800000
25.33030000 59.41020000 0.89330000
22.86070000 58.96220000 0.17020000
22.46490000 60.61550000 -1.53170000
20.55030000 58.15430000 -0.48630000
20.13750000 59.60090000 -2.30810000
17.85910000 58.30130000 -2.77340000
17.33600000 59.64840000 -4.29510000
16.55510000 61.13930000 -4.90860000
14.97940000 57.90030000 -4.64930000
14.14280000 59.18610000 -5.71410000
15.48790000 62.32110000 -4.71350000
12.08260000 56.58210000 -6.43130000
16.45490000 64.80070000 -3.84640000
14.36160000 63.18340000 -4.44050000
17.17900000 67.25770000 -3.93070000
18.10120000 66.39970000 -3.74870000
15.55990000 65.75990000 -4.12540000
13.66740000 64.12930000 -4.96980000
15.07060000 66.51370000 -5.20720000
13.42340000 65.04850000 -5.89490000
11.06120000 63.34900000 -7.38070000
8.58680000 62.16130000 -9.26920000
8.93820000 63.47330000 -10.17950000
9.36090000 64.79590000 -11.07490000
6.41170000 63.21130000 -11.73370000
6.76990000 64.54590000 -12.67080000
6.14190000 61.63780000 -10.90370000
3.39110000 61.59290000 -12.23660000
3.56060000 63.22480000 -13.13360000
3.40570000 59.58510000 -11.70480000
0.36640000 59.57500000 -12.79850000
0.38670000 61.59270000 -13.64100000
3.28460000 57.29490000 -11.15410000
0.36190000 57.15010000 -12.25310000
-2.65700000 57.14680000 -12.71720000
-2.72300000 59.64380000 -13.34980000
2.96140000 54.65950000 -10.84970000
0.20480000 54.44480000 -11.84390000
-2.67190000 54.35000000 -12.32400000
-5.44530000 54.33980000 -12.18350000
-5.53320000 57.19180000 -12.67140000
-0.09120000 51.41740000 -11.75640000
-2.82150000 51.31900000 -12.09050000
-5.49350000 51.26190000 -11.98450000
-8.06640000 54.31730000 -11.62450000
-8.03120000 51.22180000 -11.40990000
-3.06560000 48.14770000 -12.07830000
-5.62140000 48.08410000 -11.97110000
-8.09780000 48.03970000 -11.38640000
-10.42930000 51.17200000 -10.45960000
-10.40780000 47.99480000 -10.34870000
-5.78100000 44.88730000 -12.01250000
-8.20400000 44.85400000 -11.40780000
-10.47620000 44.82590000 -10.32640000
-12.52430000 47.95680000 -8.95430000
-12.58750000 44.80200000 -8.96680000
-8.31660000 41.70760000 -11.49550000
-10.64420000 41.69610000 -10.55520000
-12.78670000 41.67150000 -9.21470000
-14.42580000 44.75260000 -7.19390000
-14.68120000 41.61320000 -7.47590000
-10.81310000 38.60060000 -10.89260000
-13.05030000 38.58050000 -9.63780000
-15.00900000 38.50920000 -7.92130000
-16.56270000 38.37730000 -5.76350000
-16.24390000 41.51690000 -5.41240000
-15.40040000 35.46830000 -8.50200000
-13.34920000 35.54970000 -10.25240000
-17.09580000 35.32680000 -6.33410000
-18.41170000 35.14030000 -3.83930000
-17.84240000 38.23690000 -3.38080000
-17.91150000 32.47240000 -7.22150000
-16.01440000 32.62050000 -9.46100000
-19.40920000 32.26210000 -4.60950000
-20.53710000 32.05350000 -1.67100000
-19.43170000 34.97290000 -1.13830000
-20.84240000 29.70150000 -5.63630000
-19.08360000 29.94810000 -8.45110000
-22.03080000 29.38450000 -2.41570000
-22.82490000 29.17220000 1.13480000
-21.19170000 31.83670000 1.52610000
-23.98800000 27.20620000 -3.39060000
-22.63910000 27.64950000 -6.94920000
-24.91730000 27.00720000 0.56400000
-25.11270000 26.77440000 5.21150000
-23.00700000 28.96390000 5.07390000
-26.95330000 25.03280000 -0.20960000
-26.00360000 25.24320000 -4.51380000
-26.99550000 24.92760000 5.41500000
-24.30710000 26.24200000 9.95530000
-21.31790000 28.68410000 12.71960000
-22.31500000 28.67190000 9.00620000
-22.92940000 25.92210000 14.05040000
-19.53200000 31.19400000 11.43120000
-20.62560000 31.40510000 8.29990000
-21.22000000 31.59610000 4.96490000
-19.39540000 34.43360000 7.83780000
-19.96270000 34.60280000 4.84730000
-20.00030000 34.78710000 1.81470000
-19.19950000 37.76860000 4.76880000
-19.47800000 37.95840000 1.94120000
-18.83440000 38.09230000 -0.79560000
-19.04060000 41.16070000 2.03040000
-18.46230000 41.27440000 -0.58640000
-17.49900000 41.39960000 -3.08310000
-18.28000000 44.49800000 -0.49040000
-17.34830000 44.58860000 -2.94320000
-16.02130000 44.67890000 -5.18810000
-17.29690000 47.77720000 -2.90760000
-15.95520000 47.85340000 -5.14290000
-14.36920000 47.91500000 -7.17260000
-16.00820000 51.01620000 -5.21130000
-14.41410000 51.07190000 -7.25940000
-12.58300000 51.11480000 -9.07150000
-14.61860000 54.18050000 -7.49130000
-12.72590000 54.23260000 -9.28300000
-10.49320000 54.28400000 -10.62540000
-13.00510000 57.21660000 -9.71420000
-10.73100000 57.21600000 -11.12230000
-8.22440000 57.22280000 -12.09190000
-8.53370000 59.81410000 -12.92210000
-11.10850000 59.85140000 -11.87080000
-5.71170000 59.71090000 -13.48120000
-5.93030000 61.85850000 -14.43190000
-8.90860000 61.97850000 -13.92530000
-2.77460000 61.64880000 -14.34490000
-2.76560000 63.12840000 -15.50260000
-6.05050000 63.27360000 -15.47600000
0.50640000 63.10920000 -14.61580000
0.64140000 64.50750000 -15.45380000
-2.73210000 64.34560000 -16.45290000
3.83090000 64.54800000 -14.09790000
4.13690000 65.70240000 -15.04460000
0.77500000 65.71310000 -16.22220000
7.18030000 65.74840000 -13.59570000
4.44570000 66.73150000 -15.87300000
7.60900000 66.84400000 -14.43190000
9.76700000 66.05470000 -11.91230000
10.31270000 67.07370000 -12.70020000
12.63200000 67.69080000 -10.86370000
10.86940000 67.98820000 -13.26240000
13.23960000 68.56390000 -11.37200000
14.37020000 68.05420000 -8.79240000
15.18480000 69.05740000 -9.13420000
15.57630000 68.21360000 -6.67700000
16.35850000 69.11130000 -6.96120000
17.37720000 68.90450000 -5.48560000
16.44280000 67.86440000 -5.04330000
18.53930000 68.46750000 -4.61560000
19.72480000 67.72680000 -4.69660000
19.49920000 69.48400000 -5.79660000
20.93070000 68.93370000 -5.95320000
18.18660000 69.90690000 -6.16750000
18.77470000 70.78280000 -6.83360000
20.27290000 70.65580000 -6.53810000
17.03440000 69.88490000 -7.38090000
17.65310000 70.60460000 -7.92170000
18.02340000 71.44230000 -8.15330000
19.17560000 71.75100000 -7.06010000
16.33420000 70.40140000 -9.81750000
15.79360000 69.70610000 -9.51290000
16.76050000 71.15480000 -10.06210000
18.12060000 72.37040000 -8.25950000
14.42060000 70.04750000 -12.02280000
13.83580000 69.29910000 -11.70790000
11.41530000 68.88460000 -13.75810000
8.03470000 67.74030000 -15.07230000
22.75540000 68.41200000 -5.85860000
24.91040000 68.04210000 -5.32550000
27.26240000 67.49820000 -4.60930000
29.71670000 66.72750000 -3.68270000
28.81830000 65.35830000 -2.89090000
31.68950000 64.60210000 -2.45860000
33.99600000 62.56950000 -1.43810000
36.17550000 60.66070000 -0.17920000
38.32060000 59.03410000 1.51900000
40.49050000 57.52290000 3.48980000
42.64030000 55.71050000 5.44190000
45.01900000 53.62560000 7.16420000
46.81940000 51.53530000 8.58230000
47.61680000 48.99100000 10.01260000
48.04140000 46.22920000 11.15630000
48.37090000 43.44390000 12.35310000
48.33980000 40.55940000 13.49430000
48.01450000 37.64400000 14.95810000
47.91700000 34.67050000 16.50340000
48.23690000 31.57030000 17.82700000
48.76640000 28.33560000 18.90120000
49.63560000 24.89820000 19.30830000
50.52300000 21.36540000 19.14070000
51.43440000 18.00730000 18.22970000
52.02380000 15.09920000 16.29510000
52.47740000 12.31510000 14.14580000
52.58480000 9.59940000 11.78120000
52.67640000 7.15540000 9.20140000
52.59970000 4.67200000 8.90740000
53.49060000 5.02440000 7.04300000
53.51170000 2.56070000 8.79880000
54.49160000 2.97670000 7.03380000
54.63180000 3.14490000 5.38440000
55.45630000 0.97310000 5.38210000
55.28210000 1.06120000 3.74810000
-19.30750000 28.25750000 15.59230000
-20.76330000 25.72010000 17.30210000
-18.25500000 25.73540000 19.96780000
-22.10320000 23.39170000 19.26440000
-19.24320000 23.38570000 22.02460000
-16.25050000 23.27380000 24.18070000
-20.06300000 21.03960000 24.23700000
-16.92220000 20.89500000 26.39830000
-13.68880000 20.85950000 28.21960000
-17.56560000 18.59250000 28.78160000
-14.14190000 18.46840000 30.51410000
-10.61340000 18.40930000 31.81410000
-14.53520000 16.03920000 32.85990000
-10.82630000 15.97340000 34.12600000
-7.02060000 15.88000000 34.85940000
-10.99970000 13.50000000 36.44000000
-7.00160000 13.41540000 37.13750000
-2.94580000 13.45650000 37.46270000
-6.91240000 10.85650000 39.30100000
-2.67130000 10.90400000 39.59540000
1.53480000 10.91430000 39.37310000
-2.39480000 8.33320000 41.70830000
2.00370000 8.42790000 41.53580000
-2.11540000 5.76940000 43.82100000
2.45220000 5.85730000 43.60480000
-1.85860000 3.19590000 45.93090000
2.89610000 3.24460000 45.62860000
-1.59730000 0.57320000 47.94840000
3.33400000 0.63270000 47.63060000
8.17590000 0.71570000 46.70100000
3.77110000 -1.99160000 49.60410000
8.80500000 -1.88500000 48.65590000
13.69900000 -1.71420000 47.20020000
9.41510000 -4.56800000 50.43750000
14.47010000 -4.42490000 48.86780000
19.26740000 -4.26020000 46.80210000
15.11790000 -7.32330000 50.22530000
20.02610000 -7.15700000 48.10220000
24.68530000 -6.94290000 45.60830000
25.37490000 -9.96620000 46.61620000
