20.50840000 -147.95010000 -12.53600000
15.57030000 -148.50550000 -13.52530000
6.98860000 -147.53670000 -13.01750000
7.28500000 -142.66680000 -11.68990000
20.01650000 -149.12030000 -13.01550000
23.34300000 -151.35260000 -12.65080000
19.56080000 -150.10110000 -13.58540000
26.26100000 -153.57970000 -12.11160000
22.71950000 -152.80220000 -13.19490000
25.84360000 -155.14890000 -12.88990000
24.57360000 -124.06570000 -6.90590000
25.87380000 -123.95970000 -4.54200000
22.26820000 -124.38810000 -8.98260000
22.43830000 -123.46650000 -9.28370000
25.33670000 -123.14130000 -7.37470000
27.25630000 -122.96830000 -8.40840000
18.96120000 -124.71000000 -10.10880000
19.00770000 -123.57910000 -10.45960000
19.20460000 -123.08020000 -11.18520000
23.10930000 -123.05120000 -10.18390000
27.56530000 -122.04670000 -11.08000000
31.33700000 -121.49040000 -10.75890000
19.00910000 -126.18650000 -9.96350000
15.10680000 -124.85740000 -10.55600000
15.12840000 -123.57170000 -10.85550000
15.17670000 -122.89930000 -11.72150000
19.39790000 -122.18560000 -12.36330000
23.56180000 -122.24400000 -11.71240000
15.15370000 -126.47140000 -10.49210000
11.02910000 -125.09000000 -10.84310000
11.02390000 -123.64250000 -11.05380000
11.57120000 -136.20540000 -10.96170000
6.92900000 -128.50580000 -10.80950000
6.86160000 -124.91580000 -10.93780000
6.84110000 -123.44750000 -11.18290000
7.19940000 -136.51390000 -11.01430000
2.86150000 -136.78610000 -10.86930000
2.71660000 -128.25020000 -10.67360000
2.66600000 -124.86040000 -10.88350000
2.63210000 -123.41230000 -11.14140000
2.55890000 -122.40860000 -12.11910000
7.29320000 -139.87890000 -11.24030000
-1.46260000 -137.03410000 -10.65890000
-1.48190000 -128.26480000 -10.36070000
-1.51510000 -124.78870000 -10.54220000
-1.55550000 -123.40120000 -10.83490000
-1.34830000 -142.68710000 -11.32880000
-5.75770000 -140.37080000 -10.60030000
-5.77490000 -137.19180000 -10.33990000
-5.69700000 -130.84000000 -10.03230000
-5.66670000 -126.33430000 -9.98870000
-5.68680000 -124.72640000 -10.08060000
-1.22550000 -146.15720000 -12.21180000
-5.63790000 -142.76900000 -11.05340000
-10.02270000 -140.61790000 -10.19140000
-10.01250000 -137.21170000 -9.85970000
-9.86770000 -130.55980000 -9.54120000
-1.19080000 -147.38740000 -12.62020000
-8.81600000 -147.71980000 -12.20610000
-9.55190000 -144.74690000 -11.15400000
-13.90190000 -143.40300000 -10.25080000
-1.19550000 -148.43140000 -13.10150000
-4.95440000 -148.53210000 -12.89010000
-8.39050000 -148.96820000 -12.79710000
-14.42520000 -151.21480000 -12.66550000
2.78670000 -148.56590000 -13.27730000
2.68140000 -149.17690000 -14.10670000
-1.23910000 -148.96890000 -14.00850000
-4.93310000 -149.10160000 -13.80670000
-7.99730000 -149.91340000 -13.63340000
-10.98900000 -151.36000000 -13.56240000
6.88790000 -148.66820000 -13.41160000
6.76710000 -149.38250000 -14.09440000
6.53910000 -149.40240000 -15.15630000
2.60840000 -149.03370000 -15.18690000
-1.17650000 -148.55420000 -16.26330000
-4.97800000 -148.86160000 -14.92040000
15.35560000 -149.44490000 -14.02780000
10.97260000 -149.61120000 -14.07740000
10.67860000 -149.82980000 -15.04490000
10.55290000 -149.99530000 -16.03470000
6.47760000 -149.45610000 -16.23500000
2.61980000 -148.94930000 -16.30520000
19.35720000 -151.09680000 -14.43100000
15.10280000 -150.20010000 -14.83020000
14.83610000 -150.60220000 -15.73960000
14.61730000 -151.50320000 -16.53090000
10.45160000 -150.79380000 -16.87030000
22.77720000 -153.43320000 -14.28450000
19.24590000 -151.57790000 -15.39360000
18.76060000 -152.38530000 -16.23580000
18.20540000 -153.49910000 -17.04400000
10.24700000 -151.85310000 -17.54590000
6.43820000 -150.15980000 -17.13900000
26.13750000 -155.41830000 -14.34670000
22.69950000 -153.57890000 -15.51800000
22.25050000 -154.32460000 -16.74120000
21.75550000 -155.09200000 -17.94280000
17.77990000 -154.40680000 -18.12020000
29.19670000 -156.43230000 -12.66010000
29.51260000 -156.58980000 -13.97600000
26.09520000 -155.41030000 -15.60080000
26.04180000 -155.67500000 -17.06510000
25.73400000 -156.88620000 -17.69260000
21.60810000 -156.43050000 -18.57450000
29.60250000 -156.39560000 -15.35280000
25.40030000 -158.25840000 -18.03720000
21.25370000 -158.13750000 -19.14780000
25.09250000 -160.20690000 -18.72640000
20.81210000 -160.32560000 -19.99320000
34.52390000 -118.25920000 -12.73680000
31.02790000 -119.37060000 -13.23520000
33.31360000 -115.52440000 -14.76110000
27.29290000 -119.97130000 -13.67780000
30.18280000 -116.37250000 -15.14430000
19.36270000 -120.21540000 -14.29480000
26.70050000 -116.81310000 -15.55720000
15.24250000 -122.03050000 -12.89270000
11.03310000 -121.79020000 -13.28630000
10.96840000 -120.43220000 -14.64480000
10.74890000 -117.14440000 -16.29910000
19.01190000 -116.94970000 -16.06170000
2.46600000 -121.56800000 -13.35650000
6.67820000 -120.15340000 -14.70840000
6.51090000 -116.93220000 -16.29300000
10.61770000 -113.09300000 -17.41850000
-5.91290000 -122.45660000 -11.49330000
-1.83260000 -121.54290000 -13.14290000
-6.20910000 -119.75070000 -14.10790000
-2.01970000 -116.44220000 -16.03630000
2.21560000 -112.60380000 -17.35540000
-5.74490000 -123.36490000 -10.40280000
-9.90840000 -123.07640000 -9.89220000
-14.23480000 -122.49780000 -10.48860000
-10.29480000 -121.55480000 -12.30150000
-14.63020000 -119.45530000 -13.18370000
-6.27370000 -116.25220000 -15.78050000
-9.83700000 -124.48740000 -9.54480000
-13.91140000 -124.49810000 -8.87150000
-14.00730000 -123.10850000 -9.30460000
-18.01170000 -123.11860000 -8.59740000
-18.30100000 -122.49570000 -9.74710000
-18.56250000 -121.52670000 -11.00660000
-9.81760000 -126.14470000 -9.47670000
-13.90190000 -126.20650000 -8.81340000
-17.87950000 -124.40630000 -8.05320000
-21.70440000 -124.08000000 -7.13480000
-21.88610000 -122.93600000 -7.73700000
-13.97960000 -130.56900000 -8.90680000
-18.04780000 -130.29850000 -8.14880000
-21.73490000 -125.51270000 -7.04750000
-25.00970000 -125.08420000 -5.56770000
-25.04870000 -123.90930000 -5.64290000
-14.14510000 -137.04860000 -9.26300000
-18.21800000 -136.75230000 -8.55930000
-22.21540000 -136.25560000 -7.64460000
-25.17910000 -129.07340000 -5.86120000
-27.51950000 -126.41840000 -3.78020000
-27.61050000 -124.58340000 -3.54970000
-18.13680000 -140.51060000 -9.05220000
-22.27760000 -139.83180000 -8.10960000
-26.25410000 -138.98800000 -6.67420000
-25.75370000 -135.60540000 -6.37690000
-28.25450000 -135.17010000 -4.43530000
-27.79470000 -131.67150000 -4.23740000
-17.82560000 -143.17060000 -9.68250000
-22.16820000 -142.63710000 -8.74960000
-26.58570000 -141.66010000 -7.11480000
-29.02540000 -138.46650000 -4.56200000
-29.81890000 -134.95920000 -2.05950000
-29.36290000 -131.56500000 -1.94870000
-22.09960000 -145.25890000 -9.72970000
-27.32360000 -143.40670000 -7.64260000
-30.14730000 -141.27980000 -4.59000000
-30.55910000 -138.13010000 -2.00890000
-30.72680000 -137.77210000 0.85430000
-30.17880000 -134.79050000 0.64390000
-22.09890000 -148.87800000 -10.99360000
-24.73230000 -146.51090000 -9.85120000
-28.73260000 -144.58730000 -7.87040000
-31.31460000 -142.90810000 -4.56670000
-31.33380000 -140.84520000 -1.79170000
-31.32010000 -140.07720000 1.24390000
-18.15490000 -150.18260000 -11.84950000
-20.62690000 -150.94130000 -11.86590000
-22.48510000 -151.50270000 -12.26670000
-23.85040000 -149.72330000 -11.29390000
-26.36740000 -147.14170000 -10.25530000
-17.21540000 -151.89350000 -12.55710000
-19.55440000 -152.48740000 -12.75530000
-21.49730000 -152.79360000 -13.31340000
-23.40220000 -153.30290000 -13.75570000
-24.31470000 -151.79280000 -13.11910000
-25.44350000 -149.67790000 -12.21010000
-16.20430000 -153.08380000 -13.88180000
-18.43270000 -153.36740000 -14.14220000
-20.54690000 -154.00540000 -14.23690000
-22.62180000 -154.66020000 -14.36290000
-25.26510000 -155.12590000 -14.49070000
-26.31730000 -152.11820000 -13.37290000
-13.86370000 -152.53910000 -13.72620000
-15.15980000 -154.13920000 -15.27430000
-17.21370000 -154.82230000 -15.11670000
-19.44330000 -155.42660000 -14.91140000
-20.98930000 -157.38620000 -15.52080000
-23.31230000 -159.32020000 -16.26190000
-13.20620000 -153.28980000 -15.45690000
-13.65280000 -155.93750000 -15.72290000
-15.58160000 -156.52460000 -15.66160000
-18.19290000 -156.89340000 -15.51650000
-20.09150000 -158.69000000 -16.16210000
-10.81250000 -151.64820000 -14.93190000
-12.92200000 -152.86910000 -16.61710000
-12.39830000 -155.50710000 -16.14000000
-11.40220000 -157.87350000 -16.02390000
-13.18820000 -158.59340000 -16.00510000
-16.87750000 -158.38730000 -16.04010000
-8.14350000 -150.04790000 -14.87600000
-10.91850000 -151.04450000 -16.17660000
-13.04830000 -152.44020000 -17.75250000
-12.39190000 -155.13440000 -17.42910000
-10.69590000 -157.60610000 -17.03360000
-8.14780000 -149.58360000 -16.09410000
-10.91150000 -150.50190000 -17.45260000
-12.89690000 -152.17030000 -18.97480000
-12.44870000 -154.82710000 -18.71800000
-10.52990000 -157.21050000 -18.30770000
-4.93890000 -148.56720000 -16.07680000
-7.96400000 -149.21830000 -17.38110000
-10.63660000 -150.37630000 -18.70840000
-11.28290000 -151.96980000 -19.90270000
-11.97340000 -154.36110000 -20.18340000
-10.38930000 -156.86180000 -19.55410000
-4.70770000 -148.59890000 -17.34190000
-7.60000000 -149.71020000 -18.48360000
-9.62910000 -151.19760000 -19.60590000
-10.44610000 -153.32290000 -20.33610000
-9.94480000 -156.28200000 -20.65020000
-1.07950000 -148.96970000 -17.36550000
-4.43920000 -149.58280000 -18.25670000
-7.04890000 -150.74920000 -19.27150000
-8.73110000 -152.54290000 -20.13640000
-8.89280000 -154.99720000 -20.66360000
-1.00010000 -150.02600000 -18.18950000
-6.52770000 -152.10830000 -19.87270000
-6.07170000 -153.27470000 -20.29450000
0.83780000 -158.18310000 -20.80720000
-3.99000000 -159.57430000 -20.97780000
-7.04770000 -157.93280000 -20.88910000
9.93130000 -153.29800000 -18.58510000
9.50680000 -155.20970000 -19.76230000
2.16830000 -153.79420000 -19.88480000
5.05830000 -157.06150000 -20.76630000
13.88790000 -153.64460000 -18.27930000
13.39930000 -155.46720000 -19.53620000
12.73320000 -157.95640000 -20.53940000
17.38800000 -155.98790000 -19.20350000
16.90300000 -158.01120000 -20.00560000
16.45270000 -160.60070000 -20.74200000
12.09510000 -160.72540000 -21.09600000
7.91510000 -160.56630000 -21.14810000
4.25170000 -159.52440000 -20.94250000
11.54450000 -162.86210000 -21.04080000
6.15180000 -165.91440000 -20.85330000
2.86340000 -162.93380000 -20.98100000
-0.74080000 -161.22540000 -21.01030000
2.08990000 -164.29960000 -20.82820000
10.64060000 -108.81990000 -18.25550000
2.32240000 -108.23120000 -18.14910000
6.63960000 -104.24620000 -18.83550000
-1.50650000 -103.39200000 -18.65640000
-6.19700000 -112.00920000 -16.96070000
-5.90030000 -107.48040000 -17.78960000
-9.43850000 -102.49260000 -18.23000000
-18.10700000 -110.87410000 -15.74360000
-13.83070000 -106.80570000 -17.16070000
-22.88740000 -101.43570000 -17.10050000
-18.67500000 -115.38250000 -14.50940000
-24.52480000 -110.03290000 -14.86590000
-24.74140000 -101.26640000 -16.94280000
-18.75040000 -119.26950000 -12.63410000
-22.46530000 -115.00420000 -13.91520000
-33.45530000 -106.34430000 -14.01660000
-25.76570000 -105.37360000 -15.72480000
-22.76000000 -118.91090000 -12.08420000
-26.58710000 -118.34350000 -11.46440000
-28.69180000 -113.55380000 -12.98920000
-22.59160000 -121.55550000 -10.06760000
-26.49030000 -121.13470000 -9.46280000
-30.02130000 -117.49810000 -10.91540000
-32.96050000 -116.35320000 -10.54690000
-37.26330000 -113.50600000 -10.51040000
-35.93040000 -109.50470000 -12.47080000
-22.25040000 -122.49330000 -8.74630000
-26.16110000 -122.46830000 -7.30640000
-30.27910000 -120.75980000 -8.45010000
-33.77470000 -120.00560000 -7.67560000
-36.75570000 -118.57200000 -7.40820000
-25.44250000 -122.90670000 -6.08780000
-28.62580000 -122.94080000 -3.86640000
-30.30570000 -122.42230000 -4.96990000
-34.08310000 -121.61300000 -4.15950000
-27.74260000 -123.66130000 -3.56070000
-29.38310000 -123.21630000 -1.15070000
-30.34430000 -122.70610000 -1.25200000
-37.32510000 -120.82590000 -3.21630000
-40.33790000 -119.27560000 -3.38300000
-39.92040000 -116.82060000 -7.04310000
-28.90010000 -124.27870000 -1.20060000
-29.16480000 -124.33530000 1.12710000
-29.91760000 -123.10430000 1.22230000
-28.89170000 -126.15870000 -1.47900000
-29.19180000 -126.13680000 0.91550000
-29.99560000 -123.10550000 3.71250000
-31.15550000 -122.46340000 1.29230000
-29.16860000 -128.61910000 3.27740000
-29.83270000 -134.46490000 3.34180000
-28.93340000 -133.92870000 5.83880000
-30.27150000 -137.05430000 3.66870000
-29.35620000 -136.12840000 6.24120000
-30.67950000 -139.04970000 4.20590000
-29.67350000 -137.76430000 6.77810000
-31.12990000 -140.45370000 4.92450000
-29.94990000 -138.93210000 7.51170000
-32.00180000 -141.57060000 1.71520000
-31.63250000 -141.73030000 5.63750000
-30.26460000 -140.12830000 8.33900000
-28.19700000 -138.61520000 9.77730000
-32.28810000 -142.28110000 -1.62700000
-32.66370000 -142.89840000 2.19970000
-33.40840000 -143.91410000 2.61560000
-32.20780000 -142.68260000 6.37570000
-30.56060000 -141.17770000 9.24940000
-28.37050000 -139.80720000 10.51670000
-31.92930000 -143.83830000 -4.81480000
-33.25650000 -143.53920000 -1.50960000
-34.17840000 -144.45970000 -1.42030000
-35.24540000 -144.95030000 -1.28880000
-34.49880000 -144.25010000 3.03570000
-33.19490000 -142.63510000 6.92980000
-30.26180000 -145.42050000 -7.90020000
-33.47350000 -145.01340000 -4.72880000
-34.68680000 -145.41790000 -4.74710000
-36.11470000 -145.38880000 -5.22740000
-36.25280000 -144.52480000 -0.93770000
-35.41290000 -143.28620000 3.15110000
-27.15360000 -147.17160000 -11.12790000
-31.79850000 -145.59280000 -8.27370000
-36.95190000 -145.45660000 -7.50940000
-37.63860000 -144.77300000 -4.74550000
-37.19030000 -143.18780000 -0.74330000
-27.25560000 -148.67860000 -13.13610000
-31.31510000 -145.22600000 -10.44230000
-36.74960000 -145.09840000 -9.12220000
-38.84670000 -145.10070000 -9.34070000
-39.09040000 -145.39650000 -7.63410000
-26.89200000 -150.32500000 -12.90650000
-28.92890000 -149.46380000 -12.83490000
-27.80200000 -148.58040000 -14.12430000
-27.87370000 -146.81490000 -14.42670000
-29.04200000 -146.03610000 -13.39620000
-32.02650000 -152.48240000 -12.08860000
-32.09200000 -151.24360000 -11.80150000
-32.14720000 -150.23790000 -11.99590000
-30.63000000 -149.55620000 -13.43700000
-29.10700000 -149.24340000 -13.78380000
-31.86870000 -153.99410000 -12.64720000
-33.58120000 -154.16390000 -12.69100000
-33.74650000 -152.67660000 -12.06310000
-33.86380000 -151.46480000 -11.80140000
-33.56890000 -150.36150000 -12.31740000
-33.25130000 -150.03330000 -12.95300000
-26.82130000 -160.30170000 -16.08350000
-29.86210000 -160.95410000 -15.70890000
-31.81110000 -157.58130000 -14.14620000
-33.27180000 -155.59210000 -13.72920000
-34.66160000 -153.83310000 -13.95020000
-35.01890000 -152.59660000 -13.06190000
-26.47110000 -161.35330000 -17.12730000
-29.91830000 -162.28170000 -17.31550000
-32.91940000 -160.81210000 -16.41850000
-32.39450000 -159.39680000 -15.00400000
-33.41310000 -157.24020000 -15.26200000
-34.14890000 -154.86560000 -15.23390000
-22.81890000 -160.31430000 -17.32370000
-26.56020000 -161.47550000 -18.66730000
-30.16600000 -162.60730000 -18.61740000
-33.27230000 -161.73210000 -18.03360000
-35.19120000 -160.01480000 -17.57350000
-34.24640000 -158.78740000 -16.37150000
-19.31340000 -159.67680000 -17.10680000
-22.55060000 -160.51080000 -18.89680000
-26.52950000 -161.64690000 -20.06160000
-30.27420000 -162.95670000 -19.71100000
-34.04870000 -162.65120000 -18.76350000
-36.45210000 -161.38430000 -17.87650000
-16.12800000 -159.56460000 -16.69130000
-18.66530000 -159.90880000 -18.67500000
-22.23020000 -161.00620000 -20.38760000
-26.08220000 -162.95190000 -20.24220000
-30.09600000 -163.99330000 -19.88820000
-34.17400000 -163.60870000 -19.13280000
-12.79040000 -159.74940000 -16.38660000
-15.51130000 -160.15980000 -17.87720000
-18.05320000 -160.93280000 -20.00670000
-21.74130000 -162.26060000 -20.42420000
-25.71350000 -165.67790000 -19.98270000
-9.32840000 -160.84340000 -16.10570000
-9.57260000 -161.69060000 -16.28620000
-12.75260000 -160.95060000 -17.36250000
-14.98570000 -161.36930000 -18.71210000
-17.51610000 -162.63560000 -20.01160000
-8.52810000 -160.16740000 -16.79530000
-6.12480000 -162.76520000 -16.07120000
-6.97410000 -163.71140000 -15.72180000
-9.41800000 -166.24890000 -17.46120000
-11.81680000 -162.93820000 -17.73220000
-14.20780000 -162.90470000 -18.88010000
-7.91910000 -159.46660000 -17.84060000
-7.58870000 -158.81440000 -18.75070000
-7.51640000 -158.61430000 -20.00480000
-4.55910000 -160.43990000 -20.32690000
-1.49080000 -162.46110000 -20.62470000
-12.08990000 -167.49080000 -18.60330000
-13.35550000 -164.55860000 -18.86910000
-16.77120000 -168.60700000 -19.29040000
-16.91260000 -165.77510000 -19.71000000
-17.24150000 -164.23230000 -19.87640000
-21.27220000 -168.30000000 -19.60300000
-21.43920000 -165.31250000 -20.10780000
-25.49900000 -168.44340000 -19.43630000
-29.87070000 -166.29460000 -19.67700000
-29.65150000 -168.71160000 -19.05080000
-33.94410000 -166.89140000 -19.24280000
-33.75120000 -169.06050000 -18.49500000
-34.03220000 -165.79470000 -19.38770000
-34.08140000 -164.72210000 -19.42700000
-47.23410000 -169.04940000 -14.74200000
-42.68210000 -168.61270000 -17.19170000
-42.43380000 -169.60830000 -16.50260000
-37.96400000 -169.34950000 -17.75390000
-41.07750000 -119.68810000 -0.56030000
-38.03140000 -120.91320000 0.24160000
-34.79040000 -121.58140000 2.00700000
-36.78170000 -121.13080000 2.77850000
-32.85080000 -122.01680000 1.49280000
-33.09540000 -121.71890000 4.05190000
-34.39300000 -121.32880000 4.41320000
-31.41400000 -122.29920000 3.79580000
-31.66320000 -121.91880000 7.14630000
-32.75070000 -121.43090000 7.67450000
-30.46950000 -122.47020000 6.71060000
-28.60790000 -122.24580000 9.65600000
-26.33370000 -138.02950000 11.27410000
-26.95140000 -138.27700000 11.75780000
-23.59970000 -138.33570000 12.25330000
-24.26720000 -137.65360000 12.95820000
-21.07930000 -139.29900000 13.94340000
-22.38220000 -137.85580000 15.00430000
-18.88590000 -140.09590000 15.95100000
-19.22580000 -139.25590000 17.68440000
-29.18140000 -139.91780000 11.73700000
-27.70200000 -137.84670000 12.45110000
-25.37850000 -136.71240000 13.36990000
-24.91200000 -135.37890000 15.20810000
-23.82940000 -135.61460000 16.71940000
-21.07570000 -137.66660000 17.89350000
-31.44100000 -141.50750000 10.24290000
-30.51930000 -139.35640000 12.19610000
-28.62280000 -137.20650000 12.88730000
-27.08720000 -135.29970000 13.84930000
-26.95400000 -133.58180000 15.60490000
-25.81660000 -133.75200000 17.06660000
-34.07790000 -141.68440000 7.09150000
-32.60090000 -140.33770000 10.43120000
-31.40750000 -138.21730000 12.67770000
-29.88340000 -136.02190000 13.49150000
-28.92220000 -133.75770000 14.49860000
-36.20960000 -141.97050000 3.17270000
-34.90210000 -140.43700000 7.25800000
-33.50720000 -139.17240000 10.40580000
-32.66140000 -136.76240000 13.09090000
-30.72220000 -132.10220000 15.30700000
-29.08260000 -131.51380000 16.12890000
-38.07610000 -141.12080000 -0.65150000
-37.02570000 -140.32840000 3.11820000
-35.77480000 -138.98830000 7.28810000
-34.51370000 -137.54610000 10.61050000
-33.51630000 -135.40720000 13.65550000
-39.26280000 -141.22780000 -3.13620000
-38.94890000 -138.16350000 -0.48740000
-37.94000000 -138.20230000 2.85720000
-36.97070000 -136.93850000 6.92010000
-35.77280000 -135.51220000 11.03680000
-39.94380000 -144.13100000 -5.60870000
-40.97500000 -140.97000000 -4.51280000
-40.15850000 -137.61760000 -2.72980000
-39.76230000 -134.74620000 -0.07840000
-38.89710000 -135.40200000 2.53570000
-38.03160000 -135.09710000 6.10590000
-40.68670000 -145.63480000 -8.12430000
-41.65950000 -144.18370000 -6.44420000
-42.77740000 -141.10430000 -5.32100000
-41.91030000 -137.28850000 -4.04170000
-41.25420000 -133.99190000 -1.88440000
-40.73840000 -145.47630000 -9.69690000
-41.79730000 -146.61570000 -8.26930000
-43.21630000 -144.44670000 -6.62210000
-44.09600000 -137.28010000 -4.26870000
-43.24820000 -133.65610000 -2.92330000
-38.93730000 -145.03650000 -11.01630000
-40.73610000 -145.51390000 -10.97150000
-41.58220000 -146.63240000 -9.81830000
-41.50190000 -148.05150000 -9.15940000
-42.90030000 -147.61370000 -7.99980000
-36.78450000 -144.94390000 -10.92190000
-36.98540000 -145.41280000 -12.65150000
-39.08650000 -145.52750000 -12.39790000
-40.53280000 -145.68450000 -12.09150000
-42.04740000 -146.73120000 -11.17950000
-41.59970000 -148.00970000 -10.17150000
-34.43570000 -145.00170000 -11.13890000
-32.54400000 -145.33540000 -13.24290000
-33.43340000 -145.97490000 -14.54420000
-37.47380000 -146.09080000 -13.90720000
-39.68200000 -146.21300000 -13.48180000
-41.44120000 -146.45050000 -12.69240000
-31.82770000 -145.09840000 -11.96550000
-30.48240000 -145.74740000 -14.03330000
-31.67920000 -146.15820000 -15.04860000
-32.47540000 -146.90950000 -15.89160000
-35.92550000 -147.01700000 -15.25590000
-37.91780000 -147.13920000 -14.85790000
-29.13820000 -146.45850000 -15.06290000
-29.20630000 -147.01880000 -16.33120000
-30.14420000 -147.30280000 -16.62950000
-31.45360000 -147.89220000 -16.98670000
-36.37230000 -148.14540000 -16.06610000
-28.08210000 -147.14530000 -15.87800000
-28.34710000 -147.70440000 -17.06240000
-29.96700000 -147.85590000 -17.14090000
-31.49070000 -148.86290000 -17.36430000
-34.73090000 -149.04690000 -16.73900000
-26.82130000 -147.60970000 -15.28180000
-27.56250000 -147.80510000 -16.60250000
-28.10600000 -149.17960000 -16.68750000
-28.42550000 -148.57730000 -17.46350000
-29.79010000 -148.78190000 -17.52240000
-27.58710000 -148.71300000 -14.93250000
-26.67620000 -148.25360000 -15.97830000
-27.69430000 -149.11200000 -15.81690000
-29.37320000 -149.58770000 -15.72230000
-29.60240000 -149.49640000 -16.70020000
-31.35950000 -149.63670000 -16.56700000
-29.22420000 -149.32070000 -14.76720000
-30.79720000 -149.55870000 -14.55190000
-32.36580000 -149.71270000 -14.23670000
-31.07960000 -149.79190000 -15.57460000
-32.73440000 -149.90600000 -15.20380000
-34.52030000 -149.82250000 -15.77150000
-36.37050000 -149.33580000 -16.37650000
-33.85090000 -150.02070000 -13.63710000
-34.16030000 -150.11550000 -14.69490000
-34.50540000 -150.45590000 -13.22350000
-35.16440000 -150.69020000 -14.32960000
-35.77830000 -150.32940000 -15.34660000
-34.98530000 -151.47800000 -12.88240000
-35.73710000 -151.47500000 -14.07440000
-37.04760000 -151.32590000 -14.97920000
-37.97990000 -149.85490000 -15.78050000
-35.88960000 -152.80690000 -14.41030000
-37.15990000 -152.93170000 -15.00480000
-38.78260000 -151.42560000 -14.51570000
-40.04260000 -149.91110000 -14.96650000
-38.38450000 -148.32390000 -15.62270000
-35.95140000 -154.07640000 -15.31360000
-37.38190000 -154.52300000 -15.39320000
-38.57530000 -153.05620000 -14.63950000
-39.57870000 -152.21540000 -13.46420000
-40.63650000 -150.63800000 -13.50190000
-40.63100000 -148.45130000 -14.91840000
-36.29080000 -155.65440000 -15.98050000
-38.06780000 -156.01320000 -15.57420000
-38.82770000 -154.61790000 -14.73010000
-39.20190000 -153.90340000 -13.52160000
-39.43310000 -152.67570000 -12.15480000
-40.40830000 -150.93950000 -11.91180000
-35.16540000 -156.90190000 -16.44740000
-37.25180000 -157.48580000 -16.32540000
-38.84940000 -157.42530000 -15.67420000
-39.49760000 -156.07240000 -14.66620000
-39.35980000 -155.46690000 -13.53420000
-38.87780000 -154.40580000 -11.02670000
-36.41210000 -158.47630000 -16.97920000
-38.20760000 -158.77510000 -16.33440000
-39.38880000 -158.44730000 -15.71670000
-40.41880000 -157.18480000 -14.90680000
-40.71180000 -156.82710000 -13.21350000
-39.21150000 -155.86450000 -12.32240000
-37.50510000 -159.94530000 -17.06350000
-39.26670000 -160.28600000 -15.40260000
-40.85030000 -158.95180000 -14.94100000
-42.21420000 -156.88040000 -13.90430000
-42.87840000 -155.73020000 -11.80020000
-40.63490000 -156.70120000 -11.68880000
-38.40660000 -161.51570000 -16.67350000
-39.08190000 -161.86020000 -15.10080000
-40.56160000 -160.89870000 -13.28310000
-40.83020000 -160.03780000 -13.41710000
-42.93120000 -158.07480000 -13.95130000
-44.11160000 -155.69590000 -12.60550000
-38.33460000 -163.06460000 -17.61250000
-39.80590000 -162.93480000 -16.29860000
-40.35590000 -163.11700000 -15.44530000
-40.64120000 -162.02220000 -13.37090000
-42.88490000 -161.73930000 -12.42630000
-42.77590000 -160.55480000 -12.24520000
-38.34070000 -164.16520000 -18.41270000
-42.88600000 -163.79420000 -16.45850000
-43.02030000 -163.34360000 -15.58740000
-43.23890000 -163.20770000 -14.18520000
-41.33900000 -163.09760000 -14.00780000
-38.31600000 -165.18700000 -18.81570000
-43.00590000 -164.95640000 -17.48780000
-47.25220000 -165.49010000 -14.83910000
-46.94670000 -164.54970000 -14.40950000
-46.76380000 -163.48710000 -13.57600000
-38.27670000 -166.26500000 -18.79020000
-42.99860000 -165.91650000 -17.68580000
-47.43540000 -166.46800000 -15.12410000
-51.24340000 -166.04550000 -12.01540000
-50.96830000 -165.04320000 -11.79030000
-38.18490000 -167.34960000 -18.63280000
-42.92860000 -166.90960000 -17.67380000
-47.54220000 -167.47290000 -15.27880000
-51.39370000 -167.02480000 -12.15090000
-55.79270000 -166.91230000 -9.36250000
-42.81840000 -167.92040000 -17.51480000
-47.50350000 -168.49330000 -15.20940000
-51.45810000 -167.97770000 -12.20760000
-55.91420000 -167.90800000 -9.52970000
-51.31400000 -168.83910000 -11.97010000
-55.83810000 -168.89700000 -9.48730000
-61.26640000 -168.38010000 -5.69640000
-61.08180000 -167.37500000 -5.61690000
-25.14640000 -133.83420000 18.51890000
-27.21010000 -131.53100000 18.91500000
-27.89320000 -131.50350000 17.45840000
-29.27580000 -128.78690000 19.24590000
-29.95550000 -128.80620000 17.85710000
-31.11450000 -126.10160000 19.43650000
-30.87690000 -126.50790000 20.88690000
-32.28040000 -123.72340000 21.07060000
-31.03010000 -128.99690000 16.71150000
-31.71430000 -126.19000000 18.09270000
-33.04710000 -123.69390000 18.35650000
-32.52860000 -123.39040000 19.76610000
-33.50770000 -120.54960000 21.40550000
-32.51810000 -129.76210000 16.15370000
-32.64870000 -126.48280000 16.94550000
-33.96050000 -124.45330000 16.92660000
-34.85920000 -123.03470000 16.78300000
-34.08420000 -120.41930000 18.72220000
-33.73970000 -120.11320000 20.29390000
-32.65000000 -132.65840000 15.12070000
-34.19060000 -130.31360000 16.19900000
-34.68410000 -128.46190000 16.12610000
-33.76570000 -127.67770000 16.22660000
-34.99180000 -126.15640000 16.05210000
-36.21220000 -125.07460000 15.71410000
-34.51750000 -133.48970000 14.59750000
-35.69620000 -130.35860000 16.02620000
-35.84760000 -127.75120000 15.87810000
-36.78710000 -127.57450000 15.58590000
-36.02190000 -133.09460000 13.57070000
-36.85660000 -130.21010000 15.35170000
-37.84350000 -129.56700000 13.99340000
-37.86030000 -127.12730000 14.78350000
-36.98770000 -124.71450000 15.15660000
-35.48970000 -122.21910000 16.20380000
-37.28040000 -132.15090000 12.28270000
-38.33540000 -130.08570000 11.44020000
-38.28690000 -128.75800000 13.02320000
-38.39280000 -126.96240000 13.43990000
-37.43210000 -124.53000000 14.00040000
-37.50660000 -133.68910000 9.68280000
-38.59480000 -131.22560000 8.89890000
-38.61980000 -128.37710000 8.93910000
-38.42510000 -127.54050000 11.44270000
-37.67230000 -124.82590000 12.11280000
-39.02640000 -132.10550000 5.46060000
-38.98100000 -129.07700000 6.12890000
-38.40680000 -126.44990000 6.70200000
-37.97520000 -125.77850000 9.49880000
-37.10470000 -123.60260000 10.37190000
-39.54110000 -131.92470000 2.65940000
-39.41610000 -129.18980000 3.53530000
-38.97650000 -126.78280000 4.24990000
-38.62220000 -124.54630000 4.95380000
-37.83210000 -124.14160000 7.47660000
-40.19340000 -131.21180000 0.56060000
-40.04310000 -128.74660000 1.24020000
-39.73440000 -126.66170000 2.01280000
-39.59180000 -124.59760000 2.76110000
-41.93320000 -130.62900000 -0.97410000
-41.84440000 -128.32060000 -0.33440000
-41.49720000 -126.29910000 0.34330000
-41.22510000 -124.38720000 0.98910000
-40.81670000 -123.19580000 1.65900000
-39.45830000 -121.96270000 3.94960000
-41.65500000 -149.55030000 -9.03770000
-43.00280000 -150.81260000 -8.73750000
-40.67050000 -151.77990000 -9.66430000
-40.02320000 -153.68230000 -10.08850000
-41.12870000 -154.47160000 -9.97210000
-43.23390000 -153.78090000 -9.95260000
-44.84740000 -152.49610000 -8.96190000
-45.23390000 -154.25670000 -11.31770000
-40.93550000 -149.31700000 -10.44800000
-39.85560000 -151.03410000 -10.58250000
-39.18730000 -152.93010000 -10.80220000
-39.45900000 -155.37420000 -10.74880000
-41.57580000 -149.50140000 -11.68680000
-42.29750000 -148.13330000 -11.36620000
-42.08310000 -149.26780000 -13.41920000
-42.33920000 -147.74770000 -13.16550000
-40.20020000 -147.29930000 -14.24770000
-40.33650000 -155.77470000 -10.66980000
-42.14590000 -155.41820000 -10.71340000
-43.79170000 -154.33980000 -11.12450000
-47.10870000 -155.48790000 -11.09370000
-45.53940000 -157.07430000 -12.64860000
-48.09990000 -157.27820000 -10.60720000
-45.60280000 -158.67650000 -12.08200000
-45.37190000 -159.88400000 -11.25260000
-42.91210000 -159.22090000 -12.83610000
-45.84360000 -161.16500000 -11.20970000
-45.89300000 -162.39950000 -11.64440000
-43.27040000 -162.93940000 -12.97680000
-46.38650000 -163.22730000 -12.52880000
-34.01820000 -116.47990000 22.12890000
-34.22060000 -115.37010000 20.31790000
-33.70970000 -111.28620000 21.95630000
-33.46830000 -112.48390000 23.89610000
-32.55470000 -107.67600000 24.53530000
-34.57720000 -119.20420000 17.84530000
-36.75300000 -122.06330000 11.03310000
-37.62350000 -122.51210000 8.15240000
-38.48720000 -121.66950000 6.12350000
-39.14060000 -120.93270000 4.06920000
0.59690000 -146.13890000 17.50690000
-0.51820000 -147.02790000 18.54710000
5.57080000 -147.30550000 18.41300000
0.12270000 -147.68910000 19.57850000
5.56480000 -148.34600000 18.91700000
-3.29960000 -144.73720000 16.64530000
-6.82030000 -143.49620000 15.73920000
-6.89180000 -143.78270000 16.83780000
-3.38700000 -145.27080000 17.57510000
-6.95430000 -143.34480000 14.64180000
-9.96200000 -141.87740000 15.00730000
-9.70740000 -141.99770000 16.17440000
-9.77980000 -142.68980000 17.21700000
-7.03000000 -144.32130000 17.81830000
-11.59380000 -142.02760000 13.92320000
-12.86910000 -141.42370000 15.74340000
-12.42850000 -141.74160000 16.94250000
-11.29490000 -141.50130000 12.74030000
-11.07880000 -140.39720000 12.40320000
-15.76640000 -140.46490000 12.48640000
-16.37450000 -141.61540000 13.51550000
-13.73800000 -141.67150000 14.85420000
-28.99360000 -126.22990000 3.34430000
-29.10340000 -124.41720000 3.51210000
-28.36270000 -128.49980000 5.65820000
-28.25690000 -126.27870000 5.65330000
-28.48350000 -124.46670000 5.77640000
-26.99990000 -130.75800000 7.74970000
-26.63930000 -126.28070000 7.56350000
-26.75130000 -124.46610000 7.59150000
-27.59190000 -135.06690000 8.28580000
-27.33570000 -133.38940000 7.96830000
-24.80660000 -132.63240000 9.45610000
-24.53170000 -130.73620000 9.28130000
-27.81150000 -136.44330000 8.68380000
-25.15600000 -135.56780000 9.99310000
-22.34300000 -136.27970000 10.90820000
-21.50410000 -132.36820000 10.37940000
-28.01370000 -137.42520000 9.20850000
-25.39250000 -136.70200000 10.34490000
-25.77340000 -137.58860000 10.81710000
-22.72570000 -137.54830000 11.20040000
10.03620000 -170.30040000 20.31670000
9.93120000 -170.28850000 21.47820000
2.74200000 -170.28820000 20.68750000
6.51610000 -170.11670000 22.12050000
2.82410000 -170.12680000 21.87280000
-5.44420000 -170.14330000 22.86190000
0.31550000 -150.00100000 21.59550000
0.46400000 -149.43530000 20.75120000
-4.29320000 -148.89980000 21.38120000
-4.11180000 -148.67960000 22.50580000
0.45060000 -149.98600000 22.66290000
-3.77690000 -148.51240000 23.56720000
0.33930000 -148.64460000 20.25920000
-4.25480000 -148.92680000 20.23580000
-7.82050000 -148.99590000 20.95670000
-7.98410000 -148.84080000 22.19590000
-11.87290000 -148.70740000 22.92100000
-8.15870000 -148.36150000 24.44970000
-3.79050000 -148.78630000 24.63460000
-4.10920000 -148.81300000 19.10640000
-7.86840000 -148.54750000 19.74570000
-10.63630000 -148.20940000 20.62360000
-11.20730000 -148.78890000 21.77850000
-4.26410000 -148.77260000 18.19140000
-7.47100000 -147.66240000 19.23990000
-10.51330000 -147.00940000 19.91610000
-13.66610000 -148.40120000 20.04960000
-14.97350000 -148.45390000 21.96580000
-3.81970000 -146.26220000 17.69140000
-4.05790000 -147.69980000 16.74010000
-7.23990000 -146.54800000 18.83110000
-10.52490000 -146.02310000 19.51920000
-13.18060000 -145.47020000 19.85060000
-13.62940000 -146.68690000 19.35700000
-7.19280000 -145.24990000 18.38450000
-29.33590000 -123.25470000 6.19290000
-27.96260000 -122.59870000 8.87800000
-24.92910000 -122.50380000 10.95530000
-27.27420000 -123.21440000 8.04820000
-24.47380000 -122.98460000 9.78010000
-21.02210000 -122.62250000 11.43010000
-17.38820000 -122.40030000 12.81340000
-24.22740000 -123.78440000 9.11410000
-20.78700000 -123.13450000 10.30190000
-17.11430000 -122.53800000 11.61410000
-13.35570000 -122.55940000 12.78930000
-13.53040000 -121.90600000 13.95330000
-24.09720000 -125.16400000 8.94810000
-20.71000000 -124.31160000 9.84890000
-16.96220000 -123.27480000 10.60350000
-13.13040000 -122.83190000 11.62870000
-9.22880000 -122.70960000 12.61750000
-9.34590000 -122.08590000 13.73650000
-21.06090000 -129.00080000 10.09620000
-16.97270000 -124.57140000 10.38940000
-13.08030000 -123.75290000 10.86750000
-9.07690000 -123.30380000 11.46200000
-17.68450000 -132.91990000 10.97350000
-13.12740000 -126.47180000 10.78350000
-13.09480000 -125.06560000 10.75870000
-9.06760000 -124.35860000 10.88990000
-4.93610000 -123.51380000 11.20240000
-18.42430000 -136.02260000 11.33550000
-14.12000000 -135.45200000 11.52460000
-9.08730000 -127.13000000 10.92590000
-4.94200000 -124.68530000 10.87830000
-0.74820000 -123.77400000 10.96990000
-0.73810000 -123.02730000 11.90590000
-19.39270000 -138.26360000 11.75450000
-14.60720000 -137.02350000 11.72400000
-10.42990000 -137.72400000 11.95640000
-9.41920000 -132.34370000 11.37830000
-19.89430000 -139.30870000 12.06160000
-20.37050000 -139.82790000 12.87340000
-17.20220000 -141.22320000 14.98490000
-15.57860000 -141.37270000 16.37430000
-23.25370000 -138.24230000 11.59460000
-17.61070000 -140.46420000 17.10210000
-51.31540000 -169.30810000 18.50130000
-54.18020000 -169.37750000 15.07670000
-37.50110000 -169.57850000 21.25430000
-62.12910000 -168.68730000 18.78460000
-64.57260000 -168.73510000 14.92990000
-65.13380000 -168.93560000 10.39210000
-33.49350000 -168.79910000 23.67370000
-33.28520000 -169.54210000 22.24590000
-28.91100000 -169.52850000 23.23550000
-37.67760000 -169.01420000 22.82210000
-14.52960000 -169.94730000 24.48330000
-9.82110000 -169.96550000 24.48390000
-14.49890000 -169.38100000 25.48700000
-19.37860000 -169.82280000 24.39970000
-19.39890000 -169.23700000 25.53410000
-24.24510000 -169.66680000 24.06990000
-24.41180000 -168.78960000 25.23800000
-29.13520000 -168.60460000 24.46530000
-5.25970000 -169.87270000 24.22330000
-9.75610000 -169.17040000 25.43030000
-14.48930000 -167.86530000 25.92150000
-19.38030000 -167.85440000 25.99400000
-24.45280000 -167.26570000 25.86490000
-1.00440000 -169.65590000 23.52080000
-5.20700000 -168.73950000 24.99730000
-9.78590000 -167.72560000 25.87480000
-14.50510000 -166.04700000 26.21050000
-19.32060000 -166.11380000 25.89070000
2.91680000 -169.22810000 22.59150000
-0.91010000 -168.40230000 24.16240000
-0.71410000 -162.66370000 26.13140000
-5.20100000 -164.35070000 26.34740000
-9.85300000 -164.14940000 26.62970000
6.51670000 -169.11430000 22.67540000
3.05130000 -165.33660000 23.81420000
17.68670000 -169.52600000 24.18860000
17.76200000 -168.74370000 24.45740000
10.03260000 -164.20740000 24.34700000
7.01610000 -162.23620000 24.46510000
3.22860000 -162.23630000 24.60530000
19.17480000 -166.46820000 24.99980000
11.15910000 -159.74810000 25.34100000
7.56350000 -158.72310000 25.30660000
3.37680000 -160.29900000 24.95320000
-0.56180000 -160.67030000 26.65420000
7.99610000 -157.11060000 25.57600000
-0.10180000 -153.99980000 25.91530000
12.47070000 -157.25850000 25.39340000
3.94720000 -156.23730000 25.74470000
3.65230000 -158.14630000 25.37780000
4.64690000 -153.25520000 25.34470000
-8.41560000 -152.58370000 26.65020000
-4.33300000 -153.88390000 26.44780000
-0.27790000 -155.66150000 26.00860000
-0.56420000 -157.81540000 26.08440000
-3.95520000 -149.79130000 25.25500000
-12.66500000 -150.43310000 26.39350000
-12.83970000 -152.78720000 27.29430000
-13.02480000 -154.24210000 27.71530000
-8.79850000 -155.97560000 27.60620000
-4.52790000 -155.69520000 26.87930000
-8.19960000 -149.05220000 25.37460000
-17.01130000 -149.45290000 26.27150000
-16.98830000 -150.07240000 26.86940000
-17.11260000 -151.44110000 27.47990000
-17.43010000 -152.80710000 27.63790000
-12.56640000 -148.58860000 25.18850000
-17.19470000 -148.74910000 25.62480000
-21.40300000 -149.09580000 26.11240000
-21.40960000 -149.68120000 27.00010000
-21.52180000 -151.23130000 27.24780000
-12.32890000 -148.56470000 24.07080000
-16.89580000 -148.14250000 24.59000000
-21.03430000 -147.97350000 23.57540000
-21.26330000 -148.72690000 24.69880000
-25.45510000 -148.33120000 25.13430000
-25.56590000 -149.11960000 26.28020000
-16.09940000 -148.23750000 23.30780000
-20.62880000 -146.78320000 23.19910000
-23.03850000 -147.92540000 22.13470000
-25.26060000 -148.03590000 23.53870000
-18.73390000 -146.52010000 21.85150000
-21.27970000 -144.25500000 23.05630000
-22.40090000 -144.86950000 23.38290000
-22.64710000 -146.19440000 21.96280000
-23.69830000 -147.30510000 20.55510000
-25.73230000 -146.49380000 22.86160000
-16.71160000 -147.67770000 20.10150000
-16.57490000 -146.14100000 19.35710000
-18.81620000 -145.22590000 20.93760000
-14.65160000 -148.60310000 18.55560000
-16.28490000 -148.18010000 18.79410000
-16.16920000 -146.76300000 18.30230000
-14.59980000 -146.71260000 18.07320000
-15.20050000 -148.58140000 16.96080000
-16.37280000 -148.33590000 17.37800000
-16.40330000 -147.22520000 17.06030000
-15.16550000 -147.20520000 16.65010000
-15.89350000 -144.75750000 20.02930000
-18.18170000 -144.02250000 20.52480000
-20.29810000 -143.17230000 21.34750000
-20.84410000 -143.90520000 22.19770000
-15.13790000 -143.79320000 20.03720000
-17.43310000 -143.13330000 20.49130000
-19.71120000 -142.13170000 20.91900000
-22.05340000 -140.66700000 21.32220000
-22.67050000 -141.52850000 21.88200000
-12.69380000 -144.41600000 19.49530000
-14.72380000 -142.92580000 19.46050000
-17.01620000 -142.20630000 20.10420000
-19.22550000 -141.01820000 20.57720000
-21.40570000 -139.67290000 21.00160000
-24.34200000 -138.74400000 21.76300000
-10.24320000 -144.85520000 18.95730000
-12.30240000 -143.34090000 18.74260000
-14.67770000 -142.18650000 18.62100000
-16.76860000 -141.43030000 19.30960000
-18.81570000 -140.25380000 19.87490000
-20.87630000 -138.70490000 20.30030000
-9.97310000 -143.66500000 18.18020000
-12.31530000 -142.36250000 17.94230000
-14.87030000 -141.68810000 17.56150000
-16.82970000 -140.99100000 18.26540000
-18.66630000 -139.75840000 18.85930000
-20.63230000 -138.13340000 19.22740000
-22.95160000 -136.73980000 20.73780000
-23.56630000 -137.70180000 21.46850000
-24.87510000 -134.06700000 19.96050000
-25.05770000 -134.63130000 21.18790000
-25.66310000 -135.50440000 22.03010000
-26.52740000 -136.53300000 22.36420000
-27.29400000 -137.46150000 22.92290000
-25.02100000 -139.69290000 22.32780000
-26.99210000 -131.80770000 20.38370000
-27.13210000 -132.28960000 21.69620000
-27.72820000 -133.09160000 22.63060000
-28.63680000 -133.96610000 23.06900000
-29.38250000 -134.80830000 23.77370000
-29.07150000 -129.27050000 20.70790000
-29.22530000 -129.69120000 22.09320000
-29.73990000 -130.28890000 23.19250000
-30.59740000 -131.03510000 23.90760000
-31.32940000 -131.69980000 24.79440000
-31.07870000 -126.83690000 22.31470000
-31.62680000 -127.32430000 23.55720000
-32.31880000 -127.83260000 24.67840000
-32.49710000 -123.88410000 22.54470000
-33.13540000 -124.24570000 23.86180000
-33.62710000 -120.67980000 22.84620000
-65.55190000 -160.82240000 10.16870000
-65.85350000 -157.34460000 11.70450000
-66.60740000 -160.34160000 8.40450000
-66.20110000 -156.37030000 8.78020000
-66.11040000 -152.64900000 12.02870000
-65.24330000 -152.31740000 9.56760000
-64.71990000 -161.63960000 11.89490000
-64.28770000 -157.57350000 11.98810000
-64.65430000 -153.34550000 13.98970000
-66.34980000 -166.33220000 14.46610000
-67.04580000 -167.87330000 10.07900000
-66.23790000 -167.43520000 14.82570000
-64.26170000 -166.62530000 19.17360000
-64.52600000 -164.05290000 18.15010000
-63.56980000 -158.81500000 13.18020000
-66.35880000 -168.71130000 10.27090000
-65.67940000 -168.39590000 15.02140000
-64.07630000 -167.72740000 19.39690000
-62.24650000 -166.35680000 22.69930000
-62.35520000 -164.93280000 22.35590000
-62.65360000 -160.70470000 20.92140000
-64.49990000 -162.81410000 17.80280000
-63.28000000 -168.46510000 19.23990000
-61.79550000 -167.41470000 22.87540000
-59.33070000 -166.76610000 25.22920000
-60.06710000 -165.22940000 25.31480000
-60.43390000 -163.48430000 25.14960000
-60.60170000 -161.65280000 24.70360000
-60.69070000 -168.33440000 22.25170000
-58.45990000 -167.84500000 24.36820000
-55.84760000 -166.14080000 26.10120000
-56.48090000 -164.66550000 26.59130000
-57.15210000 -163.03600000 26.82970000
-57.80350000 -161.31260000 26.88970000
-53.61260000 -168.99240000 20.35510000
-57.54090000 -168.35910000 23.10740000
-55.36340000 -167.29450000 25.28950000
-52.02310000 -166.60580000 25.84310000
-51.42230000 -169.01080000 20.92960000
-51.69830000 -168.23830000 22.77060000
-54.25300000 -168.52530000 22.43230000
-54.84730000 -168.07220000 24.12310000
-45.31430000 -169.15810000 21.54190000
-48.64380000 -168.08310000 22.88970000
-51.81280000 -167.50950000 24.52430000
-48.68140000 -166.61140000 24.42510000
-48.66960000 -165.68870000 26.20200000
-41.69990000 -169.18960000 22.05810000
-45.31410000 -167.96160000 23.02290000
-41.62100000 -167.79960000 23.35090000
-45.30890000 -166.12600000 24.13010000
-45.38470000 -164.13290000 25.30540000
-48.85640000 -163.12570000 26.81590000
-52.96670000 -163.13070000 26.87790000
-37.70540000 -167.53320000 23.86170000
-41.56890000 -165.80290000 24.38780000
-41.64110000 -163.34310000 25.28420000
-45.35630000 -161.49180000 26.60990000
-49.20510000 -160.96720000 27.10320000
-53.60290000 -161.36420000 27.10700000
-33.59120000 -167.15630000 24.46250000
-37.70890000 -165.37650000 24.79920000
-37.70250000 -162.72780000 25.43490000
-41.74580000 -160.14450000 25.88110000
-45.70330000 -158.93480000 27.15710000
-49.90420000 -158.70850000 27.15060000
-29.23030000 -166.90830000 25.10230000
-33.63160000 -164.97720000 25.00860000
-33.51110000 -162.61760000 25.67160000
-37.58750000 -159.62360000 25.85200000
-41.81840000 -157.60110000 26.24830000
-46.33640000 -156.28670000 27.23080000
-24.51650000 -165.57000000 26.40740000
-29.24120000 -165.00160000 25.72030000
-29.28650000 -162.90820000 26.35070000
-33.35200000 -159.91380000 26.38640000
-37.40900000 -157.36260000 26.54400000
-41.89100000 -154.98170000 26.82940000
-24.24460000 -163.94540000 26.62270000
-28.67280000 -160.64130000 26.85070000
-32.78290000 -158.06080000 26.92350000
-36.91890000 -155.01370000 26.96580000
-19.20410000 -164.20800000 26.05940000
-23.67990000 -161.50710000 25.79200000
-27.90930000 -159.30810000 26.06020000
-31.92550000 -156.30640000 26.15680000
-36.52710000 -153.24250000 26.57980000
-18.91790000 -161.87990000 26.34340000
-22.96380000 -160.06880000 26.09840000
-26.97850000 -157.53650000 25.90190000
-31.14720000 -154.79300000 25.64000000
-36.33960000 -152.33460000 25.25610000
-42.24130000 -152.68480000 26.95570000
-13.82700000 -157.80910000 27.48210000
-17.93800000 -155.95660000 27.37060000
-21.91860000 -154.38240000 27.06820000
-25.79240000 -152.42990000 26.68460000
-30.74600000 -153.29370000 25.82350000
-9.29250000 -158.06660000 27.58150000
-13.37880000 -155.92840000 27.72240000
-17.68310000 -154.33220000 27.54830000
-21.74390000 -152.69780000 27.23840000
-5.00070000 -160.47240000 27.17270000
-4.73470000 -158.01390000 27.38140000
-5.14470000 -162.58720000 26.78250000
-64.82900000 -148.50490000 12.69340000
-64.32900000 -148.31960000 9.89670000
-63.64380000 -144.58650000 12.52290000
-63.97870000 -149.09170000 15.76600000
-63.55940000 -145.06780000 15.28870000
-64.66810000 -140.82600000 14.41850000
-60.87120000 -149.08340000 15.85790000
-62.38810000 -145.55090000 16.84160000
-62.38240000 -142.32260000 17.47450000
-64.09960000 -141.64420000 16.32640000
-63.86050000 -138.48080000 17.07060000
-64.59230000 -137.52740000 15.43010000
-63.12410000 -153.72630000 13.93600000
-59.42370000 -150.20820000 15.34380000
-56.76610000 -147.11860000 16.17590000
-60.12680000 -145.80650000 17.28810000
-60.32440000 -142.80800000 17.59490000
-61.83040000 -154.87880000 14.58790000
-58.66020000 -151.74690000 15.98880000
-56.11610000 -148.70500000 15.64820000
-53.50990000 -146.41400000 15.43940000
-54.37030000 -144.61770000 16.04080000
-57.44130000 -145.34500000 16.93660000
-63.91070000 -159.08870000 15.33090000
-62.13740000 -155.54000000 16.49920000
-58.42980000 -152.16840000 17.88850000
-55.50350000 -150.03390000 16.61530000
-52.69890000 -147.99280000 15.28860000
-64.06730000 -159.50370000 17.31170000
-62.75230000 -156.57310000 18.40330000
-59.10410000 -152.92770000 19.42490000
-55.36630000 -150.07780000 19.88670000
-52.22040000 -148.60300000 16.86620000
-62.85610000 -158.94580000 19.92330000
-59.73680000 -153.66170000 21.77950000
-55.36660000 -150.30480000 21.81120000
-51.57440000 -148.33120000 20.29340000
-48.48700000 -146.97450000 18.45890000
-48.88670000 -147.06790000 16.82470000
-60.89710000 -157.53410000 23.28140000
-58.97900000 -156.31060000 25.91730000
-57.88250000 -153.00330000 24.74540000
-54.71670000 -150.41850000 24.07510000
-51.31540000 -148.20270000 21.87930000
-47.94880000 -146.85860000 20.14330000
-58.62550000 -158.90350000 26.63640000
-55.10610000 -157.48230000 27.45100000
-55.79520000 -155.52850000 27.23510000
-56.18450000 -154.36820000 26.87540000
-53.85090000 -151.62960000 25.92920000
-50.71980000 -148.09000000 23.79850000
-54.32210000 -159.82380000 27.32510000
-50.87350000 -156.64410000 27.13980000
-51.70730000 -154.83920000 27.09730000
-52.70340000 -153.19230000 26.74000000
-49.74960000 -148.79840000 25.86650000
-47.18230000 -153.93200000 27.12660000
-48.09720000 -151.77120000 26.87880000
-48.56520000 -150.24600000 26.57690000
-45.17370000 -147.50430000 24.89760000
-46.53600000 -146.95560000 23.45090000
-42.72400000 -150.61660000 26.67190000
-42.38400000 -148.74760000 25.87710000
-41.94100000 -146.76770000 23.85950000
-43.84080000 -146.11380000 22.66580000
-44.93980000 -145.47540000 21.55140000
-47.63050000 -146.90040000 21.76380000
-35.74410000 -150.56400000 25.07240000
-38.85880000 -147.90650000 24.55320000
-40.03400000 -145.91500000 23.14940000
-42.64640000 -144.47510000 22.94610000
-44.34500000 -143.57030000 22.06900000
-34.43410000 -149.33020000 25.25690000
-37.02870000 -146.58430000 24.13610000
-37.85000000 -144.10500000 24.54530000
-40.19710000 -143.25100000 23.95600000
-42.55570000 -142.34270000 23.82820000
-29.78010000 -150.32130000 26.00650000
-33.52250000 -148.11870000 24.90080000
-35.33050000 -146.80570000 23.17040000
-36.15720000 -144.66270000 23.76410000
-36.41350000 -142.23110000 25.06070000
-39.35270000 -141.01440000 25.57400000
-29.54390000 -148.59690000 25.48000000
-32.77000000 -147.53200000 23.57770000
-34.60280000 -146.92180000 22.06230000
-35.46300000 -145.33580000 22.22850000
-35.08430000 -143.83270000 22.69220000
-29.28920000 -147.72870000 24.16060000
-30.55330000 -147.48070000 22.44820000
-32.66590000 -147.21910000 22.26670000
-34.12780000 -146.85930000 20.85080000
-34.98380000 -145.78940000 20.89650000
-34.58810000 -144.55790000 20.91220000
-28.14840000 -146.92080000 23.77490000
-29.35610000 -146.78290000 22.33730000
-30.03980000 -146.63830000 20.94710000
-31.43700000 -147.01220000 19.99640000
-32.62360000 -146.97630000 20.93470000
-28.26220000 -145.45080000 23.87680000
-29.53720000 -145.31290000 22.48590000
-30.77550000 -145.23230000 20.09740000
-30.83170000 -146.48260000 19.63680000
-31.94170000 -145.95250000 18.83120000
-32.43050000 -146.94190000 19.67550000
