-38.04020000 -147.60870000 -74.53820000
-37.47790000 -151.51400000 -70.75270000
-42.07390000 -151.42010000 -69.83250000
-36.43800000 -154.64510000 -67.42120000
-41.12200000 -154.68230000 -66.50800000
-62.02800000 -124.37850000 52.19090000
-64.36670000 -119.10210000 53.47040000
-66.38690000 -118.96260000 48.48510000
-59.57150000 -124.70330000 57.23770000
-62.10450000 -119.21480000 58.40240000
-66.60100000 -113.78070000 54.59210000
-68.39710000 -113.94890000 49.77130000
-64.29440000 -113.86390000 59.52250000
107.82300000 -90.48470000 -19.97810000
106.69740000 -95.82340000 -21.39570000
106.85190000 -94.08140000 -26.93990000
107.33670000 -92.31360000 -13.90010000
106.26130000 -97.22930000 -15.84590000
105.51200000 -100.85630000 -23.10620000
105.56200000 -99.65080000 -28.09780000
104.95300000 -102.76920000 -17.63970000
1.49850000 -153.49370000 -43.19490000
0.76980000 -154.29160000 -45.42700000
4.14400000 -154.63900000 -45.63220000
-2.62020000 -153.59650000 -42.45710000
-2.78120000 -153.90510000 -45.53100000
0.78820000 -156.69470000 -46.22260000
-2.94810000 -155.38000000 -47.54900000
79.14860000 59.36830000 -26.42130000
78.57060000 53.87550000 -26.99210000
76.95220000 54.84330000 -32.61050000
80.22890000 58.57470000 -21.24990000
79.74700000 53.22500000 -21.44420000
77.72310000 48.33690000 -27.53950000
76.17720000 49.11200000 -32.90920000
78.81930000 47.72850000 -22.02560000
56.06640000 108.71910000 -11.60840000
55.89750000 108.69960000 -15.74430000
53.32310000 112.09250000 -15.30420000
55.19580000 109.03400000 -19.39220000
52.72610000 112.24320000 -18.46830000
53.69890000 111.92420000 -11.33170000
51.01710000 115.62860000 -14.67670000
-43.04100000 126.81460000 -14.07830000
-41.84880000 130.52690000 -13.92810000
-41.71730000 130.33080000 -9.71530000
-41.45230000 131.04680000 -17.64120000
-41.26510000 134.78280000 -13.46260000
-41.05490000 134.40150000 -9.55780000
47.99770000 -155.36710000 -34.30210000
45.16340000 -154.83600000 -32.23920000
42.94640000 -154.70590000 -35.51950000
49.82390000 -155.50580000 -30.00610000
46.76630000 -154.99130000 -28.92530000
42.56480000 -154.39940000 -30.45410000
40.83490000 -154.28160000 -32.74810000
44.30420000 -154.60560000 -28.27410000
-46.18540000 48.32660000 -61.02300000
-40.81750000 47.44100000 -63.45680000
-40.87430000 53.53140000 -64.03260000
-35.26700000 46.55740000 -65.31600000
-34.86710000 52.43260000 -65.77400000
-40.02990000 58.65940000 -64.12500000
-45.24860000 59.90960000 -61.70140000
-34.21340000 58.41060000 -65.42320000
95.09300000 -115.64150000 -50.05190000
95.07150000 -119.18520000 -46.03090000
92.08140000 -121.37680000 -50.15320000
97.48260000 -112.69470000 -46.94110000
97.65440000 -115.89370000 -42.47170000
94.46820000 -122.20540000 -42.36840000
91.49680000 -124.91430000 -46.67430000
97.14780000 -119.30510000 -37.52720000
83.87680000 -91.29550000 -55.51650000
82.31380000 -95.23160000 -56.18110000
83.93470000 -96.66940000 -52.64120000
81.76210000 -89.94670000 -59.47910000
80.33310000 -93.80030000 -59.92420000
80.73750000 -98.84470000 -56.60770000
79.01180000 -97.39500000 -60.00400000
-2.06400000 56.70820000 76.92500000
4.61930000 58.30140000 76.91070000
5.29500000 52.54330000 76.97240000
10.66500000 59.06160000 76.08430000
11.98840000 53.43170000 76.01350000
7.22200000 47.43200000 76.49410000
12.85230000 48.03230000 75.60980000
15.82740000 110.24110000 44.21960000
12.59890000 109.98370000 46.51680000
12.12080000 114.04010000 45.62670000
8.97170000 110.08790000 48.18740000
8.61670000 114.02990000 47.06550000
15.41680000 113.97830000 43.41870000
11.81460000 117.95410000 44.76190000
8.48020000 117.83680000 46.12960000
-4.09650000 116.80160000 51.58410000
-5.21700000 111.83540000 53.82290000
-3.21300000 121.74640000 50.18370000
-8.37430000 117.60780000 49.80720000
-9.99600000 113.28610000 51.27280000
-7.36730000 122.42720000 48.62760000
58.53630000 -135.88970000 28.25660000
61.90680000 -135.75980000 24.42340000
64.17350000 -131.08530000 27.20120000
56.28060000 -139.79940000 25.67770000
59.95270000 -139.59180000 22.20290000
66.53800000 -135.58490000 21.31770000
64.01210000 -140.08840000 18.55190000
-26.60180000 116.74280000 4.28970000
-22.35160000 116.12610000 1.98620000
-22.55470000 111.75810000 3.43670000
-26.04920000 120.80280000 3.45310000
-22.10510000 120.17500000 1.19110000
-18.16180000 115.76380000 -0.77210000
-17.66840000 111.60540000 0.94790000
-18.10660000 119.90620000 -1.31530000
48.42660000 108.62240000 -33.22630000
45.49810000 109.26720000 -35.24580000
50.09210000 105.12960000 -36.10370000
46.36050000 106.02200000 -38.32450000
43.26780000 113.20020000 -32.73880000
41.26460000 109.99510000 -37.32680000
42.59920000 106.44010000 -40.26250000
42.95230000 107.35640000 3.27270000
45.61780000 103.69870000 4.42530000
45.58520000 107.92220000 0.04390000
48.27220000 104.74680000 0.70070000
48.40120000 99.81670000 5.46370000
45.05640000 98.82240000 8.88880000
50.97070000 100.75760000 1.68010000
-65.95060000 94.85430000 -13.22270000
-69.01840000 90.31850000 -12.79350000
-68.16140000 90.77680000 -6.85090000
-71.79510000 85.40250000 -12.18490000
-70.98960000 85.73460000 -6.12480000
-66.34490000 90.99080000 -0.59160000
-63.53460000 95.31630000 -1.95810000
-69.27960000 86.34210000 0.07780000
-32.55360000 112.26790000 -39.64820000
-34.26170000 108.32910000 -43.30910000
-38.20860000 108.83080000 -40.97960000
-36.15330000 104.01360000 -47.09740000
-40.23300000 105.15760000 -43.85000000
-36.41630000 112.51270000 -38.04420000
-41.81560000 109.42950000 -38.13190000
-44.27190000 105.80530000 -40.47290000
-75.63400000 -118.96680000 -0.41410000
-72.33170000 -124.40250000 -1.61140000
-78.56990000 -113.54610000 0.61060000
-72.40750000 -118.13950000 5.64420000
-69.29970000 -123.40120000 4.15270000
-28.88350000 104.23610000 39.86610000
-26.69940000 104.22180000 44.49450000
-23.72860000 107.49310000 43.01850000
-32.14860000 100.76800000 41.37270000
-30.00450000 100.78570000 46.06920000
-24.40830000 103.82340000 48.68280000
-21.27870000 107.07010000 47.39950000
-27.23970000 100.31850000 50.33730000
-30.99130000 -157.18420000 -64.51990000
-35.91680000 -157.45920000 -63.87170000
-30.30340000 -159.58210000 -60.97900000
-34.85580000 -159.96150000 -60.35330000
-40.45150000 -157.51550000 -63.06600000
-39.08710000 -160.08070000 -59.62300000
19.92490000 148.28000000 31.47450000
19.98060000 152.62860000 31.71010000
19.27660000 152.29280000 35.58770000
19.91070000 148.34350000 27.27900000
19.93760000 152.36040000 27.19390000
19.98190000 156.65690000 31.53870000
19.18750000 156.27520000 35.57020000
19.87260000 156.24850000 27.52550000
2.84440000 99.23940000 -22.07760000
-1.84140000 100.29730000 -21.49370000
-2.22190000 99.42890000 -26.52620000
-1.59420000 100.46840000 -16.46360000
-4.79380000 103.56820000 -21.81820000
-4.25450000 103.88760000 -16.13160000
20.11770000 -163.60770000 40.14380000
18.70350000 -160.85820000 39.17820000
21.38400000 -160.81760000 36.21770000
15.82430000 -161.64070000 41.78450000
17.28970000 -158.17470000 38.73690000
19.97800000 -157.63750000 35.78740000
14.88350000 -158.69030000 41.05190000
-45.74070000 14.57660000 -47.39330000
-47.28160000 18.14140000 -48.93650000
-43.63340000 17.73570000 -51.35350000
-49.12240000 14.98340000 -44.46320000
-50.61620000 18.45730000 -45.95450000
-48.55980000 21.82450000 -51.33170000
-52.44380000 22.33350000 -48.24440000
-14.93920000 -151.18170000 16.33190000
-10.43010000 -150.69850000 14.59890000
-12.82650000 -150.56140000 9.42310000
-12.58730000 -151.33520000 21.46590000
-8.04100000 -150.82340000 19.56430000
-5.98000000 -150.23840000 12.54490000
-8.33850000 -150.12110000 7.58560000
-3.53170000 -150.34860000 17.54100000
-102.56720000 -95.96040000 -40.56000000
-100.81840000 -97.42120000 -46.72610000
-103.57770000 -89.45530000 -41.98360000
-101.87670000 -90.69210000 -47.73190000
-98.58530000 -97.78990000 -52.83320000
-97.37850000 -103.80920000 -51.67580000
-99.65830000 -91.74320000 -53.96340000
19.72880000 139.42730000 27.45070000
18.74100000 139.23950000 23.50140000
18.85940000 144.28490000 23.31380000
16.59980000 138.89530000 20.06790000
16.80910000 143.65530000 19.79890000
18.91020000 148.28180000 23.17500000
17.00320000 148.30080000 19.50230000
59.42330000 -0.11800000 -22.81710000
58.37000000 0.04160000 -26.99190000
59.70360000 -4.52460000 -22.92820000
58.79090000 -4.33030000 -26.65710000
57.37600000 4.52930000 -27.42910000
56.79020000 0.33720000 -30.99450000
57.59330000 -4.39200000 -30.02320000
-67.98790000 -90.72860000 67.17350000
-68.84530000 -85.58460000 67.54790000
-71.33600000 -85.45100000 63.04800000
-66.35850000 -85.14140000 71.48780000
-69.53360000 -79.46110000 67.80880000
-66.96900000 -79.72080000 71.68160000
-75.12090000 34.91210000 -15.66720000
-72.49880000 29.07320000 -16.87500000
-72.69100000 28.97830000 -11.19660000
-74.20220000 34.60430000 -22.75490000
-71.64030000 28.83430000 -23.02400000
-69.34660000 24.08920000 -17.41410000
-69.40040000 23.82810000 -12.51860000
-68.61340000 23.85860000 -22.78660000
51.71000000 96.38820000 -32.07670000
55.81950000 95.25740000 -28.81410000
53.18810000 99.33680000 -26.48080000
59.99250000 93.65340000 -25.02570000
56.31600000 98.40380000 -23.15470000
49.88710000 99.99710000 -29.14530000
51.19480000 103.18150000 -24.49560000
53.15610000 102.29230000 -21.65020000
-71.42350000 36.15250000 3.83800000
-68.58490000 36.42540000 9.29490000
-66.72350000 30.95880000 8.38890000
-73.19680000 41.44630000 4.01340000
-70.24030000 41.58980000 9.59480000
-65.92800000 35.59120000 13.99080000
-66.92830000 41.42590000 15.27970000
10.48600000 23.20380000 -58.53570000
10.14370000 18.93670000 -55.25690000
4.23890000 20.14750000 -54.08350000
15.73960000 21.99740000 -59.14040000
15.45990000 18.08210000 -55.93700000
9.77170000 14.39860000 -52.67260000
15.37480000 13.73270000 -53.80960000
98.21790000 -104.39310000 -52.08440000
99.21910000 -106.45590000 -48.52450000
97.29710000 -109.63140000 -50.64150000
99.92250000 -100.71910000 -50.65220000
101.04880000 -102.63780000 -46.80300000
99.74740000 -108.95580000 -44.47180000
101.91800000 -104.86700000 -42.60210000
107.41220000 -71.96340000 -2.99590000
106.41150000 -65.97970000 -2.39730000
104.97780000 -67.72030000 3.46880000
107.45160000 -65.49710000 -7.36010000
105.15400000 -60.86610000 -1.35610000
103.66070000 -62.14390000 4.04240000
5.19640000 -59.10910000 105.72140000
2.08620000 -62.35620000 103.68050000
3.75430000 -55.55610000 104.90180000
-0.65240000 -58.23940000 103.79810000
-1.66350000 -66.33010000 104.05500000
-4.40910000 -61.17250000 103.35960000
-59.14120000 -112.99700000 68.20890000
-61.77440000 -113.60220000 64.22730000
-59.44270000 -119.13310000 63.19720000
-56.54130000 -118.79410000 67.75570000
-56.40460000 -124.61080000 62.61280000
36.03930000 113.89540000 -35.82540000
35.50740000 117.32250000 -33.39130000
38.96050000 117.14420000 -31.85940000
31.54540000 114.18010000 -36.84110000
31.12020000 117.40620000 -34.56150000
34.64990000 121.00370000 -31.61570000
38.13080000 120.98730000 -30.00140000
30.65400000 121.07500000 -32.47210000
-27.98750000 131.45360000 -30.93520000
-31.10920000 131.34440000 -29.59310000
-30.70470000 135.56100000 -28.99070000
-28.70330000 127.37550000 -31.37810000
-31.77430000 127.87060000 -30.51730000
-33.79850000 131.42830000 -28.18490000
-33.38430000 135.60690000 -27.54000000
-34.43910000 127.62870000 -29.02460000
-40.44790000 -45.38470000 -87.63690000
-40.16950000 -40.04390000 -84.93300000
-45.95670000 -40.66660000 -84.11220000
-34.80360000 -40.32410000 -85.85490000
76.39220000 -103.96990000 20.20120000
75.12750000 -109.15540000 18.18410000
71.27460000 -109.55640000 22.27500000
73.27820000 -114.26290000 16.23700000
69.44590000 -114.53880000 20.65540000
72.35300000 -104.30580000 24.32610000
66.79560000 -109.55930000 26.33260000
65.19010000 -114.53030000 24.78750000
-56.85220000 -37.08410000 65.78180000
-59.18690000 -41.50900000 66.51390000
-58.17350000 -41.07080000 71.77190000
-61.22540000 -46.22820000 67.69820000
-58.66410000 -46.22770000 72.65960000
-55.54860000 -36.30620000 70.80290000
-56.15690000 -41.01000000 76.37440000
-57.84090000 -45.93650000 77.07570000
40.23610000 161.72560000 -13.74050000
42.12910000 162.82080000 -14.35690000
40.89230000 163.00910000 -16.82790000
43.56300000 160.15420000 -15.04320000
42.19460000 160.43290000 -17.70230000
39.01530000 161.79700000 -15.85480000
39.06560000 163.23350000 -19.00730000
40.31010000 160.85580000 -20.10470000
17.40930000 117.39850000 21.85710000
19.44290000 117.59440000 25.50710000
18.49480000 121.30970000 25.54260000
20.16580000 117.78250000 29.27550000
19.23930000 121.70060000 29.20550000
16.62750000 121.57190000 22.18070000
17.64300000 125.50120000 25.65230000
18.42790000 125.38650000 29.08630000
17.73570000 82.09610000 66.15410000
19.42710000 77.40290000 68.85300000
13.80330000 76.89680000 71.23810000
21.08110000 72.49150000 70.86880000
15.21040000 71.53640000 73.21000000
12.25360000 81.59720000 68.45400000
7.88150000 76.02680000 72.54450000
8.62270000 70.41590000 74.70650000
-27.19490000 12.99960000 -54.95590000
-27.34140000 16.52670000 -56.33210000
-22.51140000 15.93140000 -56.73950000
-26.92010000 19.97310000 -59.04380000
-22.02080000 19.56600000 -59.24160000
-17.73180000 15.91010000 -56.44270000
-18.32650000 12.47140000 -55.01060000
-17.12320000 19.49880000 -58.80300000
-84.93640000 -101.86540000 -1.28290000
-87.66300000 -95.84430000 -2.11670000
-85.56320000 -95.03810000 3.56130000
-86.78770000 -102.63480000 -6.97210000
-89.24960000 -96.77740000 -7.33760000
-89.56800000 -90.00480000 -1.72450000
-91.38990000 -90.91710000 -7.73800000
-95.41300000 -119.19270000 -21.21450000
-94.03760000 -120.24120000 -14.89250000
-96.48100000 -114.81610000 -14.21170000
-92.15590000 -125.39570000 -21.51480000
-91.17220000 -125.59770000 -15.07560000
-91.94010000 -121.13270000 -8.78560000
-94.20710000 -115.61010000 -7.82270000
-89.65300000 -125.75220000 -9.35060000
64.41110000 90.07040000 -23.24160000
64.67080000 88.18900000 -27.71870000
68.03090000 85.44500000 -26.14960000
60.61510000 90.50150000 -29.90330000
61.63370000 87.17950000 -34.19000000
2.91430000 157.09440000 16.44380000
-0.35330000 157.31350000 16.90360000
-0.31720000 153.91280000 17.55450000
2.99010000 160.05590000 15.54810000
-0.44280000 160.07970000 15.98760000
-3.39210000 156.91050000 18.24550000
-3.64650000 159.95760000 17.39280000
-4.50370000 149.18440000 -12.41750000
-4.86510000 149.31570000 -7.78430000
-5.15390000 145.40060000 -8.21470000
-6.83650000 149.20550000 -3.35600000
-7.10110000 145.05020000 -3.80490000
-4.85740000 145.32790000 -12.68100000
-5.68420000 140.70340000 -8.52040000
-7.48840000 140.66720000 -4.25450000
46.62930000 -17.96500000 -68.30560000
51.86180000 -18.04170000 -66.43750000
52.89470000 -21.39350000 -70.97040000
45.57170000 -15.02250000 -63.96250000
51.05340000 -15.00630000 -61.71160000
56.89210000 -18.15930000 -64.32800000
45.83010000 121.98710000 -4.29980000
47.21920000 118.20120000 -4.08580000
48.21370000 118.80950000 -7.86050000
48.94240000 115.18580000 -3.77520000
50.32330000 115.29470000 -7.55660000
48.91470000 119.12030000 -11.27710000
47.31600000 122.40160000 -11.17590000
51.03080000 115.66780000 -11.22030000
50.19970000 -141.43540000 44.84560000
52.61240000 -139.78660000 40.92080000
54.58150000 -136.03920000 43.96690000
47.78400000 -145.19130000 41.87720000
49.88870000 -143.85810000 38.10690000
54.61160000 -138.50160000 36.94900000
56.74180000 -134.86100000 39.53260000
52.12380000 -142.30150000 34.26290000
-16.86370000 150.61110000 -1.15850000
-16.46780000 153.59240000 -0.82460000
-13.74120000 153.45620000 -3.02410000
-15.89730000 156.57370000 -0.32720000
-13.27540000 156.48030000 -2.54540000
-11.74550000 153.55500000 -5.54850000
-12.30580000 150.27350000 -5.97900000
-11.18500000 156.46660000 -5.21400000
20.51170000 10.60460000 55.66610000
21.59080000 14.61260000 57.63130000
25.37590000 14.58580000 54.86510000
22.77880000 18.67510000 59.54460000
26.82420000 18.78360000 57.19870000
23.99470000 10.80290000 53.02880000
28.86480000 14.66050000 51.92670000
30.67210000 18.95070000 54.12250000
43.01260000 140.34750000 -4.04850000
43.88070000 140.63620000 -7.33270000
43.72230000 144.51560000 -6.78400000
43.39430000 136.33870000 -4.03280000
44.40230000 136.73840000 -7.50070000
44.10920000 140.74630000 -10.28410000
43.96830000 144.69710000 -9.98260000
44.59970000 136.95900000 -10.61770000
85.39870000 -91.70510000 15.14140000
82.03460000 -92.62820000 19.35900000
82.61150000 -87.22810000 20.77520000
78.18140000 -93.08150000 23.59810000
78.32470000 -87.62660000 25.23350000
85.75400000 -86.19360000 16.77350000
82.43060000 -82.02800000 22.40200000
78.40640000 -82.26040000 26.56870000
18.09120000 -58.42200000 -97.44680000
22.80430000 -63.17030000 -99.78070000
29.02150000 -57.72570000 -99.11320000
28.70190000 -62.85440000 -100.41500000
23.05190000 -68.68830000 -100.85980000
17.83940000 -68.66360000 -99.72790000
28.75270000 -68.76440000 -101.45200000
36.95880000 87.55880000 44.43230000
39.93380000 83.60340000 47.00780000
34.01310000 90.66310000 42.45500000
39.73730000 87.05700000 39.80780000
42.77460000 82.99760000 42.01900000
36.81730000 90.20190000 37.76340000
-6.94040000 -156.38460000 -14.52500000
-6.58060000 -158.71920000 -15.46530000
-9.66800000 -156.60850000 -14.97560000
-8.97330000 -158.48770000 -16.02970000
-6.17320000 -158.38270000 -17.66310000
-8.13220000 -158.40850000 -17.83600000
-5.68810000 102.64110000 13.07860000
-10.61880000 103.21680000 15.37580000
-11.36590000 98.69980000 12.64140000
-5.68210000 107.47320000 14.49770000
-10.05840000 108.32200000 16.93060000
-14.68340000 103.63920000 19.31970000
-13.58130000 108.73350000 20.54260000
1.75610000 -25.31330000 74.67410000
-3.31110000 -25.31180000 75.57520000
-3.26630000 -22.50060000 71.91740000
-7.76250000 -25.51520000 76.07600000
-7.76260000 -22.49990000 72.20440000
0.99950000 -22.04600000 70.70100000
-3.99540000 -19.94240000 68.18120000
-8.02560000 -20.13920000 68.72530000
59.51130000 17.49010000 -31.34970000
60.97320000 16.99690000 -27.30570000
62.81470000 20.65130000 -32.43670000
64.15820000 19.92410000 -27.79940000
57.96690000 13.38220000 -26.46720000
61.94470000 16.22290000 -22.82850000
64.93270000 19.27420000 -22.98200000
15.66110000 156.35400000 42.20400000
12.96680000 156.54690000 45.06360000
12.80470000 152.97060000 45.11160000
9.50600000 156.74120000 47.12570000
9.49920000 152.84500000 47.21500000
15.51110000 152.55680000 42.51840000
12.58150000 148.54050000 45.04790000
9.25590000 148.69150000 47.11610000
12.80920000 109.74220000 -37.98250000
17.55780000 110.55230000 -39.23260000
17.08490000 107.51200000 -42.42320000
12.80040000 112.56250000 -34.35920000
16.78730000 113.19220000 -35.98890000
22.05070000 111.03610000 -39.97300000
22.00480000 113.60240000 -37.44430000
-67.87820000 76.15880000 8.62340000
-65.08870000 81.37550000 7.46980000
-62.00080000 80.19760000 12.62390000
-70.75240000 77.01180000 3.15980000
-67.78810000 81.88970000 1.94700000
-61.93400000 85.64990000 6.51710000
-59.12810000 84.62880000 11.65980000
-64.03110000 86.54830000 1.15580000
55.32250000 55.56410000 -60.22670000
54.09190000 49.71930000 -60.38350000
49.22110000 51.05940000 -63.64560000
52.85860000 44.18720000 -59.95110000
47.70560000 45.42860000 -63.27650000
50.41560000 56.85300000 -63.34820000
44.21650000 52.28690000 -66.03610000
42.74710000 46.57570000 -65.83110000
-13.81720000 110.46810000 41.94350000
-14.73280000 105.73590000 43.08450000
-17.04600000 105.73070000 39.42460000
-11.26750000 110.14110000 44.42740000
-11.85980000 106.18950000 45.50390000
-15.64580000 102.35710000 43.83120000
-18.20930000 102.33030000 40.18340000
-13.01050000 102.36260000 46.88450000
-40.88950000 -102.75670000 73.55520000
-42.64810000 -97.68600000 74.82090000
-38.29450000 -97.32650000 78.27440000
-44.98050000 -103.31080000 70.20180000
-46.75250000 -98.62820000 71.06370000
-44.12990000 -92.82810000 75.60130000
-39.66740000 -92.19880000 79.28320000
-48.28640000 -93.33780000 71.88220000
34.36130000 61.56870000 65.92490000
35.18170000 55.49850000 65.92710000
29.71840000 55.08780000 69.56850000
35.60660000 49.65210000 65.26000000
30.09450000 49.04890000 68.81060000
28.88540000 61.41620000 69.74460000
23.98500000 54.79620000 72.10830000
24.95920000 48.95000000 71.67550000
49.04430000 -51.93890000 65.77820000
51.06780000 -57.57030000 66.62400000
47.02370000 -57.50790000 71.06360000
51.92250000 -63.40270000 67.40650000
48.03150000 -63.59820000 72.00630000
45.19020000 -51.75510000 70.30140000
42.16640000 -57.78820000 75.86950000
43.25210000 -63.88600000 76.82220000
-25.31370000 7.72510000 61.02750000
-28.61820000 6.72550000 59.65440000
-27.26570000 2.57630000 59.73620000
-26.83430000 12.09260000 61.32990000
-30.14890000 11.30240000 59.43170000
-31.80440000 5.49770000 57.78090000
-33.54900000 10.07930000 57.26600000
-93.90370000 -58.84520000 9.21150000
-92.42230000 -53.36680000 8.89840000
-94.80590000 -52.99370000 4.38750000
-90.57520000 -58.78100000 14.50730000
-89.25590000 -53.49030000 13.75420000
-90.63420000 -47.87550000 8.32410000
-87.19950000 -47.94170000 13.08780000
67.97990000 -80.48370000 -92.02010000
68.39090000 -74.73610000 -91.45550000
72.66110000 -75.58430000 -89.08180000
62.74960000 -80.29960000 -94.84680000
62.96030000 -74.59640000 -94.25290000
68.51350000 -69.98070000 -90.71720000
72.82610000 -70.62750000 -88.25580000
43.23600000 50.53080000 62.35900000
43.05340000 45.00820000 61.05780000
46.59420000 46.00960000 56.73300000
39.13100000 49.54010000 66.72310000
38.81530000 43.98460000 65.37020000
42.89030000 39.64100000 59.39790000
38.54600000 38.73020000 63.86890000
-87.29180000 -30.33700000 -49.44100000
-83.65420000 -26.26510000 -49.50590000
-82.00090000 -27.26790000 -54.57250000
-88.66370000 -29.56380000 -44.30140000
-84.79410000 -25.29960000 -44.05430000
-80.07890000 -22.20780000 -48.93270000
-78.35130000 -23.12810000 -54.12470000
-81.02060000 -21.44620000 -43.61340000
-59.74510000 102.34700000 -14.27100000
-56.71910000 105.83940000 -14.46860000
-56.89570000 105.43790000 -19.25380000
-54.28400000 108.18840000 -19.79160000
-59.61400000 101.95720000 -19.34570000
-56.24120000 105.08160000 -24.01430000
-28.22020000 -19.56020000 62.20090000
-29.92070000 -22.15820000 65.66720000
-34.20090000 -22.82900000 62.91550000
-24.37760000 -19.10610000 64.74100000
-26.16320000 -22.03790000 67.92160000
-32.35290000 -25.80920000 68.48980000
-27.41320000 -25.73270000 71.12340000
-10.82470000 4.50430000 66.49230000
-9.89630000 1.58460000 65.15720000
-12.71750000 7.96700000 67.32720000
-14.32070000 3.91850000 64.97170000
-11.96070000 0.93460000 64.17920000
-17.20480000 6.35550000 64.76130000
12.91840000 -157.26600000 39.23350000
10.80530000 -157.37320000 41.35870000
9.12860000 -156.87040000 39.07690000
12.03910000 -159.35000000 43.26960000
8.64350000 -157.73510000 43.56790000
7.30680000 -157.03960000 41.18240000
8.62550000 -160.12840000 45.02810000
45.46150000 -5.99980000 -38.45130000
47.92570000 -6.23480000 -35.47430000
48.31920000 -2.75230000 -35.98100000
49.91770000 -8.86980000 -37.11300000
49.91930000 -6.36780000 -32.43570000
50.61840000 -2.83400000 -32.70060000
51.88060000 -9.19250000 -34.11680000
47.38710000 114.33840000 0.04800000
45.33650000 117.84650000 -0.48020000
42.96070000 117.20330000 2.95760000
44.18340000 121.44300000 -1.17120000
41.29110000 120.68500000 2.08730000
-55.47910000 -20.49440000 -73.44180000
-52.12540000 -20.43110000 -75.18800000
-53.88550000 -23.07250000 -77.37750000
-53.68760000 -18.56500000 -71.80380000
-50.60160000 -17.94250000 -72.62100000
-48.60130000 -20.43360000 -76.53840000
-49.99640000 -23.25520000 -79.40400000
-73.91570000 -90.87260000 21.00160000
-77.64970000 -91.76360000 17.20270000
-78.73290000 -86.57330000 17.76780000
-72.28930000 -95.33700000 20.93770000
-75.61310000 -96.19370000 17.18590000
-80.69490000 -92.51300000 13.22730000
-82.06570000 -87.49750000 13.44190000
-78.80670000 -97.25380000 13.21510000
27.07670000 3.58820000 43.12360000
27.24840000 -0.70790000 42.58230000
24.63560000 -0.50160000 46.43560000
29.15970000 4.00010000 39.49090000
29.62160000 -0.43820000 38.81930000
27.09210000 -4.57340000 42.65200000
24.65990000 -4.84340000 45.85340000
29.51760000 -4.68710000 38.26110000
20.05440000 37.70460000 71.09240000
19.24470000 43.29080000 72.85980000
25.41750000 43.26530000 70.70980000
14.86060000 37.62460000 72.66240000
13.51670000 42.58670000 74.39030000
18.66230000 48.71650000 73.91260000
-51.95240000 -153.23470000 9.43680000
-54.61510000 -154.23460000 6.06130000
-51.20720000 -157.40480000 4.68070000
-57.25550000 -155.35900000 2.45480000
-54.04300000 -158.45090000 0.91240000
-48.21980000 -160.09090000 2.99730000
-45.97500000 -159.12780000 6.36430000
-50.66200000 -160.92040000 -0.51780000
22.41510000 -121.90980000 88.46970000
27.38910000 -120.96590000 87.04090000
27.23170000 -115.20930000 90.07320000
22.03030000 -126.97300000 85.19730000
27.32050000 -126.18980000 83.58480000
32.81040000 -119.90820000 84.80210000
32.49530000 -114.36670000 88.11430000
32.29810000 -125.25260000 81.60190000
48.92610000 -69.72900000 72.62880000
44.52710000 -70.18620000 77.32530000
52.61230000 -69.43810000 67.68640000
48.99100000 -76.23040000 73.33390000
53.05060000 -75.76810000 67.46900000
15.44120000 150.30180000 28.56770000
14.77650000 150.76560000 25.74730000
14.70190000 146.68740000 25.70080000
15.72620000 153.59630000 28.44800000
14.96930000 153.82740000 25.62380000
13.27030000 150.63280000 23.09970000
13.18760000 147.08350000 23.28660000
13.41850000 153.78560000 22.85540000
-49.58680000 75.98040000 39.45830000
-48.38130000 75.88050000 44.56100000
-46.77980000 80.71770000 43.47340000
-46.42630000 76.20800000 49.38540000
-44.80080000 80.81220000 48.36000000
-48.21080000 80.05800000 37.99730000
-44.87220000 85.10030000 42.13680000
60.82380000 100.53960000 -0.86600000
62.55620000 100.37910000 -6.19660000
58.85320000 104.54850000 -6.61150000
59.89550000 104.24800000 -11.46610000
57.52920000 104.37660000 -1.78990000
55.68790000 108.18680000 -6.93940000
15.76320000 -154.10840000 13.84050000
13.29340000 -154.28850000 17.11980000
11.01190000 -153.95680000 15.30150000
18.40930000 -154.49700000 15.44250000
16.07740000 -154.67990000 18.69810000
11.32700000 -154.49600000 20.07680000
8.94560000 -154.16840000 18.32370000
13.90120000 -154.88180000 21.79020000
18.76000000 -149.80000000 17.74970000
15.88470000 -149.60140000 13.47980000
12.26670000 -149.57710000 16.22620000
13.55030000 -149.73890000 9.04790000
9.45130000 -149.67450000 11.07460000
7.87670000 -149.76830000 18.03760000
10.97360000 -149.66700000 23.35290000
5.30390000 -149.74320000 13.30940000
-36.70150000 163.83310000 -9.00070000
-35.69200000 161.31770000 -9.37520000
-35.94400000 161.41050000 -12.04080000
-35.42280000 158.47440000 -9.53800000
-35.50670000 158.75920000 -12.18060000
-35.38880000 161.41390000 -14.81770000
-36.44000000 163.97090000 -14.96550000
-35.06460000 158.59110000 -14.76110000
-36.35910000 -53.96920000 95.60920000
-37.02610000 -48.68670000 93.54050000
-40.77090000 -50.68570000 90.37620000
-32.14550000 -51.31310000 98.72260000
-33.01700000 -46.37550000 96.40140000
-38.32800000 -44.32400000 92.33080000
-33.67690000 -42.64350000 93.62040000
-10.96910000 102.91750000 -48.37080000
-11.41960000 99.72210000 -52.22070000
-16.04700000 100.71990000 -52.45930000
-5.65020000 101.35910000 -47.51710000
-6.36340000 98.27490000 -51.59740000
-11.56620000 96.23650000 -55.93190000
-16.53280000 97.25480000 -55.90080000
-6.48720000 94.82750000 -54.99370000
-49.81150000 56.16620000 52.03370000
-47.21930000 56.22430000 56.48130000
-47.03930000 61.40560000 56.17090000
-44.41990000 56.39190000 60.67440000
-44.19820000 61.56660000 60.26470000
-46.11520000 66.49440000 55.47400000
-48.56980000 66.21470000 51.00210000
-43.49940000 66.52080000 59.80380000
1.70380000 -41.83440000 -77.11870000
2.17090000 -46.79290000 -79.72100000
-3.08090000 -40.61630000 -78.94070000
-2.97560000 -45.43780000 -81.77540000
6.52500000 -46.47090000 -80.09600000
1.91250000 -51.34410000 -81.93600000
-2.96270000 -50.41140000 -83.98600000
53.23000000 -110.13920000 53.09320000
54.56180000 -104.62150000 55.44450000
57.24020000 -103.43490000 50.03190000
49.90560000 -111.14600000 58.21860000
51.03070000 -105.61650000 60.59770000
55.65300000 -99.10480000 57.53380000
58.48030000 -98.08320000 51.99010000
52.06180000 -99.82740000 62.75520000
-38.17370000 57.08310000 62.74030000
-33.09960000 57.66350000 67.02300000
-32.94440000 51.80280000 67.28660000
-37.91690000 62.75440000 61.77920000
-33.13450000 63.16860000 65.95370000
-27.79180000 58.27340000 70.12330000
-27.33010000 52.22910000 70.67290000
-27.73770000 63.84560000 69.24930000
21.24730000 103.24580000 20.89470000
17.70460000 102.41810000 16.89450000
19.54670000 98.58990000 15.54840000
19.59840000 108.33100000 21.25140000
16.39040000 107.07690000 17.30140000
13.63120000 102.35610000 14.00050000
15.08720000 98.47420000 12.23310000
12.77400000 107.83630000 15.05230000
-8.06720000 -38.83950000 -80.83870000
-8.06710000 -44.15490000 -83.69890000
-12.99830000 -37.70790000 -82.27920000
-13.06040000 -43.14600000 -85.06020000
-8.01020000 -49.34810000 -85.88580000
-13.25570000 -48.63220000 -87.46440000
-45.90760000 -23.56360000 -81.13870000
-47.54640000 -27.13510000 -84.27000000
-41.09610000 -23.86870000 -82.61800000
-42.39590000 -27.74530000 -85.83980000
-48.38230000 -31.12590000 -87.06150000
-53.48160000 -30.38830000 -84.79290000
-43.07080000 -32.00460000 -88.76080000
-53.82870000 -29.19050000 -73.69190000
-58.17290000 -27.86160000 -69.84540000
-48.46750000 -25.84460000 -73.52160000
-53.71330000 -24.15500000 -69.21400000
-61.90340000 -32.29990000 -70.73370000
-61.89100000 -26.45570000 -65.79680000
-57.98490000 -22.83520000 -64.73680000
87.99180000 -105.42890000 -34.15490000
87.63850000 -102.99910000 -38.86390000
85.05310000 -107.21360000 -40.99270000
90.19970000 -100.80060000 -32.13620000
89.41580000 -98.62550000 -37.39550000
86.59680000 -100.85070000 -43.61810000
88.51900000 -96.53610000 -41.90960000
-46.39740000 84.48690000 37.03770000
-42.51280000 89.25980000 40.64830000
-39.92680000 93.13090000 39.45540000
1.62470000 6.23610000 66.13060000
3.01300000 8.74070000 62.64800000
3.81760000 11.64360000 62.01680000
-35.28640000 82.90960000 -63.75410000
-34.05690000 87.41040000 -61.77130000
-29.03040000 86.71100000 -63.20460000
-38.50160000 88.70270000 -59.71070000
-32.20460000 91.71670000 -59.51900000
13.65690000 87.86650000 -50.52750000
19.48010000 88.20530000 -51.74390000
19.67540000 91.37820000 -47.93890000
13.10160000 83.84320000 -54.58000000
18.81330000 83.97320000 -55.57480000
25.11060000 88.46450000 -51.97010000
24.52830000 84.22890000 -55.63580000
-64.84400000 -19.84830000 -65.18160000
-60.98170000 -17.20260000 -64.06000000
-59.28740000 -18.30400000 -67.48850000
-66.89710000 -18.71340000 -61.18560000
-62.86070000 -16.02360000 -59.91320000
-57.13620000 -14.69360000 -62.67140000
-55.79460000 -16.05650000 -66.31480000
-58.40800000 -13.43130000 -58.74090000
-5.56040000 -32.53640000 90.97140000
-4.05440000 -36.44180000 93.66620000
0.94100000 -35.06260000 92.55900000
-2.09340000 -40.13730000 96.19290000
2.89170000 -38.80240000 95.01710000
-0.71260000 -31.10900000 89.52100000
5.92340000 -33.32780000 90.60890000
-49.41030000 -20.19330000 15.30990000
-46.65070000 -20.62410000 19.48870000
-49.61130000 -23.32640000 20.75230000
-46.55820000 -17.39700000 14.08680000
-43.75830000 -17.90100000 18.05520000
-45.22080000 -19.90320000 23.21930000
-48.07650000 -22.01270000 25.05030000
49.65590000 106.60070000 -23.01010000
47.18000000 108.59910000 -24.90110000
51.08240000 105.28130000 -20.30740000
48.30680000 103.98600000 -26.87840000
-54.28950000 -147.55820000 24.19040000
-56.81330000 -143.69780000 25.73800000
-57.82420000 -142.71660000 21.28810000
-53.13480000 -148.25760000 28.59380000
-55.98960000 -144.31970000 30.17490000
-59.48390000 -139.43170000 27.03980000
-58.57840000 -140.25250000 31.53860000
5.12920000 31.64930000 72.53100000
9.99560000 32.49390000 72.24190000
10.06430000 27.23350000 70.00320000
4.54620000 36.35070000 74.20440000
9.52590000 36.92130000 73.83330000
14.87410000 32.43990000 70.93970000
10.66800000 -152.38050000 42.34180000
15.74510000 -152.39020000 39.39720000
12.18020000 -152.64280000 34.96850000
13.35150000 -149.57940000 47.02880000
20.05190000 -152.05780000 36.41620000
16.78030000 -152.64690000 31.86230000
-58.32020000 -6.88070000 -38.82560000
-61.43730000 -8.75150000 -39.94870000
-62.52990000 -8.39720000 -35.66860000
-65.14330000 -10.77850000 -41.08420000
-65.97230000 -10.55340000 -36.50960000
-63.39860000 -8.46930000 -31.76980000
-60.66110000 -6.59080000 -31.17100000
-66.45810000 -10.48780000 -32.29450000
-6.89540000 -120.99570000 79.25910000
-7.58530000 -124.81620000 76.39770000
-11.96060000 -123.89260000 76.13880000
-8.41250000 -128.53180000 73.11380000
-12.70840000 -127.04850000 73.33590000
-11.55950000 -120.19940000 79.13990000
-15.85240000 -122.61020000 75.98660000
-16.35150000 -125.90390000 73.20070000
18.34340000 127.35840000 -1.58110000
18.26100000 123.68300000 -1.33440000
15.66840000 124.10160000 -4.15470000
20.73270000 123.92040000 1.08270000
18.10960000 120.08310000 -0.97170000
15.02870000 120.77540000 -4.15040000
20.65730000 120.04290000 1.45080000
13.91900000 -32.14260000 78.66150000
8.55870000 -32.48550000 80.60520000
7.72020000 -28.53860000 76.88460000
2.95910000 -32.78970000 82.13340000
2.31960000 -28.90610000 78.67890000
6.64750000 -25.29910000 73.36120000
11.24160000 -25.12640000 71.68400000
-62.81350000 -97.12150000 -78.05430000
-67.69530000 -96.41530000 -74.50570000
-67.09880000 -101.39490000 -72.71980000
-62.77260000 -91.54930000 -80.15410000
-67.79610000 -90.39350000 -76.73570000
-72.19520000 -95.00150000 -70.66280000
-71.62860000 -100.30970000 -68.87410000
-72.13730000 -89.09130000 -72.86960000
-62.39210000 -84.42470000 59.10020000
-60.92600000 -89.83010000 59.06450000
-63.77050000 -90.28330000 53.44530000
-58.88680000 -83.58010000 64.06480000
-57.42320000 -89.37190000 63.90020000
-59.68630000 -95.29510000 58.38380000
-56.01920000 -94.48980000 63.42040000
-31.70900000 144.34480000 -3.17110000
-32.13490000 140.72660000 -3.05140000
-34.61990000 141.23800000 -4.85880000
-29.24770000 144.53380000 -1.63340000
-29.73510000 140.49440000 -1.49440000
-32.81960000 137.59670000 -2.90620000
-30.42230000 136.66880000 -1.20910000
-75.11590000 -39.43540000 -63.49260000
-71.83370000 -34.27180000 -63.57470000
-74.83900000 -33.24740000 -58.59630000
-71.49000000 -40.35310000 -68.15680000
-68.67860000 -35.30960000 -67.56290000
-68.55370000 -29.68540000 -62.89410000
-71.43880000 -28.73250000 -58.19900000
-65.36570000 -30.78440000 -66.88730000
59.52590000 -35.50990000 -70.73540000
64.46680000 -36.28190000 -67.93110000
62.97720000 -31.30100000 -64.93870000
59.50010000 -40.55240000 -73.57590000
65.15470000 -41.67850000 -70.48710000
68.88460000 -37.11790000 -64.53910000
67.52840000 -32.11350000 -61.67270000
69.71340000 -42.63720000 -66.97690000
38.34600000 120.07830000 4.91090000
39.85640000 116.29650000 6.18940000
34.63210000 119.05350000 7.10550000
35.67850000 115.31600000 8.68430000
41.57810000 112.97710000 7.24590000
44.84820000 113.54340000 3.97630000
37.73240000 111.62610000 10.28900000
-30.41490000 -18.32340000 63.69930000
-32.95210000 -17.60870000 60.00730000
-36.07050000 -19.66590000 62.43200000
-29.69130000 -15.97530000 57.80560000
-35.32150000 -16.88830000 55.88160000
-38.53530000 -18.71700000 57.80340000
-32.11020000 -15.40560000 54.02150000
-32.75010000 -154.77380000 -36.60000000
-35.46730000 -154.89680000 -34.68650000
-37.32130000 -155.14870000 -37.60870000
-30.92620000 -154.50830000 -33.31110000
-33.20670000 -154.61510000 -31.58300000
-37.50280000 -155.00340000 -32.93090000
-39.57720000 -155.26030000 -35.80030000
-35.31580000 -154.74150000 -29.87350000
19.03270000 -152.34240000 -30.25590000
16.61090000 -152.40610000 -31.39530000
17.99900000 -152.55490000 -34.32840000
16.81280000 -152.20780000 -26.89830000
14.37340000 -152.88620000 -28.11550000
13.93730000 -152.57970000 -32.36290000
15.56590000 -152.61800000 -35.05670000
11.94320000 -153.21300000 -30.13660000
42.86510000 -78.87820000 91.74420000
48.40330000 -79.36190000 87.30820000
49.59470000 -73.70530000 89.27230000
41.14380000 -86.11070000 92.03080000
47.46800000 -86.30460000 87.87510000
55.55240000 -80.54420000 85.06910000
55.00330000 -74.12250000 84.45040000
55.18640000 -86.82030000 84.93160000
-13.70010000 -6.01630000 -49.56190000
-9.60300000 -6.72010000 -48.52760000
-8.66500000 -2.18830000 -49.62420000
-13.81360000 -9.10560000 -52.82760000
-9.37930000 -10.04110000 -51.86950000
-4.77480000 -7.25630000 -47.17490000
-4.59670000 -2.61070000 -48.23950000
-4.43310000 -11.02530000 -50.76970000
-12.89230000 -28.55970000 -75.94740000
-7.76060000 -30.16830000 -74.72880000
-7.78770000 -25.96240000 -71.56710000
-3.14360000 -31.66150000 -73.00880000
-3.14690000 -27.54860000 -69.89950000
-12.93310000 -24.46920000 -72.86330000
-8.26600000 -22.03270000 -67.93600000
-2.98270000 -23.85390000 -65.99220000
77.08370000 80.00730000 -10.06160000
76.78400000 78.62120000 -3.79170000
78.92170000 72.73510000 -4.95390000
75.77490000 77.44890000 2.34810000
77.46300000 71.50460000 1.83670000
52.28760000 1.10110000 -38.81650000
52.56360000 -2.16230000 -39.27820000
50.81190000 -1.57260000 -41.51080000
53.95690000 0.32380000 -36.65860000
54.50350000 -2.75670000 -36.45370000
52.25610000 -5.17830000 -38.71850000
50.09040000 -4.98010000 -41.36820000
54.08140000 -5.36810000 -36.03730000
-0.13440000 147.14970000 18.48080000
-0.12460000 143.51140000 18.74370000
2.92510000 143.71910000 18.08580000
-2.97100000 147.27470000 19.46160000
-2.88800000 143.60540000 19.75130000
0.00100000 139.91270000 18.57720000
2.98400000 139.96300000 18.17190000
-2.87110000 140.00940000 19.89560000
-61.72100000 30.51400000 -41.61810000
-63.11180000 35.05830000 -43.45260000
-66.59470000 35.36780000 -38.70170000
-63.69550000 39.98110000 -44.82930000
-67.88470000 40.75770000 -39.57290000
-65.13160000 30.63240000 -37.18370000
-69.93640000 35.66260000 -33.28800000
-71.34620000 41.28090000 -33.94170000
22.07580000 -152.34310000 -24.01420000
19.45780000 -152.21920000 -25.41030000
21.65300000 -152.41310000 -29.23300000
24.34460000 -152.53050000 -27.89940000
23.39660000 -152.68440000 -32.67820000
20.64930000 -152.59160000 -33.51590000
94.53530000 -64.16640000 0.95990000
92.95290000 -65.34690000 6.15700000
91.93400000 -59.45620000 6.63920000
89.95330000 -61.03430000 11.45790000
90.36320000 -54.21770000 7.30710000
92.30280000 -53.26070000 2.04270000
88.40120000 -55.35090000 12.10100000
-17.94290000 117.17170000 26.39130000
-18.58930000 117.54740000 31.12770000
-20.70310000 112.15330000 24.35620000
-20.76630000 113.64640000 30.61000000
-17.05330000 122.01040000 31.29200000
-18.11840000 118.64740000 35.93680000
-20.22920000 114.34360000 35.90160000
29.89860000 156.39460000 -21.80630000
30.25180000 159.54930000 -22.02450000
27.38770000 159.52380000 -22.40700000
32.39260000 156.40460000 -20.52670000
32.74600000 159.16330000 -20.83430000
30.74420000 162.36600000 -22.29700000
27.69140000 162.42780000 -22.84400000
33.20090000 161.98250000 -21.22690000
-10.41950000 150.43280000 -12.29810000
-9.87530000 153.66970000 -11.89310000
-10.11200000 153.98600000 -15.07660000
-9.34490000 156.56810000 -11.57240000
-9.73480000 157.03780000 -14.72540000
-10.77680000 154.45140000 -17.96140000
-10.94410000 151.04780000 -18.30800000
-10.62700000 157.33710000 -17.74920000
-50.71950000 74.69260000 34.15170000
-51.98180000 70.21700000 35.12740000
-51.09090000 70.93300000 40.25860000
-52.50670000 74.39400000 29.25010000
-53.57610000 69.40700000 29.97940000
-52.99830000 65.31890000 35.74720000
-52.12130000 65.83720000 40.91640000
-54.46230000 64.59830000 30.70070000
-20.00090000 102.00670000 35.55580000
-18.21860000 105.42800000 34.91160000
-20.90860000 101.26420000 30.20350000
-18.40890000 105.08150000 29.89820000
-16.81970000 110.38560000 34.36030000
-15.97200000 110.55110000 38.50980000
-16.75290000 109.90240000 29.61470000
-20.47040000 12.28700000 55.65610000
-16.70210000 12.20320000 57.37120000
-15.90300000 8.41940000 55.57660000
-12.56020000 12.13460000 59.02890000
-11.90280000 8.21360000 57.20180000
-15.21390000 4.34470000 54.28390000
-18.20210000 4.49020000 52.67560000
-11.71060000 4.40130000 55.79300000
-48.86240000 -104.33420000 66.37440000
-50.86690000 -99.15980000 66.95600000
-52.60720000 -105.18980000 61.78920000
-54.43000000 -99.79610000 62.62790000
-52.19450000 -93.93400000 67.86100000
-48.72820000 -60.10690000 89.75060000
-50.92730000 -63.40230000 91.98340000
-46.11390000 -55.97980000 88.35230000
34.26400000 -62.88980000 -100.29690000
34.59550000 -57.41320000 -98.85200000
34.64340000 -68.57850000 -101.34830000
39.86640000 -62.75450000 -99.66840000
40.09590000 -57.66810000 -98.27550000
98.76520000 -103.27770000 7.55760000
96.08850000 -104.42500000 12.91970000
94.87160000 -109.91490000 10.51460000
100.12500000 -98.07220000 8.98270000
97.05790000 -98.99480000 14.62850000
92.52760000 -105.51860000 17.88110000
91.34190000 -110.37550000 15.83730000
93.45590000 -99.94550000 19.63910000
-67.12040000 33.16390000 11.00870000
-69.14400000 38.52890000 10.92740000
-71.04320000 36.58030000 6.18080000
-64.54270000 33.86830000 15.55520000
-66.53420000 38.41190000 15.61030000
-70.64600000 43.07440000 10.73250000
-67.91370000 43.93880000 16.06750000
-54.88600000 42.06300000 26.71610000
-53.71480000 37.37490000 26.00330000
-57.63280000 37.07840000 22.39670000
-52.79930000 41.55900000 31.71720000
-51.67600000 37.03010000 30.84290000
-52.57130000 33.04620000 24.80800000
-50.19410000 32.50860000 29.85490000
74.53360000 -26.35840000 12.83000000
72.07360000 -27.52500000 16.85020000
76.16360000 -31.69590000 18.32520000
69.26770000 -29.03860000 21.06560000
73.23290000 -33.06870000 22.52820000
78.79460000 -30.28620000 13.65220000
79.93240000 -35.64160000 19.31200000
76.95870000 -37.21250000 23.51520000
77.96850000 -24.60250000 -27.17510000
80.76160000 -26.74750000 -23.33920000
81.85610000 -29.12590000 -30.25190000
84.00070000 -30.74640000 -25.21130000
82.81550000 -28.62130000 -19.08210000
85.62920000 -32.09520000 -20.38200000
66.80700000 -68.39690000 61.32810000
68.88980000 -68.17850000 55.59180000
67.62530000 -62.56450000 55.31850000
67.89360000 -73.78960000 61.58820000
69.90160000 -73.26350000 56.18440000
70.72140000 -67.75240000 49.92900000
69.31640000 -62.48120000 50.24930000
71.72760000 -73.17780000 50.06160000
55.59120000 1.49930000 -13.93500000
55.38440000 1.83480000 -10.17730000
55.34840000 6.34460000 -11.48520000
55.88490000 -2.38990000 -13.64970000
55.56050000 -2.16610000 -9.86740000
54.91660000 2.12980000 -6.06070000
54.38710000 6.08590000 -6.65310000
54.60100000 -2.17900000 -6.01090000
96.58790000 -59.21430000 -19.48330000
95.94050000 -57.37320000 -24.64420000
96.48430000 -61.88480000 -26.70540000
95.14370000 -59.86250000 -31.97420000
97.15590000 -64.16040000 -20.96920000
96.43420000 -67.67800000 -28.09500000
95.26440000 -65.70970000 -33.53710000
-38.32300000 -128.92610000 77.39580000
-39.50380000 -124.89370000 79.29240000
-33.40160000 -129.32990000 80.33030000
-33.90690000 -124.96940000 82.99580000
-40.32840000 -120.40960000 81.24680000
-44.09950000 -120.00150000 78.60330000
-35.56730000 -120.59900000 84.44270000
-19.51960000 -33.75400000 81.43550000
-18.77950000 -29.09060000 78.18320000
-13.92470000 -29.29080000 79.40140000
-17.95310000 -25.21160000 74.83110000
-13.08060000 -25.42020000 75.76270000
-14.03220000 -33.54290000 82.74430000
-8.35370000 -28.99060000 79.81190000
-44.02200000 88.75600000 35.59980000
-45.16390000 88.02360000 30.85060000
-47.33310000 84.26070000 31.88340000
-47.08700000 87.92350000 26.09970000
15.85900000 -95.19410000 -86.46880000
16.30950000 -89.89800000 -87.88870000
11.04330000 -89.01210000 -86.41810000
16.73780000 -84.20940000 -88.95970000
11.52490000 -83.75610000 -87.28380000
10.49240000 -94.65810000 -84.93150000
6.02200000 -88.48740000 -85.23820000
6.20630000 -83.57260000 -86.09390000
26.61280000 -148.52080000 -16.63450000
25.64750000 -148.27550000 -20.68270000
21.86070000 -147.85220000 -19.35010000
30.33720000 -148.99610000 -17.94440000
29.65240000 -148.82350000 -21.84250000
25.09450000 -148.18030000 -24.90910000
20.88230000 -147.65020000 -23.89510000
29.66350000 -148.76570000 -26.02240000
-33.45220000 91.62990000 20.49950000
-36.47290000 89.47720000 22.51290000
-39.14120000 90.44070000 18.57940000
-39.82590000 86.86130000 24.27090000
-42.58590000 87.59360000 20.51200000
-35.94530000 92.65630000 16.70390000
-42.33850000 92.56470000 15.06960000
-46.04490000 89.35710000 16.76500000
51.76970000 -161.08970000 -38.54750000
50.92210000 -156.92380000 -36.78670000
47.70650000 -156.14430000 -41.53790000
55.10460000 -162.28350000 -32.41680000
53.24600000 -157.51570000 -31.09320000
45.37810000 -155.22580000 -38.48740000
97.28210000 -72.71650000 -11.73000000
96.70530000 -74.20150000 -6.36940000
96.36720000 -68.31500000 -5.11050000
95.57130000 -75.73690000 -1.27690000
95.23030000 -69.69080000 -0.03200000
95.66270000 -62.54790000 -3.96250000
-32.58550000 71.93090000 -68.52680000
-33.89940000 66.08410000 -69.74780000
-38.96410000 67.23430000 -68.08340000
-34.74160000 60.34740000 -70.26950000
-40.03100000 61.43850000 -68.66910000
-38.16470000 72.79130000 -66.74430000
-44.61490000 68.10030000 -65.57020000
-45.30930000 62.21790000 -66.29440000
11.09460000 -112.52460000 81.75150000
11.82190000 -107.23300000 84.06100000
18.06840000 -107.22490000 82.09570000
5.14470000 -111.90460000 82.92290000
5.33690000 -107.42880000 85.08670000
12.57000000 -101.80060000 86.04190000
6.20480000 -101.78630000 87.12940000
37.82470000 -62.02080000 92.51250000
39.19340000 -66.93340000 95.48610000
43.39110000 -67.42720000 91.91830000
33.34080000 -61.67630000 95.18190000
35.08380000 -65.93150000 98.04150000
40.97850000 -71.49530000 96.62660000
35.75290000 -70.82930000 99.05180000
10.65290000 98.06560000 9.24000000
13.38260000 99.50320000 5.19450000
17.54690000 99.22010000 8.18150000
5.83670000 97.46150000 5.81370000
9.62600000 99.79070000 1.67630000
14.99840000 103.31270000 3.00910000
19.12470000 103.16460000 5.54670000
11.88450000 103.91730000 -0.65600000
67.66090000 -104.49950000 28.42640000
68.69990000 -99.49260000 30.35750000
73.31230000 -99.06550000 26.12290000
69.58520000 -93.92350000 31.85490000
73.86980000 -93.50140000 27.64260000
77.39590000 -98.76190000 22.05470000
31.57090000 -1.78240000 48.62680000
28.60290000 -4.03620000 49.26460000
29.88780000 -4.96850000 45.46890000
32.33200000 -1.13640000 53.03410000
29.86720000 -4.41680000 52.97150000
51.99230000 -52.95080000 -93.65340000
45.71430000 -52.68310000 -95.37610000
45.88130000 -47.70090000 -93.14600000
46.04190000 -57.70100000 -97.27260000
40.32600000 -52.41510000 -96.37250000
40.14890000 -47.47370000 -94.25660000
-34.45320000 -157.72250000 47.61250000
-37.00240000 -154.75380000 50.38310000
-39.58290000 -154.46840000 47.10500000
-39.75330000 -151.32580000 53.00720000
-42.50120000 -151.05000000 49.31450000
-36.85680000 -157.56550000 44.36450000
-41.92300000 -154.24050000 43.19760000
-45.02850000 -150.65700000 45.43650000
30.79280000 -162.08520000 33.80560000
27.96880000 -162.91930000 36.75740000
25.58360000 -163.29150000 34.45090000
33.07660000 -159.98770000 36.60440000
30.39180000 -160.85820000 39.64110000
25.18980000 -163.34740000 39.77680000
23.16280000 -163.34400000 37.28950000
27.52110000 -161.61570000 42.54180000
51.59510000 81.24400000 23.29020000
48.22780000 80.16720000 27.06780000
45.43200000 83.63490000 25.47930000
46.27140000 80.65820000 31.66010000
43.33780000 84.47560000 29.87400000
48.65700000 85.19380000 21.76360000
42.44600000 87.17770000 23.59880000
40.32830000 87.82550000 28.18890000
-3.51540000 31.03320000 72.45610000
-8.50510000 32.22220000 72.28850000
-4.27810000 26.97500000 70.73000000
-9.41830000 27.73040000 70.34490000
-13.72230000 34.30150000 71.91760000
-14.66710000 28.61540000 69.69660000
39.05360000 139.35010000 -8.41630000
40.35850000 139.67090000 -11.07670000
40.50180000 136.20500000 -11.23810000
39.01290000 142.77290000 -7.90060000
40.03540000 143.10600000 -10.13120000
41.04680000 139.84180000 -12.96540000
