-12.03228900 14.21285100 0.59318700
-12.07197700 14.14884000 0.04846400
-11.94284900 13.66201200 -0.63640700
-11.79803400 13.89557300 -1.25423800
-11.60580800 14.20560200 -0.98766000
-11.72098700 14.01983600 -0.49625900
-11.57248200 14.25935100 -1.74455200
-11.42641100 14.49493800 -1.37763900
-11.28826900 14.71773900 -2.05935300
-11.20035800 14.85952500 -1.62802000
-10.97321700 15.22586600 -2.16782600
-10.94977700 15.26367000 -1.71429600
-10.65816500 15.73399300 -2.04120700
-10.69919600 15.66781700 -1.62542800
-10.38463900 16.17514400 -1.62239300
-10.48439700 16.01425200 -1.38133300
-10.16990200 16.52148100 -0.66394600
-10.29015200 16.32753800 -0.91386200
-10.16990200 16.52148100 0.76087400
-10.29015200 16.32753800 1.01079000
-10.38085100 16.18125500 1.70718800
-10.48196800 16.01816900 1.47242400
-10.65816500 15.73399300 2.13813500
-10.69919600 15.66781700 1.72235600
-10.97321800 15.22586600 2.26475400
-10.94977700 15.26367000 1.81122400
-11.28826800 14.71773900 2.15628100
-11.20035700 14.85952400 1.72494800
-11.57248200 14.25935200 1.84148000
-11.42641100 14.49493900 1.47456600
-11.79803500 13.89557300 1.35116600
-11.60580700 14.20560300 1.08458800
-11.94284800 13.66201300 0.73333500
-11.72098700 14.01983600 0.59318700
-11.99274600 13.58153300 0.04846400
-11.76067500 13.95582600 0.04846400
-10.30551100 16.65031100 -0.62229300
-10.52366400 16.29846600 -1.66257000
-10.80697700 15.84153000 -2.11050400
-11.13277400 15.31607200 -2.24341400
-11.45857200 14.79061500 -2.13124200
-11.75247800 14.31659300 -1.80570500
-11.98572300 13.94040900 -1.29866800
-12.13547500 13.69888200 -0.65976500
-12.18707500 13.61565900 0.04846400
-12.13547500 13.69888300 0.75669300
-11.98572300 13.94040900 1.39559600
-11.75247900 14.31659400 1.90263200
-11.45857200 14.79061500 2.22816900
-11.13277400 15.31607200 2.34034200
-10.80697600 15.84153000 2.20743200
-10.51964900 16.30494300 1.74631500
-10.30551100 16.65031100 0.71922100
-10.46584300 16.39172200 1.05244300
-10.65447200 16.08749600 1.43329700
-10.86168400 15.75329500 1.65305900
-11.10152100 15.36647900 1.73563500
-11.34135700 14.97966300 1.65305900
-11.55771500 14.63071100 1.41341400
-11.72942100 14.35378100 1.04015800
-11.83966200 14.17598200 0.56982900
-11.87764700 14.11471600 0.04846400
-11.83966100 14.17598100 -0.47290100
-11.72942100 14.35378100 -0.94323000
-11.55771500 14.63071100 -1.31648600
-11.34135700 14.97966200 -1.55613200
-11.10152100 15.36647900 -1.63870800
-10.86168400 15.75329500 -1.55613200
-10.65667400 16.08394400 -1.34115600
-10.46584300 16.39172200 -0.95551500
-10.52338200 16.64646500 1.18290900
-10.34277300 16.59021400 1.17775700
-10.21208300 16.45345100 1.18290900
-10.36184000 16.21191600 1.21382200
-10.54245100 16.26816700 1.21897400
-10.67314100 16.40493000 1.21382200
-10.36686300 16.55135900 -1.15992400
-10.54611400 16.60980200 -1.15878000
-10.68771600 16.38142600 -1.15191600
-10.55566500 16.24685500 -1.15077200
-10.37641400 16.18841000 -1.15191600
-10.23481400 16.41678800 -1.15878000
-12.19285700 13.95388100 -0.95763300
-12.00538000 14.25625000 -1.51856900
-11.74733800 14.67242600 -1.92611400
-11.44399500 15.16167000 -2.14037200
-11.12504000 15.67609000 -2.14037200
-10.82169600 16.16533500 -1.85352900
-10.60640500 16.51256400 -1.39285500
-10.49293600 16.69557000 0.96242600
-10.82169600 16.16533500 1.95045700
-11.12504000 15.67609000 2.23730000
-11.44399400 15.16167000 2.23730000
-11.74733800 14.67242600 2.02304100
-12.00538000 14.25625000 1.61549700
-12.19285600 13.95388200 1.05456100
-12.29141800 13.79491700 0.39514200
-12.29141900 13.79491600 -0.29821300
-12.16545400 14.04772600 -0.56633300
-12.03545700 14.25738800 -1.12094900
-11.98353900 14.29147500 -0.75175100
-11.83298400 14.58394600 -1.56109500
-11.83442500 14.53197000 -1.19790000
-11.57785000 14.99543400 -1.84368700
-11.62919000 14.86298200 -1.52204600
-11.29503400 15.45157000 -1.94106100
-11.38792000 15.25211000 -1.69246000
-11.01221700 15.90770600 -1.83331800
-11.13423500 15.66126300 -1.69246000
-10.76805600 16.30149800 -1.50186300
-10.89296500 16.05038800 -1.51167700
-10.56356200 16.63131000 -0.78890400
-10.73274700 16.30879600 -1.26452400
-10.56356200 16.63131000 0.88583200
-10.76494600 16.30651300 1.58980600
-10.63448800 16.46727200 1.10775300
-11.01221700 15.90770600 1.93024600
-10.89296500 16.05038800 1.60860500
-11.29503400 15.45157000 2.03798900
-11.13423500 15.66126300 1.78938800
-11.57784900 14.99543400 1.94061400
-11.38792000 15.25211000 1.78938800
-11.83298400 14.58394600 1.65802300
-11.62919000 14.86298200 1.61897400
-12.03545700 14.25738900 1.21787700
-11.83442600 14.53197000 1.29482700
-12.16545300 14.04772600 0.66326100
-11.98353800 14.29147700 0.84867800
-12.21024800 13.97548100 0.04846400
-12.06193200 14.16504100 0.32419900
-12.06193200 14.16504100 -0.22727100
-12.22441900 13.75402800 -0.65976500
-12.07466500 13.99555500 -1.29866800
-11.88155500 13.76086600 -0.95763300
-11.81836300 14.40892800 -0.94323000
-11.67968600 14.03680000 -1.12094900
-11.92860300 14.23112700 -0.47290100
-11.67223700 14.09846100 -0.75175100
-11.80968200 13.82713700 -0.56633300
-11.84141900 14.37174000 -1.80570500
-11.69407700 14.06323600 -1.51856900
-11.64666000 14.68585800 -1.31648600
-11.47721000 14.36335800 -1.56109600
-11.52312400 14.33895500 -1.19790000
-11.54751400 14.84576200 -2.13124200
-11.43603900 14.47941100 -1.92611300
-11.43030000 15.03480900 -1.55613200
-11.22207900 14.77484500 -1.84368700
-11.31788900 14.66996800 -1.52204600
-11.22171800 15.37122000 -2.24341400
-11.13269500 14.96865500 -2.14037200
-11.19046300 15.42162600 -1.63870800
-10.93926000 15.23098200 -1.94106100
-11.07662100 15.05909400 -1.69246000
-10.89592000 15.89667700 -2.11050300
-10.81374000 15.48307600 -2.14037200
-10.95062700 15.80844200 -1.55613100
-10.65644600 15.68711900 -1.83331800
-10.82293500 15.46824600 -1.69246000
-10.61260600 16.35361500 -1.66257000
-10.51039600 15.97232100 -1.85352900
-10.74561800 16.13909000 -1.34115600
-10.41228300 16.08091200 -1.50186300
-10.58166500 15.85737400 -1.51167700
-10.39445300 16.70545800 -0.62229300
-10.29510500 16.31955000 -1.39285500
-10.55478600 16.44686900 -0.95551500
-10.20779200 16.41072300 -0.78890400
-10.42144700 16.11578000 -1.26452400
-10.39445300 16.70545800 0.71922100
-10.55478600 16.44686900 1.05244300
-10.20779200 16.41072300 0.88583200
-10.60859200 16.36008800 1.74631500
-10.18163800 16.50255600 0.96242600
-10.74341500 16.14264300 1.43329700
-10.40917400 16.08592600 1.58980600
-10.32318700 16.27425800 1.10775300
-10.89592100 15.89667600 2.20743200
-10.51039500 15.97232100 1.95045700
-10.95062600 15.80844200 1.65305900
-10.65644500 15.68711900 1.93024600
-10.58166500 15.85737400 1.60860500
-11.22171700 15.37122000 2.34034200
-10.81374000 15.48307600 2.23730000
-11.19046300 15.42162500 1.73563500
-10.93926000 15.23098200 2.03798900
-10.82293500 15.46824600 1.78938800
-11.54751300 14.84576200 2.22817000
-11.13269500 14.96865500 2.23730000
-11.43030000 15.03481000 1.65305900
-11.22207800 14.77484500 1.94061400
-11.07661900 15.05909400 1.78938700
-11.84142000 14.37174100 1.90263200
-11.43603900 14.47941200 2.02304100
-11.64666000 14.68585800 1.41341400
-11.47721000 14.36335800 1.65802300
-11.31788900 14.66996800 1.61897400
-12.07466600 13.99555600 1.39559600
-11.69407800 14.06323600 1.61549700
-11.81836300 14.40892800 1.04015800
-11.67968600 14.03680000 1.21787700
-11.52312500 14.33895600 1.29482700
-12.22441800 13.75403000 0.75669300
-11.88155500 13.76086800 1.05456100
-11.92860400 14.23112800 0.56982900
-11.80968200 13.82713800 0.66326100
-11.67223700 14.09846200 0.84867800
-12.27601900 13.67080500 0.04846400
-11.98011800 13.60190300 0.39514200
-11.96659000 14.16986300 0.04846400
-11.85447500 13.75489200 0.04846400
-11.75063000 13.97202700 0.32419900
-11.98011800 13.60190200 -0.29821300
-11.75063000 13.97202700 -0.22727100
-10.21656700 16.59516500 -0.62229300
-10.43472000 16.24332000 -1.66257000
-10.32975500 16.61120800 -0.89400700
-10.71803400 15.78638300 -2.11050300
-10.65416800 16.08798600 -1.91050400
-11.04383200 15.26092500 -2.24341400
-10.96785700 15.58205500 -2.21502400
-11.36962900 14.73546800 -2.13124200
-11.29769100 15.05008900 -2.21502400
-11.66353500 14.26144600 -1.80570500
-11.61138100 14.54415900 -1.99345800
-11.89677900 13.88526100 -1.29866800
-11.87822100 14.11379000 -1.57201400
-12.04653300 13.64373500 -0.65976500
-12.07209200 13.80110700 -0.99194700
-12.09813300 13.56051200 0.04846400
-12.17401600 13.63672200 -0.31003700
-12.04653200 13.64373600 0.75669300
-12.17401600 13.63672300 0.40696500
-11.89677900 13.88526200 1.39559600
-12.07209200 13.80110900 1.08887500
-11.66353400 14.26144700 1.90263200
-11.87822100 14.11379100 1.66894200
-11.36962900 14.73546800 2.22817000
-11.61138000 14.54416000 2.09038600
-11.04383200 15.26092500 2.34034200
-11.29768900 15.05008900 2.31195200
-10.71803400 15.78638300 2.20743200
-10.96785700 15.58205500 2.31195200
-10.43070600 16.24979600 1.74631500
-10.65416800 16.08798600 2.00743200
-10.21656700 16.59516500 0.71922100
-10.41363700 16.47592200 1.45844200
-10.37690100 16.33657500 1.05244300
-10.56552800 16.03234900 1.43329700
-10.50242900 16.33271400 1.13197400
-10.77274100 15.69814800 1.65305900
-10.74919300 15.93472500 1.55163000
-11.01257700 15.31133200 1.73563500
-10.98011700 15.56228300 1.71473600
-11.25241300 14.92451600 1.65305900
-11.22292400 15.17067500 1.71473600
-11.46877300 14.57556300 1.41341400
-11.45384800 14.79823400 1.55162900
-11.64047700 14.29863400 1.04015800
-11.65028300 14.48141700 1.24138200
-11.75071700 14.12083400 0.56982900
-11.79300100 14.25123500 0.81436500
-11.78870400 14.05956800 0.04846400
-11.86803300 14.13022200 0.31237600
-11.75071800 14.12083300 -0.47290100
-11.86803300 14.13022100 -0.21544700
-11.64047700 14.29863400 -0.94323000
-11.79300100 14.25123400 -0.71743700
-11.46877300 14.57556300 -1.31648600
-11.65028300 14.48141600 -1.14445500
-11.25241300 14.92451500 -1.55613200
-11.45384800 14.79823300 -1.45470200
-11.01257700 15.31133200 -1.63870800
-11.22292500 15.17067500 -1.61780800
-10.77274200 15.69814900 -1.55613100
-10.98011700 15.56228300 -1.61780800
-10.56773200 16.02879700 -1.34115600
-10.74919400 15.93472500 -1.45470100
-10.37690100 16.33657500 -0.95551500
-10.59815400 16.17832800 -1.24313600
-10.59125000 16.53700600 1.44125100
-10.31369500 16.63711200 0.93820500
-10.43171600 16.64536100 1.17775700
-10.27995000 16.34399000 1.44125100
-10.25383000 16.53506700 1.17775700
-10.41173200 16.13145100 1.33810400
-10.26472700 16.31889700 1.19836500
-10.58934500 16.19253500 1.32091400
-10.45350800 16.21302000 1.21897400
-10.72303100 16.32446700 1.33810400
-10.63139400 16.32331500 1.21897400
-10.62049800 16.53948600 1.19836500
-10.42969700 16.45001800 -1.41424400
-10.50809100 16.67112700 -0.91403100
-10.45580600 16.60650600 -1.15992400
-10.64420300 16.45160300 -1.03417300
-10.63915100 16.50940100 -1.15534800
-10.51123800 16.31850600 -1.05419600
-10.64460800 16.30200200 -1.15077200
-10.33290300 16.25858700 -1.03417300
-10.46672200 16.19170800 -1.15077200
-10.19679200 16.47811300 -0.91403100
-10.28337900 16.28881300 -1.15534800
-10.27792200 16.49621200 -1.15992400
-11.75466100 13.91587700 -0.85469200
-11.58636600 14.18730900 -1.35823500
-11.35472800 14.56090200 -1.72408000
-11.08242200 15.00008800 -1.91641600
-10.79610200 15.46187500 -1.91641600
-10.52379400 15.90106000 -1.68260300
-10.24261200 16.35456300 -0.97410200
-10.23017700 16.37461900 1.03508900
-10.52379300 15.90106000 1.77953100
-10.79610200 15.46187500 2.01334400
-11.08242200 15.00008800 2.01334400
-11.35472700 14.56090300 1.82100700
-11.58636700 14.18730900 1.45516200
-11.75466200 13.91587800 0.95162000
-11.84313900 13.77317800 0.35967100
-11.84313900 13.77317800 -0.26274200
-12.11043300 14.13646500 -0.85469200
-11.94213800 14.40789600 -1.35823500
-11.71050100 14.78149000 -1.72408000
-11.43819500 15.22067600 -1.91641600
-11.15187300 15.68246300 -1.91641600
-10.87956700 16.12164900 -1.68260300
-10.59838300 16.57515100 -0.97410200
-10.58594800 16.59520700 1.03508900
-10.87956700 16.12164900 1.77953100
-11.15187300 15.68246300 2.01334400
-11.43819400 15.22067600 2.01334400
-11.71050100 14.78149000 1.82100700
-11.94213900 14.40789700 1.45516200
-12.11043300 14.13646600 0.95162000
-12.19891100 13.99376600 0.35967000
-12.19891100 13.99376500 -0.26274200
-12.16103600 13.85625500 -0.99194700
-11.88194500 14.30638100 -0.71743700
-11.96716400 14.16893700 -1.57201400
-11.73922500 14.53656300 -1.14445500
-11.70032300 14.59930600 -1.99345800
-11.54279000 14.85338000 -1.45470200
-11.38663400 15.10523600 -2.21502400
-11.31186700 15.22582200 -1.61780800
-11.05680100 15.63720200 -2.21502400
-11.06906000 15.61743000 -1.61780800
-10.74311100 16.14313100 -1.91050400
-10.83813800 15.98987100 -1.45470100
-10.41869800 16.66635500 -0.89400700
-10.60018100 16.37365300 -1.05419600
-10.40263700 16.69225900 0.93820500
-10.59137300 16.38786300 1.13197400
-10.74311100 16.14313100 2.00743200
-10.83813700 15.98987100 1.55163000
-11.05680100 15.63720200 2.31195200
-11.06905900 15.61743000 1.71473600
-11.38663300 15.10523600 2.31195200
-11.31186800 15.22582200 1.71473600
-11.70032300 14.59930700 2.09038600
-11.54279000 14.85338000 1.55162900
-11.96716400 14.16893800 1.66894200
-11.73922500 14.53656400 1.24138200
-12.16103600 13.85625600 1.08887500
-11.88194500 14.30638200 0.81436500
-12.26295900 13.69187000 0.40696500
-11.95697600 14.18536900 0.31237600
-12.26295900 13.69186900 -0.31003700
-11.95697600 14.18536800 -0.21544700
-10.24081300 16.55606100 -0.89400700
-10.56522500 16.03283700 -1.91050400
-10.87891500 15.52690800 -2.21502400
-11.20874900 14.99494300 -2.21502400
-11.52243800 14.48901200 -1.99345800
-11.78927700 14.05864300 -1.57201400
-11.98315000 13.74596000 -0.99194700
-12.08507300 13.58157500 -0.31003700
-12.08507300 13.58157500 0.40696500
-11.98315000 13.74596200 1.08887500
-11.78927700 14.05864300 1.66894200
-11.52243600 14.48901300 2.09038600
-11.20874900 14.99494200 2.31195200
-10.87891600 15.52690900 2.31195200
-10.56522500 16.03283700 2.00743200
-10.22475100 16.58196400 0.93820500
-10.41348600 16.27756900 1.13197400
-10.66025100 15.87957800 1.55163000
-10.89117400 15.50713500 1.71473600
-11.13398200 15.11552800 1.71473600
-11.36490400 14.74308700 1.55162900
-11.56133900 14.42627000 1.24138200
-11.70406000 14.19608800 0.81436500
-11.77909000 14.07507400 0.31237600
-11.77909000 14.07507300 -0.21544700
-11.70405900 14.19608700 -0.71743700
-11.56134000 14.42627000 -1.14445500
-11.36490400 14.74308700 -1.45470200
-11.13398300 15.11552800 -1.61780800
-10.89117300 15.50713500 -1.61780800
-10.66025200 15.87957800 -1.45470100
-10.42229500 16.26335900 -1.05419600
-10.50258000 16.53106900 1.45844100
-10.32469400 16.42077400 1.45844200
-10.32360500 16.22393400 1.38967800
-10.50040100 16.13738800 1.32091400
-10.67828800 16.24768300 1.32091400
-10.67937700 16.44452300 1.38967800
-10.51864100 16.50516500 -1.41424400
-10.69181200 16.42446700 -1.32869000
-10.68709800 16.23347500 -1.24313600
-10.50921100 16.12318000 -1.24313600
-10.33604000 16.20387800 -1.32869000
-10.34075400 16.39487100 -1.41424400
-8.54222800 18.51564000 -0.01061300
-7.42020000 19.34884300 0.43452400
-7.46225500 19.31833800 1.49269300
-8.26830700 18.73366900 1.67916700
-8.07985300 18.87036500 1.40890800
-8.55237000 18.50828600 0.17650500
-7.62279500 19.20189100 1.34067800
-7.62089700 19.20326800 0.63100400
-7.52955100 19.26952600 1.00477000
-7.32190100 19.42014300 0.97409800
-8.07124800 18.85726400 0.73235000
-8.30957900 18.68439100 0.74234500
-7.88785300 19.00963200 0.37209300
-7.82551000 19.05485200 0.08972300
-7.83333500 19.04917500 1.48926800
-7.81391600 19.06326100 1.77304000
-8.14083400 18.82613200 1.05131500
-8.45821400 18.59592200 1.16187500
-8.23990000 18.75427600 0.26535300
-8.22292600 18.76658800 -0.01600600
-8.10282200 18.50552600 1.67916700
-8.29272800 18.36777900 1.16187500
-7.91437000 18.64222000 1.40890800
-7.97535100 18.59798800 1.05131500
-7.29677000 19.09019500 1.49269300
-7.64843200 18.83511700 1.77304000
-7.45731100 18.97374500 1.34067800
-7.66785200 18.82103000 1.48926800
-7.25471600 19.12069700 0.43452300
-7.15641600 19.19199900 0.97409800
-7.45541300 18.97512200 0.63100400
-7.36406700 19.04138000 1.00477000
-8.39513000 18.31284500 -0.01061300
-8.05744100 18.53844300 -0.01600600
-8.40527200 18.30548900 0.17650500
-8.07441400 18.52613100 0.26535300
-7.66002600 18.82670800 0.08972300
-7.72236900 18.78148700 0.37209300
-8.16248300 18.48159400 0.74234500
-7.92415000 18.65446900 0.73235000
-7.30400900 19.25903300 0.40177700
-7.20455000 19.33117500 0.96898600
-7.35275600 19.22367500 1.51802900
-7.72793700 18.95153800 1.82033500
-8.21697400 18.59681700 1.72421000
-8.42836800 18.44348100 1.18030200
-8.25894300 18.56637400 0.68977400
-7.94015900 18.79760400 0.69328300
-8.00519600 18.75042700 1.03288800
-7.96570300 18.77907400 1.36386500
-7.75383000 18.93275500 1.44197300
-7.56680900 19.06841100 1.31534200
-7.48141700 19.13034800 1.00988100
-7.57160400 19.06493400 0.66375100
-7.81550200 18.88802300 0.41915500
-8.15998600 18.63815300 0.31224600
-8.52225300 18.37538100 0.20134600
-8.50844500 18.38539700 -0.04482200
-8.13735400 18.65456800 -0.06289900
-7.73237800 18.94831700 0.04266100
-8.43088100 18.61574900 -0.03480700
-7.33330200 19.41187500 0.69208800
-7.61479400 19.20769500 1.67184900
-8.40712500 18.63298000 1.44918500
-8.18590100 18.81831400 1.54403700
-8.59809100 18.49446100 0.07826200
-8.13842200 18.82788300 1.25147200
-7.55434500 19.27641100 1.41668500
-7.71689800 19.13363300 1.44140600
-7.53236900 19.29235100 0.53276400
-7.55111800 19.25388100 0.81213100
-8.44439300 18.60594700 0.22746600
-7.55689500 19.24969100 1.18804200
-7.36475400 19.38906100 1.25053800
-7.43754700 19.36113000 0.98943400
-8.18229300 18.79606100 0.69152900
-7.73819100 19.11818900 0.48226300
-7.60383900 19.21564100 0.23142000
-7.86850200 19.04853800 0.23090800
-7.96624000 18.95277400 1.48330400
-8.05116200 18.89117600 1.78129900
-7.83544500 19.07251500 1.63115400
-8.08597900 18.86592100 0.84875800
-8.41217400 18.62931600 0.88775800
-8.31134400 18.72732400 1.10659500
-8.05473800 18.88858200 0.30667600
-8.02650400 18.90906100 0.01637600
-8.24323300 18.77672800 0.12467400
-8.26425500 18.66199900 1.72421000
-8.47564700 18.50866700 1.18030200
-8.24163900 18.40483500 1.44918500
-8.01298400 18.84425900 1.36386500
-7.99677600 18.55757700 1.54403700
-8.05247700 18.81561300 1.03288800
-7.97293900 18.59973700 1.25147200
-8.12222000 18.46658700 1.10659500
-7.40003700 19.28885800 1.51802900
-7.77521800 19.01672200 1.82033500
-7.44931000 18.97954900 1.67184900
-7.61409000 19.13359500 1.31534200
-7.36522100 19.01567500 1.41668500
-7.80111100 18.99794000 1.44197300
-7.55141400 18.90548900 1.44140600
-7.64632100 18.81177900 1.63115400
-7.35129000 19.32421700 0.40177700
-7.25183200 19.39635800 0.96898600
-7.16781700 19.18372900 0.69208800
-7.61888500 19.13011700 0.66375100
-7.34324400 19.03161400 0.53276400
-7.52869800 19.19553400 1.00988100
-7.38563300 19.02573800 0.81213100
-7.24842100 19.10039300 0.98943400
-8.55572700 18.45058300 -0.04482200
-8.18463600 18.71975100 -0.06289900
-8.26539500 18.38760400 -0.03480700
-8.56953400 18.44056700 0.20134600
-8.43260700 18.26631700 0.07826200
-8.20726800 18.70333700 0.31224600
-8.27890900 18.37780200 0.22746600
-8.05410800 18.51599100 0.12467400
-7.19927000 19.16091500 1.25053800
-7.39141100 19.02154700 1.18804200
-7.77965800 19.01350000 0.04266100
-7.43835500 18.98749500 0.23142000
-7.86278300 18.95320700 0.41915500
-7.67937700 18.78780000 0.23090800
-7.57270600 18.89004500 0.48226300
-7.88567800 18.66303300 1.78129900
-7.80075600 18.72462800 1.48330400
-8.30622400 18.63155700 0.68977400
-8.24669000 18.40117300 0.88775800
-7.98744000 18.86278700 0.69328300
-7.92049600 18.63777500 0.84875800
-8.01680900 18.56791500 0.69152900
-7.86102000 18.68091600 0.01637600
-7.88925400 18.66043900 0.30667600
-7.25672700 19.19384800 0.40177700
-7.15726900 19.26598900 0.96898600
-7.21425600 19.32413500 0.67208100
-7.30547400 19.15848900 1.51802900
-7.24998900 19.29821600 1.26095300
-7.68065600 18.88635300 1.82033500
-7.51503500 19.10596500 1.71025600
-8.16969300 18.53163100 1.72421000
-7.98257400 18.76683800 1.83096500
-8.38108500 18.37829800 1.18030200
-8.36916500 18.48642300 1.48213800
-8.21166200 18.50119000 0.68977400
-8.38379800 18.47581100 0.89425800
-7.89287700 18.73241800 0.69328300
-8.07728900 18.69813500 0.63261900
-7.95791500 18.68524400 1.03288800
-7.94887200 18.79128300 0.84225800
-7.91842200 18.71389000 1.36386500
-8.01089700 18.74629400 1.21851900
-7.70654900 18.86757100 1.44197300
-7.86934400 18.84896900 1.43363900
-7.51952800 19.00322700 1.31534200
-7.65117300 19.00721700 1.40299900
-7.43413700 19.06516600 1.00988100
-7.50617600 19.11239100 1.17762600
-7.52432300 18.99974800 0.66375100
-7.50467800 19.11347600 0.83213900
-7.76822000 18.82283800 0.41915500
-7.67784000 18.98787500 0.52407100
-8.11270500 18.57296800 0.31224600
-7.97670100 18.77109500 0.35505900
-8.47497200 18.31019800 0.20134600
-8.36390400 18.49024000 0.27117800
-8.46116400 18.32021300 -0.04482200
-8.56883500 18.34159500 0.07223900
-8.09007300 18.58938400 -0.06289900
-8.34588300 18.50331100 -0.07851900
-7.68509600 18.88313300 0.04266100
-7.93905600 18.79840300 -0.03200700
-7.49870500 19.11780900 0.18961300
-8.09546900 18.48599100 1.35032800
-7.48854200 18.92622400 1.55662800
-7.26490500 19.08843800 0.75211000
-8.26033200 18.36640700 0.09632900
-7.28352000 19.07493600 1.21929000
-7.49371100 18.92247400 0.35684200
-7.83139600 18.67753400 1.63230200
-8.07177300 18.50317800 0.86825800
-7.86331700 18.65438100 0.16152600
-8.28459400 18.74672700 1.35032900
-7.67766600 19.18696000 1.55662800
-7.45403100 19.34917400 0.75211000
-8.44945700 18.62714400 0.09632900
-7.47264400 19.33567200 1.21929000
-7.68283500 19.18321000 0.35684200
-8.02052000 18.93827100 1.63230200
-8.26089700 18.76391600 0.86825800
-8.05244200 18.91511900 0.16152600
-8.41644600 18.55160900 1.48213800
-8.05817800 18.81147800 1.21851900
-7.56231600 19.17115000 1.71025600
-7.69845400 19.07240300 1.40299900
-7.26153800 19.38931800 0.67208100
-7.55195900 19.17866100 0.83213900
-8.39316600 18.56849500 -0.07851900
-8.61611600 18.40678000 0.07223900
-8.41118500 18.55542400 0.27117800
-7.29727000 19.36340000 1.26095300
-7.55345700 19.17757400 1.17762600
-7.54598600 19.18299500 0.18961300
-7.72512100 19.05305900 0.52407100
-8.02985600 18.83202200 1.83096500
-7.91662500 18.91415200 1.43363900
-8.43107900 18.54099500 0.89425800
-7.99615400 18.85646600 0.84225800
-8.12457000 18.76331900 0.63261900
-7.98633900 18.86358600 -0.03200700
-8.02398300 18.83628100 0.35505900
-7.16697500 19.25894900 0.67208100
-7.20270800 19.23303200 1.26095300
-7.46775300 19.04078100 1.71025600
-7.93529300 18.70165300 1.83096500
-8.32188300 18.42124000 1.48213800
-8.33651700 18.41062500 0.89425800
-8.03000800 18.63295200 0.63261900
-7.90159100 18.72609700 0.84225800
-7.96361500 18.68110800 1.21851900
-7.82206300 18.78378300 1.43363900
-7.60389200 18.94203400 1.40299900
-7.45889500 19.04720700 1.17762600
-7.45739700 19.04829400 0.83213900
-7.63055900 18.92269100 0.52407100
-7.92942000 18.70591400 0.35505900
-8.31662300 18.42505600 0.27117800
-8.52155300 18.27640900 0.07223900
-8.29860300 18.43812600 -0.07851900
-7.89177500 18.73321900 -0.03200700
-7.45142400 19.05262600 0.18961300
0.00000000 27.32753000 3.86016200
-1.19285600 27.32753000 3.67123200
-2.26894400 27.32753000 3.12293300
-3.12294000 27.32753000 2.26894300
-3.67123400 27.32753000 1.19285400
3.67123400 27.32753000 1.19285400
3.12293200 27.32753000 2.26894300
2.26894400 27.32753000 3.12293300
1.19285600 27.32753000 3.67123200
0.00000000 24.62094100 2.31331100
-0.71485900 24.62094100 2.20008900
-1.35973400 24.62094100 1.87150100
-1.87150600 24.62094100 1.35972600
-2.20009600 24.62094100 0.71485000
2.20008900 24.62094100 0.71485000
1.87150600 24.62094100 1.35972600
1.35972600 24.62094100 1.87150100
0.71485100 24.62094100 2.20008900
0.00000000 21.94957000 3.35374600
-1.03636200 21.94957000 3.18960700
-1.97128300 21.94957000 2.71323700
-2.71324200 21.94957000 1.97127900
-3.18960600 21.94957000 1.03636200
3.18960600 21.94957000 1.03636200
2.71324200 21.94957000 1.97127800
1.97128300 21.94957000 2.71323700
1.03636200 21.94957000 3.18960700
0.00000000 10.59835900 12.65442800
-3.91043100 10.59835900 12.03507600
-7.43808700 10.59835900 10.23764900
-10.23765600 10.59835900 7.43808700
-12.03508000 10.59835900 3.91043300
12.03507200 10.59835900 3.91043300
10.23764000 10.59835900 7.43808600
7.43808700 10.59835900 10.23764500
3.91043100 10.59835900 12.03507600
0.00000000 17.07038300 9.96552200
-3.07951400 17.07038300 9.47777600
-5.85759000 17.07038300 8.06227900
-8.06227900 17.07038300 5.85758700
-9.47778300 17.07038300 3.07951500
9.47777600 17.07038300 3.07951500
8.06227500 17.07038300 5.85758600
5.85758200 17.07038300 8.06227800
3.07951400 17.07038300 9.47777600
0.00000000 3.98493900 10.40308600
-3.21473700 3.98493900 9.89392200
-6.11477700 3.98493900 8.41627400
-8.41627500 3.98493900 6.11478000
-9.89392100 3.98493900 3.21473000
9.89392100 3.98493900 3.21472900
8.41627500 3.98493900 6.11477900
6.11477700 3.98493900 8.41627300
3.21472900 3.98493900 9.89392200
0.00000000 25.97092800 2.85364100
-0.88182100 25.97092800 2.71397400
-1.67732200 25.97092800 2.30863900
-2.30864700 25.97092800 1.67732400
-2.71398200 25.97092800 0.88182200
2.71397400 25.97092800 0.88182200
2.30864000 25.97092800 1.67732400
1.67732200 25.97092800 2.30863900
0.88182100 25.97092800 2.71397400
0.00000000 23.29114000 2.35655600
-0.72821000 23.29114000 2.24122100
-1.38514700 23.29114000 1.90649100
-1.90649400 23.29114000 1.38514500
-2.24122600 23.29114000 0.72821400
2.24122600 23.29114000 0.72821300
1.90649400 23.29114000 1.38514500
1.38514700 23.29114000 1.90649100
0.72821000 23.29114000 2.24122100
0.00000000 13.85304300 11.98321900
-3.70301800 13.85304300 11.39672100
-7.04356400 13.85304300 9.69463100
-9.69463300 13.85304300 7.04356100
-11.39672900 13.85304300 3.70301900
11.39671300 13.85304300 3.70301800
9.69462600 13.85304300 7.04356000
7.04356000 13.85304300 9.69462800
3.70301800 13.85304300 11.39672000
0.00000000 19.71033900 6.71319000
-2.07449300 19.71033900 6.38462800
-3.94591500 19.71033900 5.43108700
-5.43109100 19.71033900 3.94591300
-6.38462800 19.71033900 2.07448900
6.38462800 19.71033900 2.07448800
5.43108400 19.71033900 3.94591200
3.94591500 19.71033900 5.43108500
2.07448600 19.71033900 6.38462700
0.00000000 7.52183100 12.14507500
-3.75303600 7.52183100 11.55065300
-7.13870200 7.52183100 9.82557400
-9.82557700 7.52183100 7.13869800
-11.55065900 7.52183100 3.75303500
11.55065200 7.52183100 3.75303400
9.82557300 7.52183100 7.13869500
7.13869900 7.52183100 9.82557300
3.75303600 7.52183100 11.55065300
0.00000000 27.66304600 3.88864400
-1.20166000 27.66304600 3.69832100
-2.28569000 27.66304600 3.14597700
-3.14598100 27.66304600 2.28568400
-3.69832600 27.66304600 1.20165600
3.69831800 27.66304600 1.20165600
3.14598100 27.66304600 2.28568400
2.28568300 27.66304600 3.14597700
1.20165300 27.66304600 3.69832100
0.00000000 28.55358500 3.79394600
-1.17239400 28.55358500 3.60825600
-2.23002600 28.55358500 3.06936400
-3.06936600 28.55358500 2.23002200
-3.60826100 28.55358500 1.17239200
3.60825300 28.55358500 1.17239200
3.06936600 28.55358500 2.23002200
2.23002600 28.55358500 3.06936400
1.17239400 28.55358500 3.60825700
1.17113500 27.54009200 3.60439000
1.16978500 27.45782300 3.60020700
0.00000000 27.45782300 3.78548200
0.00000000 27.54009200 3.78988100
-1.16978500 27.45782300 3.60020700
-1.17114300 27.54009200 3.60439000
-2.22505200 27.45782300 3.06251600
-2.22763100 27.54009200 3.06607500
-3.06252300 27.45782300 2.22504700
-3.06607800 27.54009200 2.22763300
-3.60021200 27.45782300 1.16977700
-3.60439300 27.54009200 1.17113600
3.60020400 27.45782300 1.16977700
3.60438500 27.54009200 1.17113600
3.06251500 27.45782300 2.22504700
3.06607100 27.54009200 2.22763200
2.22504400 27.45782300 3.06251600
2.22763100 27.54009200 3.06607500
2.99530800 27.04612900 2.17621700
2.17621600 27.04612900 2.99530700
1.14410400 27.04612900 3.52119900
0.00000000 27.04612900 3.70240800
-1.14410400 27.04612900 3.52119900
-2.17622400 27.04612900 2.99530700
-2.99531600 27.04612900 2.17621700
-3.52120200 27.04612900 1.14410500
3.52120200 27.04612900 1.14410500
3.14831500 27.89706400 2.28738000
2.28737600 27.89706400 3.14831000
1.20254500 27.89706400 3.70106500
0.00000000 27.89706400 3.89152900
-1.20255300 27.89706400 3.70106500
-2.28738400 27.89706400 3.14831000
-3.14831500 27.89706400 2.28738000
-3.70106500 27.89706400 1.20254700
3.70106500 27.89706400 1.20254700
-3.67265300 29.24608400 1.19331600
-3.12414600 29.24608400 2.26982200
-2.26982100 29.24608400 3.12414300
-1.19331400 29.24608400 3.67265300
0.00000000 29.24608400 3.86165700
1.19331400 29.24608400 3.67265400
2.26982100 29.24608400 3.12414300
3.12414600 29.24608400 2.26982200
3.67265300 29.24608400 1.19331600
-7.64857500 0.66789800 2.48517100
-6.50625600 0.66789900 4.72707600
-4.72708100 0.66789900 6.50626200
-2.48516800 0.66789900 7.64856800
0.00000000 0.66789900 8.04218300
2.48516800 0.66789900 7.64856800
4.72707700 0.66789900 6.50626000
6.50626000 0.66789900 4.72707600
7.64856700 0.66789900 2.48517000
-8.04219100 0.66789900 0.00000000
8.04218300 0.66789900 0.00000000
-3.86016800 27.32753000 0.00000000
-3.78548400 27.45782300 0.00000000
3.78548400 27.45782300 0.00000000
3.86016800 27.32753000 0.00000000
-2.31331600 24.62094100 0.00000000
-2.85364500 25.97092800 0.00000000
2.85363800 25.97092800 0.00000000
2.31330900 24.62094100 0.00000000
-3.35374500 21.94957000 0.00000000
-2.35656000 23.29114000 0.00000000
2.35655200 23.29114000 0.00000000
3.35374500 21.94957000 0.00000000
-12.65443400 10.59835900 0.00000000
-11.98322300 13.85304300 0.00000000
11.98321500 13.85304300 0.00000000
12.65442700 10.59835900 0.00000000
-9.96552300 17.07038300 0.00000000
-6.71319600 19.71033900 0.00000000
6.71318800 19.71033900 0.00000000
9.96551900 17.07038100 0.00000000
-10.40309100 3.98493900 0.00000000
-12.14508100 7.52183100 0.00000000
12.14507300 7.52183100 0.00000000
10.40308400 3.98493900 0.00000000
-3.70240800 27.04612900 0.00000000
3.70240800 27.04612900 0.00000000
-3.88864100 27.66304600 0.00000000
-3.89153300 27.89706400 0.00000000
3.89153300 27.89706400 0.00000000
3.88864100 27.66304600 0.00000000
-3.79395300 28.55358500 0.00000000
-3.86166400 29.24608400 0.00000000
3.86165600 29.24608400 0.00000000
3.79394500 28.55358500 0.00000000
-3.78988600 27.54009200 0.00000000
3.78988600 27.54009200 0.00000000
0.00000000 27.32753000 -3.86016200
-1.19285600 27.32753000 -3.67123200
-2.26895100 27.32753000 -3.12293300
-3.12294000 27.32753000 -2.26894300
-3.67123400 27.32753000 -1.19285400
3.67123400 27.32753000 -1.19285400
3.12293200 27.32753000 -2.26894300
2.26894400 27.32753000 -3.12293300
1.19285600 27.32753000 -3.67123200
0.00000000 24.62094100 -2.31331100
-0.71485900 24.62094100 -2.20008900
-1.35973400 24.62094100 -1.87150100
-1.87150600 24.62094100 -1.35972600
-2.20009600 24.62094100 -0.71485000
2.20008900 24.62094100 -0.71485000
1.87150600 24.62094100 -1.35972600
1.35972600 24.62094100 -1.87150100
0.71485100 24.62094100 -2.20008900
0.00000000 21.94957000 -3.35374600
-1.03636200 21.94957000 -3.18960700
-1.97128300 21.94957000 -2.71323700
-2.71324200 21.94957000 -1.97127900
-3.18960600 21.94957000 -1.03636200
3.18960600 21.94957000 -1.03636200
2.71324200 21.94957000 -1.97127800
1.97128300 21.94957000 -2.71323700
1.03636200 21.94957000 -3.18960700
0.00000000 10.59835900 -12.65442800
-3.91043100 10.59835900 -12.03507600
-7.43808700 10.59835900 -10.23764900
-10.23765600 10.59835900 -7.43808700
-12.03508000 10.59835900 -3.91043300
12.03507200 10.59835900 -3.91043300
10.23764000 10.59835900 -7.43808600
7.43808700 10.59835900 -10.23764600
3.91043100 10.59835900 -12.03507600
0.00000000 17.07038300 -9.96552200
-3.07951400 17.07038300 -9.47777600
-5.85759000 17.07038300 -8.06227800
-8.06227900 17.07038300 -5.85758700
-9.47778300 17.07038300 -3.07951500
9.47777600 17.07038300 -3.07951500
8.06227500 17.07038300 -5.85758600
5.85758200 17.07038300 -8.06227800
3.07951400 17.07038300 -9.47777600
0.00000000 3.98493900 -10.40308600
-3.21473700 3.98493900 -9.89392200
-6.11477700 3.98493900 -8.41627400
-8.41627500 3.98493900 -6.11478000
-9.89392100 3.98493900 -3.21473000
9.89392100 3.98493900 -3.21472900
8.41627100 3.98493900 -6.11477900
6.11477700 3.98493900 -8.41627300
3.21472900 3.98493900 -9.89392200
0.00000000 25.97092800 -2.85364100
-0.88182100 25.97092800 -2.71397400
-1.67732200 25.97092800 -2.30863900
-2.30864000 25.97092800 -1.67732500
-2.71398200 25.97092800 -0.88182200
2.71397400 25.97092800 -0.88182200
2.30864000 25.97092800 -1.67732400
1.67732200 25.97092800 -2.30863900
0.88182100 25.97092800 -2.71397400
0.00000000 23.29114000 -2.35655600
-0.72821000 23.29114000 -2.24122100
-1.38514700 23.29114000 -1.90649100
-1.90649400 23.29114000 -1.38514500
-2.24122600 23.29114000 -0.72821400
2.24121900 23.29114000 -0.72821300
1.90649400 23.29114000 -1.38514500
1.38514700 23.29114000 -1.90649100
0.72821000 23.29114000 -2.24122100
0.00000000 13.85304300 -11.98321900
-3.70301800 13.85304300 -11.39672100
-7.04356400 13.85304300 -9.69463000
-9.69463300 13.85304300 -7.04356100
-11.39672900 13.85304300 -3.70301900
11.39671300 13.85304300 -3.70301800
9.69462600 13.85304300 -7.04356000
7.04356000 13.85304300 -9.69462800
3.70301800 13.85304300 -11.39671900
0.00000000 19.71033900 -6.71319100
-2.07449300 19.71033900 -6.38462700
-3.94591500 19.71033900 -5.43108700
-5.43109100 19.71033900 -3.94591300
-6.38462800 19.71033900 -2.07448900
6.38462800 19.71033900 -2.07448800
5.43108400 19.71033900 -3.94591200
3.94590800 19.71033900 -5.43108500
2.07448600 19.71033900 -6.38462700
0.00000000 7.52183100 -12.14507500
-3.75303600 7.52183100 -11.55065300
-7.13870200 7.52183100 -9.82557400
-9.82557700 7.52183100 -7.13869700
-11.55065200 7.52183100 -3.75303500
11.55064800 7.52183100 -3.75303400
9.82556900 7.52183100 -7.13869500
7.13869500 7.52183100 -9.82557300
3.75303600 7.52183100 -11.55065300
0.00000000 27.66304600 -3.88864400
-1.20166000 27.66304600 -3.69832100
-2.28569000 27.66304600 -3.14597700
-3.14598100 27.66304600 -2.28568400
-3.69831800 27.66304600 -1.20165600
3.69831800 27.66304600 -1.20165600
3.14598100 27.66304600 -2.28568400
2.28568300 27.66304600 -3.14597700
1.20166000 27.66304600 -3.69832100
0.00000000 28.55358500 -3.79394600
-1.17239400 28.55358500 -3.60825600
-2.23002600 28.55358500 -3.06936400
-3.06936600 28.55358500 -2.23002200
-3.60826100 28.55358500 -1.17239200
3.60826100 28.55358500 -1.17239200
3.06936600 28.55358500 -2.23002200
2.23002600 28.55358500 -3.06936400
1.17239400 28.55358500 -3.60825700
1.17113500 27.54009200 -3.60439000
1.16977700 27.45782300 -3.60020700
0.00000000 27.45782300 -3.78548200
0.00000000 27.54009200 -3.78988100
-1.16978500 27.45782300 -3.60020700
-1.17114300 27.54009200 -3.60439000
-2.22505200 27.45782300 -3.06251600
-2.22763100 27.54009200 -3.06607500
-3.06252300 27.45782300 -2.22504700
-3.06607800 27.54009200 -2.22763300
-3.60021200 27.45782300 -1.16977700
-3.60438500 27.54009200 -1.17113600
3.60020400 27.45782300 -1.16977700
3.60438500 27.54009200 -1.17113600
3.06251500 27.45782300 -2.22504700
3.06607100 27.54009200 -2.22763200
2.22505200 27.45782300 -3.06251600
2.22763100 27.54009200 -3.06607500
2.99530000 27.04612900 -2.17621700
2.17621600 27.04612900 -2.99530700
1.14410400 27.04612900 -3.52119900
0.00000000 27.04612900 -3.70240800
-1.14410400 27.04612900 -3.52119900
-2.17622400 27.04612900 -2.99530700
-2.99531600 27.04612900 -2.17621700
-3.52120200 27.04612900 -1.14410500
3.52120200 27.04612900 -1.14410500
3.14831500 27.89706400 -2.28738000
2.28737600 27.89706400 -3.14831000
1.20254500 27.89706400 -3.70106500
0.00000000 27.89706400 -3.89152900
-1.20255300 27.89706400 -3.70106500
-2.28738400 27.89706400 -3.14831000
-3.14831500 27.89706400 -2.28738000
-3.70106500 27.89706400 -1.20254700
3.70106500 27.89706400 -1.20254700
-3.67265300 29.24608400 -1.19331600
-3.12414600 29.24608400 -2.26982200
-2.26982100 29.24608400 -3.12414300
-1.19331400 29.24608400 -3.67265300
0.00000000 29.24608400 -3.86165700
1.19331400 29.24608400 -3.67265400
2.26982100 29.24608400 -3.12414300
3.12414600 29.24608400 -2.26982200
3.67265300 29.24608400 -1.19331600
-7.64856700 0.66789900 -2.48517100
-6.50625600 0.66789900 -4.72707600
-4.72708100 0.66789900 -6.50626200
-2.48517600 0.66789900 -7.64856800
0.00000000 0.66789900 -8.04218300
2.48516800 0.66789900 -7.64856800
4.72707400 0.66789900 -6.50626000
6.50626000 0.66789900 -4.72707600
7.64856700 0.66789900 -2.48517000
-7.14836100 0.02779000 2.32264200
-7.51623500 0.02778900 0.00000000
-6.08076500 0.02779000 4.41792900
-4.41793100 0.02779000 6.08075600
-2.32264700 0.02779000 7.14835600
0.00000000 0.02779000 7.51623100
2.32264700 0.02779000 7.14835600
4.41793100 0.02779000 6.08075500
6.08075700 0.02779000 4.41792900
7.14835400 0.02779000 2.32264200
7.51623200 0.02779000 0.00000000
-3.82919300 29.47582600 0.00000000
-3.64177700 29.47582600 1.18328200
-3.09787800 29.47582600 2.25073600
-2.25073200 29.47582600 3.09787400
-1.18328100 29.47582600 3.64177100
0.00000000 29.47582600 3.82918600
1.18328100 29.47582600 3.64177300
2.25073200 29.47582600 3.09787400
3.09787800 29.47582600 2.25073600
3.64176900 29.47582600 1.18328200
3.82918500 29.47582600 0.00000000
-7.14836100 0.02779000 -2.32264200
-6.08075700 0.02779000 -4.41792900
-4.41793100 0.02779000 -6.08075600
-2.32264700 0.02779000 -7.14835600
0.00000000 0.02779000 -7.51623100
2.32264700 0.02779000 -7.14835600
4.41793100 0.02779000 -6.08075500
6.08075700 0.02779000 -4.41792900
7.14835400 0.02779000 -2.32264200
-3.64177700 29.47582600 -1.18328200
-3.09787800 29.47582600 -2.25073600
-2.25073200 29.47582600 -3.09787400
-1.18328100 29.47582600 -3.64177100
0.00000000 29.47582600 -3.82918600
1.18328100 29.47582600 -3.64177300
2.25073200 29.47582600 -3.09787400
3.09787800 29.47582600 -2.25073600
3.64176900 29.47582600 -1.18328200
0.00000000 0.00000100 0.00000000
-6.45774800 -0.00000100 -0.00000000
-6.14167800 -0.00000000 1.99555300
-5.22442600 -0.00000000 3.79576700
-3.79576900 -0.00000000 5.22442500
-1.99555200 -0.00000000 6.14167900
0.00000000 -0.00000000 6.45774600
1.99555200 -0.00000000 6.14167900
3.79576900 -0.00000000 5.22442400
5.22442600 -0.00000000 3.79576700
6.14168200 -0.00000000 1.99555200
6.45774800 0.00000000 0.00000000
-7.26193200 0.52749400 0.00000000
-6.90650200 0.52749400 2.24405800
-5.87502300 0.52749400 4.26845200
-4.26845600 0.52749400 5.87502000
-2.24406400 0.52749400 6.90649900
0.00000000 0.52749400 7.26192600
2.24405700 0.52749400 6.90649900
4.26844800 0.52749400 5.87501900
5.87501500 0.52749400 4.26845200
6.90650200 0.52749400 2.24405700
7.26192500 0.52749400 0.00000000
0.00000000 0.50722100 0.00000000
-6.42227200 0.50722000 0.00000000
-6.10793300 0.50722000 1.98458800
-5.19572400 0.50722000 3.77491100
-3.77491800 0.50722000 5.19571900
-1.98458900 0.50722000 6.10793400
0.00000000 0.50722000 6.42226400
1.98458900 0.50722000 6.10793400
3.77491800 0.50722000 5.19571900
5.19571700 0.50722000 3.77491100
6.10793300 0.50722000 1.98458800
6.42226400 0.50722000 0.00000000
0.00000000 29.37656800 3.35730300
-1.03746000 29.37656800 3.19298400
-1.97337300 29.37656800 2.71611200
-2.71611800 29.37656800 1.97336900
-3.19299300 29.37656800 1.03746200
-3.35730700 29.37656800 0.00000000
3.35730700 29.37657000 0.00000000
3.19298600 29.37657000 1.03746100
2.71611000 29.37656800 1.97336900
1.97337300 29.37656800 2.71611300
1.03746000 29.37656800 3.19298600
-3.61680600 29.56571000 0.00000000
-3.43978900 29.56571000 1.11765200
-2.92605600 29.56571000 2.12590100
-2.12590000 29.56571000 2.92605400
-1.11765300 29.56571000 3.43978500
0.00000000 29.56571000 3.61680500
1.11765300 29.56571000 3.43978600
2.12590000 29.56571000 2.92605400
2.92605600 29.56571000 2.12590100
3.43978900 29.56571000 1.11765200
3.61680600 29.56571000 0.00000000
-9.42855800 4.28247400 3.06352100
-8.02040900 4.28247400 5.82716500
-5.82716400 4.28247400 8.02040500
-3.06352200 4.28247400 9.42855000
0.00000000 4.28247400 9.91376400
3.06352200 4.28247400 9.42855000
5.82716400 4.28247400 8.02040400
8.02040100 4.28247400 5.82716300
9.42854700 4.28247300 3.06352100
0.00000000 27.27243800 3.30343400
-1.02081300 27.27244000 3.14175200
0.00000000 27.33443500 3.24127400
-1.00160200 27.33443500 3.08263300
-1.94171100 27.27244200 2.67253000
-1.90516700 27.33443500 2.62224200
-2.67253100 27.27244000 1.94170500
-2.62224600 27.33443500 1.90516900
-3.14175400 27.27244000 1.02081500
-3.08263400 27.33443500 1.00160600
3.14175400 27.27244000 1.02081400
3.08263400 27.33443300 1.00160600
2.67253100 27.27244000 1.94170500
2.62224600 27.33443500 1.90516900
1.94170400 27.27244200 2.67253100
1.90516700 27.33443500 2.62224200
1.02081300 27.27244000 3.14175200
1.00160200 27.33443500 3.08263400
0.00000000 24.71910700 1.75892600
-0.54353300 24.71910700 1.67283900
0.00000000 26.25507000 2.35593200
-0.72802700 26.25507000 2.24062500
-1.03387500 24.71910700 1.42299600
-1.38478100 26.25507000 1.90598500
-1.42300400 24.71910700 1.03386500
-1.90599100 26.25507000 1.38477700
-1.67283600 24.71910700 0.54353400
-2.24063100 26.25507000 0.72802000
1.67283600 24.71910700 0.54353400
2.24063100 26.25507000 0.72802000
1.42298900 24.71910700 1.03386500
1.90599100 26.25507000 1.38477700
1.03386700 24.71910700 1.42299600
1.38477300 26.25507000 1.90598500
0.54353300 24.71910700 1.67283900
0.72802000 26.25507000 2.24062500
0.00000000 21.55615400 2.94198800
-0.90912600 21.55615400 2.79800200
0.00000000 23.12757900 1.82154800
-0.56288900 23.12757700 1.73239800
-1.72925600 21.55615400 2.38011800
-1.07067900 23.12757700 1.47366100
-2.38012700 21.55615400 1.72925200
-1.47366300 23.12757700 1.07067400
-2.79800400 21.55615400 0.90912200
-1.73239900 23.12757900 0.56288600
2.79800400 21.55615400 0.90912100
1.73239900 23.12757900 0.56288600
2.38012700 21.55615400 1.72925200
1.47366300 23.12757900 1.07067400
1.72924800 21.55615400 2.38011800
1.07067100 23.12757900 1.47366100
0.90911900 21.55615400 2.79800200
0.56288900 23.12757900 1.73239800
0.00000000 10.58987800 12.07672100
-3.73191100 10.58987800 11.48564300
0.00000000 13.65732100 11.44184500
-3.53572100 13.65732100 10.88184400
-7.09851800 10.58987800 9.77027300
-6.72534200 13.65732100 9.25665000
-9.77027100 10.58987800 7.09851900
-9.25665300 13.65732100 6.72534800
-11.48564900 10.58987800 3.73191200
-10.88184400 13.65732100 3.53572500
11.48564100 10.58987800 3.73191100
10.88184000 13.65732100 3.53572500
9.77026700 10.58987800 7.09851800
9.25664500 13.65732100 6.72534800
7.09851800 10.58987800 9.77027000
6.72534600 13.65732100 9.25664700
3.73191100 10.58987800 11.48564300
3.53572100 13.65732100 10.88184300
0.00000000 16.70308500 9.52634500
-2.94380200 16.70308500 9.06009500
0.00000000 19.25091600 6.36316500
-1.96632400 19.25091600 6.05173300
-5.59944200 16.70308500 7.70697700
-3.74017300 19.25091600 5.14791000
-7.70697800 16.70308500 5.59944500
-5.14791900 19.25091600 3.74017200
-9.06010400 16.70308500 2.94380300
-6.05173500 19.25091600 1.96632500
9.06008900 16.70308500 2.94380200
6.05173500 19.25091600 1.96632500
7.70697800 16.70308500 5.59944500
5.14790700 19.25091600 3.74017200
5.59944200 16.70308500 7.70697600
3.74017300 19.25091600 5.14790900
2.94380200 16.70308500 9.06009500
1.96632400 19.25091600 6.05173300
0.00000000 7.68903500 11.59015100
-3.58155100 7.68903500 11.02288800
-6.81251500 7.68903500 9.37662900
-9.37662500 7.68903500 6.81252100
-11.02288800 7.68903500 3.58155400
11.02288400 7.68903500 3.58155300
9.37662500 7.68903500 6.81251900
6.81251500 7.68903500 9.37663000
3.58155100 7.68903500 11.02288800
0.00000000 27.29480000 3.19786200
-0.98819000 27.29480200 3.04134800
-1.87965400 27.29480200 2.58712100
-2.58712800 27.29480200 1.87965100
-3.04135100 27.29480200 0.98819100
3.04135100 27.29480200 0.98819100
2.58712800 27.29480200 1.87965200
1.87965400 27.29480200 2.58712200
0.98819000 27.29480000 3.04134800
0.00000000 27.86413000 3.35646500
-1.03720100 27.86413000 3.19218800
0.00000000 27.88831100 3.32326900
-1.02694700 27.88831100 3.16061700
-1.97287800 27.86413000 2.71543500
-1.95336900 27.88831100 2.68857800
-2.71543900 27.86413000 1.97287700
-2.68858300 27.88831100 1.95336400
-3.19219200 27.86413000 1.03720300
-3.16062200 27.88831100 1.02694400
3.19218400 27.86413000 1.03720300
3.16061400 27.88831100 1.02694400
2.71543900 27.86413000 1.97287700
2.68857600 27.88831100 1.95336400
1.97287800 27.86413000 2.71543500
1.95336200 27.88831100 2.68857800
1.03720100 27.86412800 3.19218800
1.02694700 27.88831100 3.16061700
0.00000000 28.55489000 3.22327900
-0.99604800 28.55489000 3.06552000
-1.89459200 28.55489000 2.60768400
-2.60768900 28.55489000 1.89459200
-3.06552100 28.55489000 0.99604600
3.06552100 28.55489200 0.99604500
2.60768900 28.55489000 1.89459100
1.89459200 28.55489000 2.60768500
0.99604800 28.55489000 3.06552100
0.00000000 27.73262400 3.26563000
1.00913200 27.73262400 3.10579900
-1.00913200 27.73262400 3.10579800
-1.91948700 27.73262400 2.64194700
-2.64195300 27.73262400 1.91948600
-3.10580400 27.73262400 1.00913400
3.10579700 27.73262400 1.00913300
2.64194500 27.73262400 1.91948600
1.91948700 27.73262400 2.64194800
-6.22555500 1.10324200 4.52312900
-7.31858100 1.10324200 2.37794900
7.31857300 1.10324200 2.37794900
6.22555200 1.10324200 4.52312900
4.52312900 1.10324200 6.22555100
2.37794500 1.10324200 7.31857400
0.00000000 1.10324200 7.69520700
-2.37795300 1.10324200 7.31857400
-4.52313200 1.10324200 6.22555200
-7.69521300 1.10324200 0.00000000
7.69520600 1.10324200 0.00000000
-3.24127200 27.33443500 0.00000000
-3.30343600 27.27244000 0.00000000
3.30343600 27.27244000 0.00000000
3.24127200 27.33443300 0.00000000
-2.35593400 26.25507000 0.00000000
-1.75892600 24.71910700 0.00000000
1.75892600 24.71910700 0.00000000
2.35593400 26.25507000 0.00000000
-1.82154800 23.12757900 0.00000000
-2.94198600 21.55615600 0.00000000
2.94198600 21.55615400 0.00000000
1.82154800 23.12757900 0.00000000
-11.44184900 13.65732100 0.00000000
-12.07672100 10.58987800 0.00000000
12.07671700 10.58987800 0.00000000
11.44184900 13.65732100 0.00000000
-6.36316700 19.25091600 0.00000000
-9.52635200 16.70308500 0.00000000
9.52634400 16.70308500 0.00000000
6.36316300 19.25091600 0.00000000
-11.59014900 7.68903500 0.00000000
-9.91376500 4.28247400 0.00000000
9.91376100 4.28247400 0.00000000
11.59014900 7.68903500 0.00000000
-3.19786800 27.29480000 0.00000000
3.19786100 27.29480200 0.00000000
-3.32327300 27.88831100 0.00000000
-3.35647600 27.86413000 0.00000000
3.35646100 27.86412800 0.00000000
3.32327300 27.88831100 0.00000000
-3.22328200 28.55489000 0.00000000
3.22328200 28.55489200 0.00000000
-3.26564000 27.73262400 0.00000000
3.26563300 27.73262400 0.00000000
-6.14167800 -0.00000100 -1.99555300
-5.22442600 -0.00000100 -3.79576700
-3.79576900 -0.00000100 -5.22442500
-1.99555200 -0.00000100 -6.14167800
0.00000000 -0.00000100 -6.45774600
1.99555200 -0.00000100 -6.14167900
3.79576900 -0.00000100 -5.22442400
5.22442600 -0.00000100 -3.79576700
6.14167800 -0.00000100 -1.99555200
-6.90650200 0.52749400 -2.24405800
-5.87502300 0.52749400 -4.26845200
-4.26845600 0.52749400 -5.87502000
-2.24405700 0.52749400 -6.90649900
0.00000000 0.52749400 -7.26192600
2.24405700 0.52749400 -6.90649800
4.26844800 0.52749400 -5.87501900
5.87501900 0.52749400 -4.26845200
6.90649800 0.52749400 -2.24405800
-6.10793300 0.50722000 -1.98458800
-5.19571700 0.50722000 -3.77491100
-3.77491800 0.50722000 -5.19571900
-1.98458900 0.50722000 -6.10793400
0.00000000 0.50722000 -6.42226400
1.98458900 0.50722000 -6.10793400
3.77491000 0.50722000 -5.19571900
5.19571700 0.50722000 -3.77491100
6.10793300 0.50722000 -1.98458800
0.00000000 29.37656800 -3.35730300
-1.03746000 29.37656800 -3.19298400
-1.97337300 29.37656800 -2.71611200
-2.71611800 29.37656800 -1.97336900
-3.19298600 29.37656800 -1.03746200
3.19298600 29.37656800 -1.03746100
2.71611000 29.37656800 -1.97336900
1.97337300 29.37656800 -2.71611300
1.03746000 29.37656800 -3.19298600
-3.43978900 29.56571000 -1.11765200
-2.92605600 29.56571000 -2.12590100
-2.12590000 29.56571000 -2.92605400
