-15.42834759 -9.75962353 -4.82513380
-14.84872055 -10.75740433 -4.76423407
-16.71592522 -9.03532600 -4.63310003
-17.50490189 -9.37419128 -4.34648800
-15.93749619 -8.70220852 -4.90135908
-14.66453552 -9.34661388 -5.03943396
-15.16717529 -8.35302448 -5.13261318
-17.17588997 -7.91485357 -4.70869255
-16.38366699 -7.61052275 -5.00776434
-15.59931469 -7.29999876 -5.26783705
-14.39270020 -7.96846199 -5.29929161
-14.80416393 -6.97516012 -5.44981909
-16.74745369 -6.50438356 -5.05305147
-15.94285393 -6.22470379 -5.32462168
-15.13469219 -5.93648911 -5.52480412
-14.01189899 -6.63512945 -5.60753202
-14.31946373 -5.65261078 -5.68965816
-16.19924927 -5.13512802 -5.28201437
-15.37782383 -4.88778543 -5.52853680
-14.54414845 -4.64800358 -5.72710228
-13.48999786 -5.36220407 -5.79991627
-13.69308090 -4.40953636 -5.86601830
-15.55552387 -3.85286260 -5.49726915
-14.69898987 -3.65055203 -5.73061705
-13.82807732 -3.45622540 -5.89602709
-12.83100319 -4.16422129 -5.94675922
-12.95016479 -3.25191259 -5.99999094
-14.80015278 -2.68154836 -5.70835543
-13.91100502 -2.51569796 -5.90558720
-13.02161026 -2.34119844 -6.05111885
-12.06894398 -3.02146769 -6.07900047
-12.12921333 -2.14210725 -6.13523054
-13.95556164 -1.59997404 -5.90519333
-13.05133820 -1.44518912 -6.07893467
-12.15536022 -1.26191401 -6.18974304
-11.24041843 -1.91821694 -6.21398735
-11.26443768 -1.05578661 -6.27607632
-13.05097485 -0.56934810 -6.09234285
-12.15480804 -0.39156508 -6.23787737
-11.26475143 -0.18919551 -6.33608341
-10.37768364 -0.82090831 -6.33901262
-10.38147736 0.04113366 -6.39960194
-12.13237476 0.46739775 -6.26498747
-11.25100994 0.67644680 -6.38148880
-10.38021374 0.91418856 -6.43814993
-11.23781204 1.54496741 -6.37955141
-10.38324547 1.79951680 -6.43036985
-9.51777554 1.17606091 -6.44413090
-9.54356766 2.07868719 -6.43674850
-9.50287151 0.29604906 -6.41699791
-8.63291073 0.55879712 -6.41796160
-8.66664410 1.44968462 -6.45152473
-8.60007763 -0.30049461 -6.37375641
-9.48631096 -0.55885816 -6.34568977
-8.55311298 -1.12460065 -6.32694149
-9.45195389 -1.39035749 -6.27726889
-10.34943962 -1.66494882 -6.25028801
-9.37983894 -2.19055605 -6.22699785
-10.28527737 -2.48382068 -6.16810656
-11.18573284 -2.77074718 -6.13736486
-10.17719173 -3.26760340 -6.11186838
-11.08647156 -3.59005809 -6.05016565
-11.96688461 -3.89278722 -6.00963688
-10.92153740 -4.36878061 -5.98576593
-11.79937744 -4.72798729 -5.92529106
-12.65090847 -5.06145382 -5.87565851
-11.55928802 -5.52646589 -5.85419035
-12.39279842 -5.91904116 -5.78802872
-13.21016216 -6.28409815 -5.71153021
-12.06438255 -6.72861958 -5.70492935
-12.84408951 -7.15644312 -5.59540224
-13.62126160 -7.56593847 -5.45092154
-12.41071987 -7.96814156 -5.50438738
-13.15582371 -8.44394779 -5.35649252
-13.90893555 -8.89972210 -5.20637226
-12.64908314 -9.27653122 -5.30249500
-13.37444973 -9.78730011 -5.14700890
-14.10579586 -10.28518772 -4.97209692
-12.79319859 -10.63585186 -5.09763718
-13.49775410 -11.18710613 -4.92605639
-14.20403481 -11.70814610 -4.71237850
-12.83181572 -12.04837894 -4.89084721
-13.49457073 -12.62597466 -4.67274427
-14.17051601 -13.17880154 -4.43505859
-12.73246193 -13.49200058 -4.63862467
-13.36806488 -14.10611248 -4.39217758
-14.00427914 -14.68959236 -4.11783934
-12.50410366 -14.95331192 -4.32748175
-13.11217976 -15.60437489 -4.04666710
-13.72310734 -16.21606445 -3.72307539
-12.18055534 -16.41599655 -3.93503261
-12.76309586 -17.10037231 -3.61777782
-13.34914017 -17.74833488 -3.26101875
-11.76207066 -17.90267181 -3.53091621
-12.28978157 -18.62822723 -3.19179010
-12.79214287 -19.32360458 -2.84335613
-11.16418171 -19.37831306 -3.13977456
-11.57900429 -20.14411163 -2.76779914
-11.95521259 -20.84641457 -2.39628077
-10.31926250 -20.75743866 -2.72420931
-10.61677265 -21.53582764 -2.32748890
-10.88961697 -22.20429230 -1.94593644
-9.42026043 -22.58473969 -1.92824411
-9.26088715 -21.92406464 -2.32323670
-9.52710152 -23.13819885 -1.41147232
-7.94431877 -23.24434471 -1.45597410
-7.89542961 -22.77541733 -1.98411524
-7.90078449 -23.45474434 -0.76012462
-6.39055300 -23.52735901 -0.84457254
-6.39684248 -23.36058807 -1.53304601
-6.33588314 -23.54429817 -0.08167148
-4.97428179 -23.52343750 -0.10215086
-4.94425726 -23.43287659 -0.85044616
-4.98642206 -23.42258453 0.70648175
-3.67913556 -23.56968689 0.71983808
-3.63982272 -23.53422928 -0.09968448
-3.70696950 -23.38994980 1.44639564
-2.41820145 -23.46019936 1.43542719
-2.39664721 -23.58626938 0.71154153
-2.44106126 -23.37577438 1.98219180
-1.17424488 -23.41310692 2.00666165
-1.16680813 -23.45435524 1.43122911
-1.19775462 -23.35733795 2.50785565
0.02033588 -23.28951836 2.54684639
0.04058443 -23.25111389 2.03875184
-0.00684048 -23.11663628 2.99827790
1.20869529 -23.24986076 2.58702755
1.20995402 -23.09170532 3.02964544
1.20744932 -22.71399498 3.33755136
2.42747140 -23.09219170 3.06771183
2.43042493 -22.69018745 3.36519957
2.43094444 -22.21058846 3.62836719
3.65086389 -22.63154221 3.35101986
3.64930344 -22.15273094 3.61486506
3.62679124 -21.49416924 3.93828249
4.87072754 -22.05506134 3.59519124
4.82696152 -21.36265755 3.93870521
4.74031496 -20.54930878 4.27341318
6.02290726 -21.17386055 3.93773007
5.89807224 -20.38657951 4.25655270
5.75127602 -19.58421326 4.56412601
6.83093214 -19.38960457 4.53512287
7.04763603 -20.19038963 4.23951006
6.60011768 -18.57643318 4.80466986
7.59799576 -18.34803963 4.79097128
7.87923050 -19.15245056 4.50662899
7.30788231 -17.54309273 5.04776716
8.23515034 -17.28106499 5.03688622
8.57296276 -18.07001877 4.78064394
7.88695765 -16.49332809 5.27420759
8.73467922 -16.19437027 5.25606823
9.13529587 -16.95805359 5.02082825
8.32785988 -15.42902660 5.45886946
9.08918858 -15.10230160 5.44927025
9.55350018 -15.82516003 5.23656845
8.63098907 -14.38655186 5.64093876
9.31929684 -14.02045918 5.63917685
9.84356689 -14.68353939 5.44667673
9.97285652 -13.55937767 5.64867640
10.55629158 -14.18049240 5.45588636
10.58259487 -13.01546764 5.66694212
11.23023224 -13.59852695 5.47961187
9.89062405 -12.48385048 5.83538866
10.40792084 -11.91814423 5.86366129
11.15649605 -12.41074944 5.69785595
9.62809658 -11.49866009 6.01203585
10.10218430 -10.90757656 6.04304981
10.90903091 -11.29472542 5.89704418
9.26716137 -10.60950184 6.14934969
8.82686234 -11.23207378 6.11248684
8.44863605 -10.43853855 6.23625946
8.05696106 -11.07478905 6.19070768
7.64870167 -10.33065701 6.30649710
7.31496954 -11.00728989 6.24581814
7.02400351 -11.70087051 6.16806936
6.58431387 -10.99606419 6.27641726
6.32870197 -11.72661495 6.19696426
6.19880390 -12.55469513 6.09730244
5.65491819 -11.81640148 6.21173334
5.51264000 -12.65190315 6.11097860
5.48836899 -13.53679466 5.99571228
4.82612181 -12.74847507 6.12016153
4.78786564 -13.63985825 6.00505257
4.82044935 -14.53555584 5.88071394
4.04757071 -13.72575951 6.00271416
4.04345942 -14.62684536 5.88089037
4.08854008 -15.51012993 5.72946835
3.23362374 -14.69981003 5.87453747
3.22947979 -15.58965206 5.73213100
3.25433016 -16.46221542 5.56107378
2.34332013 -15.64540768 5.73045301
2.31929040 -16.51609612 5.55209637
2.31972098 -17.37724495 5.34930515
1.35649419 -16.54063988 5.54670429
1.30902481 -17.40206528 5.33685398
1.27585113 -18.25598907 5.11262369
0.28693244 -17.39347649 5.32505560
0.20086591 -18.25382614 5.10401201
0.13092633 -19.10335350 4.85133600
-0.88255817 -18.21883965 5.08826733
-0.99760884 -19.07101250 4.83509922
-1.09535229 -19.91959381 4.55874825
-2.13611341 -19.00772858 4.81660032
-2.27069569 -19.85547638 4.52661514
-2.37799954 -20.69662285 4.21614790
-3.46694350 -19.76226044 4.50419617
-3.61072850 -20.60605240 4.19310474
-3.70648718 -21.41738319 3.84159231
-4.88395691 -20.47239685 4.16404581
-5.01667738 -21.29826164 3.82858300
-5.07524538 -22.01191902 3.46959949
-6.36598206 -21.12228775 3.78926277
-6.46798611 -21.88217926 3.40736079
-6.49681091 -22.43163681 3.11044288
-7.87086201 -21.68184471 3.35951376
-7.95220613 -22.31517792 3.00830269
-7.98266983 -22.82474518 2.70199776
-9.36003017 -22.07558060 2.95819974
-9.47161198 -22.63066292 2.62540293
-9.55291748 -23.09914017 2.25238562
-11.06096077 -22.62051773 2.31901121
-10.88643837 -22.15764427 2.67385149
-11.19007874 -22.91378975 1.82344389
-12.72561932 -22.10718346 1.90257442
-12.55550480 -21.87440109 2.42614388
-12.79419899 -22.12752533 1.28962660
-14.17382526 -21.13723755 1.97655296
-14.25555706 -21.14163780 1.36441553
-14.28464603 -21.11352348 0.72646588
-15.53817940 -19.99121284 1.40280962
-15.58774090 -19.96459961 0.73655140
-15.59823036 -19.95936584 -0.00493050
-16.74577141 -18.74996567 0.71868336
-16.75704575 -18.74127579 -0.06777036
-16.70874596 -18.76653290 -0.88329518
-17.72839737 -17.52189445 -0.95256627
-17.76898956 -17.49786949 -0.14268059
-17.60174370 -17.50700188 -1.75184035
-18.52673149 -16.24913788 -1.78665733
-18.65941048 -16.26742744 -1.00515175
-18.09843254 -16.00796318 -2.40462780
-18.98050499 -14.77193737 -2.44236898
-19.38702965 -14.97607708 -1.81679296
-18.37328339 -14.42395782 -2.85892320
-19.19083405 -13.20925236 -2.90696263
-19.80379868 -13.52316856 -2.48932576
-18.51007462 -12.84692764 -3.27649689
-19.23274422 -11.64277077 -3.32357168
-19.92488480 -11.96691895 -2.95534444
-18.48536110 -11.27660847 -3.67744470
-19.08790970 -10.07547951 -3.72379827
-19.86579704 -10.41674042 -3.36800480
-18.30061150 -9.72209072 -4.05440187
-19.61419868 -8.86330986 -3.77393985
-18.79965019 -8.54260635 -4.10580301
-17.98488045 -8.22537994 -4.41408730
-19.22361946 -7.35939455 -4.15897560
-18.38257790 -7.05861044 -4.46034336
-17.55760956 -6.77575827 -4.75641441
-18.72842407 -5.90867710 -4.51372147
-17.87825584 -5.64084005 -4.79764795
-17.03187752 -5.38769245 -5.04330254
-18.14862251 -4.52391815 -4.82034063
-17.28052330 -4.29373360 -5.05841017
-16.41584015 -4.06953669 -5.27039957
-17.48175812 -3.21920395 -5.07466412
-16.58717728 -3.03457737 -5.27962303
-15.69090939 -2.85511518 -5.48499775
-16.71592522 -2.02673292 -5.29530334
-15.79397964 -1.88580382 -5.48901987
-14.86602020 -1.74847114 -5.67999840
-15.85490036 -0.95142794 -5.50000906
-14.90244579 -0.84926236 -5.68339062
-13.96356106 -0.72051835 -5.88641214
-14.90207481 0.02104084 -5.70576668
-13.94525337 0.13090223 -5.88412523
-13.02626610 0.28384271 -6.09971333
-13.90048218 0.95757240 -5.91018057
-12.98393536 1.11668932 -6.09846354
-12.10218716 1.31737673 -6.27111769
-12.93074226 1.93570471 -6.10030222
-12.06886959 2.15987325 -6.23272276
-11.23130226 2.41445780 -6.33175755
-12.04942417 3.01306629 -6.21410847
-11.24503326 3.30339551 -6.30544186
-10.40673923 2.69869304 -6.37402582
-10.44759178 3.62698102 -6.37843990
-9.59156322 3.00392485 -6.43617773
-9.65131569 3.95962763 -6.44802570
-8.77436638 3.31042743 -6.49779463
-8.85148621 4.28261232 -6.51953030
-8.71419430 2.36848259 -6.47009897
-7.88461399 2.64502573 -6.51780367
-7.94811869 3.60089707 -6.54979944
-7.82589149 1.71171093 -6.48456907
-6.99023342 1.94836044 -6.52385378
-7.04917240 2.89084315 -6.56260204
-6.92537642 1.03905272 -6.48262310
-7.77377510 0.80898386 -6.44577980
-6.85879564 0.16389599 -6.44406176
-7.72275162 -0.05793491 -6.40786171
-6.78729343 -0.67919075 -6.40676641
-7.66367865 -0.88530838 -6.37080002
-6.70549583 -1.49033809 -6.36442804
-7.58423281 -1.68030238 -6.33095360
-8.47990990 -1.92049789 -6.28171301
-7.48298025 -2.45213079 -6.28628254
-8.37042618 -2.68150353 -6.23508787
-9.27213860 -2.96070170 -6.17861843
-8.24356174 -3.42665601 -6.18946266
-9.13182735 -3.70361233 -6.13322449
-10.02746868 -4.01944447 -6.06399918
-8.96878529 -4.42306328 -6.09116173
-9.84552860 -4.74992132 -6.01934195
-10.71319008 -5.12508821 -5.93957376
-9.62978935 -5.45477629 -5.97880793
-10.45928574 -5.85206795 -5.89932632
-11.26165104 -6.28714418 -5.80575991
-10.15352440 -6.55243731 -5.86266899
-10.90850544 -7.01968431 -5.76242495
-11.66355705 -7.49485445 -5.64767551
-10.51310444 -7.71664953 -5.72350931
-11.22147560 -8.22875214 -5.59861326
-11.93395615 -8.74838734 -5.45627546
-10.73896980 -8.92016602 -5.56506348
-11.41489697 -9.48670673 -5.42181778
-12.10130501 -10.06376076 -5.25878716
-10.85441017 -10.18015957 -5.40338421
-11.50558758 -10.79737854 -5.23616886
-12.16599560 -11.42912006 -5.06456470
-10.86828804 -11.48808670 -5.22626114
-11.48623753 -12.16240978 -5.04771328
-12.10899258 -12.83901978 -4.84827042
-10.75833416 -12.83814812 -5.02241659
-11.32943058 -13.56374836 -4.80575895
-11.90997791 -14.27557087 -4.58156347
-10.50466442 -14.20016384 -4.76779890
-11.05048752 -14.96915150 -4.52138710
-11.60891914 -15.70676327 -4.24044275
-10.16353607 -15.55480862 -4.46911383
-10.68690872 -16.36461449 -4.17805910
-11.22284889 -17.14486694 -3.85462737
-10.22808361 -17.75214958 -3.81837296
-9.73787308 -16.90067101 -4.14534664
-10.70552921 -18.58229446 -3.48881578
-9.58569622 -19.07716179 -3.48482585
-9.16740131 -18.20236397 -3.81616712
-9.97277737 -19.93382072 -3.10912585
-8.73115730 -20.28419685 -3.10799074
-8.40937805 -19.41362000 -3.48736811
-9.02026463 -21.12572861 -2.71944618
-7.65319490 -21.35852623 -2.74641323
-7.44706821 -20.52182198 -3.14045644
-7.80651093 -22.14617920 -2.36643291
-6.37499714 -22.27321243 -2.42011404
-6.28791046 -21.50913811 -2.79475975
-6.40305710 -22.89980125 -2.05601287
-4.97441435 -22.92446136 -2.10746622
-4.97978401 -22.30249786 -2.48016238
-4.94803333 -23.32240105 -1.54952407
-3.64134717 -22.94681168 -2.17356300
-3.61540818 -23.31940651 -1.57078528
-3.60931444 -23.39826584 -0.84435588
-2.36344171 -23.35358810 -0.86453182
-2.36228800 -23.24954796 -1.61319208
-2.37779236 -23.44267464 -0.08613551
-1.16273332 -23.44560051 -0.08995408
-1.17118394 -23.35462952 -0.85423070
-1.16470838 -23.54450607 0.70633298
0.04257342 -23.48230362 0.69194299
0.05052449 -23.65069389 -0.11641705
0.02845230 -23.20756340 1.44709909
1.21154082 -23.44685555 0.72926348
1.20997119 -23.19308281 1.50740433
1.21250260 -23.21074295 2.08915830
2.36687517 -23.25700760 1.54467678
2.38811398 -23.24655724 2.11591864
2.41674709 -23.24913216 2.62380385
3.57263446 -23.23648262 2.10863280
3.62366796 -23.27412415 2.63320971
3.64419603 -23.05594063 3.07264090
4.84179258 -23.27080154 2.63219023
4.87162590 -22.98377800 3.05822349
4.87763739 -22.54694366 3.33531547
6.13658047 -22.87720108 3.03562379
6.13768482 -22.41992378 3.31775880
6.11016130 -21.90913200 3.59366059
7.43293142 -22.26186752 3.28660440
7.37097359 -21.67965317 3.59894657
7.22848749 -20.95851707 3.92117882
8.40894318 -20.71382713 3.89037967
8.61511517 -21.45255852 3.55221415
8.15552902 -19.94362259 4.21642876
9.23426533 -19.63670540 4.20296288
9.53223991 -20.41028595 3.87209439
8.90663719 -18.85698891 4.49638510
9.91510963 -18.48818970 4.48721647
10.28606319 -19.24885559 4.18129730
9.52857018 -17.72131538 4.76268816
10.45824337 -17.28505325 4.75111437
10.89647293 -18.02487946 4.47532845
10.01384258 -16.55164146 5.00718498
10.86869431 -16.05254555 4.99525356
11.36764050 -16.75427437 4.73473740
10.35891342 -15.36901379 5.23926306
11.12777710 -14.82277012 5.24656248
11.69336700 -15.47678280 5.00053072
11.85958862 -14.20214462 5.26763868
12.47798252 -14.82066345 5.03318691
12.54479218 -13.51255322 5.30156946
13.21458054 -14.08769131 5.07475948
11.86391735 -12.94952488 5.51697731
12.44955063 -12.24096870 5.55474854
13.18147755 -12.75867367 5.34098482
11.69079590 -11.75042152 5.73220015
12.20889378 -11.02818489 5.77041721
13.00472450 -11.48040771 5.59390545
11.39727211 -10.61717033 5.93805552
11.86405945 -9.88745689 5.98022079
12.70026016 -10.26391697 5.81355286
11.00415897 -9.55754471 6.12282515
10.56352615 -10.25743771 6.08183861
10.12121868 -9.29404640 6.22830343
9.70349979 -9.97274590 6.18714905
9.21893501 -9.09813404 6.32084990
8.84318256 -9.77244949 6.27785444
8.33440018 -8.96604156 6.39114571
7.99059820 -9.64246368 6.34852600
7.45842695 -8.87144947 6.45375681
7.15837002 -9.55589581 6.40770388
6.86504793 -10.27406979 6.35105085
6.34153318 -9.51757145 6.45183706
6.08455324 -10.24146748 6.38436317
5.85557032 -11.02162552 6.29991341
5.31964445 -10.27004147 6.40358973
5.11200523 -11.05553532 6.32105017
4.93263435 -11.88016510 6.22862148
4.36733913 -11.11557579 6.32591915
4.20704699 -11.95438576 6.23150158
4.09973383 -12.82876492 6.11992693
3.46072149 -12.02146530 6.22852373
3.34762025 -12.90129375 6.11736059
3.27667618 -13.79839325 5.99898386
2.57327914 -12.95970917 6.11580849
2.47952795 -13.85367966 5.99617767
2.39993882 -14.75132275 5.87021732
1.65385926 -13.89042950 5.99551392
1.54088831 -14.77993965 5.86624050
1.43689203 -15.66689205 5.72586441
0.65727782 -14.78429031 5.86304617
0.50755221 -15.66356277 5.72156096
0.38167164 -16.53239632 5.53773594
-0.43846244 -15.63193893 5.71785498
-0.60983223 -16.49615860 5.52597523
-0.75147462 -17.35787773 5.31195498
-1.61150146 -16.43262100 5.51717186
-1.80268013 -17.29512596 5.30214453
-1.97794259 -18.15479469 5.07484388
-2.85870099 -17.19451141 5.28343916
-3.08426642 -18.05271530 5.04906559
-3.29336715 -18.91454315 4.80298853
-4.20097494 -17.91273689 5.02392864
-4.46093702 -18.77327919 4.77862597
-4.69223738 -19.62507820 4.48201466
-5.62166595 -18.57657623 4.76363420
-5.91883755 -19.43565941 4.47240686
-6.17025137 -20.28530693 4.14135408
-7.10678577 -19.16772842 4.45861435
-7.42553663 -20.02489090 4.11726713
-7.68438387 -20.86530685 3.74481821
-8.60646820 -19.67983437 4.10894012
-8.93017769 -20.52745819 3.72948694
-9.18043327 -21.34708023 3.34968591
-10.42419529 -20.87020111 3.34808540
-10.10741997 -20.07736778 3.72381806
-10.68313408 -21.60770035 2.98790169
-11.99835587 -20.90482712 3.04008746
-11.64326954 -20.25031281 3.38694692
-12.28669453 -21.42006302 2.74942994
-13.63214207 -20.55020523 2.82889223
-13.26464558 -20.08487701 3.12109303
-13.96870136 -20.94836235 2.50834656
-14.88125134 -19.54100418 2.93796778
-15.26192856 -19.88749123 2.59317780
-15.46111965 -20.01272011 2.03381276
-16.42918015 -18.76340103 2.66330814
-16.61792755 -18.83584213 2.07443166
-16.69973373 -18.79711723 1.42668724
-17.65943718 -17.60163689 2.10540390
-17.72865295 -17.54801559 1.42739034
-17.77085304 -17.50931168 0.66019493
-18.65353584 -16.27324295 1.39523435
-18.68786430 -16.23689270 0.60892475
-18.69940567 -16.24178123 -0.19969085
-19.53688240 -14.95099735 0.57333249
-19.54617310 -14.95797539 -0.24247947
-19.50977707 -14.98435307 -1.04227126
-20.31117439 -13.68598652 -1.06932986
-20.32913971 -13.65050316 -0.27506301
-20.20460510 -13.69440842 -1.84653664
-20.92021561 -12.36467743 -1.88435793
-21.01365852 -12.33777332 -1.11133146
-20.54633904 -12.23967648 -2.54421973
-21.18742561 -10.91930580 -2.58985949
-21.52804756 -11.00185394 -1.91657865
-20.56117630 -10.69032955 -3.00175238
-21.11418152 -9.39984131 -3.05652285
-21.72195435 -9.57464886 -2.62168479
-20.40829468 -9.16404629 -3.41536212
-20.88240623 -7.89995193 -3.47210312
-21.58301353 -8.09165382 -3.11625314
-20.06652451 -7.64650679 -3.82987118
-20.44853020 -6.41969872 -3.89666247
-21.28276062 -6.62429380 -3.55929708
-19.59072876 -6.17691374 -4.22134924
-20.75517845 -5.17240238 -3.97061348
-19.89289856 -4.98460484 -4.28319454
-19.02059174 -4.76236343 -4.56724501
-20.13491821 -3.78624582 -4.34274101
-19.25703239 -3.61066341 -4.61657810
-18.37153435 -3.41460729 -4.85353899
-19.44597626 -2.45962524 -4.65150023
-18.54543304 -2.31251097 -4.87901163
-17.63494682 -2.16724157 -5.09233522
-18.66965866 -1.22366512 -4.90980816
-17.74135590 -1.14004529 -5.12028503
-16.80022240 -1.04828095 -5.30833149
-17.79423523 -0.12734196 -5.15758085
-16.84154701 -0.09301850 -5.34944487
-15.87013435 -0.04862200 -5.52654076
-16.81812668 0.82895797 -5.36571932
-15.83278751 0.81492102 -5.55219221
-14.85327625 0.85571599 -5.73574400
-15.75683975 1.64340520 -5.58400059
-14.77169418 1.65578389 -5.76951504
-13.82726765 1.76014650 -5.93987656
-14.65345573 2.40931273 -5.80528975
-13.75353527 2.56394792 -5.95587349
-12.87327003 2.75429606 -6.09557152
-13.66783333 3.34097219 -5.96426439
-12.83394909 3.57971430 -6.09012032
-12.06233692 3.88696933 -6.20500231
-12.91458321 4.43944597 -6.08246994
-12.19636917 4.79834557 -6.19000721
-11.30001926 4.21710348 -6.30823135
-11.45257092 5.15683174 -6.29578924
-10.54916477 4.57636499 -6.39492846
-10.73825264 5.54032946 -6.38603163
-9.77836227 4.93206358 -6.48145294
-9.99013138 5.91463470 -6.47851610
-8.99431515 5.26978445 -6.54975080
-9.20774555 6.26462793 -6.54778051
-8.18773460 5.58029413 -6.59160900
-8.39773750 6.58791685 -6.59428501
-8.03882027 4.58400631 -6.57445335
-7.20957899 4.85182667 -6.61496925
-7.35809946 5.85992956 -6.63204765
-7.11441755 3.85962057 -6.59181452
-6.27322149 4.07781982 -6.62961531
-6.36870527 5.08442354 -6.65357494
-6.20716095 3.09530330 -6.60258865
-5.36185408 3.27186036 -6.62977076
-5.42933702 4.26474857 -6.66444588
-5.29979324 2.31572700 -6.59367323
-6.14798975 2.14721656 -6.56165075
-5.23105574 1.39582157 -6.55289698
-6.08011293 1.23436081 -6.51887465
-5.15400410 0.50565588 -6.50675535
-6.00569248 0.35025290 -6.47905636
-5.07341480 -0.36265483 -6.45799685
-5.92656422 -0.50605780 -6.43542194
-4.99190331 -1.21255302 -6.41623735
-5.84273291 -1.33573484 -6.38930225
-4.91049194 -2.03905940 -6.36790133
-5.75674486 -2.14433551 -6.34064722
-6.61304712 -2.27780366 -6.31748867
-5.67014265 -2.94041109 -6.29179001
-6.51322937 -3.05379725 -6.26940775
-7.36867428 -3.20831895 -6.23989344
-6.40941572 -3.81816816 -6.22207355
-7.24480629 -3.95193458 -6.19469357
-8.09704399 -4.14839792 -6.14631796
-7.11605740 -4.68557644 -6.15060425
-7.93744898 -4.85266590 -6.10536194
-8.78363800 -5.11749792 -6.05055761
-7.76942921 -5.54182243 -6.06565809
-8.57291985 -5.78262901 -6.01340103
-9.37491417 -6.13369465 -5.94266748
-8.34257507 -6.42417383 -5.97727346
-9.09115028 -6.78100491 -5.90832376
-9.80561829 -7.21896601 -5.82702160
-8.78374290 -7.38814878 -5.87664080
-9.42939854 -7.85257816 -5.79461384
-10.08151722 -8.37001133 -5.69360161
-9.01131535 -8.43628216 -5.77117205
-9.59905910 -8.99182987 -5.67499781
-10.21808624 -9.57639885 -5.54935694
-9.07125282 -9.55418015 -5.66623688
-9.65097904 -10.18126869 -5.54305172
-10.25461864 -10.82913780 -5.39606237
-9.03723526 -10.72163677 -5.52947235
-9.60373211 -11.41857624 -5.37802267
-10.18064117 -12.12606335 -5.20911026
-9.42741871 -12.66734886 -5.18372822
-8.89172459 -11.92221737 -5.35748768
-9.96861267 -13.42471313 -4.99034643
-9.13895226 -13.92722321 -4.95979166
-8.63286114 -13.13352776 -5.16006613
-9.64510918 -14.73613930 -4.72464991
-8.76565647 -15.20203304 -4.69385767
-8.28841305 -14.36499405 -4.93405581
-9.24756813 -16.05553436 -4.43364048
-8.28941822 -16.45838737 -4.41694927
-7.85122252 -15.59148312 -4.68874979
-8.73265266 -17.33245659 -4.13003826
-7.66723251 -17.65380096 -4.14786720
-7.27651262 -16.77429008 -4.44144726
-8.04716969 -18.53590965 -3.82740211
-6.89417171 -18.78041840 -3.84641790
-6.56759167 -17.89995956 -4.16958332
-7.19131660 -19.65870857 -3.50645280
-5.94651937 -19.82789803 -3.54588366
-5.71306992 -18.95971489 -3.88168526
-6.13835001 -20.67407990 -3.17569304
-4.83483601 -20.76194191 -3.22206855
-4.69035387 -19.93619156 -3.59439945
-4.93646240 -21.57141113 -2.83583260
-3.62303090 -21.60856056 -2.93550301
-3.54931951 -20.82035255 -3.29517603
-3.65132260 -22.33062172 -2.57139230
-2.34575462 -22.30377960 -2.63267350
-2.31657290 -21.62416267 -2.97602630
-2.35847044 -22.91133881 -2.23901367
-1.10856092 -22.90333176 -2.20229840
-1.06964421 -22.32200813 -2.61506724
-1.18805754 -23.25041771 -1.59051871
0.05993587 -23.43219757 -1.57812715
0.09803417 -22.98865318 -2.17403603
0.05371983 -23.60555649 -0.89041805
1.27730608 -23.39441872 -0.88651013
1.32346058 -23.32306290 -1.62088203
1.24251056 -23.47291565 -0.11665571
2.40024781 -23.47301292 -0.11870855
2.45939636 -23.40869904 -0.90583479
2.36271381 -23.45029831 0.75070119
3.53380656 -23.52818489 0.74702966
3.58155608 -23.56344223 -0.11146677
3.54611683 -23.29565811 1.51826596
4.74840498 -23.43524933 1.49090481
4.75182009 -23.55666924 0.72409499
4.78940296 -23.36172867 2.08492565
6.02354860 -23.37183380 2.04296589
5.98892546 -23.43674850 1.38160098
6.10105038 -23.23169327 2.63743830
7.33816481 -23.43774223 1.95519996
7.40940762 -23.20111465 2.54084873
7.44541740 -22.78605652 2.96347332
8.79920578 -22.68116570 2.83543897
8.80468655 -23.18668747 2.42578864
8.73778629 -22.10335541 3.19712543
10.01956844 -21.90476990 3.10281229
10.15539837 -22.49651718 2.71436834
9.80358982 -21.17731667 3.49890924
10.94129181 -20.78289795 3.48887420
11.22996330 -21.48821068 3.08860135
10.62704086 -20.02281952 3.85599399
12.09258175 -20.21527481 3.50839901
11.71076202 -19.50609970 3.85250616
11.31928253 -18.76554108 4.17818642
12.32939529 -18.17192650 4.18206024
12.78773880 -18.86194229 3.85986853
11.85518646 -17.46080589 4.46070051
12.78510761 -16.80645180 4.46445799
13.31753635 -17.47254181 4.18195772
12.24239922 -16.14070129 4.74113941
13.08245468 -15.44164467 4.77021170
13.68312931 -16.06782722 4.49654961
13.87305450 -14.67030525 4.81799269
14.53138924 -15.25858879 4.54808378
14.60834694 -13.83533573 4.87097311
15.31078720 -14.36551380 4.59205627
13.90134430 -13.29234219 5.11372614
14.54115200 -12.43976593 5.15689468
15.29129124 -12.93024826 4.90897417
13.77874088 -11.95841599 5.39087677
14.33531570 -11.10721970 5.43465567
15.12794876 -11.53835201 5.20890141
13.52777290 -10.67361355 5.63318300
14.01357174 -9.82023239 5.67673016
14.85267925 -10.20215416 5.48406744
13.16095161 -9.45402336 5.85510635
13.57052231 -8.60394955 5.90489435
14.45549965 -8.92483234 5.73004246
12.67078018 -8.29491425 6.05362511
12.29427719 -9.10838509 6.01799631
11.76141167 -8.03281975 6.18740416
11.40834808 -8.81481743 6.15379095
10.84020996 -7.82979345 6.31202555
10.50207520 -8.57603645 6.27266502
9.88706684 -7.68358755 6.40799427
9.57129478 -8.40306854 6.36595964
8.92616653 -7.56876945 6.48553133
8.64980507 -8.27337646 6.44868946
7.97996759 -7.48555374 6.54416752
7.74274588 -8.18184948 6.50425673
7.05553293 -7.42799044 6.60343361
6.84297419 -8.11834431 6.55320883
6.59935427 -8.81098652 6.50489140
5.96461630 -8.07449818 6.59361553
5.75984812 -8.78738880 6.54093647
5.54070663 -9.51792336 6.47923279
4.93988228 -8.78737545 6.55843925
4.74887514 -9.53646088 6.48790503
4.55263853 -10.30872917 6.41020727
3.96270442 -9.56254864 6.49333286
3.78227782 -10.34909821 6.41417313
3.61015534 -11.17007351 6.32559156
3.01133227 -10.38594151 6.41608715
2.84392762 -11.21690655 6.32377720
2.69709802 -12.07818890 6.22584677
2.07432532 -11.25381088 6.32061958
1.91982377 -12.11976242 6.22393370
1.77862191 -13.00050449 6.11467648
1.13114440 -12.14059067 6.22028112
0.96661109 -13.02011108 6.11360168
0.80763710 -13.90256214 5.99667263
0.13807906 -13.01365280 6.10790253
-0.05654071 -13.88828850 5.99243689
-0.25028366 -14.76144600 5.86182928
-0.93490547 -13.84091187 5.97863150
-1.16991889 -14.70230961 5.84943485
-1.39911699 -15.56698132 5.70144653
-2.09200597 -14.60697842 5.83359146
-2.36344099 -15.46781063 5.68143415
-2.61877155 -16.33453369 5.50033998
-3.32502198 -15.33236694 5.66516685
-3.62784076 -16.19108963 5.47448778
-3.92037320 -17.05145264 5.26208830
-4.62705469 -16.00019836 5.45617914
-4.97097921 -16.85694504 5.25169802
-5.30163431 -17.71420288 5.01372576
-5.99215698 -16.59962654 5.25234747
-6.37852383 -17.45392036 5.01964426
-6.75387955 -18.30731392 4.75590944
-7.41989756 -17.11681938 5.04179096
-7.84243679 -17.96032143 4.75939322
-8.23899746 -18.81768036 4.44684219
-8.88347244 -17.53982544 4.76838732
-9.32720375 -18.39186478 4.46442223
-9.73330879 -19.24855232 4.11927938
-10.81463337 -18.69923782 4.13483334
-10.36544895 -17.86315918 4.47544336
-11.24699497 -19.50074577 3.76166272
-12.35379028 -18.78002739 3.81757498
-11.86799431 -18.02756691 4.17312050
-12.81862736 -19.46830177 3.46473742
-13.95060921 -18.56798172 3.56975126
-13.42802143 -17.93232918 3.91578031
-14.46191120 -19.13795471 3.22718143
-15.54641533 -18.06166077 3.34877229
-15.00874424 -17.56483269 3.68127584
-16.02443695 -18.45559311 3.04282236
-16.56476021 -16.93531609 3.46292663
-17.07697296 -17.30892372 3.16025639
-17.49772644 -17.57390976 2.72915339
-18.03618240 -16.09819031 3.25933981
-18.44570732 -16.31799316 2.77558756
-18.59473610 -16.32744408 2.11535096
-19.34382439 -15.05157948 2.82961154
-19.44332886 -15.02267361 2.12626982
-19.49970627 -14.97277737 1.38010669
-20.24120140 -13.70256805 2.14431787
-20.28699303 -13.66136837 1.37323117
-20.31977272 -13.64322853 0.54763967
-20.99704933 -12.31716347 1.38968229
-21.03637886 -12.29991627 0.54981524
-21.03157234 -12.30640888 -0.30409697
-21.63220596 -10.93641663 -0.32505247
-21.63338661 -10.92890835 0.54392898
-21.60254097 -10.96432018 -1.14694130
-22.10608673 -9.58986568 -1.17713070
-22.12782478 -9.55121899 -0.34420845
-22.04102325 -9.63322258 -1.94521880
-22.47818184 -8.25783634 -1.98229361
-22.54667664 -8.21379566 -1.21104407
-22.19418335 -8.23618507 -2.67955446
-22.58360291 -6.87730408 -2.74947739
-22.85998344 -6.88545036 -2.04573202
-21.99497032 -6.77519703 -3.22482228
-22.31078148 -5.43241882 -3.27876282
-22.88267136 -5.49391508 -2.78235245
-21.58653259 -5.32772398 -3.63524508
-21.82472801 -4.02327538 -3.69835997
-22.56839752 -4.08743334 -3.32787061
-20.99508667 -3.92470574 -4.03167152
-21.18716812 -2.65626192 -4.08179283
-22.00896835 -2.71166277 -3.75099897
-20.32854271 -2.57705164 -4.37956524
-20.46351814 -1.35504174 -4.42203379
-21.31519508 -1.37155378 -4.13269138
-19.57851219 -1.30647528 -4.67765856
-19.63455772 -0.15403470 -4.71028852
-20.52137375 -0.12613145 -4.46532440
-18.72649002 -0.14622928 -4.93764639
-18.71118355 0.92292708 -4.96497011
-19.62197113 0.99944973 -4.75418282
-17.77967834 0.86227494 -5.17535067
-17.70002937 1.82508409 -5.20782804
-18.62638855 1.97182715 -5.00170612
-16.74200058 1.70446849 -5.39625502
-16.61127853 2.54644442 -5.43314743
-17.55200577 2.75193477 -5.24933529
-15.63730145 2.42364001 -5.62114477
-16.41590309 3.34697127 -5.47498512
-15.46533394 3.15362549 -5.65989780
-14.51272869 3.14612627 -5.83876514
-15.23795509 3.85418510 -5.71162558
-14.36597443 3.85279846 -5.86821461
-13.59122467 4.09012318 -5.98141289
-13.67658997 4.88091803 -5.97835159
-13.07955742 5.30280924 -6.06593466
-13.99563980 5.68880892 -5.91692066
-13.38042355 6.18209505 -6.00872231
-12.37984943 5.71898270 -6.16829109
-12.76818657 6.64611197 -6.09270477
-11.71909904 6.12524700 -6.25803709
-12.09373760 7.08281898 -6.17864609
-11.01476574 6.52078819 -6.34409714
-11.36598015 7.49620438 -6.27500200
-10.26764202 6.90683079 -6.43489552
-10.59127331 7.89662123 -6.35875511
-9.47572517 7.26968050 -6.51439047
-9.78249931 8.27543449 -6.42320347
-8.65327740 7.60734272 -6.54717636
-8.94484138 8.62957287 -6.48814011
-7.80936480 7.91392422 -6.61954165
-8.07921028 8.95542717 -6.56138992
-7.56135464 6.87984371 -6.64266348
-6.71179104 7.13906240 -6.68771935
-6.94106770 8.18727589 -6.67507553
-6.51481390 6.10590029 -6.67276287
-5.65701866 6.31338453 -6.71383858
-5.84167528 7.35857296 -6.73202324
-5.51801205 5.28258753 -6.69086504
-4.65765858 5.44432306 -6.72339153
-4.78802681 6.48889542 -6.75266075
-4.57475185 4.42038536 -6.69093657
-3.70928192 4.55064201 -6.69442415
-3.79078650 5.58274508 -6.74580574
-3.64554858 3.55545878 -6.65245247
-4.50947237 3.42487693 -6.64647198
-3.58325887 2.59514403 -6.62200117
-4.44636250 2.46564651 -6.61225462
-3.51686430 1.66242206 -6.58109426
-4.37679863 1.53817701 -6.57141352
-3.44876289 0.75310034 -6.53709793
-4.30184937 0.63886786 -6.52059555
-3.38096595 -0.14158849 -6.50452662
-4.22764826 -0.24420667 -6.48604679
-3.30896235 -1.01880252 -6.45921755
-4.14880657 -1.11116803 -6.44351101
-3.23634911 -1.88303769 -6.40599775
-4.07103205 -1.95596337 -6.39502668
-3.99886894 -2.78838038 -6.34161568
-3.17125320 -2.73626947 -6.36269951
-4.83225775 -2.85606360 -6.31497908
-4.76089668 -3.65465188 -6.26296329
-3.93776894 -3.61032796 -6.28340149
-5.58389139 -3.72252297 -6.24325466
-5.50185251 -4.49893808 -6.19928837
-4.69969463 -4.44918156 -6.21967649
-6.30502701 -4.57308102 -6.17799616
-6.20340109 -5.31799889 -6.13857079
-5.42854023 -5.27131319 -6.16296482
-6.98391438 -5.40383482 -6.10757303
-6.85295773 -6.11184645 -6.06483841
-6.11358690 -6.06085300 -6.09413815
-7.58779860 -6.21096706 -6.02737141
-7.40925694 -6.86110640 -5.98952627
-6.73016405 -6.81097174 -6.02221298
-8.10002136 -7.02516556 -5.94330931
-6.64243841 -7.50371552 -5.97720051
-6.03509951 -6.80171585 -6.04831982
-6.02936459 -7.58600569 -5.99519491
-6.69655275 -8.25233078 -5.91487837
-6.10200357 -8.38607502 -5.92497587
-6.36360264 -9.20125198 -5.83336306
-6.96825647 -8.99926090 -5.83142519
-6.74472094 -9.98976421 -5.73384905
-7.38254786 -9.71686649 -5.73868370
-7.98100805 -9.39526367 -5.74740076
-7.86099625 -10.44970608 -5.63649464
-8.49127769 -10.04763412 -5.65250921
-8.52152920 -8.95348644 -5.75901794
-8.36609650 -11.18062973 -5.51063824
-7.65081167 -11.56255054 -5.50027561
-7.18212557 -10.77553368 -5.63025570
-8.13472843 -12.34894466 -5.33579874
-7.35200167 -12.71839046 -5.32228136
-6.91282988 -11.87992668 -5.48937798
-7.81548214 -13.54176998 -5.14171076
-6.97179317 -13.87648487 -5.13107777
-6.55186987 -13.01351166 -5.32078505
-7.40741968 -14.73450661 -4.92459488
-6.48687983 -15.02259731 -4.93087673
-6.09935093 -14.13764191 -5.14283180
-6.88250589 -15.90220737 -4.70304251
-5.87789345 -16.13015556 -4.70139027
-5.53841686 -15.24016857 -4.93839359
-6.22490883 -17.01940727 -4.46616793
-5.15007353 -17.19692993 -4.45305538
-4.86176109 -16.30315781 -4.70301533
-5.43974066 -18.08128166 -4.18039751
-4.29929304 -18.21406555 -4.20198870
-4.06933737 -17.33146858 -4.46345425
-4.51374006 -19.08474350 -3.91359401
-3.30029917 -19.16095161 -3.93663692
-3.14714336 -18.30291557 -4.22528458
-3.43950391 -20.00143242 -3.62677598
-2.19197583 -20.03999329 -3.67257142
-2.10478187 -19.20050812 -3.97132397
-2.26558495 -20.84595299 -3.33131790
-1.01164329 -20.85611343 -3.32899189
-0.97407931 -20.04771423 -3.67478919
-1.03581023 -21.63744164 -2.97153807
0.16806497 -21.65507698 -2.94177747
0.18745743 -20.85529327 -3.30788040
0.13308604 -22.36321068 -2.57322979
1.32660258 -22.32230377 -2.57427716
1.34787369 -21.62330055 -2.92425251
1.31286466 -22.92084312 -2.19339609
2.55442739 -22.86551666 -2.19867659
2.55955791 -22.25424004 -2.55786824
2.51781464 -23.28560066 -1.63372827
3.75228190 -23.25124550 -1.59900188
3.77869177 -22.80016327 -2.16415000
3.67202497 -23.44539452 -0.88322812
4.90483999 -23.38289833 -0.87260157
4.97400093 -23.14542007 -1.58400738
4.80777407 -23.56127930 -0.10499936
6.06022596 -23.55319786 -0.14137894
6.17281151 -23.40945053 -0.92464250
5.98886776 -23.52749634 0.65103918
7.26409721 -23.58542061 0.60644472
7.36293030 -23.42663193 -0.13971901
7.28391171 -23.56073189 1.29937792
8.72400188 -23.60777473 1.21499979
8.72018528 -23.62764168 0.54809070
8.76677895 -23.48542404 1.85128570
10.36536980 -23.34792900 1.80208278
10.39912224 -23.46800041 1.19059420
10.27602673 -22.99590683 2.30611706
11.75237465 -22.50102425 2.32859087
11.94564819 -22.75026512 1.78869414
11.48826694 -22.04206657 2.72287416
12.80370998 -21.34012222 2.78507257
13.12650204 -21.73189354 2.37012076
12.45642853 -20.85430717 3.13446903
13.67521954 -20.06615829 3.16812849
14.06774426 -20.52065849 2.81580925
13.23892021 -19.50312233 3.51740265
14.36077309 -18.71184158 3.52605486
14.84108067 -19.21878624 3.18935633
13.84002304 -18.11553383 3.86571980
14.85407925 -17.29257965 3.90442395
15.43710136 -17.85247231 3.56862330
14.27220345 -16.69213867 4.21306276
15.17711163 -15.83024979 4.25405502
15.82122231 -16.37868881 3.94729280
16.00389290 -14.87729263 4.29753494
16.69716263 -15.36147404 3.99757576
16.76588631 -13.84753418 4.36373329
17.48621178 -14.27514076 4.07209921
16.03711510 -13.40125942 4.64368820
16.68181992 -12.36241341 4.70260572
17.45321465 -12.74646091 4.43398619
15.90674782 -11.96229553 4.96058464
16.47475815 -10.93618393 5.03996229
17.26557159 -11.27799511 4.77391529
15.67112732 -10.57761765 5.27026844
16.16594887 -9.55951595 5.34025908
16.99377251 -9.86152363 5.11346483
15.32035065 -9.24533844 5.54523325
15.70958138 -8.25277138 5.61707211
16.58853722 -8.50844193 5.43586779
14.81812382 -7.99238348 5.78974867
15.10236549 -7.02210617 5.83944750
16.01444435 -7.22835922 5.68960571
14.18052292 -6.80751657 5.98815298
13.90893841 -7.71866894 5.94650650
13.23522091 -6.59206724 6.13298655
12.98171616 -7.45436049 6.09078550
12.27515697 -6.39635944 6.26375294
12.04405689 -7.21717596 6.22493696
11.29922581 -6.24595737 6.38250923
11.09162617 -7.04045677 6.34915257
10.30718327 -6.16864157 6.49169254
10.12033081 -6.93761730 6.45386076
9.32228374 -6.11903620 6.58352518
9.15011215 -6.85396576 6.51913166
8.34436607 -6.07077408 6.63969564
8.18065357 -6.78267384 6.58490181
7.38373756 -6.02995968 6.70376968
7.23524666 -6.73228836 6.65225792
6.45232201 -5.98490524 6.75040722
6.31579351 -6.68149567 6.69462490
6.15474224 -7.37624073 6.64356709
5.42559385 -6.63505220 6.73259974
5.27879620 -7.33978510 6.68166494
5.11665535 -8.05509663 6.62561131
4.43960142 -7.32019186 6.70529556
4.29599047 -8.05097580 6.63722610
4.13600683 -8.79690742 6.56647158
3.49412894 -8.04940319 6.64632702
3.34565520 -8.80697918 6.57378149
3.18350983 -9.58520794 6.49842501
2.56762910 -8.81282330 6.58321285
2.41117287 -9.60093880 6.50482368
2.24138665 -10.41405678 6.41350508
1.64109743 -9.61783409 6.50169277
1.46993911 -10.43549538 6.40797853
1.29889309 -11.27815151 6.31702852
0.69732046 -10.44723415 6.40842247
0.51447010 -11.28825474 6.32409668
0.33145490 -12.14339542 6.21105671
-0.27626920 -11.27844715 6.31648159
-0.48064277 -12.12495422 6.20408440
-0.70214140 -12.98037720 6.09682369
-1.30158496 -12.07312298 6.19572163
-1.55274343 -12.90462875 6.08348513
-1.81894457 -13.75066757 5.96634150
-2.40059996 -12.78879261 6.07344103
-2.69900322 -13.62452602 5.95556259
-3.00991678 -14.47552586 5.82014942
-3.56864285 -13.45931435 5.94664001
-3.91655946 -14.30111217 5.81109905
-4.27565670 -15.15025616 5.65162706
-4.80953217 -14.08164787 5.81009483
-5.21040869 -14.91063786 5.65178633
-5.60369015 -15.75072765 5.45892143
-6.12659025 -14.62031460 5.65511608
-6.56202936 -15.44421864 5.47394896
-6.99035931 -16.27602768 5.26493454
-7.50154829 -15.07097149 5.48646355
-7.96611071 -15.88237190 5.27774239
-8.42709064 -16.70677757 5.05057859
-8.91868305 -15.41495895 5.29542542
-9.40532780 -16.21707916 5.06069040
-9.88892365 -17.03609276 4.77915907
-10.36031437 -15.65657520 5.08812189
-10.86949730 -16.44334221 4.81437922
-11.37613678 -17.24409485 4.51183319
-12.36161900 -16.50802040 4.56712103
-11.82207870 -15.76019573 4.85359955
-12.89417744 -17.23848724 4.24574137
-13.88465214 -16.34644699 4.33585787
-13.30980015 -15.66731644 4.61725473
-14.44891167 -16.98491478 4.01638412
-15.40437984 -15.94255066 4.08388090
-14.81310654 -15.36304188 4.39720869
-15.99304390 -16.47327423 3.77626872
-16.90774918 -15.33666611 3.86605358
-16.29523849 -14.85224915 4.16699314
-17.50248909 -15.76010227 3.57210922
-17.76854515 -14.16243172 3.93619132
-18.38141251 -14.54433060 3.65213966
-18.94904709 -14.86664581 3.35250616
-19.20057678 -13.30959606 3.72669482
-19.78518295 -13.59441280 3.41795230
-20.16350555 -13.73939037 2.85987639
-20.52486420 -12.28024673 3.43991232
-20.86877060 -12.38611412 2.85992789
-20.94815254 -12.35342407 2.15161562
-21.48952866 -11.02147102 2.89514446
-21.55315781 -10.97413349 2.18906283
-21.59475136 -10.93725681 1.40988302
-22.05161476 -9.58287716 2.22948074
-22.09243965 -9.54823399 1.42324209
-22.11776352 -9.53489590 0.53491628
-22.52299881 -8.15961742 1.43439198
-22.55354881 -8.15625858 0.52780187
-22.55500412 -8.16921520 -0.37890241
-22.91457176 -6.79627848 -0.41213840
-22.90327644 -6.77701759 0.50990760
-22.89821815 -6.83742857 -1.26352334
-23.19272995 -5.46129179 -1.29696476
-23.20722771 -5.42317295 -0.43798491
-23.13614845 -5.49577570 -2.07791829
-23.39641953 -4.10594702 -2.09937048
-23.44507599 -4.06300879 -1.31745374
-23.16511917 -4.12666321 -2.83616543
-23.28907204 -2.73075771 -2.86544800
-23.52666283 -2.69431782 -2.13455725
-22.73496437 -2.73677444 -3.39619851
-22.84170723 -1.36233068 -3.47373009
-23.39962006 -1.33138490 -2.94555211
-22.13094139 -1.37257314 -3.82217836
-22.16103554 -0.02080444 -3.89688897
-22.87059021 0.03494211 -3.54856277
-21.37438583 -0.07485688 -4.19542837
-21.33973503 1.23257542 -4.22642899
-22.12083626 1.34901166 -3.93857431
-20.50208282 1.10317934 -4.50525904
-20.39191818 2.31552458 -4.52975655
-21.22288322 2.51818538 -4.24054003
-19.52654457 2.12771964 -4.78481817
-19.33348274 3.23109174 -4.81534243
-20.18978500 3.49530149 -4.55920267
-18.45554161 2.98161602 -5.04127455
-18.20003319 3.96148324 -5.09247541
-19.04994774 4.28587770 -4.86223412
-17.32824135 3.63111162 -5.29510689
-17.02605247 4.45946455 -5.34687471
-17.85704422 4.88125658 -5.14972973
-16.15503311 4.07687616 -5.52755213
-16.63451385 5.22402000 -5.40714073
-17.42630005 5.73009205 -5.20348740
-16.18877792 5.92994785 -5.48559618
-16.92541885 6.52130699 -5.28711939
-15.68077087 6.58974791 -5.56347799
-16.36472893 7.26487303 -5.37670708
-15.10390759 7.21286058 -5.64768744
-15.74277687 7.94468451 -5.47004652
-14.48138714 6.47105503 -5.80947638
-13.89764786 7.00903463 -5.90355062
-14.47215462 7.79742098 -5.74117851
-13.25350571 7.51946688 -6.00841761
-13.78144455 8.35378265 -5.85012770
-12.54043579 7.99568272 -6.08437109
-13.02383518 8.87514877 -5.94039679
-11.77790737 8.43956280 -6.17614412
-12.22053051 9.35197449 -6.03413773
-10.97173214 8.86623287 -6.26648283
-11.37850475 9.80394745 -6.13708973
-10.12622070 9.27196121 -6.33146524
-10.49276257 10.23688507 -6.21406412
-9.25182819 9.65088749 -6.39566660
-9.57435513 10.64494991 -6.27723503
-8.35416222 9.99352741 -6.47475195
-8.62120628 11.00901699 -6.35195637
-7.41655684 10.29218006 -6.56267548
-7.62331820 11.32035828 -6.44425964
-7.18749428 9.24245644 -6.63163471
-6.25797081 9.47268581 -6.67710495
-6.43206787 10.52065277 -6.60728407
-6.05063820 8.41709805 -6.72018671
-5.13370991 8.59744263 -6.75122547
-5.29580593 9.64938831 -6.71128035
-4.95805883 7.54160309 -6.77351236
-4.05025625 7.68760490 -6.79614878
-4.19623041 8.74252510 -6.77479696
-3.90567875 6.63388491 -6.78194237
-3.00749969 6.74682522 -6.78568268
-3.12501550 7.80054474 -6.80373573
-2.91293192 5.69463825 -6.75786972
-2.02372265 5.77481222 -6.75546789
-2.09884882 6.82885838 -6.78186703
-1.95714533 4.74341679 -6.71759844
-2.83786774 4.66316748 -6.69817924
-1.89507234 3.74404049 -6.67463779
-2.77340961 3.66316605 -6.65379524
-1.83450937 2.77462149 -6.63966131
-2.71306086 2.69600081 -6.62907219
-1.77563477 1.83414817 -6.60035276
-2.65026903 1.75809836 -6.59332085
-1.72612357 0.91016877 -6.56266403
-2.58952713 0.84337789 -6.55292797
-1.67689049 0.00242820 -6.51819324
-2.53111482 -0.05869031 -6.51567841
-2.46748948 -0.94645041 -6.46369791
-1.62195158 -0.89245021 -6.46570969
-2.40314364 -1.82235014 -6.41213989
-1.56703472 -1.77803349 -6.41860008
-2.34595251 -2.69016790 -6.37259769
-1.51872182 -2.65843225 -6.37947369
-2.30496740 -3.54963589 -6.32554150
-1.48797143 -3.53261542 -6.34003353
-3.12135077 -3.57829618 -6.30117941
-3.09213209 -4.41487741 -6.24868155
-2.29059458 -4.40592861 -6.26731634
-3.89426661 -4.42532444 -6.23266935
-3.87524962 -5.24625731 -6.19425726
-3.09729362 -5.25637245 -6.20389652
-4.65334797 -5.24686337 -6.18207788
-4.62562513 -6.05714083 -6.13630819
-3.88007569 -6.08422184 -6.14777327
-5.37083578 -6.04905272 -6.11736250
-5.34124517 -6.83653116 -6.06674051
-4.62993526 -6.88163328 -6.07923746
-5.36065197 -7.65524912 -6.00823116
-4.67919731 -7.73327780 -6.01461649
-5.47186136 -8.50612450 -5.93196726
-4.81757641 -8.61962509 -5.93323803
-5.06077242 -9.51971817 -5.84377956
-5.72574949 -9.37242603 -5.83849525
-5.38806343 -10.40798378 -5.73683929
-6.07787752 -10.21884346 -5.73414660
-5.75439882 -11.28281116 -5.61961269
-6.47994900 -11.05123329 -5.62438250
-6.14362812 -12.14891434 -5.48641443
-5.35276890 -12.36525345 -5.48528957
-5.00245476 -11.47112083 -5.61883163
-5.72548342 -13.25239754 -5.32783031
-4.86665440 -13.44190502 -5.33518553
-4.53846216 -12.53256416 -5.47635365
-5.20055580 -14.34459972 -5.15797567
-4.28062487 -14.49850750 -5.15796423
-3.99158955 -13.58478928 -5.32416010
-4.57426882 -15.40339470 -4.94019222
-3.59949470 -15.52821159 -4.94735432
-3.35383105 -14.61729240 -5.15013790
-3.83896422 -16.43161011 -4.70960426
-2.81257629 -16.51976776 -4.71509647
-2.61770248 -15.61805439 -4.95736408
-2.98722863 -17.41691589 -4.47453499
-1.90334857 -17.46031570 -4.49176407
-1.78042197 -16.56868553 -4.73210859
-2.00622630 -18.34022141 -4.24581242
-0.88032144 -18.34839630 -4.26309681
-0.82446951 -17.47376442 -4.51825333
-0.92894047 -19.20500183 -3.97246957
0.21556368 -19.18544388 -3.96221018
0.22663081 -18.32759857 -4.25978661
0.20048331 -20.03348732 -3.65291715
1.34502125 -19.99768639 -3.63980985
1.32787848 -19.14636421 -3.95169330
1.35438204 -20.82324600 -3.29416513
2.52067637 -20.75635910 -3.27756715
2.47518754 -19.93365479 -3.62479210
2.54892564 -21.55286026 -2.90777874
3.74537420 -21.45442009 -2.88355637
3.68344879 -20.66362762 -3.25089002
3.77581263 -22.17868233 -2.52571845
5.00441408 -22.05020142 -2.51866484
4.94590425 -21.32709694 -2.87281132
5.01534033 -22.68603516 -2.13340282
6.29769135 -22.55491066 -2.10968447
6.27118587 -21.90358543 -2.50016379
6.25532484 -23.10727501 -1.61894941
7.58583879 -23.01375771 -1.57219386
7.63068962 -22.41106606 -2.03917480
7.48127127 -23.39570045 -0.91583240
8.89822674 -23.36088181 -0.88101065
8.96656513 -22.88640785 -1.48164010
8.78744984 -23.52897835 -0.15569574
10.43270874 -23.36191177 -0.14634019
10.43269444 -23.16012573 -0.86152720
10.40374088 -23.43865204 0.54857880
12.03843117 -22.80190468 0.54893422
12.02553082 -22.77467155 -0.16087282
12.01645851 -22.79624939 1.17822969
13.41297340 -21.90272141 1.14500773
13.44773769 -21.90263557 0.48390096
13.32197952 -21.89465714 1.78458810
14.59605789 -20.98377419 1.76646852
14.69091606 -20.97083664 1.10404015
14.40043736 -20.86568069 2.36927986
15.62421513 -19.92708015 2.39737153
15.80837059 -19.98404694 1.77716494
15.28146458 -19.65370178 2.86211324
16.40983391 -18.66507530 2.93261051
16.75718880 -18.88147926 2.45648503
15.94697475 -18.30154991 3.24704671
16.96938896 -17.26615906 3.32338381
17.43873215 -17.58305931 3.02548981
16.44549751 -16.88630295 3.61893511
17.36178589 -15.81156254 3.68165159
17.89800072 -16.14577675 3.40106368
18.17627144 -14.66698551 3.75595880
18.73184013 -14.96155548 3.47297716
18.89723778 -13.45470715 3.84069252
19.48716736 -13.73390388 3.57200575
18.19504929 -13.11650085 4.14115429
18.81344414 -11.90755367 4.21388292
19.54227638 -12.19411564 3.92507124
18.05133438 -11.60503769 4.50508213
18.59882164 -10.42241478 4.59132385
19.37108040 -10.67709351 4.30969191
17.80525208 -10.14888382 4.85876989
18.31054688 -8.99977684 5.07783175
19.11927605 -9.21919823 4.81366491
17.45982170 -8.76319408 5.26752090
17.83745575 -7.64267683 5.50888443
18.70931244 -7.80910158 5.30012608
16.92757607 -7.43686914 5.57286453
17.19673157 -6.33675385 5.68661594
18.09966469 -6.44831753 5.53633928
16.26741791 -6.18182278 5.75187778
16.46088028 -5.11859083 5.83833361
17.39097023 -5.19155741 5.75112486
15.51648903 -5.01017857 5.93452072
15.33569336 -6.02271509 5.88120937
14.56842422 -4.90675592 6.08243370
14.39803886 -5.86896038 6.03471136
13.61005497 -4.80266380 6.22500372
13.44417381 -5.70890808 6.17769194
12.62867832 -4.70296478 6.34076023
12.47190666 -5.55825567 6.30451488
11.61316013 -4.63954115 6.45538855
11.47349072 -5.44415236 6.41795969
10.57855797 -4.61599779 6.57006311
10.45745087 -5.39310360 6.52929926
9.55607414 -4.61496067 6.67254257
9.45541763 -5.36951065 6.62895155
8.55370522 -4.61617756 6.74666262
8.46744537 -5.34730577 6.70158672
7.58022690 -4.60434437 6.80815554
7.50200081 -5.32095337 6.75985765
6.63891792 -4.57591105 6.86108446
6.56423283 -5.28303671 6.80681849
5.72390604 -4.53065968 6.89460087
5.65211630 -5.23294497 6.83872509
5.55119801 -5.93382788 6.78417301
4.76823902 -5.17804718 6.86857796
4.67807436 -5.88703823 6.81331253
4.56747818 -6.59891605 6.76187372
3.84169269 -5.84348297 6.83812523
3.74235320 -6.56997919 6.78212547
3.62409616 -7.30553436 6.71713924
2.94563532 -6.54727793 6.79254913
2.83328032 -7.29268265 6.72747850
2.70761633 -8.04666519 6.65658760
2.05910349 -7.28322315 6.73048830
1.93398702 -8.04903126 6.66535282
1.79500949 -8.82563782 6.59137487
1.17630124 -8.04635906 6.66408157
1.03377485 -8.83041954 6.59661245
0.87485868 -9.62692642 6.49708033
0.28560528 -8.82062435 6.58873272
0.11578588 -9.62207031 6.49278641
