-23.51528931 6.25179005 5.43035984
-22.82432938 6.94353008 5.07075024
-23.13438034 6.34563017 6.63260984
-22.45718956 7.04673004 6.24411011
-22.70348930 6.45173979 7.82603979
-22.03413010 7.15746021 7.39910984
-22.20479965 6.55328989 9.00399017
-21.54932976 7.26542997 8.53829956
-20.88264084 7.94391012 8.04152966
-20.99493027 7.36638021 9.65919018
-21.63620949 6.64493990 10.16376019
-21.00197983 6.74439001 11.30216980
-22.27548027 5.89974022 10.63938046
-21.61491013 5.97867012 11.80640984
-20.87874031 6.06347990 12.93717003
-20.28330040 6.82983017 12.40830040
-20.07527924 6.14265013 14.03400040
-19.49352074 6.91274977 13.48622990
-19.20896912 6.20907021 15.09095955
-20.63513947 5.31899977 14.53944016
-19.76663971 5.38698006 15.62034035
-18.83717918 5.43953991 16.64468956
-20.30102921 4.52129984 16.10939980
-19.36536026 4.57875013 17.16029930
-18.38397026 4.63751984 18.16167068
-19.86531067 3.69008994 17.64920998
-18.86424065 3.74868011 18.66954041
-17.80590057 3.79085994 19.62111092
-19.29323959 2.82473993 19.13982010
-18.22262955 2.87372994 20.11268997
-17.11926079 2.91927004 21.03665924
-18.59873962 1.92800999 20.57198906
-17.46977997 1.96647000 21.49851036
-16.30932045 2.00747991 22.38188934
-15.97301960 2.94671988 21.90405083
-15.11073017 2.04404998 23.22372055
-14.78882980 2.96355009 22.72436905
-13.85507965 2.06318998 23.99954987
-13.56947994 2.98505998 23.50457954
-12.55673981 2.08037996 24.71430016
-12.29487038 2.99340010 24.20027924
-11.21304035 2.07968998 25.34148026
-10.97784042 2.98541999 24.81240082
-9.83648968 2.08152008 25.90115929
-9.62771988 2.97318006 25.35071945
-8.42807961 2.08908010 26.39168930
-8.25302982 2.97536993 25.83489037
-6.98618984 2.09144998 26.78829002
-6.84407997 2.97408009 26.22554970
-5.52734995 2.10440993 27.10806084
-5.42139006 2.99786997 26.54768944
-4.06266022 2.12787008 27.33222008
-3.98826003 3.01584005 26.74995041
-2.60459995 2.16026998 27.47048950
-2.56671000 3.05546999 26.88150024
-2.53121996 3.92313004 26.25392914
-1.15443003 3.11118007 26.94831085
-1.15658998 3.97217989 26.30879974
-1.16552997 4.81904984 25.65114021
0.21408001 4.03230000 26.30277061
0.15849000 4.87230015 25.62795067
1.57658994 4.07130003 26.20173073
0.25617000 3.16047001 26.93802071
1.65734994 3.18449998 26.83535957
3.04464006 3.20313001 26.66654968
2.92604995 4.09527016 26.02083015
4.42632008 3.22017002 26.43918037
4.27257013 4.12410021 25.79969978
5.81408978 3.23975992 26.16270065
5.62362003 4.14012003 25.51509094
7.20950985 3.24536991 25.80773926
6.98673010 4.14756012 25.16646004
8.61087036 3.23927999 25.36928940
8.36067009 4.13886023 24.73814964
10.01745033 3.22986007 24.85475922
9.74726963 4.12871981 24.24131966
11.43509960 3.21861005 24.27555084
11.14904976 4.11030006 23.67612076
12.84749985 3.18533993 23.60778046
12.55140018 4.07901001 23.02619934
12.23001003 4.93277979 22.39463997
13.92222023 4.01589012 22.27248001
13.58403015 4.87269020 21.65555954
13.22805023 5.70524979 21.01044083
14.90141964 4.80483007 20.84019089
14.53349972 5.63325024 20.20517921
14.15958023 6.43413019 19.54248047
15.80786991 5.55279016 19.33754921
15.41952038 6.33996010 18.67509079
15.02120972 7.08717012 17.98236084
16.63182068 6.24684000 17.75510979
16.21425056 6.98919010 17.06036949
15.78413963 7.69107008 16.34108925
14.61260986 7.79637003 17.26650047
17.33028030 6.87363005 16.08411026
16.88183975 7.57740021 15.36524963
18.35927963 6.72909021 15.06480026
17.89517975 7.44401979 14.35052967
19.32846069 6.59565020 14.03489971
18.84786034 7.31654978 13.32857990
20.23632050 6.46064997 12.99300003
19.73093987 7.17678022 12.29559040
21.07202911 6.30986977 11.93402958
20.54154015 7.01948977 11.24919033
21.83411980 6.14580011 10.85579967
21.58535957 5.55588007 12.57546043
22.37075996 5.39840984 11.47220993
23.07341957 5.22516012 10.34216976
22.88961029 4.61009979 12.03555012
23.62616920 4.45401001 10.87868977
24.27312088 4.28520012 9.68717957
23.70830917 5.05347013 9.20028019
24.85872078 4.13568020 8.45909977
24.27333069 4.88540983 8.03369999
25.39658928 3.99042010 7.19175005
24.79250908 4.72578001 6.84249020
25.83645058 3.83597994 5.82686996
25.24823952 4.55478001 5.59317017
26.19194984 3.74066997 4.33139992
25.62254906 4.40303993 4.22180986
26.39189911 3.74183989 2.69406009
26.74625969 3.06527996 4.37925005
26.94059944 3.08550000 2.67956996
26.96832085 3.16271996 0.96644998
27.45809937 2.38880992 2.66975999
27.49443054 2.47191000 0.92027998
27.38780975 2.60505009 -0.80444998
26.85906029 3.31554008 -0.72114003
27.14813995 2.77136993 -2.48532009
27.88892937 1.85133004 -0.86435997
27.67103958 2.00630999 -2.57760000
27.32531929 2.18555999 -4.24377012
26.80311012 2.97761989 -4.11536980
26.87523079 2.38908005 -5.86547995
26.33889008 3.19650006 -5.69136000
26.33139038 2.60220003 -7.44777012
25.79282951 3.42687011 -7.22688007
25.70480919 2.81084991 -9.00489044
25.15811920 3.64719009 -8.74217987
24.98642921 2.99427009 -10.53767967
24.42942047 3.84179997 -10.24028969
24.18944931 3.16491008 -12.04452038
23.62038040 4.02423000 -11.71860027
23.29824066 3.31974006 -13.50714016
22.71747017 4.19565010 -13.16082001
22.32041931 3.46550989 -14.91491985
21.72018051 4.34792995 -14.55243015
21.25148964 3.59394002 -16.26609039
20.63805008 4.48271990 -15.89474964
20.00573921 5.33262014 -15.48608971
19.47789001 4.61198997 -17.18712044
18.82226944 5.45997000 -16.75367928
18.17439079 6.27593994 -16.27779007
17.56068039 5.58275986 -17.94047928
18.22205925 4.70921993 -18.39542961
16.90446091 4.79259014 -19.50303078
18.87243080 3.80883002 -18.80072975
17.57802010 3.87627006 -19.94832039
16.23200989 3.89759994 -20.97872925
18.21641922 2.91536999 -20.32092094
16.89228058 2.91764998 -21.38409042
15.54948044 2.89593005 -22.36520958
14.86637974 3.89162993 -21.92259026
14.18472004 2.82878995 -23.25105095
13.48421955 3.84842992 -22.78676987
12.83438969 2.72760010 -24.07427979
12.09965992 3.76026011 -23.58579063
11.49090004 2.53758001 -24.78693008
10.72181988 3.59282994 -24.30551910
10.20026970 2.29154992 -25.45397949
9.39443970 3.36063004 -24.98156929
8.97381020 1.98615003 -26.10663033
8.14128017 3.06950998 -25.65660095
7.80876017 1.60002005 -26.74490929
6.93737984 2.66675997 -26.29796982
6.68865013 1.08507001 -27.33513069
5.77478981 2.14478993 -26.93070030
5.63241005 0.46833000 -27.92975998
4.66200018 1.49394000 -27.55448914
4.61651993 -0.27090001 -28.48250961
3.60858011 0.71066999 -28.14252090
2.57951999 1.63002002 -27.75341988
2.60595012 -0.17352000 -28.67568016
1.55297995 0.69902998 -28.32279015
0.44222999 1.47930002 -27.94331932
0.58178997 -0.29367000 -28.82810974
-0.52424997 0.44394001 -28.46952057
-1.73193002 1.05171001 -28.09527016
-1.44737995 -0.60966003 -28.92951012
-2.62754989 -0.03180000 -28.56374931
-3.89657998 0.42069000 -28.17723083
-3.45351005 -1.14522004 -28.97310066
-4.68897009 -0.70479000 -28.59536934
-5.98281002 -0.38850001 -28.17420006
-5.23389006 0.75143999 -27.76284027
-7.32312012 -0.16437000 -27.71784019
-6.66704988 -1.54106998 -28.54442978
-7.98189020 -1.31268001 -28.09268951
-9.33014965 -1.15736997 -27.59799004
-8.69417953 -0.01854000 -27.23871040
-10.69466972 -1.06110001 -27.04413033
-10.07528973 0.06432000 -26.70476913
-12.07514954 -1.00382996 -26.44803047
-11.46191978 0.10353000 -26.12360954
-13.45011044 -0.99251997 -25.76675987
-12.84797955 0.10722000 -25.48677063
-14.82656956 -0.99479997 -25.02798080
-14.21942997 0.08298000 -24.77424049
-16.18034935 -1.00641000 -24.19713020
-15.56882954 0.05238000 -23.98727989
-17.50532913 -0.99725997 -23.28042030
-16.87985992 0.03288000 -23.10960007
-18.78359985 -0.95810997 -22.27256966
-18.16190910 0.05067000 -22.16165924
-17.47425079 1.06166995 -21.99395943
-19.35717010 0.08574000 -21.08859062
-18.67094994 1.07199001 -20.97993088
-17.92707062 2.06241012 -20.82509995
-19.79534912 1.13940001 -19.88216972
-19.06382942 2.10743999 -19.78956032
-18.24806976 3.05133009 -19.62701988
-20.09177971 2.21385002 -18.65465927
-19.29984093 3.14361000 -18.56208038
-18.45890999 4.05611992 -18.41321945
-20.21145058 3.28023005 -17.39801979
-19.40802002 4.18562984 -17.31731987
-21.01827049 3.45713997 -16.18025970
-20.21723938 4.34195995 -16.13208008
-21.71987915 3.62561989 -14.92164040
-20.91171074 4.49520016 -14.90192986
-22.36869049 3.79200006 -13.67189980
-21.54738045 4.64373016 -13.66917038
-22.93857002 3.92295003 -12.41084957
-22.12355995 4.76763010 -12.43208981
-23.45247078 4.06575012 -11.14589977
-22.65449905 4.89662981 -11.19141006
-23.89635086 4.21575022 -9.85394955
-23.12832069 5.03540993 -9.92831993
-24.21693039 4.31193018 -8.51025009
-23.50676918 5.14479017 -8.61975002
-24.54096031 4.46781015 -7.16993999
-23.83169937 5.27505016 -7.29554987
-24.80727005 4.66562986 -5.82732010
-24.08769035 5.43776989 -5.96621990
-24.97677040 4.83822012 -4.48097992
-24.25773048 5.59757996 -4.63406992
-25.08222008 4.97111988 -3.15159011
-24.35589027 5.72048998 -3.31605005
-23.62298965 6.44378996 -3.49194002
-24.41724014 5.81348991 -2.02418995
-23.68100929 6.52904987 -2.21685004
-24.46166992 5.92080021 -0.75870001
-25.14888000 5.07585001 -1.84247994
-25.16406059 5.15834999 -0.54680997
-25.06944084 5.18802023 0.73782003
-25.84046936 4.35800982 -0.34872001
-25.73807907 4.38885021 0.95912999
-25.60622978 4.44902992 2.25734997
-24.93935966 5.24343014 2.01350999
-25.43721008 4.53989983 3.54693007
-24.75567055 5.31963015 3.27683997
-25.15172958 4.60647011 4.81674004
-24.50214005 5.40672016 4.52870989
-24.82976913 4.70594978 6.08108997
-24.18045044 5.49989986 5.76848984
-24.43730927 4.80785990 7.33595991
-23.80050087 5.60295010 6.99906015
-23.99670029 4.92285013 8.59263039
-23.36339951 5.71085978 8.22603035
-23.47397995 5.01516008 9.83922005
-22.85367012 5.80745983 9.44172001
-22.87866020 5.09769011 11.06964016
-24.05513954 4.17191982 10.19396973
-23.45508003 4.25792980 11.45555973
-22.77012062 4.32506990 12.68447971
-22.19964027 5.16900015 12.26441956
-22.00280952 4.38765001 13.86507034
-21.44969940 5.24504995 13.42206001
-21.17550087 4.45313978 15.00498009
-22.53783035 3.49722004 14.26928997
-21.70152092 3.56051993 15.43964958
-20.80751991 3.62354994 16.56645012
-22.19244003 2.64425993 15.83918953
-21.28107071 2.70546007 16.99589920
-20.31101990 2.76521993 18.09675026
-21.70848083 1.76835001 17.39072990
-20.71800041 1.82510996 18.51555061
-19.68675041 1.88039994 19.58307076
-21.08975983 0.86646003 18.91061974
-20.03546906 0.91302001 19.99301910
-18.93852043 0.96329999 21.00711060
-20.33949089 -0.07257000 20.37047958
-19.22364044 -0.02982000 21.39782906
-18.06837082 0.01782000 22.36079979
-17.79051018 1.00431001 21.94562912
-16.86314964 0.05832000 23.24651909
-16.61903954 1.05690002 22.84646988
-15.62310028 0.10455000 24.08843994
-15.39486027 1.09556997 23.68617058
-14.33876991 0.14595000 24.88385963
-14.11709976 1.12268996 24.46725082
-13.00037956 0.17271000 25.61271095
-12.79559994 1.14285004 25.19145012
-11.61435032 0.18911999 26.26973915
-11.42580032 1.14587998 25.82496071
-10.18778992 0.20610000 26.85642052
-10.02534008 1.16064000 26.40740967
-8.72393990 0.21726000 27.35679054
-8.58522034 1.16643000 26.89625931
-7.22904015 0.22461000 27.76355934
-7.11506987 1.17042005 27.29865074
-5.71812010 0.24312000 28.10736084
-5.62868977 1.19034004 27.63627052
-4.19496012 0.26177999 28.35194969
-4.13286018 1.20972002 27.86832047
-2.67489004 0.27855000 28.49666977
-2.64051008 1.23159003 28.00334930
-1.16867995 0.30186000 28.56579018
-1.16049004 1.26488996 28.06623077
-1.15548003 2.21037006 27.54075050
0.30741000 1.30097997 28.06769943
0.28569001 2.24772000 27.52473068
1.77048004 1.32576001 27.99464989
1.71845996 2.26097989 27.42326927
3.23337007 1.33857000 27.84503937
3.14426994 2.27814007 27.27000046
4.69265985 1.34577000 27.61133957
4.56507015 2.29721999 27.05091095
6.15180016 1.35780001 27.31677055
5.98710012 2.30879998 26.76005936
7.61061001 1.36554003 26.94576073
7.41383982 2.31404996 26.39510918
9.06282043 1.35725999 26.47821045
8.84247017 2.30901003 25.94504929
10.51578045 1.35288000 25.94471931
10.27254009 2.30123997 25.41999054
11.96780968 1.34562004 25.34222984
11.70713997 2.29352999 24.82938004
13.39935017 1.31090999 24.64155006
13.12343979 2.25488997 24.13743019
14.81783962 1.26803994 23.86916924
14.53157997 2.20812011 23.38109970
14.23655987 3.12699008 22.84907913
15.90450001 2.13876009 22.53845978
15.58691978 3.05261993 22.01231956
15.25619984 3.94647002 21.44757080
16.89756012 2.97285008 21.11837959
16.54113007 3.85595989 20.55221939
16.18143082 4.72325993 19.96133995
17.77671051 3.74885988 19.60220909
17.40662956 4.61631012 19.01969910
17.02532959 5.44856977 18.40365028
18.56753922 4.48835993 18.02873993
18.17439079 5.32793999 17.42085075
17.75889015 6.11927986 16.76934052
19.24679947 5.18685007 16.39608002
18.80810928 5.97312021 15.74604034
20.26502991 5.05794001 15.34883976
19.80303001 5.84336996 14.71160984
21.21521950 4.91970015 14.27394009
20.73785973 5.71541977 13.65915012
22.07868004 4.75868988 13.16427040
21.66353989 4.08111000 14.83257008
22.56176949 3.93344998 13.70565033
23.38875008 3.78491998 12.54117012
23.02910995 3.08271003 14.19248962
23.87249947 2.93577003 12.98676014
24.63665962 2.78615999 11.73620987
24.13311005 3.62589002 11.33705997
25.33011055 2.65598989 10.43960953
24.81320953 3.48413992 10.09887028
25.93296051 2.54109001 9.07472992
25.40661049 3.34467006 8.80377007
26.46731949 2.45447993 7.62465000
25.95927048 3.23468995 7.44951010
26.92386055 2.38434005 6.07098007
26.39187050 3.11502004 5.97074986
27.26469040 2.35637999 4.40838003
27.41600990 1.62548995 6.14597988
27.75095940 1.61549997 4.43472004
27.94907951 1.65663004 2.66772008
28.20977974 0.84548998 4.46076012
28.40309906 0.88659000 2.67143989
28.44555092 0.95684999 0.87273002
27.98381996 1.72911000 0.88836002
28.36874962 1.06895995 -0.90272999
28.86240005 0.14049000 0.86865002
28.80327034 0.24267000 -0.92241001
28.59696007 0.36120000 -2.68557000
28.16024971 1.20492005 -2.64345002
28.30182076 0.52599001 -4.42295980
27.83753967 1.37433004 -4.34697008
27.88172913 0.70884001 -6.12726021
27.39990044 1.56534004 -6.01176023
27.34115982 0.88709998 -7.78853989
26.84927940 1.75577998 -7.63481998
26.73221970 1.06775999 -9.41631031
26.23580933 1.95257998 -9.23064041
26.02728081 1.22307003 -11.00409031
25.51553917 2.11815000 -10.78899002
25.23516083 1.35434997 -12.55749035
24.72740936 2.27240992 -12.32145023
24.35882950 1.47239995 -14.06319046
23.83953094 2.40500998 -13.80152988
23.39682007 1.58001006 -15.50360966
22.87911034 2.53982997 -15.22941017
22.36751938 1.69538999 -16.88931084
21.83325005 2.66516995 -16.59968948
21.24398994 1.79208004 -18.20660973
20.69367027 2.77013993 -17.90522957
20.10536957 3.71432996 -17.56856918
19.48044014 2.85671997 -19.14648056
20.05217934 1.86546004 -19.45451927
18.80768967 1.90736997 -20.63192940
20.59686089 0.85457999 -19.74737930
19.36746025 0.88085997 -20.92646980
18.09765053 0.87524998 -22.03767014
17.51457024 1.90503001 -21.72473907
16.78418922 0.81768000 -23.06067085
16.18341064 1.85994005 -22.72890091
15.46761036 0.70809001 -23.99526024
14.84667015 1.77810001 -23.65127945
14.17854023 0.54044998 -24.84366035
13.51994991 1.64037001 -24.48030090
12.90800953 0.28839001 -25.56332970
12.21492004 1.42736995 -25.20182991
11.70026970 -0.01251000 -26.22804070
10.96407032 1.15827000 -25.86321068
10.56068993 -0.35495999 -26.86890030
9.78180027 0.83732998 -26.50551033
9.46926022 -0.76337999 -27.46701050
8.66205025 0.44724000 -27.12578964
8.42051983 -1.24563003 -28.03902054
7.59113979 -0.04383000 -27.70716095
7.39752007 -1.81871998 -28.57976913
6.56442022 -0.63093001 -28.28058052
6.39096022 -2.49956989 -29.06741905
5.55618000 -1.33898997 -28.78982925
5.41371012 -3.28002000 -29.49440956
4.57085991 -2.13417006 -29.26502991
3.62498999 -1.10781002 -28.98695946
3.62508011 -3.01707006 -29.69433022
2.66820002 -2.01477003 -29.44853973
1.63982999 -1.12208998 -29.15604019
1.76753998 -2.98838997 -29.81541061
0.72491997 -2.11068010 -29.56845093
-0.34505999 -1.31154001 -29.27334023
-0.09435000 -3.15059996 -29.92530060
-1.18305004 -2.37251997 -29.65755081
-2.29203010 -1.69625998 -29.33102989
-1.89387000 -3.48011994 -29.98682976
-3.01889992 -2.81517005 -29.71104050
-4.18131018 -2.28119993 -29.34930038
-3.64071012 -3.99029994 -29.95970917
-4.80384016 -3.45374990 -29.62725067
-6.01374006 -3.03462005 -29.24378967
-5.39712000 -1.86101997 -28.95722961
-7.27329016 -2.71353006 -28.83315086
-6.55889988 -4.21541977 -29.41358948
-7.82004023 -3.88511992 -29.03516960
-9.11655045 -3.63714004 -28.58661079
-8.57561970 -2.47550988 -28.38002968
-10.44114017 -3.45449996 -28.07868004
-9.91217995 -2.30456996 -27.88005066
-11.78483963 -3.32679009 -27.50519943
-11.26434040 -2.19264007 -27.31160927
-13.14288044 -3.24039006 -26.86124992
-12.63255024 -2.12259007 -26.68811989
-14.51364040 -3.18512988 -26.14701080
-14.00343037 -2.08956003 -25.98605919
-15.89535046 -3.13511992 -25.36239052
-15.38654995 -2.07063007 -25.22616005
-17.25501060 -3.09066010 -24.46269035
-16.74036026 -2.05623007 -24.35108948
-18.57291031 -3.04038000 -23.45862007
-18.06567001 -2.02082992 -23.39034081
-19.83869934 -2.97216010 -22.37388039
-19.33842087 -1.96506000 -22.33655930
-21.03167915 -2.88399005 -21.21563911
-20.53560066 -1.88462996 -21.19668007
-19.98698997 -0.89258999 -21.16566086
-21.64011002 -1.77081001 -19.98629951
-21.09107971 -0.79161000 -19.97360992
-20.47764015 0.18300000 -19.94931030
-22.10004044 -0.63485998 -18.73691940
-21.48188972 0.32256001 -18.72920990
-20.83041000 1.27617002 -18.71711922
-22.38375092 0.52401000 -17.47673988
-21.73349953 1.46340001 -17.48600960
-20.99961090 2.38070989 -17.45693970
-22.52745056 1.67481005 -16.21272087
-21.80780983 2.58635998 -16.21380043
-23.22212982 1.84431005 -14.91792011
-22.50341988 2.75304008 -14.92778969
-23.86211967 1.99514997 -13.62555027
-23.14748955 2.90936995 -13.65203953
-24.41160011 2.12553000 -12.31544971
-23.69273949 3.03060007 -12.36102009
-24.89213943 2.27942991 -10.99709988
-24.18335915 3.18011999 -11.07089996
-25.29842949 2.45703006 -9.66407967
-24.56793022 3.31523991 -9.74499035
-25.64694023 2.63954997 -8.31383991
-24.90666008 3.46017003 -8.39976025
-25.94658089 2.83841991 -6.94575024
-25.25295067 3.66674995 -7.05743980
-26.17115974 3.03134990 -5.56661987
-25.50650978 3.86979008 -5.69679022
-26.33897972 3.21251988 -4.19942999
-25.67181015 4.04201984 -4.33650017
-26.43897057 3.34313989 -2.84471989
-25.77930069 4.17774010 -2.99421000
-26.48954964 3.43922997 -1.50195003
-25.84143066 4.28318977 -1.66718996
-26.48376083 3.51249003 -0.16536000
-27.09966087 2.55024004 -1.34685004
-27.07604980 2.61366010 0.00381000
-27.00357056 2.67174006 1.35047996
-26.39100075 3.55421996 1.16442001
-26.85861015 2.72606993 2.68776011
-26.25551987 3.61508989 2.48316002
-26.65736961 2.79846001 4.01597977
-26.06343079 3.69221997 3.79200006
-26.37066078 2.87016010 5.32601976
-25.77597046 3.76302004 5.08299017
-26.02449036 2.96591997 6.62574005
-25.43790054 3.85554004 6.36473989
-25.62071991 3.07862997 7.92252016
-25.04834938 3.96662998 7.64376020
-25.12706947 3.17552996 9.21129036
-24.57456017 4.06586981 8.91660023
-24.61560059 3.29522991 10.51568985
-25.66910934 2.25984001 9.48690033
-25.13232040 2.36912990 10.79786968
-24.52242088 2.45565009 12.10499954
-24.00102043 3.37157989 11.79878998
-23.82230949 2.51637006 13.38825035
-23.31273079 3.43814993 13.05770969
-23.04780006 2.58309007 14.63852978
-24.30419922 1.58121002 13.69542027
-23.50943947 1.64514005 14.97227955
-22.63698006 1.70667005 16.20368958
-23.92511940 0.68931001 15.28598976
-23.04030037 0.75555003 16.54701042
-22.09370995 0.81563997 17.75861931
-23.38482094 -0.21813001 16.86743927
-22.42893028 -0.15816000 18.10173035
-21.41876984 -0.10773000 19.27883911
-22.69893074 -1.15736997 18.41831970
-21.69345093 -1.10553002 19.61915970
-20.59773064 -1.07805002 20.72109032
-21.88281059 -2.14053011 19.90368080
-20.80002022 -2.10794997 21.03260994
-19.65029907 -2.07849002 22.07501984
-19.46874046 -1.04024994 21.76329041
-18.46781921 -2.03547001 23.05970955
-18.29048920 -0.99909002 22.72767067
-17.23896027 -1.98930001 23.96784019
-17.07492065 -0.95400000 23.62677002
-15.97472954 -1.93575001 24.81471062
-15.81951046 -0.90395999 24.46803093
-14.66837978 -1.88106000 25.60268974
-14.52488995 -0.85334998 25.26531029
-13.32063007 -1.83027005 26.35445976
-13.18080044 -0.81312001 26.00861931
-11.89200020 -1.80869997 26.99175072
-11.76996040 -0.79646999 26.65776062
-10.42778969 -1.78119004 27.59445000
-10.32308960 -0.77627999 27.25230026
-8.92422009 -1.76379001 28.10594940
-8.83773041 -0.76002002 27.76041031
-7.38912010 -1.75404000 28.51634979
-7.32210016 -0.74945998 28.17423058
-5.84333992 -1.73271000 28.87203026
-5.79206991 -0.72876000 28.52736092
-4.28376007 -1.72310996 29.11973953
-4.24758005 -0.71310002 28.77993011
-2.72673011 -1.71677995 29.28908920
-2.70471001 -0.70556998 28.92614937
-1.17708004 -1.70685005 29.37453079
-1.17551994 -0.68664002 29.01314926
0.36921000 -1.68921006 29.38224030
0.34665000 -0.66324002 29.02112961
0.32628000 0.33201000 28.57434082
1.86609006 -0.65226001 28.92324066
1.81868994 0.35607001 28.50321007
3.38979006 -0.63797998 28.76859093
3.31329012 0.36302999 28.33797073
4.91997004 -0.62717998 28.54710007
4.81326008 0.37569001 28.12178993
6.44322014 -0.62919003 28.22442055
6.30594015 0.37965000 27.81306076
7.96124983 -0.62528998 27.84324074
7.79237986 0.38295001 27.42642021
9.45911980 -0.63195002 27.35913086
9.26951981 0.37799999 26.95619965
10.94843960 -0.63498002 26.79936028
10.74071980 0.37338001 26.40770912
12.43251038 -0.63986999 26.17469978
12.20775032 0.36408001 25.78902054
13.89338970 -0.66639000 25.44836998
13.65639019 0.33543000 25.08057022
15.33903027 -0.70146000 24.64764023
15.08664036 0.29477999 24.29060936
16.75419044 -0.75834000 23.76932907
16.49403000 0.23706000 23.42963982
16.21106911 1.20558000 23.01926994
17.84394073 0.14370000 22.47639084
17.54577065 1.10969996 22.08095932
17.23014069 2.05388999 21.62711906
18.83090973 1.00407004 21.08588982
18.49646950 1.94550002 20.64851952
18.14583015 2.86385989 20.15517044
19.71099091 1.83120000 19.62044907
19.34099960 2.74553990 19.14207077
18.95936966 3.63240004 18.60692978
20.46056938 2.60556006 18.06851959
20.06550026 3.49386001 17.55611992
19.65383911 4.34454012 16.99035072
21.11660957 3.36071992 16.47155952
20.69504929 4.21953011 15.93062973
22.10847092 3.22715998 15.35184002
21.52895927 2.47527003 16.96250916
22.54677010 2.34986997 15.82122040
23.48258972 2.20781994 14.62304974
22.95620918 1.43760002 16.22204971
23.91291046 1.30647004 14.99300957
24.78132057 1.16742003 13.70061016
24.33770943 2.06048989 13.37246990
25.58156967 1.04436004 12.35667038
25.12128067 1.92455995 12.07493973
26.29290009 0.94497001 10.94324970
25.83105087 1.81338000 10.72095013
26.91839981 0.88841999 9.44919014
26.44938087 1.72976995 9.28829956
27.45630074 0.86681998 7.87572002
26.97809982 1.67463005 7.76550007
27.89118004 0.84582001 6.20871019
27.88925934 0.02418000 7.94696999
28.30724907 0.02451000 6.24245977
28.63217926 0.04161000 4.47768021
28.69341087 -0.82893002 6.25199986
29.01810074 -0.80145001 4.48343992
29.19446945 -0.76718998 2.68010998
28.82076073 0.08049000 2.67600012
29.24961090 -0.70626003 0.87134999
29.56014061 -1.63673997 2.68337989
29.62187958 -1.57674003 0.87629998
29.58237076 -1.48914003 -0.93219000
29.21346092 -0.60684001 -0.93111002
29.41266060 -1.38041997 -2.73167992
29.02067947 -0.49671000 -2.71368003
29.12718010 -1.23951006 -4.51827002
28.72323036 -0.34974000 -4.47671986
28.71977997 -1.08543003 -6.28140020
28.32284927 -0.17703000 -6.21509981
28.20030022 -0.93410999 -8.00627995
27.78842926 -0.01431000 -7.90820980
27.58934975 -0.78803998 -9.68544006
27.17477989 0.14550000 -9.56004047
26.91683960 -0.64583999 -11.32878017
26.49711037 0.30045000 -11.18136024
26.15364075 -0.53184003 -12.92916012
25.72002029 0.42477000 -12.76278019
25.30694962 -0.44202000 -14.48241043
24.85548019 0.52793998 -14.29284000
24.37088966 -0.36879000 -15.97352982
23.89656067 0.61008000 -15.75335979
23.34701920 -0.29457000 -17.39315987
22.87487984 0.71019000 -17.15576935
22.25651932 -0.22332001 -18.74477959
21.77096939 0.79578000 -18.49082947
21.08600998 -0.18759000 -20.00616074
22.68732071 -1.26303005 -18.95672989
21.54146957 -1.23311996 -20.24621964
20.33439064 -1.23134995 -21.44585991
19.87751961 -0.16565999 -21.20310020
19.08605957 -1.26189005 -22.55145073
18.62685013 -0.17520000 -22.32605934
17.77862930 -1.38587999 -23.49801064
17.34243011 -0.24264000 -23.35968018
16.52726936 -1.56245995 -24.39608955
16.04096985 -0.39179999 -24.26894951
15.31517982 -1.80147004 -25.21526909
14.78864956 -0.60404998 -25.10873985
14.15114975 -2.08821011 -25.98450089
13.55519962 -0.88700998 -25.82514000
13.02357006 -2.42972994 -26.69214058
12.38778019 -1.21464002 -26.50400925
11.91539955 -2.82488990 -27.32274055
11.27789974 -1.58061004 -27.15909004
10.83555031 -3.27539992 -27.89744949
10.19876957 -2.01006007 -27.75159073
9.78966045 -3.78983998 -28.41843033
9.14688015 -2.50820994 -28.29170990
8.77686024 -4.37804985 -28.87881088
8.12543964 -3.08318996 -28.79598045
7.79889011 -5.04863977 -29.26535988
7.13148022 -3.75332999 -29.23793983
6.88295984 -5.82401991 -29.57840919
6.17244005 -4.53050995 -29.60000992
6.05504990 -6.70716000 -29.80668068
5.29313993 -5.40987015 -29.88578987
4.49144983 -4.15641022 -29.85951042
4.50719976 -6.38661003 -30.09102058
3.65375996 -5.12708998 -30.11400032
2.74758005 -3.98358011 -30.01523972
2.91855001 -6.17811012 -30.27215958
1.97732997 -5.01912022 -30.25008011
0.97154999 -4.02327013 -30.10320091
1.30944002 -6.13314009 -30.39339066
0.28740001 -5.12793016 -30.31085968
-0.78839999 -4.25292015 -30.19050026
-0.30974999 -6.26733017 -30.41160011
-1.39116001 -5.40257978 -30.31047058
-2.50466990 -4.64475012 -30.17073059
-1.93488002 -6.54527998 -30.35729980
-3.05109000 -5.81076002 -30.22845078
-4.18739986 -5.17469978 -30.03302956
-3.55754995 -6.94008017 -30.24489021
-4.69575024 -6.32979012 -30.05636978
-5.85350990 -5.80947018 -29.78940010
-5.35028982 -4.63884020 -29.76194954
-7.05456018 -5.38685989 -29.47319984
-6.33002996 -6.95183992 -29.77664948
-7.52057981 -6.53871012 -29.46353912
-8.76051044 -6.21708012 -29.10021019
-8.31116962 -5.05635023 -29.11865997
-10.03404045 -5.96004009 -28.66424942
-9.59657955 -4.80188990 -28.67627907
-11.33660984 -5.75853014 -28.15283966
-10.90767002 -4.61192989 -28.15785027
-12.66786003 -5.59889984 -27.58334923
-12.24995995 -4.46673012 -27.59594917
-14.02320004 -5.46681023 -26.95487976
-13.60919952 -4.35659981 -26.95928955
-15.37742996 -5.35998011 -26.21949005
-14.97908974 -4.26936007 -26.24154091
-16.74324036 -5.26308012 -25.40727043
-16.35342026 -4.19645977 -25.43297958
-18.07703972 -5.18052006 -24.45939064
-17.70432091 -4.13097000 -24.50552940
-19.39370918 -5.10341978 -23.43824959
-19.02014923 -4.06575012 -23.48156929
-20.65707016 -5.02346992 -22.34169006
-20.27528954 -3.99260998 -22.37400055
-21.81320953 -4.93509007 -21.14399910
-21.46545029 -3.89859009 -21.21006012
-22.89714050 -4.82048988 -19.90452003
-22.56278992 -3.77930999 -19.97985077
-22.13154030 -2.76501012 -19.99323082
-23.55882072 -3.63689995 -18.70788002
-23.14127922 -2.61186004 -18.73686028
-22.65645027 -1.61120999 -18.74144936
-24.03741074 -2.44151998 -17.45042992
-23.53961945 -1.43237996 -17.45619011
-22.98600006 -0.44523001 -17.46066093
-24.33935928 -1.24377000 -16.17104912
-23.78100014 -0.24603000 -16.18452072
-23.17287064 0.72588003 -16.19537926
-24.47154045 -0.08013000 -14.87936974
-23.87634087 0.89978999 -14.90262032
-25.09140015 0.06963000 -13.55879974
-24.49806023 1.04375994 -13.59216022
-25.64954948 0.22575000 -12.22416019
-25.06299019 1.19304001 -12.27336025
-26.14578056 0.41525999 -10.87392044
-25.55714989 1.36751997 -10.94007015
-26.55773926 0.61983001 -9.49538994
-25.97232056 1.55946004 -9.58707047
-26.88167953 0.82608002 -8.09414959
-26.30817032 1.75595999 -8.21294975
-27.15839958 1.03439999 -6.69312000
-26.58629990 1.96004999 -6.82466984
-27.36179924 1.22126997 -5.29829979
-26.80271912 2.15766001 -5.43698978
-27.49559975 1.37448001 -3.91929007
-26.93349075 2.31237006 -4.05854988
-27.60375023 1.50861001 -2.55755997
-27.03741074 2.44458008 -2.69921994
-27.65876961 1.60836005 -1.19906998
-28.11774063 0.52082998 -2.41749001
-28.17111015 0.62175000 -1.05732000
-28.14438057 0.68637002 0.30666000
-27.63224983 1.67364001 0.16077000
-28.05549049 0.73977000 1.67007005
-27.54566956 1.72551000 1.51758003
-27.91599083 0.79956001 3.03365993
-27.40545082 1.78206003 2.86967993
-27.70836067 0.86576998 4.39608002
-27.19541931 1.84514999 4.21451998
-27.42758942 0.94973999 5.75195980
-26.90739059 1.92015004 5.54427004
-27.06728935 1.05185997 7.09311008
-26.56368065 2.02569008 6.86526012
-26.63846970 1.16852999 8.41938019
-26.15555954 2.14677000 8.17986012
-26.14913940 1.28883004 9.73682976
-27.10499954 0.17088000 8.65958977
-26.61479950 0.29865000 9.98999977
-26.06744957 0.42344999 11.31995964
-25.61193085 1.40733004 11.05980015
-25.44710922 0.53082001 12.65583038
-25.00674057 1.50642002 12.38619041
-24.73599052 0.61803001 13.98470974
-25.83348083 -0.46674001 12.92525959
-25.11306000 -0.36357000 14.27099991
-24.29157066 -0.28194001 15.59171963
-25.42424965 -1.36469996 14.55327034
-24.59160042 -1.27620006 15.88638020
-23.67909050 -1.20764995 17.18037033
-24.81983948 -2.29247999 16.16918945
-23.89967918 -2.22339010 17.46906090
-22.91510963 -2.17589998 18.71480942
-24.05411911 -3.26396990 17.74202919
-23.06678963 -3.22212005 18.98546982
-22.03725052 -3.18848991 20.17952919
-23.16669083 -4.29120016 19.24601936
-22.13586044 -4.25840998 20.44091988
-21.04130936 -4.22468996 21.57209969
-20.95173073 -3.15617990 21.31401062
-19.87491035 -4.19499016 22.62327003
-19.79393959 -3.12822008 22.36560059
-18.67289925 -4.15679979 23.62260056
-18.59543991 -3.08933997 23.35454941
-17.42703056 -4.11746979 24.53580093
-17.35655975 -3.04431009 24.26865005
-16.15307999 -4.06722021 25.38299942
-16.08227921 -2.99243999 25.11212921
-14.83955956 -4.00497007 26.16617966
-14.76447010 -2.93841004 25.88348961
-13.47060013 -3.93861008 26.88788986
-13.40289021 -2.88476992 26.61177063
-12.04475975 -3.87543011 27.56814003
-11.98427963 -2.83467007 27.29166031
-10.55603981 -3.83277011 28.17435074
-10.50977993 -2.79731989 27.90825081
-9.01910973 -3.81107998 28.68404961
-8.98571968 -2.78264999 28.41353989
-7.46181011 -3.79689002 29.11581039
-7.43799019 -2.76741004 28.83629990
-5.89103985 -3.78741002 29.45870972
-5.87666988 -2.75258994 29.18117905
-4.31709003 -3.78324008 29.72315979
-4.30911016 -2.74440002 29.43965912
-2.73908997 -3.78249002 29.90685081
-2.74077010 -2.74095011 29.61951065
-1.15682995 -3.77598000 30.01188087
-1.17344999 -2.73446989 29.70929909
0.43311000 -3.76356006 30.01728058
0.39561000 -2.72301006 29.71133995
2.03022003 -3.75006008 29.91996002
1.96683002 -2.71068001 29.62442970
1.91492999 -1.67670000 29.29184914
3.54281998 -2.69570994 29.45681953
3.46358991 -1.66347003 29.12685013
5.12535000 -2.67999005 29.22582054
5.02080011 -1.64997005 28.90616989
6.70836020 -2.67597008 28.91337013
6.57644987 -1.64784002 28.59491920
8.28024006 -2.67953992 28.51520920
8.11664963 -1.65309000 28.18589973
9.81962967 -2.69591999 27.99570084
9.63726044 -1.66115999 27.69417000
11.34759045 -2.69726992 27.41852951
11.14260006 -1.66595995 27.11976051
12.86849976 -2.69388008 26.77485085
12.64581013 -1.66557002 26.49221992
14.35871983 -2.70638990 26.02508926
14.12465954 -1.68230999 25.75962067
15.81381035 -2.74190998 25.18787956
15.57536983 -1.71671999 24.93684006
17.23377037 -2.80211997 24.27972031
16.99391937 -1.77585006 24.04293060
18.61506081 -2.88797998 23.30522919
18.36837006 -1.86302996 23.07563972
18.11459923 -0.85020000 22.80254936
19.67696953 -1.97591996 22.02788925
19.41839981 -0.96117002 21.77112007
19.13723946 0.03375000 21.45882034
20.66366959 -1.08273005 20.68502998
20.37665939 -0.08460000 20.39142036
20.05890083 0.88704002 20.03636932
21.54096031 -0.21615000 19.25946045
21.21549034 0.75489002 18.92658043
20.84951973 1.69602001 18.52784920
22.30883980 0.62628001 17.76992989
21.92972946 1.56402004 17.39550018
23.35199928 0.50642997 16.57238960
22.65261078 -0.33801001 18.09017944
23.68169975 -0.46581000 16.84674072
24.66072083 -0.58257002 15.55811977
24.30723000 0.37494001 15.30119991
25.56306076 -0.69492000 14.19849014
25.20191956 0.25308001 13.98027039
26.38118935 -0.79313999 12.76167011
26.00535011 0.13854000 12.58524036
27.11252975 -0.84789002 11.23917007
26.71170044 0.05058000 11.11077023
27.73743057 -0.87018001 9.63257980
27.34763908 0.01941000 9.56243992
28.27806091 -0.85040998 7.97451019
28.10771942 -1.77032995 9.67311001
28.64990997 -1.73837996 7.98053980
29.06834984 -1.70658004 6.24972010
28.99283981 -2.64927006 7.97750998
29.41653061 -2.61335993 6.24179983
29.70759010 -2.58455992 4.47306013
29.38677025 -1.67438996 4.48298979
29.89656067 -2.54064012 2.68010998
30.00180054 -3.51915002 4.45542002
30.17108917 -3.47729993 2.66436005
30.26099968 -3.41024995 0.86205000
29.96976089 -2.47661996 0.87563998
30.23100090 -3.32174993 -0.94916999
29.93040085 -2.39075994 -0.93485999
30.08241081 -3.21113992 -2.76644993
29.77784920 -2.28303003 -2.74766994
29.80500031 -3.08487010 -4.58138990
29.50110054 -2.14905000 -4.55385017
29.42465973 -2.94269991 -6.38690996
29.09847069 -2.00450993 -6.33878994
28.92156029 -2.80736995 -8.16417027
28.58165932 -1.86425996 -8.09051991
28.32860947 -2.68463993 -9.89918995
27.97677040 -1.73135996 -9.79883957
27.63702011 -2.58542991 -11.57378960
27.29379082 -1.61001003 -11.45742035
26.87433052 -2.50386000 -13.19067001
26.54114914 -1.50741005 -13.07069969
26.08157921 -2.42867994 -14.77923012
25.72578049 -1.42157996 -14.64632988
25.16918945 -2.37648010 -16.30167007
24.79845047 -1.36382997 -16.15554047
24.16049957 -2.33735991 -17.75420952
23.78058052 -1.30982995 -17.59646988
23.07681084 -2.30891991 -19.12623024
24.44474983 -3.39825010 -17.83929062
23.36186981 -3.39036012 -19.19646072
22.23200989 -3.40301991 -20.47326088
21.93281937 -2.30289006 -20.41781998
21.01254082 -3.46458006 -21.60456085
20.75736046 -2.32178998 -21.63983917
19.77746964 -3.57668996 -22.62354088
19.43544006 -2.41571999 -22.61676025
18.59436035 -3.73646998 -23.59193993
18.20015907 -2.54991007 -23.58756065
17.42634010 -3.95516992 -24.46533012
16.99781990 -2.75124002 -24.47183990
16.27421951 -4.21976995 -25.26557922
15.82586956 -3.00531006 -25.28523064
15.15219021 -4.52850008 -26.01296997
14.68278027 -3.30857992 -26.03796005
14.06517029 -4.88333988 -26.71581078
13.57203007 -3.66135001 -26.73947906
12.97797012 -5.29533005 -27.30974960
12.48071957 -4.06608009 -27.37421989
11.92469978 -5.76050997 -27.84048080
11.40857983 -4.52906990 -27.93201065
10.91135979 -6.29201984 -28.30701065
10.37574005 -5.05718994 -28.43549919
9.94458008 -6.89082003 -28.68932915
9.37335014 -5.65494013 -28.83576012
9.04308033 -7.55232000 -29.01125908
8.42741966 -6.33006001 -29.18811035
8.21084976 -8.29395008 -29.25629997
7.56662989 -7.09833002 -29.44494057
7.42895985 -9.14151001 -29.46450043
6.77759981 -7.96749020 -29.63759995
6.65507984 -10.12767029 -29.64212990
6.05106020 -8.96586037 -29.79668999
5.31794977 -7.70069981 -29.97252083
5.34168005 -10.13315964 -29.92383003
4.66164017 -8.84249973 -30.09192085
3.82146001 -7.46474981 -30.24272919
3.21948004 -8.68875027 -30.31974030
2.28570008 -7.30757999 -30.39669037
1.72625995 -8.49654007 -30.45111084
0.72860998 -7.27743006 -30.46505928
1.21346998 -9.64196968 -30.46272087
0.20186999 -8.39762974 -30.49191093
-0.84771001 -7.39043999 -30.45618057
-0.28097999 -9.43688965 -30.48792076
-1.33634996 -8.45808029 -30.45698929
-2.43399000 -7.64397001 -30.37355995
-1.79319000 -9.46770000 -30.44454002
-2.89140010 -8.69369984 -30.35823059
-4.02045012 -8.03073025 -30.22293091
-3.32492995 -9.70217991 -30.32637024
-4.45590019 -9.07686043 -30.18291092
-5.60991001 -8.53013992 -29.97882080
-5.17008018 -7.45473003 -30.03623962
-6.77972984 -8.05976963 -29.72373009
-6.02709007 -9.57159042 -29.90175056
-7.20287991 -9.13313961 -29.65019989
-8.39861965 -8.76539993 -29.33609962
-7.97301006 -7.66880989 -29.42078972
-9.62123966 -8.45876980 -28.96062088
-9.19995022 -7.35074997 -29.05340958
-10.86756039 -8.20341015 -28.51086044
-10.45862961 -7.09275007 -28.60593033
-12.14684963 -7.98849010 -28.00820923
-11.75076008 -6.88251019 -28.10177994
-13.45524025 -7.80771017 -27.43614006
-13.06890011 -6.71165991 -27.52808952
-14.77523994 -7.65348005 -26.77371025
-14.40672016 -6.56705999 -26.88035965
-16.10559082 -7.51403999 -26.03454018
-15.75125980 -6.44129992 -26.14427948
-17.44149017 -7.38525009 -25.21418953
-17.09481049 -6.32816982 -25.31402969
-18.74897957 -7.27752018 -24.27779961
-18.42168045 -6.22830009 -24.37751961
-20.01833916 -7.19333982 -23.24238014
-19.71783066 -6.14574003 -23.34786034
-21.24213028 -7.11512995 -22.13367081
-20.95982933 -6.06695986 -22.23962975
-22.37202072 -7.02537012 -20.92962074
-22.11050987 -5.97720003 -21.04640961
-23.43720055 -6.91329002 -19.68236923
-23.17947006 -5.86638021 -19.79796028
-24.43857002 -6.78945017 -18.40382957
-24.17196083 -5.73587990 -18.51668930
-23.88759041 -4.68524981 -18.62544060
-25.08338928 -5.58540010 -17.21504974
-24.80636978 -4.52300978 -17.34168053
-24.46295929 -3.47048998 -17.42141914
-25.59177017 -4.35783005 -16.00563049
-25.23860931 -3.30719995 -16.08834076
-24.82698059 -2.26641011 -16.14263916
-25.92774010 -3.14831996 -14.73602962
-25.50909042 -2.10762000 -14.80508995
-25.02588081 -1.07957995 -14.85342026
-26.14014053 -1.94619000 -13.45748997
-25.64928055 -0.92360997 -13.52136040
-26.71904945 -1.75400996 -12.09237003
-26.20970917 -0.75612003 -12.17078972
-27.22278023 -1.52594995 -10.69563007
-26.69943047 -0.55040997 -10.79327965
-27.60210037 -1.31333995 -9.25874996
-27.10589981 -0.33414000 -9.38712025
-27.91113091 -1.10940003 -7.82379007
-27.42317963 -0.12441000 -7.96572018
-28.16559029 -0.92519999 -6.40829992
-27.67872047 0.07107000 -6.55173016
-28.36218071 -0.76251000 -5.01510000
-27.87117004 0.24387001 -5.15493011
-28.50246048 -0.62313002 -3.64181995
-28.01366997 0.39368999 -3.77942991
-28.59725952 -0.50352001 -2.28086996
-28.94969940 -1.67955005 -3.50630999
-29.03558922 -1.56923997 -2.14503002
-29.07201004 -1.47510004 -0.78498000
-28.63973999 -0.40818000 -0.92058003
-29.05769920 -1.39722002 0.58323002
-28.62215996 -0.33603001 0.44547001
-28.99367905 -1.32594001 1.96265996
-28.54137039 -0.27840000 1.81575000
-28.84077072 -1.25625002 3.34875011
-28.39514923 -0.21684000 3.18987012
-28.64756966 -1.16064000 4.74953985
-28.21106911 -0.12780000 4.57314014
-28.33959007 -1.07139003 6.14580011
-27.91209030 -0.04743000 5.95122004
-27.96413994 -0.97008002 7.53296995
-27.53148079 0.04806000 7.31301022
-27.52556992 -0.85241997 8.89743042
-28.31973076 -2.01923990 7.74732018
-27.87882042 -1.90307999 9.13214970
-27.36450005 -1.77207005 10.49304008
-27.02658081 -0.72443998 10.24110031
-26.80205917 -1.62273002 11.84817028
-26.46648026 -0.58838999 11.58003044
-26.15501976 -1.48427999 13.19931030
-27.04359055 -2.68415999 12.11328030
-26.38731003 -2.53110003 13.47117043
-25.64328003 -2.39787006 14.82353973
-26.55471039 -3.59430003 13.75364971
-25.80197906 -3.44874001 15.10746002
-24.96219063 -3.33891010 16.43906975
-25.92432022 -4.51082993 15.39945030
-25.07369995 -4.39943981 16.71965981
-24.14994049 -4.33130980 18.00579071
-25.13475037 -5.47974014 16.98681068
-24.20379066 -5.41656017 18.26301003
-23.22275925 -5.37836981 19.50452995
-24.20891953 -6.51050997 18.49827003
-23.21763039 -6.47636986 19.74308968
-22.17053986 -6.44349003 20.94387054
-22.18334961 -5.34437990 20.69960976
-21.03939056 -6.41213989 22.05224991
-21.06941986 -5.31134987 21.81716919
-19.85955048 -6.38346004 23.08502960
-19.89771080 -5.27735996 22.86521912
-18.65144920 -6.35693979 24.06362915
-18.69684029 -5.24354982 23.86317062
-17.39963913 -6.32847023 24.96356964
-17.44454956 -5.21256018 24.76742935
-16.12107086 -6.28115988 25.80842972
-16.16378975 -5.16792011 25.60452080
-14.79434967 -6.20387983 26.58291054
-14.84949017 -5.09888983 26.38731003
-13.41327000 -6.10473013 27.29343033
-13.48134041 -5.01378012 27.11585999
-11.97819042 -6.00924015 27.95511055
-12.05076027 -4.93256998 27.79260063
-10.49022007 -5.94423008 28.56119919
-10.55315971 -4.88004017 28.39352989
-8.95637989 -5.91681004 29.07674980
-9.01601982 -4.85304022 28.91786957
-7.39998007 -5.91008997 29.50832939
-7.45452023 -4.84124994 29.35298920
-5.82456017 -5.91483021 29.82612038
-5.87817001 -4.83806992 29.69034004
-4.24541998 -5.92071009 30.09248924
-4.29894018 -4.84121990 29.95031929
-2.65358996 -5.92242002 30.28643990
-2.71143007 -4.84610987 30.12104988
-1.04769003 -5.91123009 30.38600922
-1.11843002 -4.83645010 30.23852921
0.57516003 -5.88378000 30.37553978
0.48954001 -4.81973982 30.23843956
2.21655011 -5.85173988 30.28395081
2.11209011 -4.79699993 30.15036011
3.87125993 -5.82779980 30.09758949
3.74334002 -4.77794981 29.96726990
3.63699007 -3.72849011 29.76345062
5.37731981 -4.76117992 29.71616936
5.24249983 -3.71519995 29.50532913
6.99743986 -4.76150990 29.36141968
6.84710979 -3.71255994 29.18078995
8.60925007 -4.77056980 28.95101929
8.44023037 -3.72093010 28.76832008
10.18955994 -4.78463984 28.42436981
10.00496960 -3.73551011 28.24715996
11.74442959 -4.79115009 27.80102921
11.55399036 -3.73773003 27.65852928
13.28493023 -4.79627991 27.10829926
13.08635998 -3.73650002 26.98727989
14.77970982 -4.81818008 26.31648064
14.57444954 -3.75549006 26.20404053
16.22015953 -4.85918999 25.44186020
16.03161049 -3.78947997 25.35989952
17.62578011 -4.92003012 24.51239967
17.44695091 -3.85119009 24.43829918
18.97842026 -5.01519012 23.50188065
18.81575966 -3.94184995 23.44208908
20.28146935 -5.13575983 22.42764091
20.11638069 -4.06230021 22.36572075
19.91703033 -3.00675011 22.23471069
21.36885071 -4.18817997 21.24438095
21.16991997 -3.13152003 21.12372017
20.92358971 -2.10060000 20.92473030
22.36248016 -3.25287008 19.95726013
22.11635971 -2.22272992 19.77606010
21.84338951 -1.20963001 19.54430962
23.24132919 -2.33691001 18.56475067
22.97145081 -1.32386994 18.36071968
24.30176926 -2.44032001 17.28956985
24.00083923 -1.44518995 17.08860016
25.28660965 -2.53607988 15.94001961
24.98229027 -1.55351996 15.76805973
26.21334076 -2.61545992 14.51745033
25.89669037 -1.65014994 14.37605953
27.04376984 -2.67561007 12.98493004
26.72850037 -1.73106003 12.89459991
27.80534935 -2.68950009 11.36843967
27.48053932 -1.76238000 11.32238960
28.45022964 -2.68350005 9.69108009
28.07361031 -3.63309002 11.38247967
28.72337914 -3.61967993 9.68634033
29.28549004 -3.58359003 7.96812010
28.93874931 -4.57707024 9.66042042
29.49785995 -4.54808998 7.93689013
29.91407967 -4.52195978 6.18582010
29.70668983 -3.55298996 6.22388983
30.21846008 -4.48931980 4.41767979
30.02924919 -5.51180983 6.12110996
30.33539963 -5.48004007 4.35245991
30.48633003 -5.43461990 2.56221008
30.36866951 -4.44521999 2.62701011
30.55106926 -5.36726999 0.76344001
30.45788956 -4.37646008 0.82629001
30.53639984 -5.27342987 -1.03926003
30.42878914 -4.28484011 -0.98189998
30.39789009 -5.16080999 -2.84097004
30.29360962 -4.17260981 -2.79585004
30.14963913 -5.02982998 -4.64558983
30.03597069 -4.04397011 -4.61034012
29.78796005 -4.88924980 -6.45759010
29.67111015 -3.90081000 -6.42747021
29.28566933 -4.76874018 -8.24874020
29.17008018 -3.77489996 -8.21846962
28.71186066 -4.67093992 -10.00508976
28.58321953 -3.66671991 -9.96963024
28.03716087 -4.60445976 -11.69820023
27.90666008 -3.58083010 -11.66370010
27.28263092 -4.56114006 -13.32470989
27.13908005 -3.52008009 -13.28396988
26.47113037 -4.52427006 -14.89554024
26.33517075 -3.46481991 -14.86505985
25.55511093 -4.49681997 -16.38806915
25.46055031 -3.41580009 -16.40319061
24.60099030 -4.48718977 -17.83412933
25.64390945 -5.58162022 -16.36754990
24.67428017 -5.59748983 -17.75876999
23.62295914 -5.62974024 -19.05176926
23.53029060 -4.50413990 -19.15998077
22.54904938 -5.68797016 -20.27058029
22.42841911 -4.54125023 -20.40891075
21.46232986 -5.77854013 -21.40394974
21.25955963 -4.61706018 -21.52758026
20.36375999 -5.92442989 -22.44557953
20.09627914 -4.74542999 -22.56488991
19.23867035 -6.11871004 -23.37689972
18.94643974 -4.92885017 -23.51715088
18.11934090 -6.35210991 -24.24128914
17.80755043 -5.15645981 -24.39398956
17.00595093 -6.63260984 -25.02951050
16.67042923 -5.43035984 -25.18614006
15.91133976 -6.96065998 -25.72734070
15.55757999 -5.74686003 -25.90929031
14.85548973 -7.33136988 -26.35775948
14.48145008 -6.10830021 -26.57352066
13.83446980 -7.74060011 -26.92877960
13.43235016 -6.51890993 -27.16101074
12.84642029 -8.18924999 -27.42300034
12.40853977 -6.98073006 -27.66537094
11.89412975 -8.68803024 -27.86079025
11.42634010 -7.50158978 -28.10351944
10.97733021 -9.24899960 -28.23924065
10.49304008 -8.07993031 -28.47438049
10.09370995 -9.86178017 -28.56282043
9.61530018 -8.71770000 -28.78916931
9.22760963 -10.53639030 -28.84310913
8.78306961 -9.42605972 -29.04738045
8.31266975 -11.26961994 -29.10062981
7.96212006 -10.24085999 -29.27502060
7.27788019 -12.08376026 -29.30681992
7.07711983 -11.14640999 -29.47479057
6.04235983 -12.99752998 -29.46764946
6.04497004 -12.16211987 -29.60412025
5.82512999 -11.26356030 -29.75481033
4.65045023 -13.14848995 -29.72555923
4.70327997 -12.45497990 -29.83769989
2.98556995 -13.35531044 -29.95569038
3.16503000 -12.88290024 -30.01787949
1.51190996 -12.62129974 -30.21203995
1.82367003 -11.97723007 -30.28770065
0.33414000 -11.46378040 -30.40035057
0.74801999 -10.62522030 -30.44816971
-0.73019999 -10.38204002 -30.46859932
-0.03051000 -12.23589039 -30.33171082
-1.15325999 -11.26245022 -30.40950012
-2.23020005 -10.42776012 -30.41222954
-1.53336000 -12.11754036 -30.32514000
-2.64323997 -11.35496998 -30.33275986
-3.74465990 -10.68260956 -30.25653076
-3.00828004 -12.27087021 -30.22479057
-4.13375998 -11.63424015 -30.15197945
-5.26902008 -11.07536983 -30.02094078
-4.87296009 -10.08806992 -30.11426926
-6.42390013 -10.59515953 -29.81151009
-5.61581993 -12.05465984 -29.92230034
-6.77709007 -11.61509991 -29.70627022
-7.95176983 -11.23908043 -29.44911003
-7.59987020 -10.18770027 -29.56566048
-9.14883041 -10.91084957 -29.14167023
-8.79533958 -9.84146976 -29.24352074
-10.36923027 -10.62605953 -28.75311089
-10.01535034 -9.54905987 -28.85840988
-11.60286045 -10.37901020 -28.28346062
-11.25312042 -9.29858971 -28.39797020
-12.86367035 -10.16139030 -27.77139091
-12.51924038 -9.07983017 -27.88392067
-14.14628983 -9.96957016 -27.18996048
-13.81548023 -8.89323044 -27.30945015
-15.43712997 -9.79784966 -26.51837921
-15.12285042 -8.72931004 -26.64759064
-16.73883057 -9.63986969 -25.78223991
-16.43823051 -8.57816982 -25.90875053
-18.03252029 -9.50084972 -24.96342087
-17.76329994 -8.44149017 -25.10235023
-19.29639053 -9.38619041 -24.03746986
-19.04141998 -8.33073044 -24.15990067
-20.52722931 -9.29621983 -23.01489067
-20.29566002 -8.24279976 -23.13722992
-21.69875908 -9.20855999 -21.88802910
-21.48777008 -8.16275978 -22.01271057
-22.81212044 -9.11180973 -20.69042969
-22.60926056 -8.06822968 -20.81192970
-23.86341095 -9.00489044 -19.44651031
-23.66583061 -7.95917988 -19.56389999
-24.83880043 -8.89134026 -18.15044975
-24.66081047 -7.84148979 -18.28059006
-25.72833061 -8.76638985 -16.80686951
-25.54350090 -7.71294022 -16.94051933
-25.33167076 -6.65178013 -17.07917976
-26.33982086 -7.56570005 -15.57936001
-26.12888908 -6.49659014 -15.73565960
-25.87989044 -5.42253017 -15.88115978
-26.82843018 -6.32064009 -14.36408997
-26.57666969 -5.25435019 -14.51591969
-26.29368019 -4.19411993 -14.64710999
-27.23966980 -5.05662012 -13.13160038
-26.95133972 -4.01445007 -13.26945019
-26.57741928 -2.97680998 -13.37405968
-27.58589935 -3.77970004 -11.87555981
-27.17346001 -2.76726007 -11.98719025
-28.11474037 -3.53807998 -10.44906044
-27.69557953 -2.52344990 -10.57653046
-28.46013069 -3.34254003 -8.98665047
-28.06238937 -2.31165004 -9.12419987
-28.76481056 -3.16227007 -7.55163002
-28.37667084 -2.11359000 -7.68756008
-29.00540924 -3.01500010 -6.14052010
-28.62153053 -1.95015001 -6.27230978
-29.20218086 -2.88386989 -4.75215006
-28.81172943 -1.80599999 -4.87946987
-29.32625961 -2.77505994 -3.37623000
-29.53746033 -3.99087000 -4.63367987
-29.67456055 -3.88685989 -3.25958991
-29.78070068 -3.78426003 -1.88829005
-29.42012978 -2.67048001 -2.01183009
-29.79092979 -3.69705009 -0.51054001
-29.44782066 -2.57786989 -0.64652997
-29.75387955 -3.61124992 0.87323999
