-6.97001000 1.48579000 -3.78728000
-7.06359000 1.40097000 -3.75799000
-1.39729000 6.09224000 -2.75424000
-7.33012000 -6.03497000 -1.80332000
2.17593000 4.58696000 -1.03383000
2.19182000 4.52830000 -1.06834000
2.15492000 4.57849000 -1.08132000
-4.84758000 -8.01456000 -3.80512000
-4.36909000 6.12726000 -0.05554410
-0.95403900 -1.37824000 -4.22391000
-0.29185000 -1.28598000 -4.02895000
-5.37888000 -8.03214000 0.40867700
-5.31802000 -8.03276000 0.31718000
-5.18999000 -8.02677000 0.31051800
-5.20383000 -8.01510000 0.38845700
-2.74991000 8.11105000 -2.78217000
0.26954500 4.42608000 -2.62809000
0.43935400 4.47514000 -2.44453000
-0.04224370 4.56998000 -2.73224000
-3.45100000 5.69809000 -3.57309000
-0.39289900 -5.04860000 0.54966200
-0.36627500 -4.96941000 0.58817200
1.50696000 2.52222000 -3.20626000
1.61781000 2.47252000 -3.14452000
1.55551000 2.48919000 -3.16650000
-3.55335000 4.21083000 -4.23677000
-3.46466000 4.00008000 -4.29291000
0.04097680 -5.12761000 0.34659200
0.00388696 -5.04502000 0.39009400
-0.02919430 -4.95999000 0.45819600
-0.24095100 -5.04648000 0.49742100
0.25040700 -2.29374000 1.63843000
-0.58000700 3.59801000 1.76419000
1.63955000 3.84242000 -2.50950000
-1.43230000 8.32579000 -0.59262800
-7.84136000 3.57911000 0.65597300
-0.26228200 -5.23404000 0.47752300
-0.18617400 -5.23070000 0.42966000
-0.19882600 -5.13748000 0.45178000
-1.83312000 5.89945000 -2.67605000
0.80294500 -1.02880000 -3.57472000
-4.18006000 -2.81712000 -4.52187000
-4.06769000 -2.79087000 -4.54236000
-3.77852000 -2.90110000 -4.55022000
0.92292100 -4.41317000 -0.50337200
-5.60782000 -7.75615000 1.33773000
2.02134000 4.94652000 -0.89516900
1.96909000 5.01542000 -0.80655200
2.00928000 5.01756000 -0.86319900
1.96745000 4.98160000 -0.87037800
-9.48131000 -1.20037000 -1.13045000
1.93942000 2.67581000 0.60799500
-6.89523000 -5.99235000 -2.19234000
-6.11178000 -8.00218000 0.17294000
-5.99954000 -8.04002000 -0.16981500
-5.98469000 -8.03536000 0.09715770
-6.05519000 -8.03154000 0.03658260
-0.93078200 8.76852000 -1.14117000
-1.03958000 8.67172000 -1.13611000
-1.12478000 8.57969000 -1.22125000
0.38279300 -3.03258000 1.12851000
0.31857300 -3.13558000 1.14768000
0.16982600 -3.17335000 1.25971000
-7.53664000 1.07514000 -3.63460000
-1.23034000 6.12438000 -2.62036000
-1.17821000 6.17718000 -2.54339000
-1.11124000 6.06396000 -2.61949000
-2.62854000 -8.06270000 -3.88451000
1.78423000 4.86162000 -0.50975600
-5.63175000 -4.58888000 -3.19665000
-5.68615000 -4.63186000 -3.09683000
-5.81410000 -4.48090000 -3.18163000
-5.62444000 -4.52573000 -3.25098000
-1.00741000 -7.97668000 -3.75580000
-0.91867900 -7.96167000 -3.76414000
-0.82124100 -7.97122000 -3.73573000
1.31551000 -7.85181000 -2.57627000
1.53493000 -7.90652000 -2.37131000
-9.37179000 1.53252000 -0.17756800
-0.89579100 4.02154000 -3.38570000
-1.40326000 4.25058000 -3.47231000
-1.29097000 6.06437000 -2.68528000
0.68530800 -0.71845700 1.70349000
0.52048300 -0.52778900 1.77229000
-8.55072000 4.40887000 -0.12987000
-8.47425000 4.39971000 -0.14542700
-8.55983000 4.42287000 -0.28643800
-2.66182000 -1.70856000 -4.51595000
-2.62345000 -2.63572000 -4.21850000
-8.56864000 1.69642000 -2.64167000
-8.22804000 1.32126000 0.92309600
-9.22544000 3.99183000 -0.81847200
-9.14617000 4.00197000 -0.64438800
-9.22062000 4.00533000 -0.59951600
-7.46337000 1.42246000 -3.61263000
-8.64698000 2.40187000 0.49558700
-3.70941000 -5.93292000 -3.54000000
-4.92891000 9.48282000 -0.52003600
-4.69470000 9.49348000 -0.30482600
-8.17751000 4.46672000 -1.50803000
2.00583000 4.66933000 -1.47612000
2.02369000 4.69192000 -1.36938000
2.00288000 4.73120000 -1.32764000
-7.99253000 0.89772400 -3.32746000
-0.31164900 -4.43641000 -3.36863000
-4.71040000 6.06330000 -0.09216170
-3.85128000 1.92536000 1.91683000
-3.73834000 2.19909000 1.88730000
-3.51054000 3.65055000 1.64966000
-8.71537000 -1.63269000 0.34250300
-8.59093000 -1.74132000 0.41133900
-5.36552000 8.66856000 -0.49815900
-4.53262000 -2.32997000 2.44479000
-4.74023000 -2.35518000 2.40789000
-3.41400000 6.14241000 0.17778100
-8.98066000 4.30724000 -1.16248000
0.88182400 -7.77494000 0.55865600
1.13260000 -7.63998000 0.41895600
1.03635000 -7.80703000 0.46647800
1.57693000 -6.70692000 -1.29571000
1.67524000 -6.93888000 -1.37705000
-8.99130000 4.24286000 -1.14396000
-2.12920000 8.62486000 -0.58158700
-2.18977000 8.46835000 -0.57495600
-4.94753000 -8.02245000 -3.78231000
-3.36052000 6.17692000 0.13689900
-3.36424000 6.23666000 0.06881860
-0.07937570 5.37007000 0.51684100
-7.77517000 -7.46766000 -1.08034000
1.71938000 2.02138000 -3.21845000
-7.58881000 4.99568000 -1.52773000
0.52602700 -5.47890000 -2.32445000
-4.89894000 4.64116000 1.69185000
-4.18671000 -1.10549000 -4.99094000
-1.28689000 8.19163000 -1.19658000
-1.28857000 8.20002000 -1.06612000
-7.61945000 -4.14054000 0.19264600
-2.82786000 -6.52027000 -3.76268000
-3.05489000 -6.06263000 -3.61664000
-2.99691000 -6.49678000 -3.76534000
-4.77547000 4.88052000 1.57581000
-4.25963000 -8.03726000 -2.45630000
-4.20348000 -8.02836000 -2.58417000
-4.01795000 -8.02861000 -2.58114000
-3.93143000 -8.07978000 -3.14871000
-4.08858000 -8.04072000 -2.69615000
-4.28046000 -8.08027000 -3.05563000
-3.39722000 9.33345000 -3.29892000
-6.79281000 4.68364000 -2.82709000
-4.23698000 -8.09228000 -3.21341000
-4.69436000 -8.09660000 -3.04887000
-3.02031000 6.32378000 -3.30878000
-1.68506000 8.93884000 -2.57637000
-4.04718000 -8.08191000 -3.37450000
-4.26454000 -8.10619000 -3.51363000
-1.79982000 -2.71303000 -4.69774000
-1.68211000 8.67251000 -2.21690000
-1.69439000 8.62221000 -2.19967000
-1.84220000 8.59466000 -2.31929000
-2.01774000 7.06509000 -1.76365000
-2.01976000 6.96512000 -1.74900000
-1.98120000 7.01278000 -1.70814000
-2.01010000 7.12538000 -1.75199000
-3.28684000 6.29003000 0.00906326
-2.32033000 -3.13953000 -4.55267000
2.19539000 -2.57094000 -2.57538000
-4.09323000 8.33928000 0.29437500
-8.04012000 -1.62617000 0.24801200
-3.88973000 -8.06583000 -2.94763000
-3.72227000 -8.04259000 -2.82617000
-3.18469000 -8.03929000 -3.03193000
-3.41692000 -8.03569000 -2.89191000
-1.90362000 -2.37114000 -4.75059000
-2.91890000 -0.15791500 2.85628000
-8.95627000 -0.28609000 -2.47596000
-8.91838000 -0.07828940 -2.49185000
-4.16910000 -4.71923000 -3.03985000
-3.80063000 -4.64627000 -3.10321000
2.57126000 3.22893000 -1.94663000
2.60982000 3.05629000 -1.99731000
-6.22366000 -7.94033000 -0.69554300
-6.24885000 -7.94361000 -0.61408000
2.41241000 -0.68205900 0.41539000
-3.65352000 -8.07037000 -3.27235000
-3.74796000 -8.07747000 -3.34428000
-3.58564000 -8.04899000 -3.05121000
-3.74627000 -8.06630000 -3.04247000
-7.14411000 -3.29667000 -2.52979000
-4.41996000 4.48763000 -3.57958000
-4.35970000 4.31701000 -3.66351000
-5.03176000 6.65875000 -2.27555000
-4.19840000 -7.85372000 1.59438000
-6.86274000 -5.39752000 -1.47533000
-4.12069000 -8.08491000 -3.16909000
-4.02173000 -8.07457000 -3.25012000
-4.01032000 -8.08436000 -3.17946000
-3.85941000 -8.07772000 -3.23572000
-3.73839000 -8.06306000 -3.21187000
-5.66691000 5.34692000 -2.99294000
1.58081000 4.05032000 -0.77085300
-1.37975000 7.66960000 -1.72920000
-1.61573000 9.19469000 -2.62799000
-7.98837000 -2.71250000 0.58849900
-1.96540000 8.71429000 -2.46224000
-6.99212000 -1.67097000 1.69886000
-6.99540000 -1.57462000 1.70802000
-7.08981000 -1.44235000 1.66981000
-3.19438000 8.76675000 -2.99375000
0.17628900 -4.63487000 0.56950900
1.73469000 0.50663500 0.36874900
1.47929000 0.76618800 0.52538800
1.73787000 0.76357300 0.35981500
1.88376000 0.52339300 0.26330400
0.90648800 1.95543000 -3.65991000
0.98956900 1.92990000 -3.62526000
1.63951000 0.87660800 1.32296000
1.47174000 0.46420200 1.46606000
1.62921000 0.49100800 1.35082000
2.26019000 -2.11802000 -1.55933000
-6.92086000 -0.60675600 1.84901000
-6.81405000 -0.70701300 1.87569000
-2.51055000 5.13826000 1.50054000
-2.39986000 5.18408000 1.40494000
-2.44803000 5.37072000 1.28774000
1.03006000 2.85359000 1.33699000
1.68905000 0.52627300 1.28721000
1.40690000 0.50770400 0.57697800
-6.91357000 -0.70397000 1.83088000
-8.12246000 -7.69936000 0.32733200
2.74386000 -0.99496500 -1.16944000
1.41759000 4.05801000 0.47604600
-5.97789000 -7.76819000 1.23581000
-6.03089000 -7.79780000 1.20853000
-2.50099000 -3.48271000 -4.39230000
-2.21271000 -3.49761000 -4.36350000
-8.97272000 -0.37617000 -2.41447000
3.16125000 0.20529800 -2.36758000
3.21126000 0.19325100 -2.29207000
3.25002000 0.18123500 -2.20764000
-8.84969000 3.83404000 -1.26461000
-8.91140000 3.79012000 -1.33416000
-8.87857000 3.86048000 -1.29223000
-7.76468000 -1.56770000 -2.60070000
-7.66943000 -1.56971000 -2.73140000
-7.50611000 -1.66602000 -2.87208000
-2.24208000 9.06338000 -3.02608000
2.33083000 -0.13010700 -2.96810000
2.08082000 -0.68182200 -3.13676000
-8.37734000 -2.31459000 0.38724200
3.07035000 -0.09994310 -2.53748000
3.05343000 0.01080240 -2.51837000
1.02586000 -7.56137000 0.44906200
1.13149000 -7.55725000 0.39560700
1.07839000 -7.49024000 0.39126900
1.03562000 -7.62393000 0.45685000
0.85682000 -7.61840000 0.56035200
-8.21973000 -8.00312000 -1.11361000
-8.11885000 -8.04027000 -1.17714000
-8.26940000 -7.99588000 -1.16837000
-8.36629000 -8.01746000 -1.30791000
2.42758000 4.66592000 -1.28538000
2.39054000 4.71965000 -1.22470000
2.32256000 4.77629000 -1.30815000
2.36477000 4.73279000 -1.27926000
2.16869000 -1.07958000 0.29948200
2.02018000 -1.20535000 0.44751300
1.82758000 -1.20043000 0.60651200
2.00853000 -1.09667000 0.45127900
-0.32313900 -2.08951000 1.99213000
-1.66167000 -1.35626000 2.62871000
-1.70277000 -1.25768000 2.66162000
2.24027000 2.63078000 0.41573000
2.20316000 4.89055000 -0.98376300
2.13114000 4.84739000 -0.95447200
2.02518000 0.41790400 0.15697600
2.15297000 0.55860400 0.02084310
-1.57507000 9.13221000 0.02499420
-1.26963000 9.04984000 -0.26463300
-4.34313000 -7.97197000 1.26144000
-4.33029000 -7.99563000 1.18186000
-0.65184100 -1.62977000 2.32951000
-0.78290500 -1.75346000 2.32152000
-0.68097300 -1.78807000 2.27332000
-0.71351400 -1.92593000 2.18341000
-1.55850000 -1.14436000 2.04129000
-1.20989000 -1.28536000 1.98041000
-1.29972000 -1.17524000 1.99460000
-7.48658000 4.82740000 -2.05653000
-7.43391000 4.84730000 -2.16645000
-0.39995800 6.21117000 -1.50790000
-0.28146100 6.18849000 -1.29610000
-0.05883630 -8.04808000 -2.92829000
-0.04063310 -8.06454000 -2.79058000
0.04509450 -8.05653000 -2.72214000
-7.11758000 -4.11130000 0.50455100
1.82247000 3.43847000 -2.60516000
1.89348000 3.35455000 -2.60129000
1.94363000 3.25861000 -2.57700000
3.39252000 0.79413700 -0.67950900
3.35099000 0.89446100 -0.60703500
-5.20705000 -7.71772000 1.44586000
-5.44466000 -7.70661000 1.38330000
-0.07130210 -8.05871000 -2.73105000
0.00177150 -8.05742000 -2.85932000
-9.00032000 0.47203900 -2.52955000
-0.40211600 -5.95114000 -3.01824000
-0.28511600 -5.65825000 -2.84455000
-6.96843000 -4.29125000 0.49416600
-7.04502000 -4.08563000 0.57390200
-6.87439000 -4.34282000 0.53685400
1.75925000 3.52474000 -2.62187000
2.45101000 4.66571000 -1.13362000
2.43665000 4.66955000 -1.22370000
2.23900000 4.28758000 -1.68303000
2.28126000 4.18734000 -1.66774000
2.23609000 4.24179000 -1.74636000
2.22279000 4.30520000 -1.76065000
1.68892000 2.34634000 -2.55384000
-8.97537000 3.82496000 -0.32935400
1.22929000 -4.39336000 -0.08324660
-8.56003000 4.38860000 -0.04951840
-0.67444800 -8.02428000 -2.67718000
-0.54221800 -7.99976000 -2.77442000
-0.56606200 -8.01354000 -2.71154000
-0.65098700 -8.02519000 -2.74471000
-0.46125900 -1.83739000 2.17297000
-2.72902000 -4.83514000 -3.72341000
-0.34454200 -8.12974000 0.33165000
-7.34419000 -4.53972000 0.19015100
1.42870000 3.48030000 -2.76977000
1.41275000 3.60979000 -2.73464000
-7.31917000 0.23986000 -3.78869000
-7.04027000 3.87719000 1.01768000
1.38855000 -3.87086000 0.02991620
1.33214000 -4.12996000 -0.03166450
1.46349000 -3.88781000 -0.01660430
1.47704000 -4.00165000 -0.05826190
-2.87498000 6.65780000 -3.09638000
-9.50410000 -0.24337300 -0.19599700
-9.49160000 -0.43779900 -0.16997000
-9.46622000 -0.62704400 -0.15980700
-2.76174000 -1.61393000 2.76711000
-2.73744000 -1.71571000 2.74966000
2.41572000 4.55302000 -1.78758000
-2.83206000 6.96390000 -2.92535000
-0.51962200 -7.99920000 -2.83374000
-0.56442100 -8.01153000 -2.96172000
-0.43311500 -8.00636000 -2.82791000
-6.51039000 -3.69254000 -3.24040000
-4.10732000 6.47391000 -2.95797000
-3.81479000 8.83340000 -0.13418800
-3.69694000 8.86744000 -0.09538090
-2.06066000 -7.97014000 -0.71429400
-3.76433000 5.96606000 1.00728000
1.39670000 3.73947000 -2.69947000
1.39987000 3.88315000 -2.69562000
-0.44305100 1.96160000 2.28797000
-0.31997400 1.99714000 2.21441000
-0.26013900 2.08030000 2.19200000
-2.85251000 7.07266000 -2.90911000
-3.00394000 6.95749000 -2.96762000
2.23972000 -7.15210000 -1.24083000
2.28121000 -7.31254000 -1.21845000
2.26039000 -7.36058000 -1.34696000
2.24388000 -7.10995000 -1.13705000
-2.19530000 -7.95390000 -0.60392300
-5.98899000 -3.65525000 -3.64909000
-5.94919000 -3.79350000 -3.62891000
-9.27559000 -0.45041000 0.15544300
-9.41504000 -0.49851000 -0.07528130
-6.05098000 -3.79563000 -3.56312000
-6.43694000 -5.01343000 -2.30089000
-7.43578000 -6.90272000 -0.35110900
-2.31304000 -7.76134000 -4.10842000
-2.11158000 -7.73111000 -4.10434000
0.10939900 4.44651000 0.41947100
0.45484700 4.41317000 0.24634000
-5.96146000 -8.06367000 -0.31341400
-5.89886000 -8.04211000 -0.23898700
-5.97821000 -8.04803000 -0.24228300
-2.21202000 8.57543000 0.15927900
0.02386320 -8.06332000 -2.67649000
-2.08293000 -4.58669000 0.61559000
-2.15236000 -4.42942000 0.68587400
-2.78039000 -1.19621000 -4.94803000
2.50165000 5.23195000 -0.76274700
2.50418000 5.24287000 -0.82679400
-8.55429000 -7.97332000 -0.53834400
-8.44707000 -8.01997000 -0.38890700
-8.47766000 -7.99192000 -0.46678500
-8.43988000 -7.98837000 -0.46990400
-1.30082000 4.45940000 1.01900000
-8.52974000 1.80760000 0.25524600
-8.62422000 1.80497000 0.09822420
1.81758000 -1.10021000 0.60300000
-8.04640000 2.01216000 -3.11625000
-7.90220000 1.97830000 -3.22787000
-7.84454000 2.08154000 -3.25052000
-7.78290000 2.06833000 -3.30405000
-1.41428000 4.68655000 1.78938000
-1.42789000 4.57668000 1.87845000
-2.13249000 -0.85982400 -5.09293000
-2.24435000 -0.90760000 -5.07356000
-6.35489000 -7.97619000 0.46948000
-6.41947000 -7.95038000 0.36418400
-6.48718000 -7.96749000 0.28510500
-6.40250000 -7.96167000 0.30971800
1.76014000 -7.65376000 -2.13407000
-2.17220000 -0.91312000 2.76641000
-2.20051000 -0.81892700 2.82372000
-2.07275000 -0.86704700 2.80849000
-1.09972000 8.74075000 -1.62708000
-8.11688000 3.34281000 -2.66490000
-4.44911000 0.64574000 -4.88099000
-8.03098000 1.89714000 -3.17787000
3.05126000 2.18976000 -0.53420600
2.99583000 2.29111000 -0.37961600
2.94608000 2.27142000 -0.26419600
-6.36502000 3.91362000 -3.60109000
-6.36219000 -7.95617000 0.18848800
-4.93811000 -5.11217000 0.90403700
-2.60698000 -2.14837000 -4.86744000
-2.63985000 -2.05751000 -4.92453000
-2.54285000 -2.02413000 -4.87235000
-3.76968000 6.96773000 -0.25230000
-3.66831000 6.99235000 -0.25003800
-7.96437000 2.22355000 -3.11114000
-4.36242000 9.51542000 -0.04032810
-4.31805000 9.48252000 -0.09902380
-2.85862000 -2.09812000 -4.93023000
-2.80866000 -2.20212000 -4.90154000
-1.10681000 4.80775000 1.61431000
-4.82429000 -7.99596000 -0.01808170
-4.71247000 -7.99539000 0.13284700
-4.83335000 -8.01247000 0.10609800
-4.85139000 -7.98238000 -0.10599700
-2.50081000 4.65690000 1.80782000
-6.42589000 -8.11798000 -2.23485000
-6.56715000 -8.11364000 -1.92562000
-6.37976000 -8.12156000 -2.14865000
3.06212000 2.12459000 -1.98639000
-3.86135000 8.12654000 -2.26153000
-3.85365000 7.97895000 -2.24295000
-3.76196000 7.90239000 -2.27343000
-3.98105000 8.05307000 -2.20109000
-3.93678000 8.07175000 -2.22510000
-2.78315000 0.19303200 -4.98455000
1.54067000 -3.09633000 -2.77584000
-8.14035000 -4.47054000 -0.52923200
-8.21977000 -4.34038000 -0.50969700
-8.27050000 -4.27923000 -0.50037800
-9.32693000 -0.98685700 -1.65530000
-8.40995000 -3.22823000 -1.75853000
-8.23375000 -3.34917000 -1.92393000
-7.91209000 0.24366000 0.61776800
-9.14050000 4.61855000 -1.28578000
-9.20073000 4.64873000 -1.25824000
-6.95800000 -2.03408000 -3.61509000
-7.18098000 -1.86775000 -3.50583000
-6.73330000 -8.11285000 -2.38822000
-0.58466300 -2.29187000 1.90604000
-6.12535000 -5.58514000 -2.30829000
-6.23988000 -5.79402000 -2.28920000
-2.94495000 0.57080100 -4.45856000
-3.27359000 0.49827400 -4.47027000
-0.80150100 -7.51964000 -3.76724000
-0.92528800 -7.52763000 -3.81441000
-0.41226900 -6.87544000 -3.42275000
-0.66373900 -7.20607000 -3.64529000
1.89519000 -6.24847000 -1.30307000
1.93304000 -6.55086000 -1.41655000
1.95580000 -6.43851000 -1.31871000
-2.74241000 -2.08347000 -4.93907000
-2.78258000 -1.98208000 -4.95251000
-2.71914000 -1.85942000 -4.98110000
-3.04857000 5.22643000 1.58885000
-0.03601540 -2.79178000 -4.23521000
-2.96592000 -7.55927000 1.65720000
-2.68856000 9.43787000 0.54243500
-9.58800000 1.60676000 -0.33915300
-9.63914000 1.54671000 -0.41015600
2.12939000 -7.46529000 -1.60162000
2.00763000 -7.21225000 -1.62892000
-4.89761000 0.74703400 2.67146000
-4.98837000 0.76737700 2.62416000
-5.05880000 0.56837500 2.65210000
0.55539700 5.71714000 -1.52848000
0.67365400 5.68576000 -1.38058000
0.83302300 5.52906000 -1.57870000
0.66388100 5.58738000 -1.69401000
-9.11692000 -2.45349000 -0.40921100
-2.21534000 7.36213000 -1.94056000
-2.30248000 7.29115000 -1.97797000
-1.98917000 4.63103000 -3.99429000
-4.86468000 0.85197800 2.70203000
-4.95039000 0.87231100 2.64634000
-3.76227000 -1.64268000 2.63599000
-3.66140000 -1.55858000 2.68133000
-3.79357000 -1.51216000 2.65958000
-6.69485000 -5.23976000 -0.29431500
-9.05723000 -1.87414000 -1.64807000
-2.30417000 -0.22287500 2.96330000
-1.40272000 5.65483000 0.82814200
-3.77126000 -1.54887000 2.65225000
-2.38600000 -0.28363600 -5.11638000
-2.31642000 -0.10953400 -5.11527000
-8.22990000 -4.36182000 -0.58219200
-9.22947000 -1.23392000 -1.83457000
-9.22035000 -1.14474000 -1.91892000
2.40344000 5.19265000 -1.38682000
-0.36588800 -7.47985000 -3.59205000
-0.66067800 -7.35111000 -3.68361000
-0.50004100 -7.31116000 -3.60540000
-0.56725100 -7.41105000 -3.66175000
1.81508000 -6.21339000 -1.40656000
-2.23519000 7.31011000 -1.94734000
-2.30516000 7.39271000 -2.00262000
-2.27984000 7.45806000 -1.98518000
1.44441000 4.92011000 -0.51069800
-1.21820000 -8.04076000 0.50556100
-1.26056000 -8.04659000 0.33752300
-1.16011000 -8.04176000 0.34362200
-1.11842000 -8.04826000 0.48982000
-1.04146000 -8.05558000 0.36339600
-1.03308000 -8.06199000 0.49381200
-4.38282000 8.57822000 -0.44431800
-4.31187000 8.71754000 -0.37538700
2.33035000 4.29264000 -0.77729400
2.32909000 4.35378000 -0.87711000
-7.76775000 -7.98248000 0.23878200
0.72921100 3.77665000 -3.08510000
0.67262100 0.27149800 -4.02766000
-6.94003000 5.28159000 -2.12160000
-6.86410000 5.33990000 -2.14375000
-7.00457000 5.21032000 -2.09255000
-0.10056800 3.64684000 -3.81240000
0.36874400 2.71764000 -3.85781000
0.26529200 2.53442000 -3.99515000
-6.71942000 5.45883000 -2.18750000
-6.63495000 5.52276000 -2.09989000
-6.79306000 5.40215000 -2.16728000
-0.95263900 -8.06104000 0.39831000
-0.95366100 -8.03926000 0.62214100
0.36800900 3.41818000 -3.65348000
0.27461100 3.06719000 -3.83711000
-3.31845000 -8.07006000 -3.46874000
-4.60720000 6.70725000 -1.60907000
-1.43220000 -6.58089000 1.14801000
-1.43483000 -6.43915000 1.11617000
-1.60723000 -6.76759000 1.24096000
-1.61090000 -6.57762000 1.19590000
-7.39808000 -5.49639000 -0.12428200
-6.34871000 3.26499000 1.84954000
-6.31328000 3.16141000 1.85669000
-6.20734000 3.21653000 1.83653000
-6.13219000 3.02631000 1.86720000
-6.04954000 2.85061000 1.92797000
-9.52243000 4.15196000 -1.11195000
-1.99596000 6.51847000 -1.85234000
-2.12628000 6.48025000 -2.03086000
0.91213800 -6.95239000 -0.04408190
1.01107000 -6.73016000 -0.18909900
-3.17039000 -8.07814000 -3.58275000
-2.92941000 -8.06976000 -3.66031000
-3.02319000 -8.07143000 -3.53810000
-3.01724000 -8.08420000 -3.67820000
-0.97001600 4.40650000 1.86243000
0.82364200 3.46971000 1.10912000
1.83082000 2.87545000 -2.72647000
-5.10829000 8.57030000 -0.34533800
-5.06938000 8.62598000 -0.26085400
-5.82190000 -8.02668000 0.42393300
-5.81644000 -8.03517000 0.58529900
-3.50329000 -8.09404000 -3.86734000
-3.58391000 -8.07009000 -3.87951000
-3.72267000 -8.09019000 -3.84805000
3.30434000 -0.20644000 -0.47314200
3.28237000 -0.22391600 -0.36766300
1.75262000 2.99082000 -2.72704000
-3.71491000 -8.09843000 -3.80212000
-3.62022000 -8.09020000 -3.85082000
-3.61554000 -8.10827000 -3.81397000
-4.85567000 -7.71741000 1.53503000
-6.98188000 -1.63294000 -3.80849000
-6.81387000 -1.55459000 -3.93535000
0.31904700 3.67087000 -3.57496000
-2.15333000 4.52505000 -4.00135000
-3.69077000 -8.10383000 -3.63953000
-3.94108000 -8.10414000 -3.49031000
-1.47060000 -7.30475000 1.34442000
-1.49266000 -7.03960000 1.27968000
1.23616000 -4.28862000 -0.94396000
1.05193000 -4.65435000 -0.95394700
-0.67246000 -7.99812000 -0.18641800
-0.61960800 -8.01395000 -0.28834800
-0.64500300 -8.00408000 -0.11590300
0.32084100 3.54748000 -3.64162000
0.29098100 3.46175000 -3.69650000
-2.40401000 6.10752000 0.89768100
-3.70894000 -8.09926000 -3.76051000
-7.86314000 -3.41088000 0.39190600
-1.72481000 4.95725000 -3.60031000
-7.10920000 -7.95967000 -0.19476600
-7.22823000 -7.97048000 -0.10202400
-7.29138000 -7.98317000 -0.14871500
-7.12421000 -7.94534000 0.03972710
2.40750000 4.54563000 -0.83122900
2.47441000 4.59662000 -0.78281100
2.43278000 4.56275000 -0.81482400
-2.62085000 -8.03052000 -2.80474000
-2.83632000 -8.03582000 -2.99113000
-2.77144000 -8.04627000 -3.14887000
-3.01682000 -8.05962000 -3.31979000
-2.93641000 -8.05377000 -3.48064000
-2.92534000 -8.05937000 -3.31984000
-2.13139000 1.57360000 -4.81163000
-2.27557000 1.35954000 -4.86761000
-4.59632000 6.62883000 -1.66819000
-4.53718000 6.70198000 -1.71039000
-4.48653000 6.77249000 -1.75011000
-7.83791000 -1.56353000 -2.48199000
-7.96766000 -1.51406000 -2.25578000
-8.05075000 -1.54755000 -2.06528000
-7.24946000 -7.98118000 0.12708500
-7.02386000 -7.94522000 -0.14022600
-7.16273000 -7.95011000 -0.05906590
-9.29719000 -1.31940000 -1.46984000
-3.01564000 -8.03941000 -3.24902000
-2.92485000 -8.05308000 -3.24798000
-4.56165000 3.65308000 -4.32380000
-4.60939000 3.58716000 -4.31051000
-4.75684000 3.62623000 -4.27465000
-0.98231600 -8.04807000 -3.55471000
-0.88964800 -8.04329000 -3.52059000
-1.15656000 -8.03036000 -3.72758000
-0.12809400 -4.00276000 1.08292000
0.31490100 -5.36176000 -1.96640000
0.06721770 -5.29851000 -2.13619000
-7.17154000 -7.93682000 0.58062800
-7.21112000 -7.97436000 0.46033000
-7.19229000 -7.98022000 0.39093800
2.22023000 4.04140000 -0.45225200
2.19731000 3.98245000 -0.35998400
2.40777000 -8.00080000 -0.82149000
3.16122000 1.50053000 -0.25431500
3.12071000 1.48265000 -0.17535700
-1.62536000 9.10661000 -2.63817000
-9.10265000 1.53536000 0.21465600
-9.17579000 1.53522000 0.14551400
-9.32656000 1.43182000 -0.09759450
-9.25021000 1.43482000 0.04042290
2.37603000 -1.27292000 0.27531800
-5.47467000 0.62556900 -4.55546000
-5.27286000 0.49947600 -4.63056000
-5.36936000 0.18797500 -4.65789000
-5.44952000 0.43086500 -4.59472000
-1.54332000 9.18618000 -2.57193000
-7.54928000 -5.16545000 -1.27068000
-7.48961000 -5.15055000 -1.36002000
-7.38980000 -5.14995000 -1.46354000
-2.97575000 -8.05486000 -3.17340000
-3.10533000 -8.04856000 -3.16938000
-7.76284000 4.44412000 -2.05390000
-6.27106000 -8.07519000 -3.17847000
-6.24360000 -8.08345000 -3.12797000
-6.34444000 -8.05865000 -3.10155000
-6.38780000 -8.02848000 -3.19018000
-6.37503000 -8.03960000 -3.16312000
-8.63617000 2.33612000 -2.49358000
-8.66907000 2.22492000 -2.50660000
-8.61624000 2.19641000 -2.60629000
-3.42172000 -6.22509000 1.32697000
-3.04545000 -5.96588000 1.24241000
-3.59437000 -5.97255000 1.26061000
0.60176100 -5.15320000 0.00723012
-2.08929000 9.50602000 -0.25280500
-2.04735000 -5.11730000 0.49470400
-2.04165000 -5.31752000 0.48776600
-8.49404000 2.39772000 -2.63443000
-3.11021000 -8.06334000 -3.35504000
-6.45090000 -8.03249000 -3.08059000
-8.58073000 2.31323000 -2.58815000
-8.65217000 2.21596000 -2.56252000
-8.61121000 2.32570000 -2.54335000
-8.55985000 2.43120000 -2.58979000
-6.50850000 -2.49167000 -3.79635000
-6.46896000 -2.37378000 -3.84839000
-8.18850000 -8.04689000 -1.70788000
-4.86195000 -7.97918000 -0.86494400
-5.02625000 -7.97199000 -0.99938300
-4.90816000 -7.97510000 -1.10192000
-3.10814000 -8.06771000 -3.45792000
-2.82905000 -8.07199000 -3.55369000
-2.83869000 -8.06798000 -3.39874000
0.50183600 2.15715000 -3.35083000
-6.29338000 -8.03537000 -3.23772000
-6.30232000 -8.01409000 -3.25976000
-8.24469000 -6.49990000 -0.95532600
-8.17783000 -6.31139000 -0.85721300
-6.81911000 -7.94025000 -0.11465300
-6.81580000 -7.95067000 -0.04137300
-6.68877000 -7.93622000 -0.13685600
-5.24698000 -7.96905000 -1.42677000
-8.74070000 2.29139000 -2.32545000
-4.57632000 3.48419000 -4.31551000
-8.14519000 -8.08300000 -1.82124000
-3.01959000 -8.05184000 -3.45082000
-0.44027400 -3.59403000 1.52509000
-1.43319000 -8.04301000 -3.80355000
-4.44350000 -2.79019000 -4.50378000
-4.47870000 -2.71058000 -4.51901000
-6.45679000 5.64947000 -1.81248000
-3.47203000 -0.30490900 -5.09240000
-3.33978000 -0.26748700 -5.04867000
-2.87884000 5.78016000 1.17574000
-4.59836000 1.19306000 2.81211000
-6.37415000 3.00725000 -3.87061000
-6.24200000 2.98604000 -3.89362000
-2.02151000 -7.99294000 -4.01359000
-6.24632000 -0.44994100 -4.17952000
-6.07101000 -0.30024400 -4.27373000
-5.90804000 5.32905000 0.57249300
-5.83978000 5.25617000 0.63902500
-6.17414000 -8.07962000 -3.18050000
-6.18802000 -8.09260000 -3.01796000
-5.73912000 -7.79799000 -3.56599000
-6.63007000 5.49421000 -2.19642000
-6.55034000 5.56594000 -2.11106000
-6.45704000 5.59636000 -2.11662000
-4.42535000 4.13581000 2.09068000
-4.04649000 3.89942000 2.08745000
-4.13825000 3.93701000 2.10418000
-4.15626000 3.85591000 2.14376000
-6.26338000 3.10069000 -3.87292000
-7.41542000 -7.00189000 -1.67488000
-8.98438000 3.25382000 -1.54217000
-6.28368000 -8.05609000 -3.21426000
-7.53282000 4.82548000 0.14975100
-7.45798000 4.86233000 0.15355900
-7.76033000 4.57176000 0.13497300
-7.58576000 4.71889000 0.21222400
-2.36799000 4.53925000 -3.60242000
-6.46609000 5.43707000 -2.38131000
0.57232200 5.61815000 -0.64440100
-3.43083000 -6.39593000 1.36833000
2.11450000 5.02057000 -2.07063000
-6.32725000 5.54720000 -2.30065000
-6.26306000 5.62835000 -2.22527000
-3.16518000 8.85409000 -3.14041000
-3.12974000 8.94237000 -3.25547000
-3.62873000 5.93322000 0.39927100
-7.50712000 4.08657000 -1.32090000
-7.50548000 -3.96160000 0.41730000
-7.54610000 -3.88768000 0.44719200
-0.13971500 -5.40518000 -0.06445990
0.13056700 -5.34634000 -0.19284700
2.11920000 5.05722000 -0.85996100
2.16047000 5.11812000 -0.79585700
1.21297000 4.31449000 -0.38518300
1.31019000 2.69164000 -3.22206000
2.20605000 4.71943000 -1.62431000
2.24003000 5.06879000 -0.99668600
-7.34667000 -7.01139000 -1.79470000
-6.88733000 -5.77194000 -1.66839000
-4.58805000 5.49171000 0.95718700
-4.84648000 4.31274000 2.01218000
-4.74110000 4.44317000 1.98086000
-4.76479000 4.49724000 1.93130000
-4.89287000 4.43286000 1.93295000
1.88752000 4.98526000 -0.81182600
-7.13193000 -7.95353000 0.09811910
2.10858000 4.60117000 -1.59410000
2.16428000 4.63884000 -1.61612000
-6.84160000 -6.76371000 0.70956800
-6.88161000 -7.06577000 0.76130200
-8.13155000 -1.57342000 -1.82952000
-8.20158000 -1.55192000 -1.55747000
-9.18551000 2.32817000 -0.10202800
-9.34051000 2.05828000 -0.18316800
-9.24395000 2.29906000 -0.16288500
-4.82386000 4.24179000 2.03369000
-1.11435000 1.23203000 -4.77387000
-1.07980000 1.37249000 -4.75116000
2.15696000 4.66372000 -1.61817000
-9.26205000 2.51938000 -0.21572900
2.63950000 -2.55257000 -0.38672500
2.72857000 -2.17483000 -0.32599200
-8.98177000 -2.67310000 -0.34947100
-8.98250000 -2.79581000 -0.42306100
-4.12198000 5.55607000 1.06333000
-8.29712000 3.29494000 -2.42736000
-8.49205000 -7.76545000 -1.66831000
2.98022000 -1.86456000 -0.56382100
2.89878000 -1.88317000 -0.37679900
2.82880000 -2.02636000 -0.35136900
-6.20774000 -5.81290000 0.68928300
-6.45137000 -5.63912000 0.53463100
-4.97010000 0.21382200 1.91608000
-6.13862000 0.32637300 1.62484000
-5.68081000 0.32058800 1.75932000
-4.04385000 5.76968000 1.00868000
-9.36660000 1.83932000 -0.16944000
-9.25414000 1.82173000 0.04296740
-3.42113000 -7.97884000 -0.25911900
-3.41923000 -7.98472000 -0.14805400
-7.14691000 -7.37801000 -2.20514000
-7.01432000 -7.21218000 -2.23447000
-8.24721000 -2.73405000 -2.22139000
-8.30095000 -2.66278000 -2.23370000
-0.78791000 6.09729000 0.20071600
-4.47807000 -5.45749000 0.58658900
-3.85168000 -7.98635000 -0.02787580
-3.65222000 -7.98346000 -0.04288220
-3.70923000 -7.97103000 0.05243380
-3.97149000 -7.98535000 0.15172800
-3.73228000 -7.97945000 0.15438800
-3.73017000 -8.00516000 0.36385900
-5.63960000 -5.00632000 -2.77208000
-5.68488000 -4.93760000 -2.81257000
-5.94521000 -8.06584000 -1.67600000
0.14806400 -1.37323000 1.98961000
0.11676200 -1.23387000 2.03960000
-0.70532100 -0.12395300 -4.74588000
-0.55626100 -0.03750000 -4.68269000
-3.25745000 -7.95374000 -0.15704700
-3.26123000 -7.95502000 -0.06255880
-1.24912000 1.71514000 2.58334000
-1.18537000 5.65378000 -2.98157000
2.15265000 4.47742000 -1.46508000
-3.34318000 -7.98915000 -0.24740900
-3.34131000 -7.98033000 -0.15187000
-8.59749000 -7.96064000 -0.34552900
-5.09908000 5.96914000 0.45714300
-6.58661000 -7.82923000 1.04361000
-6.72692000 -7.82792000 0.99633800
-6.19938000 -7.66180000 1.16931000
-6.39074000 -7.73377000 1.10167000
-3.40777000 -7.95305000 -0.05298440
-1.62987000 -7.39652000 -3.97823000
-3.99607000 7.43918000 -0.31641900
-4.04974000 7.51615000 -0.32881200
-4.13353000 8.07095000 -0.33419900
-0.82951900 0.57336900 -4.71039000
-0.80305100 0.87319500 -4.61201000
-0.86076800 0.42057100 -4.74808000
-5.41116000 -4.69598000 -3.23584000
-5.29570000 -4.47437000 -3.41844000
-5.23535000 -4.73256000 -3.28198000
-7.93307000 3.85587000 -2.45690000
-7.98406000 4.00645000 -2.32544000
-7.83555000 3.96047000 -2.48194000
-8.88515000 2.64879000 0.22979800
2.09939000 -2.75575000 0.10132300
-8.82477000 1.44242000 -2.56486000
-5.85070000 8.97928000 -1.06608000
-7.88983000 3.67236000 -2.69333000
-5.05132000 -8.11374000 -3.31827000
-5.03365000 -8.10471000 -3.55884000
-8.66960000 -1.99221000 -2.12465000
2.03997000 -2.84454000 0.11032900
-3.09701000 4.18503000 2.02898000
-6.23756000 -5.78512000 -2.55639000
-5.81100000 -5.74288000 -2.76739000
-1.71214000 -7.08404000 -3.88235000
-5.49177000 6.08708000 -2.30477000
-3.34157000 8.01731000 -2.34869000
-3.56867000 8.13081000 -2.33932000
-3.47253000 8.01745000 -2.34205000
-3.41030000 8.09225000 -2.34855000
1.87213000 0.19427500 1.06127000
1.75100000 0.42636800 1.18864000
0.14470300 -3.77524000 -3.64401000
-8.32703000 -1.61418000 0.67495000
-8.15109000 -1.47264000 0.76677100
-1.60039000 4.97130000 1.40225000
-1.59705000 4.91474000 1.44549000
2.71345000 -2.33507000 -1.88213000
-3.09933000 -8.02648000 -3.00479000
-5.47584000 -5.82005000 -2.97989000
-9.35578000 -2.04824000 -0.71446700
-0.66800600 6.09943000 0.09332440
-0.70699400 6.06926000 0.19593000
-0.64165800 6.01339000 0.17281900
-0.69052000 5.96327000 0.25924400
-0.61581000 5.91969000 0.24170800
-5.29645000 1.17573000 -4.54423000
2.55749000 -2.82775000 -1.76253000
-3.34322000 8.09622000 -2.35157000
-3.27569000 8.10047000 -2.34749000
-3.14309000 8.02356000 -2.33130000
-5.56761000 1.12180000 -4.42764000
-5.23239000 0.96270100 -4.54403000
-5.29923000 1.04500000 -4.52811000
-2.44344000 -6.98928000 -3.92461000
-2.05857000 -6.71280000 -3.78576000
-2.23132000 -6.58604000 -3.76440000
0.54942300 4.47764000 -2.80048000
0.38417000 4.73082000 -2.74655000
0.43125700 4.81294000 -2.69500000
-3.71171000 -0.03486270 -5.10686000
-8.10780000 -2.64789000 -2.34696000
-5.15645000 -0.13793800 -4.77958000
-5.65847000 0.27873700 -4.54272000
-2.80257000 -8.02482000 -2.81017000
-3.35195000 -8.04126000 -2.81235000
-3.17978000 -8.03998000 -2.91086000
-3.02275000 -8.04504000 -2.90224000
0.99112700 3.98007000 -2.78533000
-4.89730000 -8.08249000 -3.66180000
-2.28257000 6.73856000 -2.02847000
-8.73139000 -7.83559000 -0.41188200
-1.82131000 -7.31170000 -3.94753000
-4.58356000 9.24366000 -0.42911600
-5.99167000 4.16200000 -3.10889000
-1.16400000 1.09474000 -4.79680000
-1.26940000 1.05912000 -4.84628000
-5.71552000 -2.21535000 2.19925000
-5.70521000 -2.07347000 2.24016000
-7.98588000 -7.69125000 -2.18187000
-4.88917000 4.56541000 -4.02323000
-5.45268000 -3.96763000 -3.66450000
-5.51070000 -4.06023000 -3.58901000
-5.98472000 -1.76226000 2.14335000
-5.81777000 -1.48796000 2.28912000
-5.82070000 -1.66579000 2.24596000
2.23669000 4.60239000 -1.63389000
2.25987000 4.64297000 -1.61601000
2.20642000 4.60729000 -1.63886000
2.18336000 4.56267000 -1.62727000
-7.72721000 -8.02473000 -0.38979400
1.56058000 -4.34566000 -0.22973600
2.39147000 -7.75721000 -1.28787000
-4.71774000 -6.94700000 -3.72051000
-4.71983000 -7.10153000 -3.74291000
-2.41039000 -7.80315000 -4.13451000
-2.41095000 -7.76792000 -4.13842000
-2.31073000 -7.73040000 -4.12971000
-3.52750000 7.97244000 -0.18735600
-3.38108000 8.02363000 -0.19252100
-3.75606000 0.31349100 1.99024000
-7.46839000 -8.05898000 -0.68196200
-7.43668000 -8.09472000 -0.74655100
-7.52325000 -8.10343000 -0.73432800
-0.08875190 -8.06170000 0.74056800
0.02556510 -8.07017000 0.74369800
-0.07177940 -8.06189000 0.78246300
-0.17073000 -8.04133000 0.81551000
-0.26714400 -8.03856000 0.85589900
-6.01230000 5.79544000 0.16994900
-2.54484000 0.34552500 1.88556000
-3.31643000 0.36919800 1.96469000
-8.11865000 -8.03644000 0.04373460
-8.16117000 -8.04843000 -0.02041270
-7.26401000 -8.01780000 -0.78980300
-7.16901000 -8.01731000 -0.80390800
-6.53771000 -7.90858000 -0.48701400
-5.70358000 -1.26098000 2.34264000
-7.85602000 -8.08281000 -0.82630500
-7.92865000 -8.07722000 -0.79367900
-7.99439000 -8.05191000 -0.75954800
-7.97654000 -8.02141000 -0.82971700
1.77939000 -0.59302900 1.02000000
1.78151000 -0.42713400 1.06143000
1.75515000 -0.22115700 1.13035000
-6.96276000 -3.24038000 1.05966000
-8.72603000 -2.57171000 -1.74643000
-8.60763000 -2.70322000 -1.83405000
-6.84040000 1.72650000 1.85451000
-7.65248000 -8.10005000 -0.57206400
-7.60403000 -8.02065000 -0.53232000
-7.52658000 -8.00436000 -0.55111700
-8.16735000 -3.88124000 -0.01512630
-8.15789000 -3.78389000 0.03567550
-6.00320000 -1.65818000 2.18755000
-6.58650000 -7.91980000 -0.17012000
-6.46339000 -7.91892000 -0.14465700
-6.37792000 -7.91068000 0.01435180
-7.08520000 4.37103000 -0.04317230
-5.39962000 5.77467000 -0.36495200
-0.24594800 -8.04594000 0.62198300
-7.15155000 -8.09696000 -0.98839500
3.12961000 -0.07107170 -0.01903670
-2.38195000 -7.07929000 -3.95351000
-2.23984000 -6.95434000 -3.88644000
-2.12797000 -6.86731000 -3.85001000
-7.70985000 -8.09357000 -0.62201800
-7.72999000 -8.10458000 -0.55412400
-6.66239000 -7.91280000 -0.20256800
-7.30580000 -1.91210000 1.29800000
0.82214700 -7.84207000 -2.96578000
0.80969900 -7.75598000 -2.95508000
-1.55898000 0.71738500 1.71153000
0.24735200 -1.90748000 -4.32756000
0.50599800 -1.78946000 -4.21569000
-1.32138000 5.08353000 1.24130000
-1.10583000 5.20984000 1.06157000
-1.10793000 5.15499000 1.13045000
-1.01811000 5.12357000 1.10631000
-5.83356000 -2.93612000 -3.89183000
-5.71275000 -3.20479000 -3.83138000
-5.86319000 -3.12152000 -3.81306000
-5.81686000 -3.21316000 -3.79780000
-5.96346000 -1.30611000 2.22328000
-5.98340000 -1.52949000 2.21570000
-3.57314000 -5.07283000 -3.42698000
-3.42761000 -5.07425000 -3.45319000
-3.06755000 -5.06554000 -3.48011000
-6.31154000 -7.92550000 0.05470180
-1.72583000 0.40238700 1.76470000
-1.73577000 3.89733000 2.07328000
-1.59310000 3.93769000 2.06549000
-3.32337000 1.39588000 2.76100000
-3.34747000 -1.47558000 2.80465000
0.18283100 2.15613000 1.88458000
0.07064090 1.93266000 1.97448000
-8.04026000 -8.08300000 -0.24695500
-2.02471000 -8.01853000 -3.90649000
-3.73628000 8.98760000 -2.43316000
1.06948000 1.81707000 -3.61100000
1.25244000 1.69185000 -3.55362000
-4.74696000 1.31633000 -4.74421000
-4.50744000 1.12894000 -4.84571000
-8.46128000 2.38451000 -1.68743000
-8.33097000 -8.00198000 -0.54347200
1.26617000 1.87346000 -3.57001000
-2.49153000 -8.04760000 -3.90211000
-2.24224000 -8.07738000 -3.75318000
-7.91115000 -8.09787000 -0.26286000
-6.91655000 5.24703000 0.12016700
-6.87531000 5.19268000 0.21069200
2.41951000 4.68919000 -1.20818000
-7.84091000 -8.05108000 -0.27356200
-7.88343000 -8.09231000 -0.31481800
-7.94447000 -8.09648000 -0.32785700
-6.95549000 5.29531000 0.02543540
-7.83018000 -5.14875000 -0.72197000
-7.83243000 -5.07136000 -0.59766700
-8.40260000 -7.98938000 -0.47298900
-1.91553000 7.32290000 -1.09350000
-0.65675000 -8.00364000 0.98196900
-1.62107000 -8.02553000 -3.90944000
-1.61505000 -8.02349000 -3.94781000
-1.51366000 -8.01516000 -3.92537000
-0.59438500 -5.58962000 0.61734300
-0.68546500 -5.57754000 0.65434400
-7.74995000 -8.10024000 -0.49052000
-7.67727000 -8.06644000 -0.50990300
-7.70279000 -8.03746000 -0.44952000
1.73659000 4.90614000 -0.54492300
-2.23748000 -1.97055000 -4.81934000
-1.31266000 -8.04630000 -3.73800000
-1.14981000 -8.05494000 -3.69016000
-4.66466000 4.58755000 1.85488000
-8.00387000 -8.07440000 -0.62106800
-5.98895000 5.35252000 -2.83032000
-6.01875000 5.40504000 -2.75503000
-3.21708000 -2.29641000 2.55711000
-3.22976000 -2.22040000 2.61836000
-4.57779000 4.67257000 1.77394000
-4.46079000 4.72104000 1.72143000
2.44367000 4.91927000 -2.04090000
-7.10612000 -4.98705000 -1.79659000
-7.09372000 -4.91831000 -1.86095000
-6.96318000 -5.04912000 -1.85858000
3.23911000 0.74462300 -0.22123600
-0.70110200 -7.99586000 -0.25744600
-0.03823350 -1.73046000 1.94760000
-0.11975500 -1.85943000 1.99199000
-0.00881471 -1.85773000 1.92246000
-9.15553000 3.99206000 -0.56146900
-8.87703000 -1.56682000 -2.12720000
-6.21660000 1.99873000 -4.21113000
-5.68021000 1.67732000 -4.45438000
-5.88131000 1.73693000 -4.37525000
-8.00604000 -8.07466000 -0.69220600
-1.60395000 5.80360000 -3.02929000
-7.67556000 -8.00847000 -0.34251700
-7.63951000 -8.01148000 -0.27895600
-7.77688000 -8.00862000 -0.28071600
-0.77042900 -8.04333000 0.07445550
-6.43765000 -4.58316000 -2.66805000
-6.24646000 -4.67129000 -2.73950000
-6.39027000 -4.49169000 -2.76611000
-6.24810000 -4.30054000 -3.04039000
-6.26703000 -4.47669000 -2.88379000
1.99954000 -1.37102000 -2.52169000
1.46009000 -1.41656000 -3.04776000
1.84324000 -1.37810000 -2.69012000
-2.43709000 -7.25338000 -3.25894000
-2.69576000 -7.26947000 -3.27949000
-9.03343000 4.51317000 -1.45847000
-5.37111000 1.52151000 -4.56573000
-4.70785000 5.09649000 1.27459000
-9.10212000 4.03284000 -0.67503000
-6.78809000 -5.54778000 -0.37474800
-7.62803000 -8.00472000 -0.46717400
-7.65164000 -8.00323000 -0.40344500
-9.25920000 4.56700000 -1.49478000
-7.85642000 -8.03247000 -1.41869000
-7.97648000 -8.00440000 -1.39836000
-7.90916000 -8.03723000 -1.47794000
-4.30728000 -7.80459000 1.63276000
-4.30762000 -7.75618000 1.64814000
-4.49823000 -7.82888000 1.59871000
-9.00547000 4.05597000 -0.52106300
-9.05517000 3.99239000 -0.55054900
-6.15158000 -3.02842000 1.15967000
-4.78937000 1.17975000 2.77445000
-0.71534200 -0.38963700 2.32584000
-6.85561000 -5.53389000 -0.48366400
-0.46892800 -8.01023000 -3.01189000
-0.49244500 -8.01127000 -3.11620000
-0.31257600 -8.01835000 -3.10100000
-7.54900000 -8.00814000 -0.48164800
3.23270000 0.30525500 -0.26250900
-5.78195000 -0.03538550 2.50750000
-5.18881000 1.04791000 2.55197000
-5.04093000 0.89413000 2.59813000
-5.00760000 1.00066000 2.64955000
-5.09476000 1.02360000 2.59388000
-8.81555000 4.09107000 -0.48669300
-0.58931600 3.62326000 -4.02074000
-0.62086300 3.74929000 -3.99650000
-0.63101700 3.54068000 -4.03829000
-1.01286000 -8.05397000 0.21251000
-1.13376000 -8.03867000 0.43698200
-1.75698000 0.45250700 2.84413000
0.80740700 -5.07446000 -1.37045000
-7.93840000 -0.28454600 -3.24078000
2.14863000 -1.66895000 0.34023300
-0.32694200 -3.58441000 1.47722000
0.17021600 -7.35866000 0.77651500
-0.26683500 -7.42230000 1.00336000
-0.05844010 -7.35902000 0.89268900
-0.17318000 -7.26400000 0.89289200
1.27541000 -7.96247000 0.28869400
-5.69721000 3.72106000 1.87676000
-5.30318000 8.14670000 -1.01255000
1.93433000 -4.07463000 -1.48297000
-5.43857000 1.10406000 2.45417000
-5.69203000 1.28102000 2.34880000
-7.21750000 -7.06460000 -2.52637000
-7.11605000 -7.27299000 -2.68618000
-7.25236000 -7.18304000 -2.53017000
-6.93072000 -7.28423000 -2.83574000
1.31928000 2.75886000 -3.15976000
1.38562000 2.71611000 -3.14057000
-9.14635000 4.67482000 -0.37079900
-8.42735000 4.33452000 -1.23992000
1.55959000 -4.91630000 -0.96538900
-5.10778000 -3.71269000 1.80650000
-5.37642000 -3.80691000 1.73404000
-1.37118000 8.73690000 -1.96689000
0.91809100 0.95334200 1.72451000
-7.86454000 -0.74564300 -3.20331000
-1.80688000 8.85492000 -2.49300000
1.27730000 -1.20495000 -3.77712000
1.15072000 -1.53332000 -3.84453000
-7.76446000 3.05856000 -2.98944000
-7.05968000 -7.42288000 -2.27291000
0.40004000 5.16837000 -2.44999000
-8.13309000 -0.94128200 0.85219900
-8.10540000 -1.21558000 0.83592500
1.89715000 -3.40582000 -2.19413000
1.93826000 -3.31655000 -2.22628000
2.01816000 -3.23817000 -2.18953000
-6.91642000 -4.61619000 -1.85083000
-4.26639000 -8.07966000 -3.83631000
-4.33447000 -8.04648000 -3.89406000
1.86712000 -4.34749000 -1.19888000
-9.10617000 4.00329000 -0.60576500
-9.12465000 3.98969000 -0.58850900
-9.08200000 3.97380000 -0.56700200
-8.55744000 -3.04942000 -1.46689000
1.20118000 -8.15099000 -0.21431800
1.27018000 -8.15632000 -0.26592000
1.29728000 -8.14369000 -0.22418400
1.21269000 -8.13481000 0.00744563
1.17722000 -8.15105000 -0.07836010
-3.44739000 -2.53454000 -4.66210000
-0.40714000 -2.28306000 1.86054000
-1.25995000 -1.21377000 2.61539000
1.48417000 -1.37785000 0.81100200
-1.93469000 7.22229000 -0.99842600
0.39657300 -8.12626000 0.11041000
-6.96677000 -4.74447000 -1.67535000
-7.46020000 4.34711000 0.52444100
-0.83506600 -2.27812000 1.97352000
-0.86883000 -2.14990000 2.02460000
1.46677000 -1.47219000 0.78090600
0.57692400 -1.48230000 1.26218000
1.11068000 -1.47605000 0.98624300
-4.53985000 -2.10289000 -4.67966000
-4.49805000 -1.96654000 -4.71838000
-7.41825000 4.62173000 0.35427000
-9.39377000 -0.28606000 -1.94085000
-5.48756000 3.80501000 1.96659000
-5.20759000 -1.82626000 2.51652000
0.86107700 -5.05855000 -1.26068000
-5.91584000 -8.02968000 -3.41585000
-2.67407000 8.57718000 -2.77967000
-2.84653000 8.55525000 -2.82729000
-5.34851000 3.59830000 1.99194000
0.90346600 -8.07991000 -2.47867000
-3.21591000 -0.02966310 -5.00889000
-9.22064000 0.51182100 0.14108100
-0.17914800 6.01014000 -0.59638500
0.00107124 5.84294000 -0.44283400
-0.35654700 -8.08013000 0.62758400
-1.44159000 8.02977000 -1.81666000
-1.48072000 7.99611000 -1.89314000
0.76334800 -8.02225000 -2.41444000
0.68126800 -8.02995000 -2.48351000
-8.75353000 0.85887900 -2.58750000
-8.81610000 0.87378600 -2.56589000
-7.28129000 2.65786000 1.33833000
-0.05024200 -1.46994000 2.03087000
-0.03673550 -1.33755000 2.08995000
-5.90343000 -5.02408000 0.63307500
-6.08871000 5.65357000 -2.43516000
-6.01899000 5.76239000 -2.38457000
-5.97746000 5.85875000 -2.30649000
-3.97324000 6.40692000 -3.17966000
-1.46162000 2.06904000 -4.54324000
-1.05573000 2.24725000 -4.41931000
0.83443900 -8.07755000 -2.35306000
0.74019100 -8.02701000 -2.37743000
0.78101100 -8.05951000 -2.45180000
-5.10784000 4.50955000 1.74721000
3.06600000 -1.61921000 -1.96028000
3.31919000 -0.81630200 -0.69683000
-1.82980000 7.60876000 -0.11809300
-1.89082000 7.78728000 -0.09733860
0.85630000 -8.08314000 -2.38911000
-5.65405000 9.33132000 -0.66590800
3.20913000 -1.71295000 -1.82098000
-0.45615400 0.13286600 -4.64587000
2.04100000 -2.84108000 -2.53728000
3.39123000 -0.76873300 -0.78520100
3.43469000 -0.59596800 -0.79681600
0.35034700 -4.15897000 -2.37669000
1.63468000 2.21993000 1.10128000
1.56369000 2.30883000 1.08415000
1.57055000 2.22632000 1.12615000
1.49009000 2.23665000 1.15975000
-4.26542000 8.24771000 -2.06619000
-4.07273000 8.01576000 -2.15739000
2.59263000 -1.53587000 -0.63600300
-6.28578000 0.85594700 2.23708000
0.90967400 -8.09682000 -2.28945000
0.81486200 -8.05183000 -2.31519000
-0.88026300 -4.03949000 1.38460000
-7.45937000 -6.11730000 0.10579500
-7.66541000 -6.42882000 0.09205000
-7.66266000 -6.23196000 0.00597412
0.11801900 -4.19073000 -2.50613000
-7.50774000 2.77272000 1.18953000
-9.28267000 0.80621500 -2.05697000
-9.36091000 0.70746400 -2.00526000
-9.31965000 0.81757100 -1.97962000
-8.67065000 -2.58013000 -1.83232000
-7.40623000 -3.57958000 0.58701400
-7.54920000 -3.35827000 0.59066300
0.71589100 -8.04044000 -2.33676000
-0.07712490 -2.13461000 -4.33795000
-0.18039500 -1.94471000 -4.44761000
-0.08051390 -1.83209000 -4.45990000
1.91233000 4.96564000 -2.06229000
-1.34882000 -6.35677000 1.08224000
-0.73319500 -6.58815000 0.92335300
-1.00349000 -6.44656000 0.98990600
-7.08005000 -7.99634000 -0.62882300
-7.04651000 -8.01931000 -0.69537200
-6.98408000 -8.01034000 -0.64493200
-4.14529000 9.49289000 0.36554800
-4.05859000 9.51665000 0.40650700
0.79180100 -8.05305000 -2.27803000
-6.07621000 -1.77045000 -3.80232000
-6.53356000 -8.07055000 -1.26040000
-6.59167000 -8.07841000 -1.20667000
1.85898000 4.94811000 -2.05617000
1.80237000 4.92225000 -2.03736000
-9.15232000 -0.73283100 0.22080500
-4.32262000 -1.29809000 2.27471000
-3.58668000 -1.33769000 2.29256000
-3.20229000 -1.24127000 2.26050000
-4.06896000 9.50800000 0.43754100
-2.43084000 -8.00743000 -1.86661000
-2.24072000 -8.00575000 -1.77529000
-1.76342000 -8.00765000 -2.33547000
-2.09152000 -8.00542000 -2.06419000
-1.97386000 -8.01337000 -2.44261000
-1.32819000 -6.60074000 1.12850000
-1.23538000 -6.52328000 1.09803000
-1.24245000 -6.44327000 1.08398000
-6.98853000 -6.15294000 0.42276300
-7.20737000 -6.21389000 0.31408500
-3.54577000 -3.25635000 -4.44216000
-4.48183000 6.38024000 -1.97920000
-5.08322000 4.19141000 1.37347000
-5.35328000 4.08538000 1.35071000
-6.37109000 1.72985000 2.04026000
0.74084000 -5.97539000 -2.34846000
1.01732000 -5.85680000 -2.05809000
0.87426900 -6.00959000 -2.24914000
-3.31292000 -2.59828000 -4.65982000
-3.41725000 -2.62524000 -4.64686000
-8.05969000 -4.71974000 -0.75648700
-1.56728000 -8.00821000 -2.10488000
-1.84906000 -8.00787000 -1.92924000
-1.66548000 -8.00328000 -2.22192000
-1.27397000 -8.01736000 -2.52417000
1.49976000 2.98459000 0.93811400
1.46378000 3.03028000 0.95421000
-0.70781000 -1.89330000 -4.69661000
-8.17138000 -8.01578000 -1.30059000
-4.58429000 -7.83930000 1.54761000
0.50386500 -6.65482000 -2.73403000
0.36045000 -6.35209000 -2.72981000
0.50882500 -6.18356000 -2.57987000
0.24687100 -8.14223000 -0.19493900
-1.18899000 -4.69812000 -3.52231000
-1.06717000 -4.03042000 -3.97709000
-1.06268000 -3.82035000 -4.11210000
-7.15702000 -6.35518000 0.39939000
-7.33730000 -6.55676000 0.36602700
-6.97193000 -6.50635000 0.54159000
-7.40108000 -6.25740000 0.21059500
-0.85984900 -2.17591000 -4.69448000
-0.76965700 -2.05889000 -4.71044000
-0.75163000 -2.15891000 -4.68000000
-0.73860900 -2.25695000 -4.64000000
-0.83940900 -2.36352000 -4.58970000
-0.84764700 -2.27121000 -4.64625000
-3.49988000 -2.16797000 -4.82632000
-3.45872000 -2.25722000 -4.80272000
-3.48034000 -2.44620000 -4.68302000
0.23764800 -6.24954000 -2.78741000
-0.05327010 -6.43871000 -3.07975000
-0.05785020 -6.29080000 -2.99254000
0.08822320 -6.31026000 -2.91370000
1.31650000 -7.75598000 0.33026200
-0.87691500 -2.07787000 -4.73202000
-9.01921000 4.16736000 -0.92892200
-5.75557000 8.93164000 -1.77604000
-6.46990000 3.63146000 1.68497000
-6.44053000 3.54956000 1.74287000
-6.38015000 3.36520000 1.82612000
-6.40945000 3.46006000 1.78846000
-6.50423000 3.40701000 1.76765000
-3.30498000 6.53077000 0.91130700
-6.28406000 -7.60687000 1.13729000
-5.86170000 -7.27955000 1.18919000
-8.74417000 -7.57109000 -0.45707500
-8.67930000 -7.51425000 -0.37149800
-2.79423000 6.56447000 0.82515800
0.19044100 -8.09568000 -0.49571500
-1.02134000 1.55129000 2.53292000
-7.02132000 -8.12819000 -1.74439000
-7.22711000 -8.12703000 -1.58603000
-4.65523000 -1.61917000 2.19191000
1.53146000 4.56839000 -0.04948670
1.60374000 4.49366000 -0.06188280
1.56718000 4.44023000 0.03393010
-2.38240000 7.14079000 -1.94366000
-1.38028000 0.12493200 2.80229000
-1.20933000 0.02773780 2.73923000
-0.94728300 -2.37386000 -4.58714000
-3.58782000 8.57272000 0.44639200
