-0.36120000 -2.70440000 2.66660000
-0.31270000 -2.52170000 2.56010000
-0.41430000 -2.89330000 2.78350000
-0.30590000 -2.89660000 2.82460000
-0.25910000 -2.70500000 2.71010000
-0.21690000 -2.51850000 2.60720000
-0.45890000 -3.10770000 2.88080000
-0.34860000 -3.10790000 2.92850000
-0.23890000 -3.10450000 2.97820000
-0.19660000 -2.89950000 2.86210000
-0.15680000 -2.70330000 2.75310000
-0.11540000 -2.52300000 2.63950000
-0.16600000 -2.05610000 2.23740000
-0.21400000 -2.19920000 2.34330000
-0.12430000 -2.20050000 2.38040000
-0.08050000 -2.05730000 2.27300000
-0.26480000 -2.35090000 2.45520000
-0.16920000 -2.35480000 2.49050000
-0.07430000 -2.35520000 2.52700000
-0.03350000 -2.20150000 2.41450000
0.00630000 -2.05860000 2.30490000
-1.04630000 -2.05530000 1.55860000
-1.10340000 -2.05590000 1.48460000
-1.13680000 -2.19830000 1.63190000
-1.19720000 -2.19850000 1.55460000
-1.07300000 -2.19840000 1.70650000
-0.98830000 -2.05310000 1.63220000
-1.23330000 -2.34910000 1.71020000
-1.29480000 -2.35080000 1.62760000
-1.33040000 -2.51330000 1.78900000
-1.39800000 -2.51220000 1.70480000
-1.26200000 -2.51200000 1.87260000
-1.16620000 -2.34940000 1.78840000
-1.09850000 -2.34740000 1.86630000
-1.00910000 -2.19600000 1.78140000
-1.18800000 -2.51300000 1.95130000
-1.11130000 -2.51370000 2.02730000
-1.02480000 -2.34840000 1.93860000
-0.93830000 -2.19710000 1.84980000
-0.92260000 -2.05460000 1.69930000
-0.85630000 -2.05460000 1.76560000
-1.42810000 -2.69020000 1.86820000
-1.49460000 -2.69230000 1.77700000
-1.51890000 -2.88580000 1.94190000
-1.59040000 -2.88590000 1.84870000
-1.44240000 -2.88670000 2.03090000
-1.35280000 -2.69230000 1.95230000
-1.60980000 -3.09430000 2.01540000
-1.68390000 -3.09450000 1.91840000
-1.52980000 -3.09570000 2.10740000
-1.44610000 -3.09720000 2.19570000
-1.36260000 -2.88740000 2.11680000
-1.35930000 -3.09860000 2.28090000
-1.27870000 -2.88880000 2.19870000
-1.27690000 -2.69230000 2.03570000
-1.19730000 -2.69260000 2.11550000
-1.11700000 -2.69090000 2.19460000
-1.03320000 -2.51300000 2.10190000
-1.19350000 -2.88890000 2.27900000
-1.10340000 -2.89070000 2.35350000
-1.03180000 -2.69130000 2.26810000
-0.95250000 -2.51240000 2.17330000
-1.27240000 -3.09750000 2.36590000
-1.17850000 -3.09960000 2.44300000
-1.08330000 -3.10050000 2.51790000
-1.01160000 -2.89170000 2.42560000
-0.94050000 -2.69520000 2.33390000
-0.86620000 -2.51500000 2.23780000
-0.78710000 -2.05500000 1.82900000
-0.86650000 -2.19700000 1.91700000
-0.79220000 -2.19700000 1.98140000
-0.71690000 -2.05430000 1.89120000
-0.94880000 -2.34910000 2.00830000
-0.87110000 -2.34900000 2.07580000
-0.79080000 -2.34910000 2.14020000
-0.71560000 -2.19700000 2.04280000
-0.64370000 -2.05440000 1.94970000
-1.40500000 -2.06420000 0.91220000
-1.43410000 -2.06540000 0.82500000
-1.51260000 -2.20710000 0.95240000
-1.54330000 -2.20810000 0.86090000
-1.47830000 -2.20600000 1.04300000
-1.37260000 -2.06280000 0.99850000
-1.62220000 -2.36110000 0.99380000
-1.65450000 -2.36200000 0.89780000
-1.73520000 -2.52660000 1.03650000
-1.76820000 -2.52800000 0.93560000
-1.69880000 -2.52470000 1.13660000
-1.58730000 -2.35930000 1.08920000
-1.54870000 -2.35740000 1.18340000
-1.44090000 -2.20440000 1.13250000
-1.65960000 -2.52190000 1.23590000
-1.61500000 -2.52020000 1.33320000
-1.50560000 -2.35600000 1.27590000
-1.39990000 -2.20290000 1.22070000
-1.33740000 -2.06100000 1.08400000
-1.29700000 -2.06020000 1.16730000
-1.85110000 -2.70330000 1.08030000
-1.88550000 -2.70480000 0.97450000
-1.96790000 -2.89280000 1.12440000
-2.00280000 -2.89500000 1.01350000
-1.92510000 -2.89280000 1.23280000
-1.81270000 -2.70160000 1.18500000
-2.07750000 -3.10010000 1.16590000
-2.11690000 -3.10050000 1.05140000
-2.03410000 -3.09950000 1.27920000
-1.98700000 -3.09830000 1.39110000
-1.88010000 -2.89150000 1.34040000
-1.93670000 -3.09650000 1.50190000
-1.83150000 -2.88980000 1.44670000
-1.77050000 -2.69960000 1.28840000
-1.72410000 -2.69780000 1.39040000
-1.67370000 -2.69570000 1.49080000
-1.56560000 -2.51900000 1.42850000
-1.77870000 -2.88800000 1.55130000
-1.72100000 -2.88660000 1.65350000
-1.61870000 -2.69410000 1.58900000
-1.51410000 -2.51640000 1.52290000
-1.88390000 -3.09350000 1.61190000
-1.82020000 -3.09460000 1.71610000
-1.75520000 -3.09380000 1.81940000
-1.65830000 -2.88590000 1.75280000
-1.55980000 -2.69220000 1.68510000
-1.45760000 -2.51460000 1.61480000
-1.25450000 -2.05850000 1.24980000
-1.35560000 -2.20100000 1.30760000
-1.30720000 -2.19950000 1.39260000
-1.20780000 -2.05740000 1.33030000
-1.45900000 -2.35430000 1.36710000
-1.40930000 -2.35210000 1.45680000
-1.35350000 -2.35170000 1.54310000
-1.25370000 -2.19920000 1.47460000
-1.15800000 -2.05610000 1.40900000
-1.54790000 -2.06610000 0.19670000
-1.55040000 -2.06560000 0.10500000
-1.66170000 -2.20930000 0.20100000
-1.66310000 -2.20940000 0.10480000
-1.65560000 -2.20960000 0.29690000
-1.54220000 -2.06630000 0.28810000
-1.77800000 -2.36320000 0.20520000
-1.77980000 -2.36330000 0.10440000
-1.89860000 -2.52840000 0.20960000
-1.90000000 -2.52870000 0.10390000
-1.89230000 -2.52860000 0.31510000
-1.77190000 -2.36340000 0.30590000
-1.76220000 -2.36330000 0.40610000
-1.64610000 -2.20960000 0.39240000
-1.88200000 -2.52860000 0.42020000
-1.86690000 -2.52900000 0.52460000
-1.74780000 -2.36360000 0.50570000
-1.63190000 -2.21010000 0.48720000
-1.53280000 -2.06660000 0.37900000
-1.51960000 -2.06680000 0.46940000
-2.02120000 -2.70570000 0.21400000
-2.02330000 -2.70550000 0.10330000
-2.14430000 -2.89600000 0.21830000
-2.14510000 -2.89660000 0.10270000
-2.13810000 -2.89570000 0.33380000
-2.01470000 -2.70580000 0.32440000
-2.26520000 -3.10100000 0.22270000
-2.26550000 -3.10190000 0.10220000
-2.25940000 -3.10040000 0.34310000
-2.24800000 -3.10020000 0.46310000
-2.12680000 -2.89580000 0.44880000
-2.23090000 -3.10050000 0.58240000
-2.11080000 -2.89580000 0.56330000
-2.00400000 -2.70580000 0.43440000
-1.98890000 -2.70570000 0.54390000
-1.96930000 -2.70570000 0.65280000
-1.84800000 -2.52900000 0.62850000
-2.09030000 -2.89580000 0.67720000
-2.06570000 -2.89550000 0.79020000
-1.94540000 -2.70560000 0.76090000
-1.82520000 -2.52890000 0.73160000
-2.21000000 -3.10020000 0.70120000
-2.18370000 -3.10030000 0.81910000
-2.15260000 -3.10040000 0.93580000
-2.03630000 -2.89540000 0.90230000
-1.91700000 -2.70560000 0.86810000
-1.79870000 -2.52850000 0.83410000
-1.50340000 -2.06670000 0.55930000
-1.61490000 -2.21000000 0.58160000
-1.59460000 -2.20940000 0.67550000
-1.48640000 -2.06500000 0.64920000
-1.72970000 -2.36370000 0.60470000
-1.70790000 -2.36360000 0.70300000
-1.68260000 -2.36310000 0.80070000
-1.57120000 -2.20860000 0.76870000
-1.46060000 -2.06590000 0.73710000
-1.47690000 -2.05490000 -0.54150000
-1.44990000 -2.05440000 -0.63230000
-1.58440000 -2.19860000 -0.57200000
-1.55640000 -2.19780000 -0.66700000
-1.60660000 -2.20050000 -0.47570000
-1.49880000 -2.05620000 -0.44970000
-1.69380000 -2.35360000 -0.60310000
-1.66460000 -2.35280000 -0.70240000
-1.80500000 -2.52180000 -0.63490000
-1.77470000 -2.52080000 -0.73840000
-1.83110000 -2.52280000 -0.53050000
-1.71700000 -2.35580000 -0.50260000
-1.73730000 -2.35720000 -0.40190000
-1.62400000 -2.20300000 -0.37890000
-1.85260000 -2.52410000 -0.42530000
-1.86960000 -2.52560000 -0.31970000
-1.75280000 -2.35910000 -0.30060000
-1.63840000 -2.20500000 -0.28200000
-1.51520000 -2.05860000 -0.35710000
-1.52870000 -2.06050000 -0.26450000
-1.91750000 -2.70260000 -0.66710000
-1.88390000 -2.70280000 -0.77420000
-2.03170000 -2.89560000 -0.69980000
-1.99460000 -2.89710000 -0.81050000
-2.06260000 -2.89500000 -0.58730000
-1.94620000 -2.70260000 -0.55870000
-2.14530000 -3.10220000 -0.73240000
-2.10610000 -3.10400000 -0.84720000
-2.17820000 -3.10120000 -0.61570000
-2.20660000 -3.10020000 -0.49790000
-2.08810000 -2.89500000 -0.47360000
-2.22590000 -3.10160000 -0.37840000
-2.10820000 -2.89570000 -0.35900000
-1.96940000 -2.70350000 -0.44930000
-1.98800000 -2.70450000 -0.33920000
-2.00230000 -2.70540000 -0.22870000
-1.88320000 -2.52660000 -0.21390000
-2.12310000 -2.89660000 -0.24390000
-2.13390000 -2.89730000 -0.12840000
-2.01210000 -2.70650000 -0.11810000
-1.89200000 -2.52800000 -0.10800000
-2.24210000 -3.10220000 -0.25870000
-2.25380000 -3.10260000 -0.13860000
-2.26170000 -3.10240000 -0.01830000
-2.14130000 -2.89720000 -0.01290000
-2.01890000 -2.70670000 -0.00740000
-1.89720000 -2.52890000 -0.00200000
-1.53930000 -2.06190000 -0.17190000
-1.64790000 -2.20760000 -0.18500000
-1.65650000 -2.20840000 -0.08830000
-1.54620000 -2.06350000 -0.07940000
-1.76410000 -2.36110000 -0.19920000
-1.77190000 -2.36280000 -0.09790000
-1.77790000 -2.36300000 0.00330000
-1.66160000 -2.20900000 0.00830000
-1.55050000 -2.06440000 0.01290000
-1.15590000 -2.05670000 -1.22780000
-1.10180000 -2.05690000 -1.30550000
-1.24900000 -2.20020000 -1.28930000
-1.19150000 -2.20110000 -1.36990000
-1.30290000 -2.19970000 -1.20600000
-1.20690000 -2.05650000 -1.14770000
-1.34310000 -2.35570000 -1.35130000
-1.28380000 -2.35610000 -1.43590000
-1.44160000 -2.52220000 -1.41610000
-1.37890000 -2.52330000 -1.50390000
-1.49990000 -2.52200000 -1.32510000
-1.40040000 -2.35440000 -1.26500000
-1.45480000 -2.35300000 -1.17660000
-1.35480000 -2.19850000 -1.12110000
-1.55490000 -2.52170000 -1.23190000
-1.60680000 -2.52110000 -1.13690000
-1.50310000 -2.35350000 -1.08450000
-1.40140000 -2.19870000 -1.03310000
-1.25650000 -2.05550000 -1.06650000
-1.30080000 -2.05570000 -0.98210000
-1.54330000 -2.69980000 -1.48300000
-1.47630000 -2.70220000 -1.57350000
-1.63630000 -2.89720000 -1.54430000
-1.57000000 -2.89720000 -1.64050000
-1.68890000 -2.90420000 -1.43930000
-1.60090000 -2.70190000 -1.38610000
-1.73400000 -3.10450000 -1.60860000
-1.66560000 -3.10410000 -1.70890000
-1.79740000 -3.10560000 -1.50510000
-1.85860000 -3.10560000 -1.40030000
-1.75500000 -2.89930000 -1.34270000
-1.91020000 -3.10900000 -1.29020000
-1.80830000 -2.90050000 -1.23860000
-1.65820000 -2.70160000 -1.28910000
-1.70930000 -2.70310000 -1.18870000
-1.75830000 -2.70340000 -1.08720000
-1.65430000 -2.52120000 -1.03960000
-1.85900000 -2.90090000 -1.13340000
-1.90840000 -2.89960000 -1.02750000
-1.80440000 -2.70310000 -0.98450000
-1.69820000 -2.52120000 -0.94060000
-1.96490000 -3.10810000 -1.18210000
-2.01600000 -3.10690000 -1.07220000
-2.06390000 -3.10510000 -0.96080000
-1.95350000 -2.89850000 -0.91980000
-1.84480000 -2.70390000 -0.87950000
-1.73900000 -2.52060000 -0.84040000
-1.34330000 -2.05520000 -0.89680000
-1.44540000 -2.19850000 -0.94370000
-1.48590000 -2.19830000 -0.85280000
-1.38290000 -2.05460000 -0.81020000
-1.54880000 -2.35350000 -0.99120000
-1.59150000 -2.35300000 -0.89650000
-1.62980000 -2.35300000 -0.80000000
-1.52370000 -2.19760000 -0.76080000
-1.41890000 -2.05400000 -0.72210000
-0.64440000 -2.06420000 -1.76860000
-0.57200000 -2.06370000 -1.82520000
-0.71260000 -2.20940000 -1.85460000
-0.63660000 -2.20900000 -1.91370000
-0.78670000 -2.20950000 -1.79280000
-0.71540000 -2.06410000 -1.71000000
-0.78550000 -2.36280000 -1.94650000
-0.70490000 -2.36320000 -2.00750000
-0.86190000 -2.52650000 -2.04260000
-0.77820000 -2.52590000 -2.10780000
-0.94360000 -2.52640000 -1.97470000
-0.86320000 -2.36290000 -1.88160000
-0.93930000 -2.36220000 -1.81430000
-0.86040000 -2.20800000 -1.72990000
-1.02300000 -2.52610000 -1.90370000
-1.09970000 -2.52570000 -1.82950000
-1.01370000 -2.36080000 -1.74480000
-0.93010000 -2.20780000 -1.66220000
-0.78520000 -2.06310000 -1.64930000
-0.85310000 -2.06200000 -1.58610000
-0.93900000 -2.70290000 -2.13940000
-0.85070000 -2.70300000 -2.20690000
-1.01440000 -2.89450000 -2.23410000
-0.92400000 -2.89280000 -2.30710000
-1.10400000 -2.89420000 -2.16000000
-1.02390000 -2.70350000 -2.06740000
-1.08960000 -3.09970000 -2.32870000
-0.99540000 -3.09800000 -2.40470000
-1.18220000 -3.10020000 -2.25050000
-1.27140000 -3.10070000 -2.16850000
-1.19070000 -2.89390000 -2.08250000
-1.35680000 -3.10170000 -2.08240000
-1.27340000 -2.89430000 -2.00040000
-1.10670000 -2.70330000 -1.99290000
-1.18760000 -2.70230000 -1.91600000
-1.26740000 -2.69980000 -1.83740000
-1.17480000 -2.52430000 -1.75330000
-1.35050000 -2.89670000 -1.91300000
-1.42540000 -2.89820000 -1.82360000
-1.33850000 -2.70210000 -1.75070000
-1.24550000 -2.52430000 -1.67270000
-1.43870000 -3.10280000 -1.99310000
-1.51880000 -3.10260000 -1.90210000
-1.59310000 -3.10410000 -1.80620000
-1.49900000 -2.89800000 -1.73320000
-1.40850000 -2.70260000 -1.66310000
-1.31400000 -2.52350000 -1.58990000
-0.91960000 -2.06030000 -1.52060000
-0.99920000 -2.20620000 -1.59340000
-1.06800000 -2.20290000 -1.52340000
-0.98220000 -2.05960000 -1.45100000
-1.08590000 -2.35920000 -1.67240000
-1.15630000 -2.35680000 -1.59780000
-1.22130000 -2.35670000 -1.51800000
-1.13000000 -2.20280000 -1.44710000
-1.04310000 -2.05840000 -1.37940000
-0.01010000 -2.05880000 -2.13150000
0.07790000 -2.05940000 -2.15920000
-0.04930000 -2.19940000 -2.24140000
0.04350000 -2.20050000 -2.27020000
-0.13950000 -2.20020000 -2.20610000
-0.09650000 -2.05850000 -2.09960000
-0.08720000 -2.35520000 -2.34820000
0.00930000 -2.35500000 -2.38060000
-0.12730000 -2.52110000 -2.46150000
-0.02590000 -2.52170000 -2.49440000
-0.22630000 -2.52210000 -2.42220000
-0.18170000 -2.35610000 -2.31100000
-0.27430000 -2.35720000 -2.26970000
-0.22740000 -2.20180000 -2.16580000
-0.32390000 -2.52240000 -2.37980000
-0.41910000 -2.52330000 -2.33270000
-0.36520000 -2.35780000 -2.22520000
-0.31350000 -2.20310000 -2.12240000
-0.18120000 -2.05860000 -2.06360000
-0.26330000 -2.05960000 -2.02250000
-0.16800000 -2.69930000 -2.57650000
-0.06260000 -2.69820000 -2.61370000
-0.21050000 -2.88800000 -2.69610000
-0.10020000 -2.88690000 -2.73530000
-0.31940000 -2.88820000 -2.65370000
-0.27240000 -2.69910000 -2.53690000
-0.25160000 -3.09320000 -2.81140000
-0.13630000 -3.09270000 -2.85160000
-0.36430000 -3.09470000 -2.76500000
-0.47480000 -3.09620000 -2.71410000
-0.42480000 -2.89070000 -2.60370000
-0.58350000 -3.09700000 -2.66000000
-0.52920000 -2.89160000 -2.55190000
-0.37400000 -2.70040000 -2.49090000
-0.47380000 -2.70110000 -2.44170000
-0.57300000 -2.69980000 -2.39140000
-0.51180000 -2.52470000 -2.28110000
-0.63090000 -2.89270000 -2.49560000
-0.73070000 -2.89330000 -2.43610000
-0.66620000 -2.70320000 -2.33060000
-0.60320000 -2.52470000 -2.22760000
-0.69010000 -3.09760000 -2.60190000
-0.79440000 -3.09800000 -2.54010000
-0.89790000 -3.09640000 -2.47680000
-0.82940000 -2.89220000 -2.37470000
-0.75940000 -2.70340000 -2.27030000
-0.69130000 -2.52600000 -2.16860000
-0.34300000 -2.06120000 -1.97710000
-0.39750000 -2.20470000 -2.07520000
-0.47910000 -2.20650000 -2.02430000
-0.42110000 -2.06230000 -1.92930000
-0.45370000 -2.35890000 -2.17650000
-0.53970000 -2.36040000 -2.12350000
-0.62310000 -2.36220000 -2.06670000
-0.55890000 -2.20780000 -1.97050000
-0.49740000 -2.06310000 -1.87850000
0.71840000 -2.05570000 -2.26650000
0.81220000 -2.05340000 -2.27080000
0.71570000 -2.19690000 -2.38360000
0.81400000 -2.19520000 -2.38700000
0.61780000 -2.19850000 -2.37690000
0.62500000 -2.05740000 -2.25980000
0.71330000 -2.35110000 -2.50130000
0.81610000 -2.34980000 -2.50440000
0.71110000 -2.51820000 -2.62200000
0.81860000 -2.51700000 -2.62530000
0.60410000 -2.52020000 -2.61360000
0.61100000 -2.35350000 -2.49290000
0.50900000 -2.35450000 -2.48270000
0.52040000 -2.19960000 -2.36720000
0.49750000 -2.52180000 -2.60190000
0.39110000 -2.52130000 -2.58930000
0.40750000 -2.35500000 -2.46940000
0.42340000 -2.20010000 -2.35460000
0.53190000 -2.05750000 -2.25240000
0.43950000 -2.05830000 -2.24010000
0.70870000 -2.69630000 -2.74690000
0.82090000 -2.69490000 -2.75070000
0.70600000 -2.88610000 -2.87460000
0.82310000 -2.88500000 -2.87830000
0.58910000 -2.88650000 -2.86760000
0.59700000 -2.69830000 -2.73790000
0.70280000 -3.08740000 -3.00580000
0.82480000 -3.08690000 -3.00870000
0.58090000 -3.08800000 -2.99810000
0.45950000 -3.08970000 -2.98400000
0.47270000 -2.88800000 -2.85450000
0.33850000 -3.09050000 -2.96660000
0.35650000 -2.88800000 -2.83920000
0.48540000 -2.69900000 -2.72680000
0.37430000 -2.69940000 -2.71190000
0.26390000 -2.70010000 -2.69220000
0.28560000 -2.52200000 -2.57070000
0.24040000 -2.88610000 -2.82240000
0.12620000 -2.88780000 -2.79570000
0.15400000 -2.69960000 -2.67020000
0.18060000 -2.52160000 -2.54970000
0.21770000 -3.08990000 -2.94680000
0.09870000 -3.09160000 -2.91840000
-0.01950000 -3.09220000 -2.88730000
0.01250000 -2.88780000 -2.76710000
0.04540000 -2.69950000 -2.64330000
0.07650000 -2.52110000 -2.52480000
0.34790000 -2.05930000 -2.22410000
0.32720000 -2.20090000 -2.33810000
0.23180000 -2.20130000 -2.31830000
0.25690000 -2.05940000 -2.20590000
0.30650000 -2.35480000 -2.45330000
0.20660000 -2.35560000 -2.43200000
0.10740000 -2.35540000 -2.40800000
0.13720000 -2.20110000 -2.29570000
0.16690000 -2.05960000 -2.18390000
1.46520000 -2.04690000 -2.18410000
1.55460000 -2.04830000 -2.15390000
1.49780000 -2.18800000 -2.29880000
1.59170000 -2.18920000 -2.26810000
1.40210000 -2.18810000 -2.32390000
1.37410000 -2.04650000 -2.20930000
1.53160000 -2.33970000 -2.41790000
1.63100000 -2.33870000 -2.38910000
1.56570000 -2.50530000 -2.53830000
1.66950000 -2.50440000 -2.50810000
1.46090000 -2.50620000 -2.56430000
1.43130000 -2.34040000 -2.44340000
1.33000000 -2.34120000 -2.46460000
1.30530000 -2.18870000 -2.34480000
1.35500000 -2.50750000 -2.58560000
1.24880000 -2.50710000 -2.60520000
1.22810000 -2.34110000 -2.48310000
1.20780000 -2.18920000 -2.36200000
1.28190000 -2.04630000 -2.23070000
1.18830000 -2.04850000 -2.24430000
1.60000000 -2.68430000 -2.65920000
1.70810000 -2.68350000 -2.62760000
1.63480000 -2.87510000 -2.78210000
1.74760000 -2.87400000 -2.74980000
1.52050000 -2.87700000 -2.80860000
1.49030000 -2.68640000 -2.68440000
1.66970000 -3.07890000 -2.90590000
1.78700000 -3.07820000 -2.87180000
1.55110000 -3.07980000 -2.93500000
1.43140000 -3.08110000 -2.95860000
1.40550000 -2.87880000 -2.83080000
1.31080000 -3.08350000 -2.97580000
1.28980000 -2.88030000 -2.84880000
1.38000000 -2.68780000 -2.70630000
1.26900000 -2.68910000 -2.72410000
1.15740000 -2.69070000 -2.73700000
1.14120000 -2.51140000 -2.61390000
1.17370000 -2.88130000 -2.86310000
1.05710000 -2.88230000 -2.87300000
1.04540000 -2.69250000 -2.74520000
1.03380000 -2.51330000 -2.62160000
1.18980000 -3.08480000 -2.99020000
1.06850000 -3.08560000 -3.00100000
0.94680000 -3.08620000 -3.00720000
0.94020000 -2.88350000 -2.87810000
0.93320000 -2.69390000 -2.74980000
0.92610000 -2.51510000 -2.62550000
1.09470000 -2.04900000 -2.25760000
1.10960000 -2.19080000 -2.37380000
1.01130000 -2.19060000 -2.38440000
1.00060000 -2.05060000 -2.26520000
1.12520000 -2.34420000 -2.49300000
1.02230000 -2.34480000 -2.50250000
0.91920000 -2.34780000 -2.50470000
0.91260000 -2.19360000 -2.38650000
0.90640000 -2.05230000 -2.26930000
2.13690000 -2.05610000 -1.85970000
2.21310000 -2.05690000 -1.80660000
2.20440000 -2.19540000 -1.96180000
2.28360000 -2.19700000 -1.90460000
2.12310000 -2.19380000 -2.01600000
2.05960000 -2.05450000 -1.91130000
2.27360000 -2.34580000 -2.06690000
2.35880000 -2.34500000 -2.00940000
2.34490000 -2.50790000 -2.17530000
2.43130000 -2.51060000 -2.11080000
2.25480000 -2.50670000 -2.23460000
2.18850000 -2.34360000 -2.12460000
2.10080000 -2.34210000 -2.17820000
2.03930000 -2.19270000 -2.06660000
2.16230000 -2.50580000 -2.29020000
2.06740000 -2.50550000 -2.34150000
2.01070000 -2.34100000 -2.22800000
1.95340000 -2.19180000 -2.11380000
1.98030000 -2.05290000 -1.96010000
1.89900000 -2.05130000 -2.00590000
2.41430000 -2.68580000 -2.28100000
2.50670000 -2.68630000 -2.21600000
2.48620000 -2.87440000 -2.39010000
2.58370000 -2.87400000 -2.32300000
2.38670000 -2.87450000 -2.45360000
2.31970000 -2.68520000 -2.34250000
2.55730000 -3.07780000 -2.49760000
2.65860000 -3.07770000 -2.42710000
2.45240000 -3.07910000 -2.56220000
2.34610000 -3.07940000 -2.62410000
2.28530000 -2.87400000 -2.51400000
2.23830000 -3.07900000 -2.68280000
2.18190000 -2.87350000 -2.57040000
2.22330000 -2.68390000 -2.40130000
2.12490000 -2.68240000 -2.45650000
2.02300000 -2.68300000 -2.50500000
1.97040000 -2.50540000 -2.38870000
2.07600000 -2.87350000 -2.62190000
1.96830000 -2.87330000 -2.66940000
1.91960000 -2.68310000 -2.55010000
1.87190000 -2.50480000 -2.43280000
2.12890000 -3.07780000 -2.73830000
2.01690000 -3.07740000 -2.78830000
1.90290000 -3.07750000 -2.83280000
1.85880000 -2.87350000 -2.71210000
1.81460000 -2.68330000 -2.59090000
1.77150000 -2.50440000 -2.47270000
1.81540000 -2.05040000 -2.04780000
1.86550000 -2.19110000 -2.15740000
1.77570000 -2.19050000 -2.19780000
1.72990000 -2.04980000 -2.08620000
1.91770000 -2.34140000 -2.27250000
1.82320000 -2.34150000 -2.31360000
1.72760000 -2.34070000 -2.35240000
1.68440000 -2.19010000 -2.23430000
1.64300000 -2.04920000 -2.12150000
2.67260000 -2.06860000 -1.35730000
2.72740000 -2.07030000 -1.28450000
2.77050000 -2.20590000 -1.43350000
2.82790000 -2.20790000 -1.35630000
2.71150000 -2.20270000 -1.50990000
2.61430000 -2.06740000 -1.42770000
2.87080000 -2.35450000 -1.51150000
2.93230000 -2.35550000 -1.43070000
2.97550000 -2.51360000 -1.59290000
3.03930000 -2.51520000 -1.50720000
2.90530000 -2.51460000 -1.67400000
2.80610000 -2.35350000 -1.59000000
2.73800000 -2.35260000 -1.66600000
2.64550000 -2.20300000 -1.58080000
2.83320000 -2.51420000 -1.75350000
2.75940000 -2.51260000 -1.83180000
2.66690000 -2.35190000 -1.73930000
2.57790000 -2.20210000 -1.65030000
2.55390000 -2.06570000 -1.49650000
2.49770000 -2.05810000 -1.57010000
3.07840000 -2.68770000 -1.67310000
3.14670000 -2.68820000 -1.58400000
3.17870000 -2.87760000 -1.75120000
3.25040000 -2.87770000 -1.65820000
3.10270000 -2.87780000 -1.84110000
3.00540000 -2.68820000 -1.75870000
3.27690000 -3.08250000 -1.82780000
3.35260000 -3.08180000 -1.73150000
3.19820000 -3.08250000 -1.92200000
3.11630000 -3.08200000 -2.01390000
3.02570000 -2.87590000 -1.93060000
3.03170000 -3.08080000 -2.10360000
2.94480000 -2.87420000 -2.01700000
2.93080000 -2.68690000 -1.84340000
2.85170000 -2.68690000 -1.92410000
2.77070000 -2.68570000 -2.00300000
2.68170000 -2.51170000 -1.90640000
2.85980000 -2.87330000 -2.09960000
2.77240000 -2.87170000 -2.17980000
2.68690000 -2.68430000 -2.07900000
2.59990000 -2.51240000 -1.97650000
2.94390000 -3.07930000 -2.19060000
2.85150000 -3.07900000 -2.27280000
2.75710000 -3.07780000 -2.35260000
2.67870000 -2.87350000 -2.25240000
2.59830000 -2.68500000 -2.14950000
2.51670000 -2.51180000 -2.04490000
2.42600000 -2.06130000 -1.62870000
2.50780000 -2.20110000 -1.71750000
2.43570000 -2.19960000 -1.78280000
2.35560000 -2.06140000 -1.68840000
2.59310000 -2.35100000 -1.81010000
2.51700000 -2.34970000 -1.87870000
2.43820000 -2.34840000 -1.94430000
2.36040000 -2.19880000 -1.84450000
2.28470000 -2.05980000 -1.74780000
3.01440000 -2.08750000 -0.72160000
3.04390000 -2.08870000 -0.63600000
3.14020000 -2.21820000 -0.76600000
3.17120000 -2.21930000 -0.67550000
3.10460000 -2.21780000 -0.85480000
2.98240000 -2.08570000 -0.80610000
3.26000000 -2.36610000 -0.80850000
3.29250000 -2.36730000 -0.71330000
3.38370000 -2.52550000 -0.85250000
3.42390000 -2.52190000 -0.75430000
3.34540000 -2.52440000 -0.95100000
3.22460000 -2.36420000 -0.90260000
3.18550000 -2.36230000 -0.99530000
3.06470000 -2.21790000 -0.94150000
3.30420000 -2.52270000 -1.04830000
3.26040000 -2.51980000 -1.14460000
3.14210000 -2.36080000 -1.08610000
3.02330000 -2.21660000 -1.02750000
2.94770000 -2.08340000 -0.88950000
2.91010000 -2.08090000 -0.97170000
3.50590000 -2.69890000 -0.89610000
3.54040000 -2.70070000 -0.79090000
3.62940000 -2.88460000 -0.94040000
3.66410000 -2.88720000 -0.82980000
3.58960000 -2.88240000 -1.04930000
3.46770000 -2.69660000 -1.00010000
3.74830000 -3.08700000 -0.98310000
3.78620000 -3.08830000 -0.86830000
3.70610000 -3.08550000 -1.09650000
3.65890000 -3.08440000 -1.20780000
3.54450000 -2.88090000 -1.15620000
3.60720000 -3.08320000 -1.31730000
3.49530000 -2.87930000 -1.26140000
3.42670000 -2.69330000 -1.10320000
3.37920000 -2.69180000 -1.20350000
3.32700000 -2.69090000 -1.30170000
3.21220000 -2.51740000 -1.23900000
3.44040000 -2.87870000 -1.36400000
3.38240000 -2.87740000 -1.46510000
3.27120000 -2.68970000 -1.39820000
3.15850000 -2.51650000 -1.33060000
3.55110000 -3.08210000 -1.42490000
3.49080000 -3.08090000 -1.53060000
3.42460000 -3.08070000 -1.63290000
3.31770000 -2.87810000 -1.56240000
3.21070000 -2.68910000 -1.49210000
3.10080000 -2.51580000 -1.42000000
2.86970000 -2.07790000 -1.05260000
2.97930000 -2.21460000 -1.11220000
2.93230000 -2.21220000 -1.19540000
2.82840000 -2.07330000 -1.13340000
3.09510000 -2.35930000 -1.17520000
3.04450000 -2.35790000 -1.26250000
2.99010000 -2.35680000 -1.34760000
2.88200000 -2.20980000 -1.27690000
2.77940000 -2.07190000 -1.20990000
3.14850000 -2.09420000 -0.00800000
3.27890000 -2.22560000 -0.01150000
3.28860000 -2.21580000 -0.10910000
3.14530000 -2.09330000 -0.10000000
3.40720000 -2.37160000 -0.01520000
3.53650000 -2.53190000 -0.01910000
3.54740000 -2.52070000 -0.12670000
3.40390000 -2.37110000 -0.11740000
3.41520000 -2.35650000 -0.22050000
3.28080000 -2.21540000 -0.20620000
3.54530000 -2.51600000 -0.23460000
3.53040000 -2.51710000 -0.34120000
3.39930000 -2.35870000 -0.32190000
3.25830000 -2.22240000 -0.30140000
3.13810000 -2.09250000 -0.19150000
3.12630000 -2.09220000 -0.28220000
3.67610000 -2.69830000 -0.02260000
3.78860000 -2.89670000 -0.02670000
3.78620000 -2.89480000 -0.14390000
3.66240000 -2.70460000 -0.13530000
3.91060000 -3.10150000 -0.03030000
3.90670000 -3.10010000 -0.15220000
3.90670000 -3.09370000 -0.27430000
3.77840000 -2.89330000 -0.26060000
3.89450000 -3.09140000 -0.39560000
3.76800000 -2.89030000 -0.37690000
3.67090000 -2.69230000 -0.24830000
3.65140000 -2.69590000 -0.35940000
3.63760000 -2.69230000 -0.47060000
3.50210000 -2.52470000 -0.44520000
3.74590000 -2.89170000 -0.49140000
3.72310000 -2.89030000 -0.60540000
3.61520000 -2.69110000 -0.58030000
3.48600000 -2.51950000 -0.55070000
3.86830000 -3.09440000 -0.51460000
3.84760000 -3.09120000 -0.63410000
3.81910000 -3.08990000 -0.75180000
3.69590000 -2.88870000 -0.71820000
3.58270000 -2.69390000 -0.68740000
3.46060000 -2.51800000 -0.65430000
3.11200000 -2.09110000 -0.37220000
3.24240000 -2.22180000 -0.39650000
3.22250000 -2.22100000 -0.49060000
3.09300000 -2.09030000 -0.46130000
3.38700000 -2.35480000 -0.42320000
3.35690000 -2.36100000 -0.52110000
3.32260000 -2.36740000 -0.61700000
3.20300000 -2.21710000 -0.58480000
3.06980000 -2.08980000 -0.54910000
2.73160000 -9.40400000 0.62600000
2.70380000 -9.40110000 0.69920000
2.65060000 -9.54650000 0.60280000
2.62570000 -9.54510000 0.67370000
2.67280000 -9.54790000 0.53100000
2.75310000 -9.40440000 0.55060000
2.58900000 -9.67850000 0.58520000
2.56490000 -9.67720000 0.65370000
2.53950000 -9.80200000 0.57090000
2.51520000 -9.80040000 0.63720000
2.56130000 -9.80360000 0.50370000
2.61090000 -9.68010000 0.51590000
2.63010000 -9.68170000 0.44590000
2.69260000 -9.54960000 0.45860000
2.58020000 -9.80520000 0.43570000
2.59630000 -9.80660000 0.36690000
2.64610000 -9.68300000 0.37510000
2.70910000 -9.55120000 0.38540000
2.78430000 -9.41380000 0.47780000
2.79040000 -9.40780000 0.39870000
2.49930000 -9.92100000 0.55930000
2.47560000 -9.91960000 0.62400000
2.46640000 -10.04000000 0.54980000
2.44330000 -10.03890000 0.61330000
2.48680000 -10.04120000 0.48530000
2.52050000 -9.92250000 0.49360000
2.43960000 -10.16370000 0.54210000
2.41750000 -10.16280000 0.60490000
2.46060000 -10.16490000 0.47890000
2.47890000 -10.16600000 0.41490000
2.50540000 -10.04250000 0.42020000
2.49490000 -10.16720000 0.35020000
2.52150000 -10.04380000 0.35450000
2.53880000 -9.92370000 0.42710000
2.55560000 -9.92540000 0.36020000
2.56930000 -9.92680000 0.29250000
2.60920000 -9.80790000 0.29750000
2.53450000 -10.04500000 0.28810000
2.54450000 -10.04600000 0.22110000
2.58350000 -9.92940000 0.22460000
2.61850000 -9.80880000 0.22750000
2.50740000 -10.16810000 0.28480000
2.51660000 -10.16880000 0.21890000
2.52250000 -10.16940000 0.15260000
2.55060000 -10.04660000 0.15370000
2.52550000 -10.16980000 0.08610000
2.55210000 -10.04670000 0.08610000
2.58360000 -9.92810000 0.15520000
2.62370000 -9.80910000 0.15710000
2.58650000 -9.92860000 0.08630000
2.62530000 -9.80910000 0.08660000
2.80370000 -9.40910000 0.32170000
2.72190000 -9.55240000 0.31150000
2.73070000 -9.55280000 0.23700000
2.81270000 -9.40950000 0.24410000
2.65920000 -9.68440000 0.30370000
2.66780000 -9.68500000 0.23170000
2.67360000 -9.68550000 0.15940000
2.73630000 -9.55320000 0.16240000
2.67480000 -9.68530000 0.08700000
2.73760000 -9.55300000 0.08750000
2.81850000 -9.41000000 0.16620000
2.82020000 -9.40980000 0.08830000
2.45000000 -9.39260000 1.18110000
2.40330000 -9.39080000 1.24290000
2.37880000 -9.53480000 1.13330000
2.33540000 -9.53420000 1.19340000
2.42070000 -9.53590000 1.07200000
2.49370000 -9.39380000 1.11700000
2.32520000 -9.66750000 1.09720000
2.28330000 -9.66700000 1.15540000
2.28390000 -9.79260000 1.06940000
2.24220000 -9.79170000 1.12520000
2.32210000 -9.79290000 1.01090000
2.36520000 -9.66810000 1.03760000
2.40360000 -9.66930000 0.97690000
2.46150000 -9.53780000 1.00960000
2.35920000 -9.79370000 0.95170000
2.39450000 -9.79470000 0.89110000
2.43930000 -9.67010000 0.91430000
2.49730000 -9.53800000 0.94410000
2.53270000 -9.39310000 1.04960000
2.57260000 -9.39530000 0.98280000
2.24940000 -9.91240000 1.04600000
2.20920000 -9.91180000 1.10090000
2.22200000 -10.03250000 1.02740000
2.18210000 -10.03180000 1.08100000
2.25910000 -10.03300000 0.97170000
2.28760000 -9.91310000 0.98940000
2.20020000 -10.15720000 1.01270000
2.16000000 -10.15640000 1.06480000
2.23720000 -10.15780000 0.95830000
2.27230000 -10.15850000 0.90240000
2.29500000 -10.03380000 0.91520000
2.30550000 -10.15920000 0.84520000
2.32750000 -10.03450000 0.85910000
2.32350000 -9.91370000 0.93130000
2.35790000 -9.91460000 0.87220000
2.39040000 -9.91570000 0.81180000
2.42770000 -9.79590000 0.82930000
2.36220000 -10.03570000 0.79610000
2.39060000 -10.03670000 0.73760000
2.42100000 -9.91690000 0.75040000
2.45940000 -9.79740000 0.76660000
2.33780000 -10.16030000 0.78740000
2.36620000 -10.16100000 0.72740000
2.39340000 -10.16200000 0.66690000
2.41860000 -10.03790000 0.67620000
2.44960000 -9.91830000 0.68780000
2.48830000 -9.79880000 0.70240000
2.60850000 -9.39610000 0.91350000
2.53330000 -9.53980000 0.87860000
2.56590000 -9.54110000 0.81120000
2.64240000 -9.39740000 0.84310000
2.47380000 -9.67150000 0.85090000
2.50650000 -9.67330000 0.78630000
2.53690000 -9.67520000 0.72060000
2.59710000 -9.54300000 0.74310000
2.67410000 -9.39900000 0.77160000
2.03020000 -9.39170000 1.63000000
1.96680000 -9.38940000 1.67310000
1.97870000 -9.53500000 1.56480000
1.92090000 -9.53580000 1.61030000
2.03780000 -9.53680000 1.52080000
2.09060000 -9.39250000 1.58250000
1.93760000 -9.66620000 1.51260000
1.88080000 -9.66610000 1.55500000
1.90480000 -9.78990000 1.47090000
1.84960000 -9.78960000 1.51190000
1.95880000 -9.79040000 1.42800000
1.99240000 -9.66620000 1.46750000
2.04540000 -9.66600000 1.42010000
2.09110000 -9.53510000 1.46970000
2.01060000 -9.79050000 1.38230000
2.06090000 -9.79080000 1.33490000
2.09720000 -9.66640000 1.37140000
2.14330000 -9.53430000 1.41760000
2.14840000 -9.39270000 1.53180000
2.20250000 -9.39110000 1.47690000
1.87860000 -9.90970000 1.43750000
1.82390000 -9.90910000 1.47650000
1.85680000 -10.02940000 1.40960000
1.80330000 -10.02890000 1.44800000
1.90870000 -10.02990000 1.36910000
1.93110000 -9.91000000 1.39550000
1.83910000 -10.15390000 1.38710000
1.78770000 -10.15390000 1.42640000
1.88980000 -10.15420000 1.34680000
1.93880000 -10.15440000 1.30420000
1.95850000 -10.03020000 1.32570000
1.98620000 -10.15470000 1.25980000
2.00690000 -10.03050000 1.28060000
1.98240000 -9.91060000 1.35170000
2.03130000 -9.91070000 1.30520000
2.07900000 -9.91110000 1.25720000
2.10890000 -9.79090000 1.28510000
2.05420000 -10.03110000 1.23420000
2.09760000 -10.03090000 1.18380000
2.12380000 -9.91110000 1.20640000
2.15520000 -9.79110000 1.23350000
2.03170000 -10.15490000 1.21310000
2.07710000 -10.15560000 1.16620000
2.12080000 -10.15630000 1.11740000
2.14040000 -10.03120000 1.13300000
2.16770000 -9.91160000 1.15480000
2.19970000 -9.79130000 1.18020000
2.25750000 -9.39240000 1.42290000
2.19540000 -9.53500000 1.36540000
2.24490000 -9.53520000 1.31050000
2.30810000 -9.39160000 1.36460000
2.14680000 -9.66660000 1.32030000
2.19410000 -9.66660000 1.26690000
2.23960000 -9.66670000 1.21190000
2.29060000 -9.53420000 1.25220000
2.35610000 -9.39060000 1.30410000
1.49000000 -9.38140000 1.90990000
1.41750000 -9.37990000 1.93230000
1.46240000 -9.52720000 1.83540000
1.39330000 -9.52670000 1.85810000
1.53000000 -9.52680000 1.80820000
1.56060000 -9.38090000 1.88180000
1.44020000 -9.66020000 1.77490000
1.37380000 -9.66020000 1.79760000
1.42390000 -9.78690000 1.73060000
1.35930000 -9.78690000 1.75270000
1.48690000 -9.78610000 1.70400000
1.50640000 -9.66120000 1.75130000
1.57130000 -9.66160000 1.72420000
1.59720000 -9.52730000 1.78020000
1.54970000 -9.78630000 1.67720000
1.61200000 -9.78700000 1.64890000
1.63470000 -9.66160000 1.69350000
1.66490000 -9.52980000 1.75280000
1.63200000 -9.38350000 1.85550000
1.70130000 -9.38430000 1.82370000
1.40870000 -9.90660000 1.68910000
1.34580000 -9.90670000 1.71070000
1.39660000 -10.02680000 1.65590000
1.33520000 -10.02700000 1.67770000
1.45750000 -10.02690000 1.63270000
1.47070000 -9.90650000 1.66500000
1.38740000 -10.15210000 1.63060000
1.32710000 -10.15230000 1.65200000
1.44710000 -10.15200000 1.60720000
1.50590000 -10.15200000 1.58150000
1.51770000 -10.02700000 1.60740000
1.56420000 -10.15220000 1.55450000
1.57700000 -10.02730000 1.57990000
1.53320000 -9.90760000 1.64130000
1.59290000 -9.90720000 1.61130000
1.65250000 -9.90760000 1.58100000
1.67310000 -9.78740000 1.61780000
1.63550000 -10.02770000 1.55040000
1.69300000 -10.02820000 1.51900000
1.71070000 -9.90790000 1.54800000
1.73330000 -9.78820000 1.58500000
1.62150000 -10.15240000 1.52530000
1.67790000 -10.15280000 1.49420000
1.73330000 -10.15330000 1.46110000
1.74870000 -10.02850000 1.48440000
1.76810000 -9.90860000 1.51360000
1.79170000 -9.78860000 1.54900000
1.76990000 -9.38580000 1.79040000
1.72960000 -9.52980000 1.71870000
1.79440000 -9.53150000 1.68470000
1.83740000 -9.38740000 1.75450000
1.69790000 -9.66250000 1.66220000
1.76030000 -9.66370000 1.62910000
1.82080000 -9.66450000 1.59260000
1.85760000 -9.53290000 1.64760000
1.90260000 -9.38810000 1.71470000
0.89840000 -9.38600000 2.03410000
0.82270000 -9.38490000 2.03380000
0.89550000 -9.53150000 1.95460000
0.82290000 -9.53090000 1.95490000
0.96760000 -9.52910000 1.94620000
0.97370000 -9.38370000 2.02600000
0.89310000 -9.66360000 1.88920000
0.82310000 -9.66530000 1.89390000
0.89130000 -9.78900000 1.83920000
0.82320000 -9.78920000 1.84070000
0.95930000 -9.78920000 1.83590000
0.96280000 -9.66260000 1.88300000
1.03240000 -9.66190000 1.87500000
1.03990000 -9.52960000 1.94010000
1.02710000 -9.78860000 1.82810000
1.09450000 -9.78800000 1.81760000
1.10160000 -9.66130000 1.86430000
1.11120000 -9.52730000 1.92610000
1.04870000 -9.38230000 2.01640000
1.12340000 -9.38110000 2.00420000
0.88980000 -9.90930000 1.79710000
0.82340000 -9.90970000 1.79910000
0.88850000 -10.02910000 1.76130000
0.82350000 -10.02940000 1.76320000
0.95350000 -10.02870000 1.75650000
0.95610000 -9.90900000 1.79260000
0.88760000 -10.15390000 1.73350000
0.82360000 -10.15430000 1.73630000
0.95150000 -10.15360000 1.72890000
1.01520000 -10.15340000 1.72210000
1.01820000 -10.02850000 1.74990000
1.07870000 -10.15330000 1.71400000
1.08270000 -10.02830000 1.74060000
1.02210000 -9.90830000 1.78450000
1.08810000 -9.90850000 1.77630000
1.15350000 -9.90800000 1.76360000
1.16120000 -9.78700000 1.80350000
1.14670000 -10.02800000 1.72870000
1.21020000 -10.02760000 1.71420000
1.21810000 -9.90720000 1.74780000
1.22760000 -9.78650000 1.78810000
1.14180000 -10.15320000 1.70260000
1.20430000 -10.15290000 1.68830000
1.26590000 -10.15250000 1.67090000
1.27310000 -10.02730000 1.69720000
1.28240000 -9.90700000 1.73070000
1.29390000 -9.78700000 1.77240000
1.19810000 -9.38160000 1.99170000
1.18220000 -9.52600000 1.91120000
1.25300000 -9.52580000 1.89550000
1.27160000 -9.38020000 1.97340000
1.17070000 -9.66130000 1.85240000
1.23890000 -9.66070000 1.83630000
1.30650000 -9.66020000 1.81780000
1.32320000 -9.52570000 1.87710000
1.34470000 -9.37960000 1.95350000
0.30110000 -9.38330000 1.95960000
0.22910000 -9.38300000 1.93730000
0.32310000 -9.52870000 1.88160000
0.25420000 -9.52810000 1.85980000
0.39260000 -9.52990000 1.90180000
0.37340000 -9.38520000 1.98130000
0.34060000 -9.66170000 1.81930000
0.27410000 -9.66110000 1.79810000
0.35430000 -9.78710000 1.77050000
0.28950000 -9.78670000 1.75020000
0.42030000 -9.78650000 1.78600000
0.40800000 -9.66200000 1.83730000
0.47630000 -9.66200000 1.85220000
0.46380000 -9.52840000 1.91460000
0.48630000 -9.78710000 1.80180000
0.55280000 -9.78780000 1.81520000
0.54480000 -9.66260000 1.86570000
0.53480000 -9.52900000 1.92820000
0.44770000 -9.38370000 1.99510000
0.52190000 -9.38420000 2.00890000
0.36590000 -9.90710000 1.72860000
0.30240000 -9.90710000 1.70990000
0.37530000 -10.02740000 1.69500000
0.31370000 -10.02690000 1.67450000
0.43720000 -10.02850000 1.71480000
0.42970000 -9.90760000 1.74650000
0.38240000 -10.15280000 1.66940000
0.32150000 -10.15250000 1.65000000
0.44440000 -10.15280000 1.68490000
0.50680000 -10.15290000 1.69840000
0.50070000 -10.02870000 1.72900000
0.56910000 -10.15350000 1.71220000
0.56480000 -10.02860000 1.73970000
0.49350000 -9.90910000 1.76490000
0.55930000 -9.90840000 1.77430000
0.62470000 -9.90910000 1.78550000
0.61980000 -9.78870000 1.82700000
0.62890000 -10.02900000 1.75010000
0.69350000 -10.02930000 1.75750000
0.69050000 -9.91030000 1.79560000
0.68730000 -9.78930000 1.83500000
0.63240000 -10.15360000 1.72110000
0.69590000 -10.15370000 1.72790000
0.75950000 -10.15470000 1.73650000
0.75840000 -10.02940000 1.76180000
0.75670000 -9.91140000 1.80290000
0.75520000 -9.78950000 1.83980000
0.59610000 -9.38740000 2.02430000
0.60630000 -9.52990000 1.93990000
0.67800000 -9.53170000 1.95030000
0.67170000 -9.38550000 2.02880000
0.61370000 -9.66370000 1.87750000
0.68310000 -9.66530000 1.88780000
0.75300000 -9.66570000 1.89320000
0.75040000 -9.53190000 1.95510000
0.74720000 -9.38510000 2.03260000
-0.24420000 -9.38000000 1.70350000
-0.30710000 -9.38060000 1.66110000
-0.20020000 -9.52620000 1.63740000
-0.26110000 -9.52740000 1.59770000
-0.13800000 -9.52540000 1.67500000
-0.17980000 -9.37940000 1.74340000
-0.16410000 -9.65890000 1.58320000
-0.22150000 -9.65870000 1.54310000
-0.13600000 -9.78420000 1.54090000
-0.19110000 -9.78350000 1.50110000
-0.08020000 -9.78540000 1.57990000
-0.10540000 -9.65930000 1.62130000
-0.04580000 -9.66030000 1.65820000
-0.07550000 -9.52560000 1.71170000
-0.02090000 -9.78520000 1.61340000
0.03960000 -9.78500000 1.64440000
0.01590000 -9.66040000 1.69120000
-0.01260000 -9.52690000 1.74780000
-0.11460000 -9.37980000 1.78200000
-0.04800000 -9.38000000 1.81770000
-0.11190000 -9.90430000 1.50460000
-0.16560000 -9.90370000 1.46590000
-0.09160000 -10.02440000 1.47420000
-0.14370000 -10.02370000 1.43570000
-0.03760000 -10.02490000 1.51000000
-0.05720000 -9.90520000 1.54230000
-0.07740000 -10.15030000 1.45260000
-0.12910000 -10.14980000 1.41530000
-0.02440000 -10.15080000 1.48800000
0.03000000 -10.15130000 1.52140000
0.01780000 -10.02540000 1.54360000
0.08580000 -10.15170000 1.55230000
0.07400000 -10.02610000 1.57600000
-0.00030000 -9.90560000 1.57620000
0.05850000 -9.90560000 1.60680000
0.11800000 -9.90590000 1.63610000
0.10150000 -9.78450000 1.67230000
0.13160000 -10.02690000 1.60590000
0.19140000 -10.02690000 1.63110000
0.17890000 -9.90590000 1.66180000
0.16380000 -9.78450000 1.69910000
0.14360000 -10.15170000 1.57930000
0.20240000 -10.15170000 1.60390000
0.26150000 -10.15210000 1.62800000
0.25250000 -10.02660000 1.65310000
0.24100000 -9.90570000 1.68480000
0.22610000 -9.78570000 1.72600000
0.01940000 -9.38090000 1.85200000
0.05280000 -9.52690000 1.77910000
0.11890000 -9.52730000 1.80870000
0.08800000 -9.38200000 1.88370000
0.07890000 -9.66070000 1.72190000
0.14350000 -9.66020000 1.74870000
0.20890000 -9.66000000 1.77310000
0.18630000 -9.52730000 1.83490000
0.15820000 -9.38220000 1.91150000
-0.69870000 -9.38630000 1.30110000
-0.74620000 -9.38680000 1.24080000
-0.62950000 -9.52750000 1.24670000
-0.67560000 -9.52870000 1.18980000
-0.58290000 -9.52760000 1.30300000
-0.64810000 -9.38490000 1.35850000
-0.57600000 -9.65890000 1.20470000
-0.61960000 -9.65940000 1.14930000
-0.53300000 -9.78250000 1.17080000
-0.57500000 -9.78290000 1.11710000
-0.48810000 -9.78170000 1.22220000
-0.53050000 -9.65850000 1.25830000
-0.48620000 -9.66020000 1.31310000
-0.53390000 -9.52740000 1.35710000
-0.44260000 -9.78170000 1.27290000
-0.39550000 -9.78180000 1.32200000
-0.43520000 -9.65880000 1.36170000
-0.48220000 -9.52670000 1.40850000
-0.59620000 -9.38430000 1.41460000
-0.54270000 -9.38400000 1.46890000
-0.49520000 -9.90110000 1.14110000
-0.53730000 -9.90190000 1.08980000
-0.46800000 -10.02200000 1.11970000
-0.50810000 -10.02230000 1.06870000
-0.42850000 -10.02260000 1.17140000
-0.45390000 -9.90150000 1.19300000
-0.44730000 -10.14800000 1.10350000
-0.48660000 -10.14810000 1.05320000
-0.40660000 -10.14800000 1.15270000
-0.36430000 -10.14800000 1.20050000
-0.38560000 -10.02280000 1.22020000
-0.32040000 -10.14830000 1.24680000
-0.33980000 -10.02260000 1.26630000
-0.41250000 -9.90280000 1.24500000
-0.36320000 -9.90130000 1.28960000
-0.31580000 -9.90160000 1.33600000
-0.34680000 -9.78210000 1.36940000
-0.29350000 -10.02300000 1.31180000
-0.24450000 -10.02290000 1.35430000
-0.26910000 -9.90310000 1.38320000
-0.29630000 -9.78240000 1.41500000
-0.27470000 -10.14850000 1.29130000
-0.22780000 -10.14890000 1.33450000
-0.18040000 -10.14970000 1.37730000
-0.19470000 -10.02320000 1.39570000
-0.21800000 -9.90330000 1.42540000
-0.24430000 -9.78280000 1.45870000
-0.48780000 -9.38430000 1.52180000
-0.42960000 -9.52670000 1.45890000
-0.37580000 -9.52750000 1.50800000
-0.42940000 -9.38310000 1.57060000
-0.38490000 -9.65910000 1.41060000
-0.33260000 -9.65930000 1.45740000
-0.27740000 -9.65860000 1.50070000
-0.31890000 -9.52700000 1.55340000
-0.37040000 -9.38320000 1.61870000
-1.01840000 -9.39770000 0.77800000
-1.04570000 -9.39870000 0.70560000
-0.93780000 -9.53960000 0.74840000
-0.96480000 -9.54100000 0.67950000
-0.90780000 -9.53800000 0.81580000
-0.98760000 -9.39620000 0.84880000
-0.87430000 -9.67030000 0.72510000
-0.90030000 -9.67150000 0.65880000
-0.82220000 -9.79260000 0.70610000
-0.84780000 -9.79390000 0.64190000
-0.79310000 -9.79090000 0.76870000
-0.84470000 -9.66850000 0.78990000
-0.81400000 -9.66760000 0.85410000
-0.87530000 -9.53650000 0.88210000
-0.76190000 -9.78930000 0.83010000
-0.72800000 -9.78760000 0.89000000
-0.77790000 -9.66500000 0.91530000
-0.84120000 -9.53570000 0.94740000
-0.95610000 -9.39630000 0.91930000
-0.91930000 -9.39440000 0.98700000
-0.77960000 -9.91110000 0.69060000
-0.80540000 -9.91260000 0.62840000
-0.73890000 -10.02830000 0.67540000
-0.76690000 -10.03040000 0.61600000
-0.71400000 -10.02780000 0.73610000
-0.75050000 -9.90930000 0.75120000
-0.71240000 -10.15300000 0.66600000
-0.73720000 -10.15410000 0.60650000
-0.68570000 -10.15200000 0.72460000
-0.65820000 -10.15130000 0.78280000
-0.68480000 -10.02670000 0.79480000
-0.62810000 -10.15060000 0.83970000
-0.65140000 -10.02500000 0.85120000
-0.71860000 -9.90730000 0.81020000
-0.68780000 -9.90670000 0.86980000
-0.65040000 -9.90430000 0.92530000
-0.69200000 -9.78590000 0.94850000
-0.61790000 -10.02410000 0.90720000
-0.58230000 -10.02310000 0.96190000
-0.61450000 -9.90330000 0.98140000
-0.65580000 -9.78520000 1.00670000
-0.59570000 -10.14990000 0.89520000
-0.55890000 -10.14870000 0.94780000
-0.52410000 -10.14850000 1.00140000
-0.54630000 -10.02270000 1.01610000
-0.57630000 -9.90240000 1.03590000
-0.61400000 -9.78280000 1.06100000
-0.88090000 -9.39350000 1.05370000
-0.80140000 -9.53260000 1.00940000
-0.76190000 -9.53130000 1.07120000
-0.83740000 -9.39040000 1.11720000
-0.74100000 -9.66320000 0.97580000
-0.70320000 -9.66220000 1.03560000
-0.66170000 -9.66030000 1.09270000
-0.71930000 -9.52960000 1.13100000
-0.79200000 -9.38780000 1.17920000
-1.15700000 -9.40760000 0.17610000
-1.16200000 -9.40960000 0.09880000
-1.07250000 -9.54950000 0.17300000
-1.07640000 -9.55070000 0.09900000
-1.06490000 -9.54790000 0.24690000
-1.14960000 -9.40600000 0.25320000
-1.00560000 -9.67990000 0.17070000
-1.00970000 -9.68110000 0.09920000
-0.95090000 -9.80190000 0.16870000
-0.95620000 -9.80350000 0.09940000
-0.94420000 -9.80070000 0.23790000
-0.99790000 -9.67820000 0.24190000
-0.98770000 -9.67670000 0.31270000
-1.05470000 -9.54630000 0.32040000
-0.93550000 -9.80000000 0.30690000
-0.92190000 -9.79810000 0.37510000
-0.97600000 -9.67590000 0.38340000
-1.04180000 -9.54500000 0.39350000
-1.13840000 -9.40390000 0.33000000
-1.12620000 -9.40330000 0.40660000
-0.90610000 -9.91980000 0.16720000
-0.91130000 -9.92130000 0.09960000
-0.86990000 -10.03820000 0.16610000
-0.87200000 -10.03860000 0.09970000
-0.86350000 -10.03730000 0.23210000
-0.90030000 -9.91910000 0.23480000
-0.83710000 -10.16060000 0.16490000
-0.84070000 -10.16140000 0.09990000
-0.83190000 -10.16010000 0.22980000
-0.82150000 -10.15890000 0.29410000
-0.85270000 -10.03590000 0.29760000
-0.81070000 -10.15820000 0.35830000
-0.84060000 -10.03480000 0.36280000
-0.89190000 -9.91840000 0.30210000
-0.88010000 -9.91730000 0.36890000
-0.86350000 -9.91550000 0.43460000
-0.90790000 -9.79730000 0.44310000
-0.82630000 -10.03380000 0.42740000
-0.80930000 -10.03280000 0.49120000
-0.84650000 -9.91450000 0.50000000
-0.89020000 -9.79610000 0.51020000
-0.79550000 -10.15710000 0.42150000
-0.77920000 -10.15630000 0.48430000
-0.76050000 -10.15540000 0.54620000
-0.78980000 -10.03170000 0.55430000
-0.82740000 -9.91360000 0.56470000
-0.87140000 -9.79550000 0.57690000
-1.11000000 -9.40180000 0.48240000
-1.02570000 -9.54340000 0.46600000
-1.00850000 -9.54270000 0.53810000
-1.09230000 -9.40140000 0.55800000
-0.96010000 -9.67430000 0.45320000
-0.94260000 -9.67320000 0.52250000
-0.92260000 -9.67220000 0.59100000
-0.98840000 -9.54200000 0.60940000
-1.07080000 -9.40030000 0.63240000
-1.08510000 -9.40810000 -0.43520000
-1.05980000 -9.40650000 -0.50820000
-1.00460000 -9.55040000 -0.41250000
-0.98030000 -9.54890000 -0.48250000
-1.02540000 -9.55150000 -0.34140000
-1.10600000 -9.40880000 -0.36070000
-0.94090000 -9.68100000 -0.39460000
-0.91760000 -9.67980000 -0.46220000
-0.88970000 -9.80350000 -0.38020000
-0.86630000 -9.80200000 -0.44560000
-0.90900000 -9.80430000 -0.31340000
-0.96050000 -9.68170000 -0.32580000
-0.97740000 -9.68250000 -0.25630000
-1.04220000 -9.55190000 -0.26930000
-0.92440000 -9.80440000 -0.24570000
-0.93730000 -9.80470000 -0.17750000
-0.99050000 -9.68270000 -0.18600000
-1.05540000 -9.55200000 -0.19640000
-1.12340000 -9.40920000 -0.28540000
-1.13700000 -9.40910000 -0.20930000
-0.84450000 -9.92050000 -0.36740000
-0.82280000 -9.91960000 -0.43150000
-0.80690000 -10.03790000 -0.35670000
-0.78530000 -10.03700000 -0.41930000
-0.82590000 -10.03870000 -0.29340000
-0.86410000 -9.92140000 -0.30260000
-0.77610000 -10.16060000 -0.34810000
-0.75460000 -10.15980000 -0.40950000
-0.79520000 -10.16150000 -0.28600000
-0.81040000 -10.16180000 -0.22290000
-0.84110000 -10.03910000 -0.22900000
-0.82220000 -10.16200000 -0.15910000
-0.85220000 -10.03900000 -0.16390000
-0.88100000 -9.92230000 -0.23700000
-0.89150000 -9.92190000 -0.17020000
-0.89880000 -9.92110000 -0.10300000
-0.94650000 -9.80460000 -0.10870000
-0.86050000 -10.03880000 -0.09830000
-0.86830000 -10.03920000 -0.03270000
-0.90510000 -9.92100000 -0.03570000
-0.95300000 -9.80440000 -0.03950000
-0.83310000 -10.16250000 -0.09510000
-0.83720000 -10.16200000 -0.03020000
-0.84110000 -10.16190000 0.03480000
-0.87220000 -10.03910000 0.03340000
-0.91210000 -9.92200000 0.03180000
-0.95650000 -9.80420000 0.02990000
-1.14900000 -9.40990000 -0.13300000
-1.06640000 -9.55240000 -0.12310000
-1.07380000 -9.55250000 -0.04930000
-1.15670000 -9.40990000 -0.05590000
-1.00000000 -9.68250000 -0.11510000
-1.00720000 -9.68260000 -0.04390000
-1.01020000 -9.68200000 0.02760000
-1.07700000 -9.55180000 0.02480000
-1.16060000 -9.40950000 0.02130000
-0.80670000 -9.39560000 -0.98480000
-0.76120000 -9.39470000 -1.04740000
-0.73590000 -9.53790000 -0.93760000
-0.69240000 -9.53710000 -0.99740000
