6.57322000 -1.36489000 2.22152000
3.42768000 3.84188000 -0.85236400
3.27755000 3.96343000 -0.51172100
3.06905000 4.05875000 -0.71944600
2.75490000 3.87592000 -2.12153000
2.95165000 3.62047000 -2.51729000
3.17033000 3.66109000 -2.11718000
5.18496000 1.03968000 3.34369000
5.44563000 1.13940000 2.79435000
5.48621000 0.89208300 2.93658000
4.82188000 1.14392000 3.78542000
5.07149000 0.74183200 3.70189000
4.73470000 0.77095400 4.12528000
5.21554000 9.06618000 0.18538800
5.08010000 9.07690000 -0.12340900
5.23022000 8.93416000 -0.01664960
5.55425000 9.02363000 0.39608800
5.46332000 9.32357000 0.37833100
-1.48392000 4.88493000 1.05790000
-0.76979000 -7.61465000 -3.96373000
-1.42808000 -7.40639000 -3.93901000
-1.09990000 -6.85326000 -3.88476000
-0.94455300 -7.39178000 -4.07588000
2.58280000 -5.77794000 2.97815000
2.58165000 -5.48330000 3.13567000
2.83906000 -5.50764000 2.84579000
1.31252000 -5.78266000 3.85204000
3.17576000 -6.45702000 -1.87146000
3.35397000 -6.42402000 -1.50095000
3.29146000 -6.67097000 -1.77015000
3.45489000 -6.69560000 -1.41630000
4.55262000 2.04980000 -3.18040000
4.38881000 1.88632000 -3.60364000
4.71576000 1.67185000 -3.43268000
4.16856000 0.62115600 -4.73138000
3.93111000 0.87436500 -4.83159000
3.75008000 0.66215400 -5.04219000
1.79850000 3.24704000 -5.31720000
1.61430000 3.38794000 -4.94571000
2.18655000 3.35895000 -4.80790000
3.22397000 2.64818000 -5.08896000
2.86167000 2.88108000 -5.10416000
3.30861000 2.92953000 -4.76694000
5.74616000 8.66709000 -1.17580000
5.61610000 8.75722000 -1.21611000
5.53064000 9.15800000 -1.13621000
5.20091000 9.42505000 -1.15772000
4.89281000 9.66318000 -1.12052000
5.17305000 9.56948000 -1.06704000
5.15985000 -3.22326000 2.42639000
5.26859000 -3.39525000 1.89058000
4.97685000 -3.63805000 2.17306000
4.60186000 -3.03235000 3.55993000
4.86997000 -2.97906000 3.21983000
4.60029000 -3.40566000 3.17883000
-1.23586000 8.91051000 -1.04355000
-1.23076000 7.67827000 -0.87854100
-1.09077000 7.63608000 -1.02474000
-0.92114700 4.84937000 -0.97839100
-1.03511000 4.76438000 -1.04180000
2.48226000 2.93983000 4.37864000
2.85781000 2.70025000 4.33924000
2.58131000 2.69580000 4.57670000
2.55739000 3.53686000 3.34143000
2.73855000 3.26607000 3.65794000
2.36000000 3.45769000 3.70965000
0.44665200 -6.34244000 3.86958000
0.18516700 -6.42993000 3.90198000
3.23192000 3.26463000 -4.54349000
3.35137000 3.32868000 -4.20130000
3.75190000 3.26970000 -4.12179000
4.93173000 3.27848000 -2.65330000
4.33208000 3.38678000 -2.98918000
4.71894000 3.38363000 -2.38602000
1.60789000 -0.69871600 7.04283000
1.38277000 -1.29936000 7.02593000
1.86650000 -0.89226500 6.95947000
2.33025000 -2.07369000 6.53847000
2.96652000 -2.19619000 6.22002000
4.45478000 0.69190200 -4.44458000
4.57029000 0.97729400 -4.19705000
4.21042000 0.92442900 -4.57350000
5.42875000 -0.01383940 -3.45340000
5.33625000 0.29859600 -3.51169000
5.14641000 0.09189050 -3.83717000
0.50239500 4.97003000 -1.22759000
0.65953600 4.83496000 -1.27975000
0.77957700 4.92265000 -1.11681000
-0.40927300 4.79402000 -1.39769000
3.06638000 -5.78335000 2.38532000
3.13554000 -6.09119000 1.96201000
2.94046000 -6.08762000 2.26739000
3.85512000 -5.78564000 0.41340100
3.76341000 -5.77983000 0.92338000
3.94706000 -5.51342000 0.54456800
1.55353000 4.84543000 0.93521700
1.68188000 4.84266000 0.59028200
1.57744000 4.91170000 0.72211200
1.62023000 4.97337000 0.34211600
-0.48450400 -7.63660000 -3.79727000
-1.12018000 -7.59472000 -3.56258000
-0.69384600 -7.56363000 -3.44369000
0.05379850 -7.56340000 -3.50542000
-0.36766800 -7.26353000 -3.31298000
-3.22059000 -1.26175000 5.51397000
-3.34491000 -0.89296800 5.48776000
-2.90319000 -0.99837100 5.74862000
-2.68195000 0.01559100 5.86125000
-3.00702000 0.16748700 5.65737000
1.03719000 4.71171000 -1.27297000
0.67564700 4.71445000 -1.47895000
1.21563000 4.40735000 -2.08532000
0.31714100 4.86270000 -1.38026000
0.45468800 4.77499000 -1.44733000
6.12089000 2.54589000 0.53708000
6.31735000 2.32688000 0.43530600
6.82240000 0.16693900 1.50131000
6.92224000 -0.36236500 1.41230000
6.95268000 -0.22627100 0.88786700
2.42157000 -6.40696000 -2.71885000
2.13642000 -6.63726000 -2.98161000
-5.71816000 0.86494300 3.88012000
-6.09839000 0.56806900 3.46668000
-5.58878000 0.56928200 4.13732000
-6.24972000 1.02965000 2.61453000
-6.40202000 0.95814200 2.28745000
5.25474000 -2.42692000 4.23687000
5.14640000 -2.74215000 4.12481000
5.52372000 -2.55361000 3.78937000
4.73062000 -2.06715000 4.98180000
4.27925000 -1.95476000 5.45620000
4.37670000 -2.30819000 5.17736000
-2.99770000 4.70771000 0.54632900
-2.09906000 4.61569000 0.59172500
-2.45078000 4.57826000 0.28118600
-2.19859000 4.58084000 0.89359300
-0.31584200 -7.46582000 3.77349000
-0.23368200 -7.21394000 3.60261000
0.07234400 -7.23498000 3.62478000
0.57378600 -7.03402000 3.06921000
1.33625000 -7.02920000 2.66315000
1.14810000 -7.02404000 2.99136000
0.20378000 -7.64975000 -3.83494000
0.71808000 -7.65507000 -3.95061000
0.61104100 -7.63611000 -3.70819000
-0.48620700 -7.60956000 -3.53522000
0.25995500 -7.61413000 -3.60284000
-3.47561000 -4.51213000 4.19697000
-3.80195000 -4.05247000 4.45489000
-4.12261000 -4.28947000 3.76325000
-2.84384000 -5.68099000 3.51975000
-2.65880000 -5.66609000 3.66315000
-2.79534000 -5.48670000 3.59353000
2.20485000 0.29932700 -5.86683000
2.40567000 0.77951000 -5.71272000
1.76184000 2.02246000 -5.37989000
2.10051000 1.65940000 -5.48027000
-2.81204000 -1.74210000 5.64461000
-3.53157000 -2.74909000 4.73986000
-3.67444000 -3.02029000 4.44065000
-3.99362000 -2.63432000 4.40787000
-2.56971000 2.16592000 5.94158000
-3.07036000 1.84258000 5.84553000
-2.67080000 1.73610000 6.09343000
-0.63566900 1.76450000 6.62274000
6.74145000 1.17124000 -0.22538600
6.57447000 1.74819000 0.04974670
6.76227000 1.14125000 0.40252600
6.63533000 1.52354000 0.71970600
2.47302000 -3.18138000 5.89562000
1.99668000 -3.13473000 6.13851000
3.46276000 -2.92158000 5.49387000
3.96690000 -2.92396000 5.15142000
3.78319000 -2.43124000 5.58945000
-4.61945000 6.08347000 1.32093000
-4.62377000 6.52768000 1.37751000
-4.82414000 6.78666000 1.35265000
-4.37114000 5.85927000 1.39417000
-1.29714000 3.66766000 3.89751000
-1.58933000 3.43967000 4.08322000
-1.70446000 3.63438000 3.67380000
-1.83262000 1.91260000 5.47973000
-1.57705000 2.34571000 5.28051000
-1.46720000 2.04116000 5.53683000
-4.01961000 3.43676000 -3.10211000
-3.73002000 3.68679000 -2.85566000
-3.34064000 3.74686000 -3.15584000
-4.46514000 3.45836000 -2.42719000
-4.68221000 3.48431000 -1.84565000
-4.18611000 3.71506000 -2.07474000
-3.84614000 -5.69106000 2.32771000
-3.67159000 -5.84452000 2.42824000
-3.42290000 -5.66833000 2.94859000
-4.13388000 -6.02390000 0.89157200
-4.32548000 -5.72546000 1.12088000
-4.33501000 -5.84749000 0.50609100
-0.15437000 2.64795000 5.39598000
0.24996600 2.82326000 5.26489000
0.18008500 2.53902000 5.47839000
-1.33269000 2.61400000 5.16817000
-0.88985900 2.76379000 5.18749000
-1.12750000 2.34964000 5.43902000
-0.92773000 -4.12124000 -5.45720000
-0.36064200 -4.10673000 -5.52594000
-0.63115500 -4.26508000 -5.36798000
-1.10015000 -4.25841000 -5.30920000
-1.06033000 -4.42348000 -5.15448000
2.00320000 4.21124000 3.59006000
1.55624000 4.24459000 3.74433000
0.84563700 4.21636000 4.06224000
0.38329700 4.39723000 3.64924000
0.27013800 4.20174000 4.18362000
4.94655000 -0.19235600 -4.12931000
4.83401000 -0.55479800 -4.27754000
5.12555000 -0.57491200 -3.93111000
5.11144000 -1.60926000 -3.75033000
4.87580000 -1.61634000 -4.04288000
-2.47408000 -6.78573000 3.56384000
-2.47408000 -6.78573000 3.56384000
-2.52956000 -7.25223000 3.69025000
3.00566000 -6.66434000 2.18436000
2.88287000 -6.41754000 2.25850000
3.10468000 -6.44506000 1.92119000
3.56127000 -6.43761000 0.78616000
3.68071000 -6.66628000 0.43738400
1.37254000 4.34616000 -3.04557000
1.07213000 4.21694000 -3.53154000
0.94010700 4.38240000 -3.06524000
2.57475000 3.75168000 -3.85245000
2.41520000 3.47911000 -4.41672000
2.23803000 3.68957000 -4.15835000
6.65186000 1.30930000 -0.62232000
6.58639000 1.27931000 -1.10672000
6.77942000 0.34355000 -1.23837000
6.84324000 0.38821500 -0.77236900
6.84342000 -0.22432700 -1.29208000
1.02131000 3.71172000 -4.57114000
1.19704000 3.50899000 -4.83255000
0.67593600 3.51483000 -4.91718000
0.35999700 3.07767000 -5.70305000
-0.00397473 2.48477000 -6.10167000
-0.36077700 2.76893000 -5.92058000
-5.18683000 8.19899000 1.02420000
-4.84684000 8.01011000 0.79448500
-4.83326000 7.99294000 0.58334300
-4.58169000 7.67387000 0.74399700
-5.67157000 1.51347000 -1.56811000
-5.43794000 1.66866000 -1.96726000
-5.42521000 1.86027000 -1.57022000
-4.20103000 2.87754000 -2.22421000
-2.00415000 -6.64645000 3.21348000
-1.64977000 -6.37651000 3.37783000
-1.64220000 -6.68668000 3.47448000
-0.59065700 -6.44945000 3.84710000
-0.72781000 -6.66605000 3.88126000
-0.89469100 -6.42393000 3.75736000
0.19506000 9.88378000 1.80311000
0.49627400 9.88925000 1.64664000
0.00475428 9.90055000 1.73874000
1.11156000 9.14592000 1.42760000
-0.96013400 1.32144000 6.83140000
-1.58543000 1.79883000 6.47805000
-1.85985000 1.39226000 6.57133000
-1.10851000 0.89751000 6.93933000
-0.66472400 0.64183800 6.97192000
-0.59463200 0.70420200 7.04502000
-5.87112000 -0.98908300 -2.46506000
-6.02155000 -0.80364700 -2.11823000
-5.92292000 -1.27584000 -2.24086000
-5.65369000 -2.20217000 -2.30042000
-5.45516000 -2.52090000 -2.46159000
-5.47037000 -2.08212000 -2.80278000
-4.89014000 6.65021000 0.12684500
-5.14639000 7.00837000 0.18505100
-4.90286000 6.92096000 0.04624360
-4.64078000 5.69323000 0.10413200
-4.68473000 5.21567000 0.21933200
2.19788000 -0.04475190 6.16592000
2.60701000 -0.05953440 5.99731000
2.52177000 -0.40633700 6.06100000
1.53934000 0.54497200 6.26745000
1.23175000 0.77890400 6.27388000
1.75038000 0.85891800 6.11864000
-3.71978000 3.97965000 -0.41060100
-3.63217000 4.06215000 -0.35324100
-3.82997000 4.18406000 -0.34118200
-1.80889000 9.75008000 -0.85258500
-1.75578000 9.83591000 -0.79776700
-1.58009000 9.81707000 -1.09931000
-1.89893000 8.45110000 0.26877100
-2.02069000 9.37973000 0.10638400
-1.86276000 8.05926000 -0.03055640
-1.97538000 -6.35830000 3.13709000
-3.36953000 -6.62383000 1.55437000
-3.31265000 -6.38701000 1.52693000
-3.09227000 -6.42252000 1.94354000
-4.41844000 -1.63298000 -4.38870000
-4.61232000 -1.20230000 -4.31846000
-4.68951000 -1.60513000 -4.13200000
-3.72889000 -0.77866300 -5.08216000
-3.53763000 -0.25033100 -5.20818000
-3.94382000 -0.39654000 -4.94199000
3.42963000 9.40323000 -0.97333800
3.44078000 9.49284000 -1.01275000
3.68690000 9.48751000 -0.97282800
3.00100000 9.11929000 -0.97261700
2.98859000 8.40473000 -0.90187000
2.88516000 8.19013000 -0.90813500
4.16081000 -7.66160000 -0.26002300
3.88343000 -7.64030000 -0.35826500
3.58626000 -7.36432000 -0.34362700
3.59461000 -7.53103000 -0.74086000
3.71158000 -7.54102000 -0.12311100
-0.78010700 -5.04125000 -3.79220000
-0.51974700 -4.80698000 -4.04519000
-0.17977700 -5.51696000 -3.55671000
-1.68065000 8.11005000 0.87134300
-1.56488000 8.11514000 1.05761000
-1.71262000 9.01523000 1.00964000
-2.03510000 9.70403000 0.38953400
-2.03753000 -6.61455000 -2.91950000
-1.34711000 -6.64108000 -3.20925000
-1.74977000 -6.38364000 -2.93999000
-2.26215000 -5.70968000 -2.89633000
-2.60990000 -5.70259000 -2.70914000
-2.32917000 -6.02175000 -2.67810000
-6.53621000 -2.65061000 -0.75128300
-6.69472000 -2.00046000 -1.23486000
-6.38800000 -2.66450000 -1.55099000
-6.05262000 -3.43973000 -0.86210400
-6.03283000 -3.56217000 -0.32576500
-6.20891000 -3.29676000 -0.53403900
-4.61160000 7.57659000 0.88736700
-4.73227000 7.81165000 0.91175400
-4.90909000 5.84119000 0.84485700
-5.03323000 6.26157000 0.85462600
-4.92932000 5.88982000 0.68381800
-5.03323000 6.26157000 0.85462600
-4.90909000 5.84119000 0.84485700
-4.82458000 5.69042000 0.98677400
5.56293000 9.30423000 0.33714000
5.84694000 8.85670000 0.31945100
5.67582000 9.29847000 0.14309000
5.76967000 9.14533000 0.03931430
5.48501000 9.34385000 -0.65369500
-5.26129000 -1.26235000 4.67749000
-5.34730000 -1.59700000 4.44353000
-5.33629000 -1.55137000 4.55811000
-4.62847000 -0.97242400 5.48835000
-4.28462000 -1.39175000 5.64958000
-4.14851000 -1.16368000 5.79845000
0.49462800 5.27076000 1.66718000
0.41632700 5.95350000 1.69757000
0.27488200 5.27151000 1.72857000
-0.26101400 6.39373000 1.77342000
-0.44638300 7.19773000 1.72530000
3.62945000 3.06542000 -4.39654000
3.28102000 3.21765000 -4.58351000
3.77688000 3.22770000 -4.16413000
4.90538000 2.52357000 -3.64181000
4.39724000 2.79473000 -3.97294000
4.54544000 2.89096000 -3.67250000
5.26867000 3.37784000 0.99950600
5.07923000 3.41424000 1.61022000
5.05864000 2.93602000 3.09765000
5.43044000 2.55263000 2.84090000
5.30360000 2.89457000 2.69102000
2.99700000 -7.65822000 -2.71431000
3.30334000 -7.63640000 -2.54099000
3.63039000 -6.92207000 -2.05829000
4.11154000 2.45323000 -3.20992000
4.50798000 2.32190000 -2.83639000
4.17159000 2.71650000 -2.69186000
4.18940000 2.18797000 -3.47334000
0.71399900 4.79749000 -1.54661000
0.43879900 -6.06621000 4.36349000
1.04190000 -5.99385000 4.31683000
0.81013400 -5.75595000 4.57228000
3.03581000 -5.04782000 4.06748000
2.60010000 -5.21503000 4.20268000
2.48411000 -5.53506000 3.99189000
-3.74656000 2.16618000 5.28898000
-4.82002000 1.02046000 4.88028000
-4.48341000 1.55515000 4.99477000
6.99196000 -1.24111000 0.51204800
7.02282000 -1.21164000 0.03567640
7.00382000 -1.03831000 0.83292300
6.87419000 -0.90544100 1.26968000
6.86590000 -0.50779400 1.40527000
6.79793000 -1.01656000 1.61435000
-6.18170000 -3.42237000 0.53775400
-6.24531000 -3.32885000 0.08077470
-6.04251000 -3.60715000 0.27060900
-5.35634000 -4.38429000 1.22885000
3.23520000 9.11004000 -0.82281800
3.29452000 9.08120000 -0.58363200
3.20563000 8.79435000 -0.32115500
3.37389000 9.12715000 -0.34887200
3.42155000 9.15476000 -0.09199630
3.28858000 8.94985000 0.03053710
5.88097000 1.37322000 1.22354000
5.74907000 1.43139000 1.61468000
5.63989000 1.73283000 1.23930000
6.13576000 0.72115000 1.36022000
6.26019000 0.33662100 1.20946000
6.15076000 0.38935100 1.63646000
2.61615000 -5.16402000 4.34731000
2.61927000 -5.17729000 4.25477000
3.52136000 -4.57313000 4.26626000
-5.76996000 -3.00001000 -2.40876000
-5.36738000 -3.26373000 -2.88060000
-5.62307000 -3.37092000 -2.19988000
-6.25162000 -3.08706000 -1.16245000
-5.92249000 -1.89377000 1.78973000
-5.97693000 -2.08932000 1.37081000
-6.07049000 -1.68841000 1.44998000
-5.61837000 -1.20488000 2.92685000
-5.65332000 -0.79686200 2.94780000
-5.45080000 -1.06749000 3.26069000
1.31075000 7.21311000 1.09764000
1.15210000 7.13881000 1.25596000
2.93068000 -4.88933000 -3.25251000
2.58747000 -5.74867000 -2.85977000
2.60056000 -5.43872000 -3.00920000
2.34807000 -5.73448000 -3.01679000
6.50559000 -2.69987000 1.26283000
6.80541000 -2.12038000 0.55039000
6.72464000 -2.17537000 1.09898000
6.79962000 -1.26466000 1.46275000
-5.99151000 0.02232780 2.10150000
-6.13200000 -0.02978650 1.66908000
-6.02457000 0.39203600 1.82683000
-5.91595000 -0.64668800 2.39284000
-5.82035000 -1.04472000 2.54910000
-6.00708000 -1.11710000 2.05483000
-3.32943000 -6.65597000 -1.42203000
-3.50434000 -6.65135000 -1.27087000
-4.90304000 -1.24938000 -3.99350000
-4.82392000 -0.81159700 -4.15662000
-5.09588000 -0.90848200 -3.82326000
-5.76654000 -1.73578000 -2.38751000
-5.64195000 -1.59142000 -2.74042000
-3.02008000 -7.72144000 3.21119000
-3.13435000 -7.72827000 3.04036000
3.56165000 -5.47476000 1.80667000
3.75996000 -5.44804000 1.39383000
3.45736000 -5.77900000 1.74403000
3.92978000 -4.99784000 1.79175000
3.77830000 -4.96395000 2.14922000
4.46362000 -4.16980000 2.30744000
1.41353000 4.88669000 0.17650500
1.30197000 4.99695000 0.44162900
1.35323000 4.99711000 0.12462200
1.48703000 8.27677000 0.26520000
2.39313000 -6.09384000 2.93125000
2.08843000 -6.05069000 3.23813000
2.29491000 -5.78530000 3.24965000
1.77278000 -6.39119000 3.39577000
2.10012000 -6.44740000 3.15730000
2.20638000 -6.66585000 3.14432000
0.05112300 -5.71105000 -4.22605000
-0.32236700 -6.02491000 -3.95608000
-0.47985500 -5.71938000 -4.19940000
1.44381000 -5.69530000 -3.95730000
1.09166000 -5.94379000 -3.85698000
0.89591300 -5.71452000 -4.11051000
-3.35940000 -3.60615000 -4.06272000
-3.08521000 -3.37979000 -4.41197000
-3.44026000 -3.14323000 -4.37574000
-4.46473000 -3.33856000 -3.29088000
-6.28167000 -0.63217500 -1.14639000
-6.23588000 -0.24222800 -1.34851000
-6.29276000 -0.17915200 -1.01677000
-6.20617000 0.43917500 -1.04041000
-6.06771000 0.76526600 -1.33288000
-6.15019000 0.80206900 -0.79890200
3.27184000 9.29902000 0.63410000
3.56661000 9.48384000 0.59082100
3.47323000 9.21868000 0.19622500
3.34611000 9.07556000 0.47740100
-2.00731000 -4.36220000 5.42797000
-2.38458000 -4.36844000 5.24659000
-2.34344000 -4.57326000 5.00827000
-1.59134000 -3.72151000 6.02353000
-1.88866000 -3.90566000 5.78779000
-1.65339000 -4.16607000 5.72906000
3.87212000 4.15908000 -0.61144500
3.45364000 4.31431000 -0.73130300
3.35362000 4.36131000 -0.45556400
3.44538000 4.34806000 -0.22125700
3.87212000 4.15908000 -0.61144500
3.35362000 4.36131000 -0.45556400
-3.97304000 -5.72388000 2.08000000
-3.80781000 -6.02703000 1.88692000
-3.64522000 -5.99738000 2.26619000
-3.60307000 -7.04652000 2.45588000
-3.53631000 -6.72618000 2.38714000
-3.76754000 -6.98772000 2.13710000
-5.22194000 3.38996000 1.17724000
-5.12063000 3.47192000 0.93388900
-5.52654000 3.21161000 1.01689000
-5.12063000 3.47192000 0.93388900
5.97460000 3.38511000 -0.77042500
5.88499000 3.29661000 -0.89290100
5.88359000 3.82333000 -1.01866000
4.42023000 1.36450000 5.31564000
4.35513000 1.74372000 5.12816000
3.96113000 2.10754000 5.24693000
5.29358000 1.58575000 4.04653000
4.77691000 1.85894000 4.49938000
5.02991000 1.52517000 4.40446000
-3.64778000 -3.74506000 -3.72155000
-3.69571000 -3.38404000 -4.00839000
-2.90931000 -4.92878000 -3.05151000
-3.02989000 -4.10434000 -3.81392000
-3.35000000 -4.06082000 -3.64374000
-3.95066000 1.94027000 -5.02657000
-4.21113000 1.64500000 -4.94195000
-3.84395000 2.20941000 -4.99525000
-3.25452000 0.22707000 -6.00402000
-3.25994000 0.64969100 -5.92096000
-2.74710000 0.47821900 -6.19820000
-1.07896000 -0.43922300 7.05399000
-1.32766000 -0.72861800 6.99974000
-0.98212500 -0.78780600 7.03748000
-1.60254000 -0.30893200 6.95470000
-1.61439000 -0.74366000 6.94746000
-2.57732000 1.40527000 -5.37489000
-2.87247000 1.16838000 -5.32247000
-2.48752000 1.15123000 -5.51250000
-1.28163000 1.21332000 -5.89688000
-0.83764900 1.42727000 -5.90421000
-1.12047000 1.69054000 -5.74342000
-1.69141000 -2.57357000 -6.22927000
-1.62894000 -2.87804000 -6.11101000
-2.71813000 -2.51582000 -5.91821000
-0.72626000 4.51318000 3.11896000
-0.24024500 4.54911000 3.01546000
-2.15055000 4.47604000 1.70684000
-2.60747000 4.38938000 1.91434000
-2.17033000 4.45224000 2.24189000
6.70454000 -0.19359700 -1.89340000
6.71370000 0.41422900 -1.52812000
6.33456000 -1.53611000 -2.65434000
6.49451000 -1.54334000 -2.28632000
6.28952000 -1.81743000 -2.70265000
-4.21541000 2.13089000 -4.71903000
-4.07009000 2.75820000 -4.23570000
-3.68226000 3.03886000 -4.33371000
-3.63262000 2.76670000 -4.61206000
-5.17090000 -3.62925000 3.16885000
-5.33433000 -3.70058000 2.73980000
-5.27340000 -3.79599000 2.81573000
-5.06821000 -3.32705000 3.77658000
-4.97606000 -3.77939000 3.35173000
5.28927000 -0.62258000 3.69639000
5.01187000 -0.79703500 4.06685000
5.11493000 -0.26548900 3.93186000
5.27667000 -1.64993000 3.48538000
5.15064000 -1.37663000 3.77280000
5.47986000 -1.29707000 3.29730000
1.07973000 -7.02129000 -2.78281000
1.28678000 -7.00660000 -2.56289000
0.14802800 -7.02806000 -2.93642000
0.60364000 -7.29711000 -3.29719000
0.55197800 -7.53091000 -3.45089000
1.10488000 -7.39054000 -3.24415000
6.21277000 -2.32329000 2.33990000
6.01349000 -2.33433000 2.96989000
6.00039000 -2.58739000 2.76890000
5.72159000 -2.27792000 3.70403000
5.67223000 -2.67856000 3.47661000
5.91695000 -2.34722000 3.31906000
2.93551000 -7.48623000 3.55820000
2.61225000 -7.42425000 3.77378000
2.40652000 -7.50348000 3.92808000
3.28647000 -7.71662000 2.63945000
-5.04692000 2.51948000 0.64079800
-5.21689000 2.29957000 0.79885400
-5.38526000 2.14425000 0.57971500
-5.28760000 2.18611000 0.98761100
-5.51641000 1.94065000 0.77696900
-5.21689000 2.29957000 0.79885400
5.31206000 -4.54517000 0.37983300
5.50415000 -4.27910000 0.83007500
5.75090000 -3.93554000 -0.10554700
5.31206000 -4.54517000 0.37983300
5.43117000 -4.38193000 0.11808700
5.79782000 4.77840000 -1.13866000
5.95723000 6.11892000 -1.13161000
6.28973000 7.15619000 0.01086560
6.24591000 6.82629000 -0.24560600
6.16254000 7.40521000 -0.46891300
2.98330000 4.47718000 0.46142500
2.62464000 4.52499000 0.22958200
2.51827000 4.52944000 1.11750000
3.35567000 4.26562000 1.83920000
2.88150000 4.38483000 2.06333000
3.48626000 4.12590000 2.34524000
-3.90000000 -1.55566000 5.87280000
-3.36068000 -1.69431000 6.17191000
-3.52943000 -1.04746000 6.24855000
-3.15542000 -1.35483000 6.37567000
2.09636000 -6.01618000 -2.96684000
2.39889000 -6.05623000 -2.77728000
2.09001000 -6.45121000 -2.93114000
5.14693000 -0.13916400 -4.56149000
5.22815000 0.39482700 -4.35171000
5.33458000 0.28447700 -4.42613000
5.35498000 0.88241000 -4.08016000
5.51204000 0.97779400 -3.98900000
5.40241000 0.59778900 -4.26785000
-3.06363000 -6.67859000 1.70947000
-3.52373000 -6.66743000 0.62346600
-3.06363000 -6.67859000 1.70947000
-3.02230000 -7.61276000 -2.41035000
-2.85319000 -7.57070000 -2.29992000
-3.28507000 -7.58547000 -1.65950000
-1.15551000 4.24761000 -3.36596000
-1.57930000 4.20297000 -3.30048000
-1.36789000 4.34514000 -2.93159000
-2.98843000 3.92446000 -3.06542000
-3.24257000 3.95066000 -2.71340000
-2.73322000 4.08569000 -2.82262000
-2.76305000 2.98723000 -3.87330000
-3.20814000 2.87951000 -3.60922000
-3.06818000 2.69568000 -4.00449000
-3.94594000 2.54242000 -3.24836000
-4.25700000 2.31324000 -3.16352000
-3.99668000 2.22910000 -3.62648000
-3.36019000 -6.62992000 -1.64969000
-3.20763000 -6.33083000 -1.76829000
-3.36844000 -6.32977000 -1.45542000
-3.64639000 -6.35276000 -0.40412400
-3.69486000 -6.60186000 -0.52884200
-3.58212000 -6.37563000 -0.82171100
-1.85933000 -0.08341170 -6.65865000
-1.24939000 0.14673800 -6.76423000
-1.03219000 -0.05593500 -6.79384000
-3.27517000 -1.55401000 -5.85251000
-3.21661000 -1.18334000 -5.90540000
-2.78437000 -1.13515000 -6.07910000
-0.25358400 8.62558000 -1.50003000
-0.19733200 7.28059000 -1.37956000
-0.09602880 8.48718000 -1.49745000
0.60703700 9.28816000 -1.41550000
0.36457800 9.36172000 -1.51124000
0.44511300 8.18560000 -1.37073000
-5.43392000 2.33276000 -2.88068000
-5.73132000 1.99201000 -2.78651000
-5.61464000 2.24792000 -2.68293000
-6.08974000 1.85034000 -1.97549000
-5.92839000 2.11691000 -2.08574000
-6.07966000 1.88487000 -2.15706000
2.35051000 -7.44765000 3.94452000
2.61225000 -7.42425000 3.77378000
2.19871000 -7.07114000 3.91635000
2.35051000 -7.44765000 3.94452000
2.65904000 6.72791000 -0.50702400
3.00424000 7.06416000 -0.80854600
0.10565300 -7.30947000 0.49294400
-0.01990250 -7.32575000 0.52757100
0.17620700 -7.31916000 -0.08675120
2.25315000 -0.37045900 -6.51234000
2.32016000 -0.69676200 -6.51788000
2.25973000 -0.70000600 -6.44614000
2.76031000 -1.56149000 -6.27069000
2.94242000 -2.02199000 -6.05589000
2.45644000 -1.88493000 -6.30198000
4.22770000 9.97908000 -0.82560000
4.06026000 9.99220000 -0.60386100
4.25417000 9.99804000 -0.05144060
3.61619000 9.84960000 -0.97102900
3.89504000 9.81920000 -1.05874000
-3.51758000 -7.41254000 0.81295400
-3.41584000 -7.23657000 0.71471100
-3.40991000 -7.36853000 1.16988000
-2.98259000 -7.08220000 1.25101000
-2.33001000 -7.06004000 2.24509000
-2.59353000 -7.08878000 2.18295000
0.57354600 7.71306000 1.41139000
0.50539800 5.77349000 1.35886000
0.39202600 6.33002000 1.42447000
0.39202600 6.33002000 1.42447000
0.17193400 6.42574000 1.47983000
0.32432100 -7.06010000 4.46459000
-0.15233000 -6.61771000 4.33528000
-0.23080400 -6.99009000 4.43300000
0.21632000 -7.72368000 4.55300000
-5.61592000 -3.18957000 0.54635800
-5.32787000 -3.15439000 1.91657000
-5.58638000 -2.85766000 1.63426000
3.69057000 -6.69899000 -0.28222500
3.64702000 -6.48728000 0.35069100
3.64472000 -6.36625000 -0.01686130
5.93383000 0.32797800 3.68352000
5.74669000 -0.08242040 4.03833000
4.76915000 -0.45200300 5.30024000
4.20824000 -4.41332000 -3.14205000
4.40804000 -4.60292000 -2.60663000
3.97320000 -4.76086000 -2.96404000
3.95883000 -5.40841000 -1.98973000
3.73490000 -5.43041000 -2.32692000
4.27395000 -4.94894000 -2.34531000
-6.79064000 -0.74679800 -1.43324000
-6.82514000 -0.55844500 -1.32866000
-6.94628000 -1.39033000 -0.57651000
-6.99990000 -1.25480000 -0.15135800
-7.02168000 -0.85986100 -0.43001200
-5.44207000 2.11350000 0.10832800
-5.68043000 1.77981000 0.43008900
-5.75847000 1.69347000 0.00106827
-5.50019000 1.92121000 -1.06108000
-5.02223000 2.48735000 -1.04071000
-5.31403000 2.23312000 -0.59170600
-3.20661000 0.59114800 -5.30007000
-2.85738000 0.90768300 -5.41213000
-4.12734000 0.20183600 -4.75322000
-3.84233000 0.41894500 -4.92848000
2.62203000 8.43717000 0.21573300
2.64287000 8.72828000 -0.07294070
2.74553000 8.29977000 0.66856400
2.70842000 7.80729000 0.65329000
-3.23648000 2.72182000 -4.93888000
-3.29138000 3.01896000 -4.65302000
-2.83092000 3.02692000 -4.94982000
-3.33537000 3.30139000 -4.19044000
-2.96955000 3.35854000 -4.30092000
-3.04627000 3.21213000 -4.69788000
4.94039000 -2.72667000 -4.14356000
4.67284000 -2.67131000 -4.40695000
4.52547000 -2.54552000 -4.68781000
3.01501000 -1.55553000 -6.15919000
-4.09545000 -7.16671000 -1.19132000
-4.03832000 -6.76805000 -0.93309100
-3.91891000 -6.76325000 -1.28977000
-4.52299000 -4.82614000 -2.19270000
-3.90482000 -5.38186000 -2.21176000
-4.10427000 -5.30351000 -1.98828000
-3.96881000 -4.89886000 -1.78734000
-4.68115000 -4.10005000 -1.79258000
-4.33834000 -4.64944000 -1.40914000
-3.71042000 -5.70624000 -1.18894000
-4.59153000 -1.35637000 -5.09355000
-4.87562000 -1.50098000 -4.75813000
-4.77342000 -1.27564000 -4.93305000
-5.57305000 -1.20462000 -3.98822000
-5.77163000 -0.86588600 -3.84104000
-5.43240000 -0.99300000 -4.24936000
3.62112000 -7.37422000 0.00511037
3.66402000 -7.46399000 0.53592500
3.17858000 -7.01758000 -0.62655500
3.03206000 -6.99603000 -0.43638400
2.78556000 -6.99719000 -1.35526000
1.57167000 -5.83287000 -3.78270000
1.96717000 -5.98720000 -3.45710000
1.70837000 -6.08497000 -3.51932000
2.71629000 -5.66635000 -3.28126000
2.25896000 -5.98837000 -3.28439000
2.28603000 -5.66179000 -3.57391000
1.15663000 4.68994000 1.28036000
1.69507000 4.49708000 1.43500000
1.41948000 4.49324000 1.78171000
2.91412000 3.46486000 3.04242000
4.83913000 -3.52014000 2.63393000
4.97015000 -3.16327000 2.86281000
5.50192000 -1.83094000 3.03220000
2.44415000 2.58861000 -5.57818000
2.79745000 1.37416000 -5.98853000
2.03161000 1.64739000 -6.25696000
2.63339000 2.03260000 -5.86015000
0.79701600 3.78067000 -3.60845000
0.44156100 3.58411000 -4.01896000
0.93251300 3.50965000 -4.04785000
-0.14881700 2.86752000 -5.01983000
0.21218200 3.07971000 -4.77564000
6.21479000 2.41865000 -0.99883300
6.00099000 2.80299000 -0.95651600
-4.70927000 0.04439580 -4.96747000
-4.83799000 -0.36578100 -4.87783000
-3.96846000 0.54377800 -5.59905000
-4.21506000 0.10921400 -5.48834000
-4.33017000 0.36097900 -5.31671000
3.73474000 -3.05336000 -4.39892000
4.07894000 -2.72425000 -4.33094000
3.79374000 -2.74709000 -4.54841000
3.13129000 -4.93973000 -3.02871000
3.52411000 -4.31092000 -3.39596000
3.30086000 -4.26962000 -3.63861000
-2.43594000 -1.95844000 -5.50536000
-2.96992000 -1.79884000 -5.31862000
-2.79358000 -2.19401000 -5.26240000
-1.16370000 -2.32156000 -5.75361000
-1.63990000 -2.28530000 -5.65279000
-1.48399000 -2.58580000 -5.56171000
-3.67602000 -7.56810000 -2.20029000
-3.39965000 -7.54892000 -2.54198000
-3.76440000 -7.59332000 -2.02079000
-3.24589000 -7.49597000 -2.76817000
-3.14217000 -7.53959000 -2.80998000
3.06267000 -5.67139000 -2.97232000
3.53435000 -5.67917000 -2.42949000
3.22768000 -6.02966000 -2.37350000
2.92182000 -6.04630000 -2.69053000
0.88880100 -2.40948000 6.81641000
1.31139000 -2.19829000 6.77613000
0.98054700 -2.00756000 6.85590000
0.31268600 -2.56977000 6.78382000
0.68480000 -2.21022000 6.85588000
0.36914000 -7.27727000 1.03973000
-0.36944800 -7.27490000 1.20237000
-0.20643600 -7.29994000 0.79394600
0.10565300 -7.30947000 0.49294400
5.56364000 -3.39894000 -0.63501400
5.33847000 -3.12752000 -2.17467000
5.59969000 -2.75085000 -2.04412000
5.30989000 -2.91547000 -2.52683000
0.07240180 -1.84509000 -6.04213000
-0.76745100 -2.01724000 -5.93666000
1.27296000 -1.35633000 6.37054000
0.89506600 -1.71369000 6.34734000
0.77693100 -1.32337000 6.45073000
1.64580000 -2.96608000 5.72308000
2.08705000 -2.89449000 5.61360000
2.04812000 -2.33447000 5.87424000
1.74083000 -2.56561000 5.88493000
1.78267000 -2.09085000 6.04856000
2.32140000 -1.61097000 5.99855000
2.62976000 -1.40845000 5.91403000
2.59050000 -1.86138000 5.81253000
2.81527000 2.17321000 5.83978000
3.10697000 1.34447000 6.09412000
3.33414000 1.90858000 5.70891000
2.22030000 2.61267000 5.82262000
2.05815000 2.99725000 5.61142000
0.06714700 -7.61631000 4.57256000
-0.57924300 -7.65059000 4.54894000
-1.15587000 -7.66155000 4.42827000
-1.50410000 -7.71524000 4.29215000
-0.67924700 -7.74092000 4.48392000
-3.82132000 3.92084000 2.27751000
-4.26728000 3.58770000 2.68999000
-3.46184000 3.95830000 2.82938000
-3.45174000 4.29145000 1.82431000
-3.22675000 4.30707000 1.87701000
-1.33155000 -4.34052000 -5.00959000
-0.87997500 -4.41519000 -5.09942000
-3.77766000 -3.49993000 -4.53465000
-3.66124000 -3.74238000 -4.45192000
-3.93370000 -3.55768000 -4.30494000
2.08958000 -7.47150000 4.08756000
1.85535000 -7.09343000 4.09195000
2.25523000 -5.98493000 3.81875000
2.15679000 -5.75304000 4.10537000
1.81898000 -6.02985000 4.01682000
-3.99281000 -4.23753000 -3.55288000
-3.93500000 -4.05525000 -3.82613000
-3.65934000 -4.37747000 -3.71069000
-1.61180000 -4.54305000 -4.74197000
-1.56273000 -4.38896000 -4.89292000
-0.97175000 -4.40618000 -5.01620000
2.77299000 8.37614000 -0.89726000
2.79706000 8.82602000 -0.91053200
2.75107000 9.17833000 -0.74461300
2.79466000 9.19902000 -0.45365900
2.93941000 9.46590000 -0.52516500
-3.66458000 -6.05650000 -1.76419000
-3.94527000 -5.77978000 -1.73809000
-3.56767000 -5.96962000 -2.06781000
-3.32460000 -6.04380000 -2.31039000
2.19270000 4.03189000 -2.33988000
1.84927000 4.18490000 -2.24582000
1.97056000 3.96656000 -2.68531000
1.26922000 3.70883000 -3.59163000
-6.72594000 -1.43082000 1.76122000
-6.79973000 -0.99343300 1.90449000
-6.81913000 -1.19146000 1.54122000
-6.95360000 -0.36616600 1.27248000
-6.86429000 -0.96605300 1.19918000
-6.82918000 -0.40139000 1.34256000
6.34170000 -1.58940000 -0.28841400
6.42571000 -1.10568000 -0.19557000
6.43291000 -0.57372800 0.57323800
6.40661000 -1.06272000 0.58146600
6.35693000 -0.80494600 1.10974000
3.00566000 4.04234000 1.03461000
3.06845000 4.07301000 0.58354500
3.45757000 3.80296000 0.95380200
4.35114000 3.24805000 0.36445300
4.15971000 3.40893000 -0.07874400
3.52045000 1.07976000 -5.03953000
3.13095000 1.38080000 -5.13188000
3.15298000 1.01921000 -5.28765000
2.84985000 1.25256000 -5.35020000
2.50074000 1.15144000 -5.55840000
2.85593000 0.90952100 -5.48422000
-2.76813000 -4.86000000 -4.02756000
-2.27278000 -5.17179000 -4.00318000
-3.71527000 -5.19400000 -2.79419000
-3.59603000 -5.02344000 -3.13928000
-3.10762000 -5.28835000 -3.29062000
3.83373000 -5.66701000 -1.99477000
3.74843000 -6.00551000 -1.56623000
3.55652000 -5.97579000 -1.96537000
4.18601000 -5.95759000 -0.02190430
-1.44342000 6.11602000 1.05130000
-1.41498000 6.90244000 1.13144000
-1.52601000 7.07837000 0.98796700
-0.99875600 6.36354000 1.49979000
-2.97356000 -6.33571000 -2.10521000
-2.90020000 -6.62283000 -2.31352000
-2.42344000 -6.35928000 -2.59705000
-2.11006000 -6.35403000 -2.76898000
5.70447000 1.78365000 -0.65096100
5.72186000 1.72635000 -0.88821400
5.88391000 1.52287000 -0.65113500
5.88391000 1.52287000 -0.65113500
0.71695400 2.48875000 -5.30661000
0.35903500 2.31143000 -5.48359000
0.85924500 2.15387000 -5.53021000
-0.27725000 2.08084000 -5.63559000
-5.96185000 2.72765000 -0.10375700
-6.40478000 1.91933000 -0.54870600
-6.67694000 0.99739900 -0.79001000
-6.54849000 1.55574000 -0.37363500
4.38396000 -2.77931000 4.02818000
3.24279000 -3.57376000 4.49598000
2.87007000 -3.75188000 4.62040000
2.99216000 -3.44181000 4.79023000
-0.32590900 7.61254000 1.76742000
5.59473000 7.69813000 -0.53162300
5.64461000 7.30539000 -0.52070000
5.64461000 7.30539000 -0.52070000
5.59473000 7.69813000 -0.53162300
5.39401000 -1.68886000 4.26645000
5.39039000 -1.98053000 4.17398000
4.85048000 -1.71376000 5.04032000
-4.74858000 -4.30628000 -2.42367000
-4.96656000 -4.01891000 -2.58374000
-4.63030000 -4.29421000 -2.74126000
-4.00552000 -4.38438000 -3.34134000
-3.75432000 -4.71322000 -3.12858000
-1.98802000 -7.06275000 2.33431000
-2.81457000 -7.07211000 1.27242000
-2.11850000 -7.06862000 2.57364000
-2.07820000 -7.05960000 2.41829000
-1.10817000 -7.04985000 3.08123000
-4.09697000 5.17589000 -0.12047400
-4.12142000 5.71251000 -0.07550070
-3.92686000 5.21939000 -0.11223600
-4.53658000 5.98215000 0.01552360
-4.44329000 5.16260000 -0.00454255
-1.06217000 9.55946000 -1.28075000
-1.21315000 9.71443000 -1.21621000
-1.23200000 9.57590000 -1.13657000
3.75801000 -2.11933000 5.77344000
3.86269000 -1.94850000 5.67109000
3.46038000 -2.13342000 5.85785000
3.34194000 -2.42363000 5.89751000
6.98807000 -0.43243800 -0.65017200
6.86280000 -1.41348000 -0.56253600
6.81396000 -1.51169000 -0.70632900
6.85473000 -1.23230000 -0.75994400
3.07173000 7.76217000 0.56408500
3.14654000 7.69151000 -0.06746460
3.13054000 8.25427000 0.11786600
3.14735000 8.14367000 -0.30370600
4.93886000 -4.85767000 -0.98360700
5.34609000 -4.35117000 -0.93114700
5.10741000 -4.77007000 -0.54954300
5.57443000 -4.04969000 -0.85831200
5.46846000 -4.28028000 -0.40381600
-5.67467000 0.16458100 4.12760000
-5.46796000 -1.37321000 4.37099000
-5.18147000 3.42162000 -0.08241080
-4.95673000 3.45514000 -1.13403000
-5.36065000 3.31197000 -0.77307100
-5.79360000 2.85038000 -0.79005800
-5.58253000 3.01081000 -1.21783000
-1.00607000 0.13719100 7.01118000
-1.62187000 0.77216700 6.78078000
-1.46761000 -0.01114470 6.95706000
-2.54413000 0.78157000 6.55443000
-2.18864000 1.00280000 6.63579000
-2.99816000 1.05309000 6.21612000
-3.51207000 -7.59108000 1.19148000
-3.64270000 -7.71070000 1.33886000
3.52995000 0.92947200 5.20084000
3.29750000 1.24676000 5.21209000
3.71935000 1.14881000 4.94239000
4.16000000 -0.01828570 4.95532000
4.31040000 0.37437600 4.73054000
4.54544000 0.04558910 4.56179000
-3.61831000 -5.45741000 1.64695000
-4.43436000 -4.26483000 2.01611000
-3.96317000 -4.80800000 1.94971000
-4.08459000 -4.86547000 1.54870000
2.78585000 4.26810000 -2.24556000
2.98086000 4.09007000 -2.71789000
2.38887000 4.26806000 -2.65952000
2.03784000 4.18849000 -3.17572000
2.45137000 4.03633000 -3.34239000
-0.49206800 -1.94008000 7.00185000
-0.87143900 -2.22965000 6.89644000
0.67739900 -1.59650000 7.06984000
0.72861800 9.71891000 1.43049000
0.33470500 7.80907000 1.49219000
5.58056000 1.89013000 3.53827000
5.40464000 2.11445000 3.63942000
5.63278000 1.58456000 3.76026000
5.87930000 1.41169000 3.20206000
5.97165000 1.48412000 2.89781000
5.78409000 1.62455000 3.12324000
0.16043300 -4.92658000 4.53349000
0.38574200 -4.13070000 5.18890000
0.55499000 -4.96628000 4.47081000
0.30329200 -6.13127000 3.90243000
-0.01738100 -5.79321000 4.07610000
0.29409200 -5.76690000 4.07818000
-3.37048000 2.83780000 5.05713000
-3.91487000 2.93513000 4.54371000
-3.98660000 2.45526000 4.85461000
-2.46448000 3.68238000 4.38963000
-2.27976000 4.01532000 3.89367000
-3.03232000 3.58868000 4.18391000
-4.28352000 2.88853000 1.98093000
-4.49979000 2.82558000 1.63403000
-4.53139000 2.93007000 1.15198000
-4.77411000 2.63759000 1.39758000
-4.89529000 2.62443000 0.96771800
3.24673000 3.48939000 -3.83345000
3.00680000 3.74775000 -3.54844000
3.80792000 3.47253000 -3.34323000
4.13856000 3.26732000 -3.74836000
4.05340000 3.36374000 -3.40115000
-5.06844000 2.79078000 3.24836000
-4.68973000 2.84574000 3.80188000
-4.99011000 2.91092000 3.26094000
-4.24661000 2.97941000 4.16417000
-4.58207000 3.08066000 3.63577000
-1.94716000 9.10337000 -0.27071500
-1.87986000 8.37028000 -0.14255100
-2.06451000 9.72096000 0.03018100
-1.73491000 9.09864000 -0.81748600
-3.89046000 1.26651000 5.61157000
-3.51575000 1.92395000 5.63224000
-4.13062000 1.69132000 5.26481000
-3.59204000 0.33192400 6.05505000
-3.69339000 0.91283200 5.91885000
-3.69072000 0.38488500 6.06325000
2.86167000 3.86968000 2.05070000
3.15673000 3.55040000 2.48091000
2.64238000 3.73240000 2.78319000
3.26247000 3.66643000 1.97044000
3.20886000 3.84078000 1.47554000
3.56916000 3.56923000 1.66355000
0.37376000 2.80127000 6.13914000
0.76434200 2.73852000 6.15707000
0.42962700 2.86036000 6.06005000
-1.40770000 2.91710000 5.89209000
-0.68484800 2.65611000 6.20105000
-0.97151900 3.01068000 5.90179000
-0.40654900 3.50018000 4.49672000
-0.37893800 3.68999000 4.21790000
-0.06805170 3.63628000 4.33837000
-1.74449000 3.24415000 4.26745000
-1.29150000 3.43193000 4.28354000
-1.49422000 3.07223000 4.64088000
-0.75829900 -2.69044000 6.01984000
-0.70487500 -1.66376000 6.36885000
-0.13314900 -1.66243000 6.41542000
-0.50683200 -1.97630000 6.30439000
0.79222300 9.19415000 -1.58842000
0.98697600 9.23372000 -1.48302000
1.01238000 9.73310000 -1.51334000
0.66471400 9.74912000 -1.70168000
0.83683100 9.80242000 -1.53798000
-5.38821000 0.99020000 -4.04184000
-4.89655000 0.93555400 -4.64191000
-5.38163000 0.72296900 -4.13522000
-4.86238000 0.05834100 -4.91872000
-1.71459000 0.12486200 6.25238000
-1.39922000 0.34572500 6.30580000
-1.30898000 -0.12124400 6.39402000
-0.31285900 1.02804000 6.28773000
-0.72764600 0.79104000 6.32904000
4.97823000 -2.99437000 -3.65113000
5.26404000 -2.94076000 -3.43938000
5.09712000 -3.11381000 -3.38777000
5.13690000 -3.66225000 -3.01429000
5.54655000 -3.05888000 -3.08211000
5.35851000 -3.59720000 -2.72977000
2.16184000 6.62953000 -0.18664900
1.97098000 6.52274000 -0.16662100
-6.68215000 -0.46960600 2.28691000
-6.58389000 -0.48065400 2.42777000
-6.63213000 -0.41339200 2.25319000
-6.80543000 -0.73910800 1.82522000
-6.75914000 -0.84303800 1.65934000
-5.81422000 8.01280000 1.14937000
-5.83163000 8.16667000 1.19612000
-5.26369000 7.56166000 1.33426000
-5.34282000 7.40533000 1.24741000
-5.02286000 6.96081000 1.29933000
-1.54526000 -0.48275200 -6.72729000
-2.80897000 -0.32479300 -6.22228000
-3.05476000 0.08066880 -6.10994000
-2.63664000 0.18128800 -6.29192000
6.10582000 -3.24416000 1.30976000
5.76983000 -3.89306000 1.02165000
5.97771000 -3.59826000 0.62700700
5.85720000 -3.60595000 1.57491000
5.71414000 -3.91456000 1.38102000
-4.79789000 -3.52807000 -2.54942000
-5.38395000 -3.14163000 -1.79868000
-5.53688000 -3.09476000 -1.35824000
-5.22196000 -3.54345000 -1.46116000
-6.13773000 0.01607220 -1.66453000
-6.08299000 0.43639300 -1.62013000
-6.20670000 0.23761800 -1.23088000
-5.88239000 -0.08857020 -2.45254000
-6.00437000 -0.46948100 -2.18444000
-5.86055000 -0.57240000 -2.55457000
6.15605000 0.89011900 0.97430100
6.26442000 0.59558500 0.84933200
6.25282000 0.78256100 0.44011800
-1.88346000 9.11970000 -0.49786200
-1.70474000 8.05935000 -0.63023100
-1.79523000 8.11087000 -0.40432600
-1.60063000 7.12607000 -0.66467600
-1.58290000 6.24581000 -0.62590000
-4.30200000 -5.86838000 -0.35444400
-4.06489000 -6.06457000 -0.74316000
-4.18040000 -6.05802000 -0.12620000
-4.24100000 -5.70902000 -1.17327000
-3.83099000 -6.05996000 -1.42134000
-2.52781000 -4.12649000 -4.76190000
-3.02408000 -3.93419000 -4.60468000
-3.13754000 -3.92313000 -4.70661000
-3.17009000 -4.07801000 -4.38027000
-2.52859000 -4.17136000 -4.69096000
-2.97730000 -4.26448000 -4.36138000
-0.73141900 -7.73247000 3.93386000
-1.01805000 -7.63318000 3.75233000
-0.69421200 -7.23878000 3.56627000
-0.59666300 -7.44571000 3.72252000
6.13067000 -3.27028000 1.08932000
6.21418000 -3.38023000 0.87008200
6.49494000 -2.59063000 1.49746000
6.69341000 -2.05344000 1.55041000
6.51852000 -2.19826000 2.01713000
-3.33884000 0.94601600 -5.12986000
-3.62904000 1.06834000 -4.89315000
-3.60467000 0.72363300 -5.02358000
-3.90425000 1.44475000 -4.47622000
-3.67846000 1.29766000 -4.75069000
-3.55046000 1.61621000 -4.64804000
-4.52625000 -2.61346000 -4.58532000
-4.06718000 -2.99305000 -4.71404000
-3.42634000 -2.49150000 -5.37050000
-3.25400000 -2.72306000 -5.36499000
0.25142800 4.69137000 1.73283000
0.70762800 4.52579000 2.14835000
6.18458000 5.74533000 0.41576900
6.06234000 4.85093000 0.48038500
6.12462000 4.41304000 0.44334200
6.32221000 6.60970000 0.15052000
6.30292000 5.75628000 0.07535630
6.22658000 6.47039000 -0.39162200
4.48168000 3.36208000 3.29788000
4.75228000 3.46288000 2.30368000
4.80646000 3.35795000 2.75779000
5.24769000 3.27636000 2.12626000
-0.20501200 3.00469000 5.97877000
-0.75923200 3.21426000 5.77826000
-0.62051100 2.93461000 6.00454000
-0.14726700 3.66545000 5.09257000
-3.68690000 -6.53700000 0.31492800
-3.64324000 -6.25371000 0.29694100
-3.61474000 -6.35473000 0.53265300
-3.70848000 -6.01267000 0.29021300
-3.87606000 -5.69630000 0.28910700
-1.74155000 2.18541000 -6.01522000
-1.32970000 2.24663000 -6.11017000
-1.44267000 1.84567000 -6.26757000
-2.81939000 1.12580000 -6.01201000
-2.42558000 1.34555000 -6.19495000
-2.29175000 1.27555000 -6.16170000
1.36348000 4.93597000 1.08342000
0.36916900 4.86222000 1.90926000
0.80000000 4.84717000 1.76434000
0.60911600 4.95400000 1.72138000
2.81461000 -0.12502600 6.54548000
2.81569000 -0.65654300 6.51256000
3.03308000 -0.08715540 6.47094000
4.10837000 0.21185400 5.79479000
3.74756000 0.46245500 5.94083000
3.73358000 0.18384800 6.04365000
6.12268000 -2.30609000 -0.44310100
6.23069000 -2.02600000 -0.18789000
6.24567000 -1.91500000 -0.47192500
6.12268000 -2.30609000 -0.44310100
-0.73867500 1.13660000 -6.01072000
-1.10213000 0.96266500 -5.99589000
-0.68469400 0.74104300 -6.10590000
0.09267960 0.41671200 -6.19542000
-0.13553600 -0.05947670 -6.23167000
0.37727300 0.17435900 -6.21383000
-0.46539000 4.44160000 -2.26095000
-0.50118200 4.70959000 -1.52345000
-0.81023000 4.42890000 -2.18815000
-0.26825100 3.94749000 -3.37990000
-0.66598500 4.01620000 -3.17905000
-0.52927500 3.69777000 -3.81068000
-2.10989000 4.26665000 1.65556000
-1.85672000 4.19892000 2.18249000
-1.50379000 3.94860000 3.18953000
-1.36361000 3.82902000 3.54581000
3.64237000 -6.71212000 -0.28353400
3.69057000 -6.69899000 -0.28222500
-4.18794000 -6.04644000 0.33586000
-4.38560000 -5.79611000 0.02857380
6.10754000 0.82311700 -2.99592000
6.06698000 1.45151000 -2.72538000
6.30729000 1.04488000 -2.35490000
-4.76517000 7.18092000 1.40888000
-4.97538000 7.76649000 1.38707000
-5.00567000 7.39215000 1.39110000
-4.70346000 7.60942000 1.35735000
-4.57368000 7.18317000 1.39688000
-4.43474000 7.23944000 1.33548000
6.80560000 0.91067600 0.71258400
6.70024000 1.25143000 0.90393000
6.68765000 1.04910000 1.32867000
5.95564000 1.58499000 2.87599000
6.28537000 1.45620000 2.31491000
3.56324000 -7.68132000 1.85678000
3.16244000 -7.68539000 2.39036000
3.03626000 -7.64612000 2.42047000
-0.35990100 -5.73308000 4.63800000
-0.78299400 -5.82098000 4.48350000
-0.39736800 -6.05172000 4.35617000
-0.10847300 -5.73602000 4.65597000
0.04186460 -6.08698000 4.37316000
0.43889500 -5.82079000 4.56883000
5.39729000 1.40209000 -3.81498000
5.51525000 1.89379000 -3.35195000
5.63113000 1.67911000 -3.28311000
5.76649000 2.33694000 -2.57949000
5.91428000 1.98232000 -2.59500000
5.71657000 2.19785000 -2.88893000
1.91799000 4.56287000 1.91106000
1.46386000 4.56934000 2.35887000
1.62513000 4.50881000 2.74452000
0.14589100 4.58350000 2.75931000
1.78967000 9.83772000 0.27560400
1.84090000 9.60402000 0.39254600
-3.10961000 -4.13275000 3.93478000
-3.37653000 -4.26335000 3.53776000
-3.44886000 -3.39226000 4.34798000
-3.31474000 -3.07926000 4.69352000
-3.09926000 -3.34633000 4.66056000
-2.40726000 3.29619000 5.22902000
-2.85039000 3.29498000 5.00025000
-2.68881000 3.11660000 5.21579000
0.00910436 5.96257000 1.48077000
0.04734070 5.14325000 1.35685000
-0.25518200 8.18374000 1.55494000
-0.16837300 7.00323000 1.50084000
-0.37218100 6.77729000 1.46071000
-1.48628000 -3.17605000 -5.97424000
-2.43480000 -2.79371000 -5.75665000
-2.46376000 -2.75727000 -5.85668000
-3.12485000 -2.54277000 -5.64393000
0.34997900 4.96468000 -1.56265000
4.83490000 2.59122000 -3.81443000
3.55503000 2.56531000 -4.93091000
3.76805000 2.76394000 -4.57833000
3.74207000 2.65045000 -4.82588000
3.33995000 3.86089000 3.37864000
2.42566000 4.37462000 2.68383000
3.11825000 4.13054000 2.85574000
-5.49241000 8.35723000 1.05832000
-5.53922000 8.24509000 1.03648000
0.16458100 -2.97614000 -5.55405000
0.16968200 -4.26618000 -4.57573000
0.37416400 -4.86571000 -4.02803000
0.53318200 -4.11525000 -4.69524000
3.38620000 0.75371700 6.20227000
2.90530000 0.92751800 6.32170000
3.17806000 0.52937100 6.32706000
4.47397000 1.17728000 5.30246000
4.29646000 1.07992000 5.42138000
4.59770000 1.11116000 5.16161000
-2.22419000 1.07554000 5.79856000
-2.57141000 0.86887900 5.71939000
-3.46669000 0.90727900 5.14389000
-3.52994000 1.21636000 4.93522000
-3.12883000 1.13749000 5.26534000
0.29745100 -2.83514000 6.59497000
0.16325300 -3.15848000 6.46898000
-0.33148100 -3.94740000 6.12070000
-0.79897000 -3.96555000 6.06226000
-1.21657000 -4.17389000 5.82149000
4.70237000 -3.29813000 -3.14872000
4.74599000 -3.00212000 -3.38547000
3.96257000 -3.61401000 -3.72518000
4.26225000 -3.22945000 -3.77463000
3.93837000 -3.26877000 -4.06138000
0.41926200 -5.71207000 -4.19290000
0.70160300 -6.01517000 -3.89357000
0.16857500 -6.03429000 -3.95289000
0.68262500 -6.59272000 -3.87565000
1.12360000 3.24944000 -5.48484000
1.02014000 3.40432000 -5.07048000
0.48929700 3.24771000 -5.55386000
0.37079600 3.38877000 -5.17811000
3.78373000 -2.83414000 4.59922000
4.10065000 -2.45656000 4.52717000
4.17044000 -2.77955000 4.26028000
3.34935000 -2.74485000 5.00410000
3.39824000 -2.21480000 5.22127000
3.65483000 -2.49354000 4.90213000
-6.25973000 0.38539500 0.65175100
-6.25973000 0.38539500 0.65175100
1.83281000 -1.70804000 6.83093000
2.73974000 -0.32741000 6.66267000
2.73768000 -0.50158600 6.56648000
-0.66161500 -1.49425000 -6.70731000
1.15755000 -2.01178000 -6.57941000
0.68009300 -1.71450000 -6.73469000
1.12138000 -1.34823000 -6.71193000
-1.32737000 3.34213000 -5.10288000
-1.84229000 3.22857000 -5.26946000
-1.90349000 3.36499000 -4.85421000
-2.33131000 3.35492000 -4.70125000
-2.46597000 3.21210000 -5.03458000
-1.78881000 2.88196000 -4.63989000
-1.99537000 2.63137000 -4.80527000
-1.52536000 2.69189000 -4.93915000
-2.78059000 2.45180000 -4.51402000
-2.57638000 2.79869000 -4.27859000
-3.08173000 2.48367000 -4.24669000
-0.20175900 3.23623000 -5.59838000
-0.19291400 3.37314000 -5.22176000
-1.14059000 3.23029000 -5.47403000
-1.99439000 -2.89526000 6.32214000
-2.27951000 -3.43402000 5.95288000
-1.99639000 -3.05603000 6.16115000
-2.12797000 -2.53501000 6.39466000
-1.86527000 -2.16000000 6.67113000
-2.74371000 -2.19290000 6.30555000
-0.67473300 8.19877000 1.71008000
-0.65932500 9.37788000 1.77780000
-0.93787400 9.37118000 1.68120000
-0.88118800 7.16491000 1.57093000
6.33022000 -0.73638500 -2.80738000
6.56878000 -1.15135000 -2.44968000
6.57400000 -1.32511000 -2.33353000
6.37559000 -1.24822000 -2.83278000
2.03285000 -0.74299600 -5.95814000
1.12383000 0.37942800 -6.11650000
1.63897000 0.39582800 -6.01323000
1.22957000 0.73004200 -6.04300000
0.52862000 -0.57173600 -6.22449000
0.56629900 -1.04058000 -6.19200000
0.95393600 -0.61596800 -6.18287000
1.49434000 -0.63221400 -6.09309000
1.76741000 -0.35018100 -6.03271000
1.25074000 -0.22072800 -6.14064000
1.65276000 0.95238700 -6.56534000
1.69325000 1.22221000 -6.49392000
1.83751000 0.62738300 -6.59375000
1.22430000 0.44691200 -6.76536000
1.65716000 0.10574900 -6.68952000
1.44351000 -0.23783000 -6.72025000
-3.72566000 -4.85601000 2.29674000
-4.38114000 -4.11957000 2.38895000
-4.13056000 -4.22274000 2.64990000
-5.28077000 -2.61649000 2.71278000
-5.44759000 -2.26281000 2.69068000
5.90915000 -0.91023300 2.55915000
5.98499000 -1.23857000 2.27260000
5.78816000 -1.16802000 2.75992000
6.31303000 0.03221170 1.16539000
6.19933000 0.06304720 1.66023000
-5.14496000 2.07738000 -1.89655000
-5.26677000 1.72952000 -2.29560000
-4.96331000 2.13502000 -2.21594000
-5.38808000 1.21455000 -2.75343000
-5.12546000 1.50863000 -2.91024000
-5.39744000 1.45988000 -2.42486000
