4.71673000 -5.91645000 2.36548000
4.55043000 -6.28663000 2.33270000
4.27489000 -6.60907000 2.50741000
-1.38658000 8.40698000 -0.97176400
-1.38658000 8.40698000 -0.97176400
-1.21481000 8.38677000 -1.15446000
1.07133000 -8.35187000 -2.66289000
-0.01664230 -8.43539000 -2.21479000
0.00541201 -8.45929000 -1.84776000
-1.15238000 -9.80591000 -2.97314000
-1.30950000 -9.65726000 -2.90027000
-0.95722700 -9.60290000 -3.01061000
-1.53118000 -9.27118000 -2.92916000
3.37058000 -8.27378000 -3.89374000
3.39151000 -8.36095000 -3.79313000
3.22608000 -8.54813000 -3.63650000
3.63394000 -8.78339000 -2.87144000
3.35460000 -8.91048000 -2.99389000
-1.07282000 8.32744000 -1.39104000
-0.64994500 8.36252000 -1.50540000
-0.86863500 8.31456000 -1.53211000
-0.96836700 8.38623000 -1.33274000
1.56553000 -8.44892000 -1.38061000
0.91585600 -8.43894000 -1.97736000
0.71807400 -8.46748000 -1.54432000
-5.93689000 -2.42490000 1.21523000
-6.02237000 -2.54244000 1.01079000
-6.06451000 -2.59423000 1.09207000
-6.11078000 -2.60582000 1.24553000
-5.95609000 -2.46765000 1.28226000
3.17976000 -9.10475000 -1.39442000
3.23200000 -9.06969000 -1.58177000
3.30657000 -9.05001000 -1.46861000
3.55120000 -9.05674000 -0.97156100
3.45930000 -9.10541000 -0.73383900
3.46035000 -9.07841000 -0.87100800
-2.32525000 3.92047000 3.87961000
-2.55322000 3.92142000 3.82583000
-2.62162000 3.80401000 3.71000000
-2.72950000 3.51647000 3.52084000
0.03526740 5.89304000 4.60176000
-0.11093800 5.96728000 4.51967000
0.14718100 5.87580000 4.60201000
0.27090900 5.67087000 4.63864000
0.30976800 5.80962000 4.57380000
-3.26210000 -3.59808000 -4.48419000
-3.38328000 -3.88669000 -4.44820000
-0.13925800 -2.02143000 -5.79598000
-0.10800400 -1.94601000 -5.71303000
-5.19300000 -4.79935000 -1.56763000
-5.13968000 -5.09374000 -1.56396000
-5.28031000 -5.03856000 -1.12995000
0.00900376 -0.33689300 -2.46546000
-0.36359600 -0.39158200 -2.39973000
-0.74370400 -0.34589700 -2.25617000
-0.78468400 -0.40677800 -2.28762000
-0.98373400 -0.30503900 -2.14311000
-4.16239000 5.06213000 1.91776000
-4.39460000 5.31997000 1.23004000
-0.05247860 -8.40639000 3.05909000
-1.28483000 -0.11112500 -1.94928000
-1.22255000 -0.28578800 -2.02972000
-0.96841600 -0.41483100 -2.23967000
-4.22917000 -6.60557000 -2.19068000
-4.08702000 -6.88083000 -2.09997000
-3.43874000 -7.40363000 -2.46527000
2.08256000 7.71411000 0.95860000
1.80887000 7.94584000 0.89680100
3.04374000 2.35046000 2.29473000
3.12205000 2.35847000 2.14548000
2.82573000 2.09280000 2.12567000
2.85322000 -8.50573000 3.73613000
1.01444000 -9.47405000 2.14946000
1.60195000 -9.43296000 1.71058000
-5.95968000 -6.28570000 0.35568900
-5.88519000 -6.48110000 0.01236800
-5.88666000 -6.48630000 0.42130800
-5.90738000 -6.58516000 0.55728200
-5.95673000 -6.39911000 0.52977500
0.19143600 -9.30895000 -1.80266000
-0.22645100 -9.27776000 -1.95483000
0.00623275 -9.27650000 -2.01132000
-0.37516700 -9.23735000 -2.22205000
3.80060000 -0.65971200 1.21760000
3.57870000 -0.77000800 1.80664000
3.75900000 -0.71903300 1.50412000
3.48714000 -0.66185800 1.49119000
-3.40918000 7.40503000 1.29644000
-3.38517000 7.42352000 1.19235000
-3.68180000 7.22638000 1.09514000
-3.18138000 7.57034000 1.46092000
-3.19892000 7.58711000 1.29605000
0.99755700 1.19801000 2.17646000
1.59852000 1.98767000 2.46593000
1.32282000 1.88023000 2.55837000
-0.31436000 -6.84133000 4.87446000
-3.45848000 -7.14273000 4.50455000
-3.53413000 -7.09490000 4.47226000
-3.42647000 -7.74133000 4.04464000
-3.34429000 -7.53748000 4.27612000
-6.26328000 -5.89438000 0.86758700
-6.25214000 -6.03737000 0.71366200
-6.11550000 -6.29820000 0.87569700
-6.22746000 -6.06938000 0.64576800
-6.15058000 -6.03998000 0.59610100
-6.09126000 -6.22275000 0.60892400
5.35672000 -6.01216000 -2.90240000
5.25937000 -6.24599000 -2.97003000
5.31504000 -5.99597000 -3.02920000
5.09880000 -6.16248000 -3.22341000
1.71219000 0.58879600 0.79058400
1.78733000 0.64017700 0.58782900
1.84573000 0.69875000 0.37467200
-3.27121000 -6.77151000 4.87467000
-3.27372000 -7.05441000 4.77988000
-3.18588000 -7.10635000 4.77478000
-3.18945000 -7.36292000 4.66374000
-3.01501000 -7.53156000 4.62628000
-3.13562000 -7.31939000 4.70319000
-6.05631000 -6.33454000 0.65424300
-6.02340000 -6.41021000 0.71934200
-6.14491000 -6.31059000 0.70275600
3.56929000 4.06846000 0.72334000
3.60406000 4.41203000 0.79641000
-0.11096200 -3.88558000 -6.36777000
-0.00321795 -3.70910000 -6.41975000
-0.11552100 -4.01200000 -6.36554000
2.62470000 -8.39847000 4.11532000
2.67756000 -8.45614000 4.04279000
2.70360000 -8.15472000 4.36696000
2.90852000 -8.08446000 4.29878000
-3.86633000 7.01214000 0.87192600
-3.56724000 7.29120000 1.01193000
2.58627000 1.07446000 -0.73492000
2.59013000 0.94893800 -0.35721700
2.39634000 0.86011100 -0.76956100
2.29764000 0.87928900 -0.95983500
2.46631000 1.00142000 -0.85651100
-5.53807000 -2.29380000 -2.26779000
-5.61459000 -2.02411000 -1.75606000
0.33343200 2.45215000 -3.60820000
0.16653700 2.06129000 -3.33852000
-4.26878000 4.66592000 1.64549000
-4.34593000 4.65977000 1.41218000
-4.26944000 5.18339000 1.70033000
-4.33276000 5.29671000 1.60920000
-2.88263000 -3.89459000 -5.65299000
-3.77794000 -3.99594000 -5.09276000
1.51799000 -3.88993000 -6.11537000
1.99276000 -4.15093000 -5.97456000
1.83079000 -4.19915000 -6.02002000
2.69436000 -4.26931000 -5.80080000
2.37740000 -4.30300000 -5.85569000
-1.45112000 -0.70761600 -1.59771000
-0.87124400 -0.83286400 -2.32604000
-1.14839000 -0.68670700 -1.82134000
-1.18368000 -0.80038400 -2.07167000
-5.19480000 -2.10035000 -2.82460000
3.12793000 2.70030000 -0.03039180
2.94155000 2.34783000 -0.05715930
-3.47004000 -3.99051000 -5.30651000
-3.58946000 -4.22755000 -5.20512000
-3.95116000 -4.61352000 -4.90605000
2.40140000 1.01266000 -0.98509900
1.84183000 0.86909000 -1.49273000
2.12869000 0.73917800 -1.12123000
-0.89356600 -0.71606700 -2.04792000
-2.35813000 -9.29326000 0.53054700
-2.27585000 -9.31264000 0.78815400
-2.35813000 -9.29326000 0.53054700
2.63337000 2.51318000 1.80665000
2.72680000 2.97651000 2.08008000
2.35079000 1.99477000 1.70716000
3.09091000 5.86047000 -3.02439000
2.95268000 5.84196000 -3.13692000
2.99876000 5.91920000 -3.09416000
3.09690000 5.99650000 -2.95644000
1.08529000 7.44301000 -2.03945000
0.79406200 7.66378000 -1.90715000
0.94428200 7.15992000 -2.39844000
-3.41696000 3.38945000 -0.35556700
-3.43648000 3.57018000 -0.52900300
-3.54209000 3.78701000 -0.30340600
0.69627200 -4.12313000 5.52165000
0.47568800 -3.93907000 5.54667000
0.44246000 -3.68038000 5.54324000
-2.53869000 5.00923000 3.99901000
-2.62439000 5.12886000 3.99574000
-2.97303000 4.98923000 3.71906000
3.61576000 4.04804000 -2.53879000
3.66785000 4.14136000 -2.58266000
3.75566000 3.66703000 -2.26408000
3.58918000 3.81595000 -2.47921000
-1.40498000 -1.59367000 5.39742000
-1.33370000 -1.48297000 5.34081000
-1.62729000 -1.70144000 5.45795000
1.42061000 6.81967000 2.88701000
1.10649000 6.67632000 3.16848000
-1.71375000 3.85821000 -2.97975000
-1.89437000 4.46865000 -4.08095000
-1.86983000 4.37667000 -4.06629000
-1.96420000 4.52877000 -4.03025000
-1.92096000 4.32537000 -4.00040000
-2.10808000 4.23208000 -3.88066000
-2.52110000 0.82942700 -0.38673100
-2.51471000 0.93311600 -0.62126800
-2.45913000 0.82354300 -0.81748900
-2.43594000 0.84877500 -0.73452200
-2.58291000 1.02552000 -0.83091400
-1.33573000 -9.13434000 -3.14166000
-1.60681000 -9.16675000 -2.97903000
-2.66866000 0.94730400 -0.15417700
-2.83202000 1.09297000 -0.08824980
-2.41511000 4.24141000 -3.78311000
-2.79310000 3.95285000 -3.39685000
-2.59125000 0.80259400 -0.19850500
1.14458000 1.47537000 2.33928000
3.17018000 -6.05112000 -5.14762000
3.15784000 -6.24422000 -5.08426000
3.28446000 -5.83080000 -5.19641000
-1.38738000 -7.51026000 4.23740000
-1.09159000 -7.48508000 4.34097000
-1.13815000 -7.68503000 4.17325000
-1.81761000 -0.46571700 1.00936000
-1.93027000 -0.56760300 1.05740000
3.68550000 6.93841000 -0.67334800
3.52478000 7.11664000 -0.99728000
3.76201000 6.82177000 -0.93691900
2.01578000 0.03056240 1.08903000
1.91110000 -0.10366500 1.26338000
2.11877000 -0.06830020 0.85408100
-1.60630000 4.63747000 -3.14202000
-1.51739000 4.26209000 -3.16105000
-1.83179000 4.18774000 -2.96486000
-3.60195000 4.30032000 2.99399000
2.41831000 -3.00585000 5.87394000
2.05987000 -3.26818000 5.96101000
3.90120000 -1.99280000 4.41339000
3.99211000 -1.39736000 3.65779000
4.06877000 -1.64879000 3.99387000
2.29042000 -0.86807500 -3.91929000
2.51933000 -0.99186800 -4.01328000
2.08763000 -0.80541400 -3.85783000
2.21085000 -0.82490100 -3.73647000
-0.44111900 -0.87617600 3.98598000
-0.36466900 -0.82321800 3.85493000
-0.95465900 5.62734000 -3.30939000
-0.91347500 5.90621000 -3.23776000
-1.18908000 5.85827000 -3.16129000
-1.06221000 6.28411000 -3.02934000
1.42549000 9.56654000 1.35565000
1.37980000 9.73564000 1.43019000
1.33200000 9.73480000 1.48686000
1.36239000 9.65046000 1.50657000
4.18370000 -2.36881000 -2.78521000
3.64183000 -2.09205000 -3.12513000
-2.91767000 6.88604000 -0.27409500
-2.68755000 7.18340000 -0.26345800
-0.78543200 -6.04411000 -5.18410000
-1.06985000 -5.79411000 -5.23192000
1.39497000 2.05584000 -3.02942000
1.69191000 2.27400000 -3.13284000
2.89213000 -9.96102000 0.35242200
2.84854000 -9.95445000 0.82756600
3.06504000 -9.82470000 0.38857600
3.02578000 -9.89004000 0.53280600
3.06461000 -9.91018000 0.05853260
5.29550000 -5.48423000 0.75634800
5.08375000 -5.97327000 1.00933000
5.15162000 -5.75049000 1.15235000
2.75143000 1.97487000 2.06061000
2.56857000 1.69414000 1.88143000
2.79934000 1.85013000 1.87539000
2.99977000 2.13170000 1.97182000
3.59044000 -4.91541000 -5.44957000
3.40064000 -4.69085000 -5.54215000
-5.82594000 -2.51564000 2.17245000
-5.92074000 -2.67436000 2.18974000
-5.94498000 -2.59184000 2.00716000
3.65081000 5.11950000 0.21417200
3.63097000 5.29319000 0.48609700
-0.34811600 0.26718700 -2.27524000
4.28241000 6.13874000 0.14631900
4.35485000 5.90625000 -0.54500400
4.32468000 6.12141000 -0.04728600
0.65298400 -0.92506300 4.22482000
1.09704000 -0.87950800 4.04225000
0.85776300 -0.81803400 4.05962000
4.39119000 5.44388000 0.23776300
4.30611000 5.91411000 0.17559800
4.43946000 5.40750000 0.35386900
-1.28665000 6.86889000 2.93184000
-1.25340000 6.61876000 3.17047000
-1.51311000 6.73446000 2.93563000
-0.98826800 6.55809000 3.31943000
-1.04106000 6.81295000 3.08787000
5.31718000 -1.99034000 -2.31120000
5.21408000 -2.13497000 -2.60997000
-5.12446000 -3.85380000 2.34914000
-5.12752000 -4.17781000 2.37526000
-5.22090000 -3.62876000 2.02767000
6.24468000 -4.65886000 1.32781000
6.35598000 -4.45944000 1.42794000
0.31545700 0.01820250 -2.41298000
0.26297800 -0.13053800 -2.49917000
0.59901000 -0.35053700 -2.53876000
4.41541000 5.24090000 0.33753500
0.57600500 1.11785000 2.88549000
0.25382800 0.96409300 2.75948000
0.37001600 0.85125400 2.66773000
0.34947300 1.01408000 2.74628000
-3.47767000 -0.81289800 -2.23906000
-0.05944270 -0.74008800 3.37213000
-0.10636300 -0.64845800 2.98209000
-0.52416800 -0.71124000 3.05915000
-0.54922100 -0.67284400 2.92936000
6.33566000 -4.62104000 1.56895000
6.08379000 -4.78016000 1.88106000
6.19027000 -4.70725000 1.88774000
0.67691500 -0.76098000 -4.02776000
1.00550000 -0.70849400 -3.80953000
0.56797600 -0.80860800 -4.19982000
0.61123200 -0.87577800 -4.27436000
2.45487000 -9.91728000 -0.42894600
2.47892000 -9.94083000 -0.15423400
2.48726000 -9.94877000 0.19903300
2.42321000 -9.86069000 0.27351800
2.33279000 -9.84602000 0.69979900
2.44938000 -9.95799000 0.46843900
2.35096000 -9.83619000 0.61522200
-1.47156000 0.43754400 2.12538000
1.42126000 -9.91175000 2.74400000
1.47879000 -9.79670000 2.75877000
-2.60482000 -9.90707000 -0.56799300
-2.41288000 -9.87039000 -0.97881000
-2.53411000 -9.85205000 -0.61137800
-2.59319000 -9.83594000 -0.30020400
-2.62209000 -9.85687000 -0.01323750
-3.88058000 4.13040000 -2.22542000
-3.80586000 4.17247000 -2.40993000
0.29295500 8.46953000 1.97764000
0.10013800 8.49171000 1.99457000
0.03249640 8.38951000 2.07516000
0.22187600 8.27981000 2.20431000
2.41301000 0.62696400 -0.29354000
2.49626000 0.67511100 -0.26975500
2.43255000 0.65279700 -0.05680980
2.36527000 0.52009700 -0.06830830
-3.61359000 -2.07158000 4.63712000
-3.64699000 -2.20602000 4.71583000
-3.79199000 -2.27661000 4.78418000
-3.66365000 -2.32187000 4.82034000
3.24509000 6.29254000 -0.31339300
3.08667000 6.46220000 -0.57113700
3.24417000 6.18406000 -0.56239400
3.40468000 5.92037000 -0.38649500
3.38428000 6.05302000 -0.15460000
6.26562000 -4.65247000 1.78990000
6.34920000 -4.48378000 1.62361000
-4.24699000 -0.97461600 1.46733000
-2.10612000 1.65077000 2.82747000
-2.04631000 1.43914000 2.63992000
-2.21468000 1.60404000 2.59143000
-2.99808000 -7.00013000 -4.94490000
-2.91231000 -7.27701000 -4.91285000
-2.74451000 -7.33136000 -4.96853000
-2.60279000 -7.47144000 -4.94447000
-2.71331000 -7.57174000 -4.85802000
2.56032000 0.93201100 0.68289600
2.80596000 1.44680000 1.27475000
2.64103000 1.09360000 0.82102400
1.92622000 7.77842000 -0.61612400
2.33082000 7.46425000 -0.48223800
2.11517000 7.65460000 -0.51239400
0.39170400 -8.94712000 -4.55209000
0.18903800 -8.85985000 -4.57698000
0.16508200 -9.06198000 -4.40997000
0.00597271 -8.87845000 -4.52845000
0.28387900 -9.04249000 -4.48856000
5.70623000 -6.63949000 2.01062000
5.64467000 -6.56561000 2.13378000
5.72089000 -6.84862000 1.87353000
2.37718000 -2.63561000 -5.58334000
2.60198000 -2.40822000 -5.38015000
2.77751000 -2.58290000 -5.36326000
-0.30222700 -8.98604000 4.33734000
-0.44834300 -8.94646000 4.44687000
-0.50681100 -9.05779000 4.30108000
-0.32216100 -8.76246000 4.55650000
-0.17290800 -8.84155000 4.46652000
-0.11861700 -8.67429000 -4.66342000
0.01200230 -8.55120000 -4.74518000
0.01140910 -8.75438000 -4.62224000
-0.35273100 -8.65958000 -4.68092000
-0.18999700 -8.37853000 -4.97138000
-0.15089400 -8.51825000 -4.78884000
5.62882000 -3.85645000 3.10672000
5.53398000 -4.17802000 3.27122000
5.46527000 -4.14899000 3.42435000
5.56316000 -3.78735000 3.22998000
2.24941000 -1.85508000 -5.18315000
2.53105000 -2.18490000 -5.39180000
4.18467000 -8.77433000 -0.65261000
4.30468000 -8.70922000 -0.48431800
4.21489000 -8.77695000 -0.36979600
3.79729000 -8.96089000 -0.52212100
3.62038000 -9.03784000 -0.61537600
4.04803000 -8.84932000 -0.73744700
-6.11608000 -6.36692000 -1.05409000
-6.00886000 -6.38959000 -1.34735000
-6.16300000 -6.30934000 -0.70421100
-4.01097000 2.87481000 0.90586900
-4.00222000 2.65968000 0.73579700
-4.06793000 3.02422000 1.11403000
-3.99877000 2.86166000 1.00933000
4.65735000 -1.04245000 0.28970500
4.59392000 -1.08020000 0.40891500
4.76787000 -1.16920000 0.42144600
-0.29298800 9.84491000 1.58213000
-0.57408700 9.88051000 1.50667000
-0.28729100 9.92285000 1.71032000
-0.43107500 9.75988000 1.47584000
3.31855000 3.14872000 2.70290000
3.33585000 3.04707000 2.61954000
3.38470000 3.13501000 2.62113000
3.18577000 3.05630000 2.81634000
-5.18860000 -7.09789000 2.54927000
-5.21601000 -7.19495000 2.40124000
5.30633000 -1.73387000 1.92397000
4.78174000 -1.48122000 2.43563000
-1.12319000 -2.92079000 -6.23083000
-1.05329000 -2.49109000 -6.12051000
-0.76456400 -2.84802000 -6.24672000
-0.78448100 -2.62755000 -6.16455000
-0.97858200 -2.43815000 -6.09672000
-0.69947400 -1.95746000 -4.79099000
-1.18232000 -2.03373000 -4.76962000
-0.81439300 -2.06046000 -4.87535000
-1.70069000 -2.16054000 -4.71696000
-0.95331000 -3.17481000 -6.28992000
-0.94442000 -3.39343000 -6.33441000
-1.14953000 -3.16228000 -6.27127000
-1.12289000 -3.62059000 -6.32004000
3.80197000 -7.84241000 -3.80276000
3.65926000 -7.95662000 -3.97885000
3.89014000 -7.55758000 -3.86006000
-1.48486000 9.18712000 0.87386000
-1.50581000 8.91267000 0.83530200
-1.39281000 9.21886000 1.03296000
-1.10351000 -9.00869000 -4.22588000
-1.26198000 -9.14420000 -3.96092000
-1.87661000 -9.03669000 -3.88609000
-1.99684000 -8.98275000 -3.72227000
-2.05765000 -8.92592000 -3.91477000
0.57355900 4.24000000 -4.39612000
0.44710800 4.30242000 -4.47013000
0.63030400 4.31903000 -4.42146000
0.67824000 4.22267000 -4.39467000
0.57442000 3.94957000 -4.38516000
-4.87758000 -7.35820000 2.71986000
-4.95179000 -7.12032000 2.77452000
-5.09199000 -7.12760000 2.68411000
-5.11828000 -7.26520000 2.54326000
-5.13868000 -7.40775000 2.33918000
-5.01711000 -7.38493000 2.59013000
-3.57778000 -0.70331700 -1.69468000
-3.63138000 -0.86455600 -2.03684000
-3.70931000 -0.82455100 -1.59814000
-3.40557000 -0.54572700 -1.14449000
-3.47220000 -0.56796000 -1.30929000
-3.56637000 -0.60781100 -1.12431000
0.14474300 -8.14223000 3.88827000
0.53981900 -8.06356000 3.94101000
0.65378800 -8.13945000 3.82574000
4.32545000 -8.64360000 0.47677700
4.45378000 -8.57645000 0.36720400
4.48276000 -8.52585000 0.74294800
3.92541000 -8.92262000 0.04938250
3.95265000 -8.89944000 0.38460200
3.73508000 -9.02047000 0.19458800
-1.68359000 -6.46075000 5.69624000
-1.56951000 -6.32793000 5.83405000
-1.48883000 -6.42913000 5.84110000
5.16293000 -5.30572000 -3.57674000
5.02935000 -5.17670000 -3.75924000
5.17624000 -5.14682000 -3.49709000
5.24925000 -5.01380000 -3.39813000
5.03990000 -5.01973000 -3.70588000
5.50175000 -1.85069000 1.80894000
5.06925000 -1.61977000 2.27559000
-2.33675000 -8.43295000 -0.68857600
-2.74365000 -8.39757000 -0.24912300
-2.91008000 -8.39273000 0.31056500
3.46064000 2.45349000 -1.54227000
3.41303000 2.38681000 -1.40837000
3.33953000 2.28297000 -1.64237000
3.64838000 2.95050000 -1.57485000
3.52621000 2.57925000 -1.37051000
3.59363000 2.76463000 -1.53983000
2.44311000 6.31279000 -1.94399000
2.49387000 6.52045000 -1.69063000
-0.29430400 9.38186000 -0.83535100
-0.54524800 9.38570000 -0.75152100
-2.44946000 -8.16567000 2.92669000
-2.39888000 -8.21145000 2.87606000
-2.66255000 -8.15702000 2.73728000
-2.44946000 -8.16567000 2.92669000
-1.86202000 4.79063000 4.31376000
-2.11355000 4.69236000 4.25241000
-2.06437000 4.60892000 4.21274000
-1.75895000 4.77628000 4.35301000
-1.63718000 4.73221000 4.41554000
0.08734790 -8.03350000 4.01148000
0.09293050 -7.86747000 4.16757000
-2.08404000 5.04376000 4.29897000
-1.84032000 4.92782000 4.38391000
1.65035000 -9.07967000 -3.17578000
1.86767000 -9.06110000 -3.16701000
1.88957000 -9.08613000 -3.00011000
1.83504000 -9.13670000 -2.92790000
1.60010000 -9.12974000 -3.06710000
-4.61236000 -1.89054000 0.65853400
-4.39331000 -1.74156000 0.60100100
-4.75209000 -2.01559000 0.91632800
-4.61700000 -1.95588000 1.26842000
4.23715000 3.54998000 -0.58730800
4.11608000 3.19022000 -0.29693700
4.16861000 3.19104000 -0.04772480
1.74146000 7.58411000 -2.65695000
1.47259000 7.53940000 -2.80499000
1.63040000 7.70992000 -2.67380000
-3.49708000 -0.73058000 -2.02082000
-3.36582000 -0.66512400 -2.10459000
-3.45254000 -0.58565900 -1.53630000
-3.25677000 -0.58544800 -1.86223000
-1.62485000 0.32164100 0.89368000
-1.47363000 0.10710200 1.13598000
-1.57745000 0.14836700 0.95556100
-1.31022000 0.39371900 1.38170000
-1.24596000 0.24440200 1.40894000
-1.73144000 5.12967000 4.44788000
-1.64604000 4.96500000 4.48358000
-1.80208000 4.99996000 4.42055000
-2.01255000 4.99193000 4.35331000
-2.75183000 -9.09356000 -2.14151000
-3.36571000 -9.05577000 -1.10946000
-3.14059000 -9.15629000 -1.28960000
-3.31622000 -9.10139000 -0.98164600
5.90812000 -6.01583000 1.63220000
6.01737000 -5.94146000 1.38096000
5.94009000 -5.75760000 1.55026000
6.14707000 -6.30483000 0.99486700
-3.93543000 -2.46532000 -4.69657000
-3.78674000 -2.52337000 -4.82902000
-3.87233000 -2.61628000 -4.80356000
-3.92676000 -2.58594000 -4.70649000
-0.68671500 0.64649100 -1.59957000
-0.47075500 0.32324100 -1.61779000
-0.61106900 0.31089800 -1.55603000
-0.40018800 0.14526300 -1.63198000
3.77191000 -7.97475000 -3.78613000
3.67453000 -8.26703000 -3.66906000
-1.35503000 1.15677000 -2.37983000
-1.22408000 0.82772000 -2.14997000
-1.08951000 0.86528700 -2.26180000
-1.91180000 -8.23085000 -4.75014000
-2.48474000 -8.14181000 -4.54871000
-2.42809000 -8.09216000 -4.66182000
-0.53647900 7.17154000 4.00595000
-0.70949300 7.01615000 4.06401000
-0.64314300 6.97614000 4.13053000
-0.73820300 7.28559000 3.92959000
-0.72593200 7.14764000 3.98151000
0.69645100 -7.49720000 -5.47548000
1.01360000 -7.55237000 -5.46479000
0.84073800 -7.65789000 -5.35584000
0.89357400 -7.89445000 -5.15717000
1.38318000 -1.67265000 -4.18312000
1.91035000 -1.62953000 -3.83396000
2.65153000 5.93194000 2.52818000
2.60459000 6.20335000 2.39103000
2.56137000 5.77860000 2.71359000
-4.02748000 4.88645000 -1.91938000
-4.01347000 4.61859000 -1.98877000
-2.86398000 7.09865000 -2.36298000
-2.83253000 7.33542000 -2.21397000
-2.87957000 7.49388000 -1.95981000
-2.82011000 7.64066000 -1.86164000
3.61919000 -8.03501000 1.23713000
3.77257000 -7.81967000 1.49774000
3.87366000 -7.83261000 1.05210000
3.46988000 -8.18020000 0.99451700
3.51788000 -8.12582000 1.19592000
3.57275000 -8.14065000 0.81068800
-0.42995400 9.84266000 -0.92622500
-0.42995400 9.84266000 -0.92622500
-0.23918500 9.71583000 -0.90971300
5.05155000 -4.68200000 3.76914000
5.20909000 -4.67435000 3.53584000
5.03541000 -4.83551000 3.77413000
-5.65233000 -2.08923000 -1.51643000
-5.71423000 -2.10756000 -1.31174000
-5.39081000 -1.72767000 -1.46075000
-5.83517000 -2.37330000 -1.44480000
3.39030000 5.83828000 3.04716000
3.44047000 5.88331000 2.99019000
3.63130000 5.76160000 2.82257000
-3.71645000 4.90172000 -2.60806000
-3.71631000 4.76809000 -2.62616000
-3.46333000 4.96558000 -2.93109000
-3.48025000 4.78499000 -2.90048000
-4.26137000 -8.75599000 0.17475300
-4.48361000 -8.57412000 0.38757600
-4.38421000 -8.65844000 0.26171000
-4.25237000 -8.76818000 0.68452100
-4.11857000 -8.85125000 0.57440400
-4.19342000 -8.82027000 0.82295000
4.37676000 -7.58987000 3.19455000
4.63200000 -7.53520000 2.84337000
4.63406000 -7.44697000 3.06544000
4.87741000 -7.37069000 2.61001000
5.00893000 -7.22242000 2.63153000
2.94754000 5.44998000 -3.21773000
2.82933000 5.71099000 -3.22652000
-0.97230000 8.61909000 -0.22357400
-1.10272000 8.45482000 -0.31843900
-1.40261000 8.22835000 -0.45338200
6.04359000 -4.22653000 -2.25279000
-3.62370000 2.25862000 -0.80019700
-3.46656000 2.13279000 -0.96783100
2.62316000 -1.42523000 4.65801000
2.77500000 -1.47083000 4.65435000
3.04694000 -1.45121000 4.31929000
2.86753000 -1.50518000 4.60854000
2.90048000 -1.71329000 4.74697000
-1.13159000 2.36309000 -3.49985000
-1.27311000 2.30576000 -3.43421000
-1.25715000 2.37067000 -3.52627000
-5.52753000 -4.45714000 0.57421700
-5.53822000 -4.26690000 0.25382000
-2.71779000 -7.99021000 -4.61047000
-2.59106000 -8.12153000 -4.51554000
-2.68790000 -8.21362000 -4.43005000
-2.59290000 -7.95836000 -4.68952000
-4.21882000 -5.34652000 3.57469000
-4.14916000 -5.11879000 3.72524000
-4.16630000 -5.72571000 3.46211000
0.23371600 -1.55683000 -5.44670000
0.34809100 -1.27298000 -5.02886000
0.52944200 -1.13919000 -4.83378000
5.89916000 -6.18601000 -1.99507000
5.91216000 -6.29211000 -1.74336000
5.95941000 -6.35330000 -1.58302000
1.59713000 -5.32265000 5.19654000
1.87242000 -5.19662000 5.13336000
2.68623000 -4.99456000 4.82189000
-2.05260000 -1.17749000 4.22121000
-2.36139000 -1.14340000 4.11154000
-1.81635000 -1.11274000 4.19185000
-1.58413000 2.14799000 -3.16296000
-1.72129000 2.10397000 -3.06584000
-1.64247000 2.00329000 -3.03021000
-2.00145000 1.96774000 -2.83673000
2.92526000 -2.21054000 5.08957000
3.05774000 -2.05736000 4.89185000
2.85855000 -1.93013000 4.94620000
2.96342000 -2.34703000 5.16004000
-3.26562000 -2.11858000 -3.62722000
-2.86806000 -2.01884000 -3.85379000
-3.18865000 -1.99673000 -3.51034000
-3.55151000 -2.10959000 -3.29651000
-4.21942000 -1.59224000 3.42545000
-4.32767000 -1.74147000 3.56996000
3.87358000 -1.89584000 -4.39247000
4.18319000 -2.02251000 -4.30031000
2.48457000 -2.28375000 5.50356000
2.29726000 -2.38941000 5.60471000
2.57043000 -1.90898000 5.14385000
2.64175000 -1.99554000 5.22734000
5.31349000 -6.55987000 -2.84761000
5.44480000 -6.66560000 -2.65150000
-4.92285000 -7.33230000 -2.63375000
-5.01582000 -7.15444000 -2.73991000
-4.78248000 -7.37549000 -2.95127000
5.84749000 -3.74125000 2.54737000
5.83644000 -3.49848000 2.51422000
5.86920000 -3.54977000 2.61124000
5.83245000 -3.39901000 2.35990000
5.86620000 -3.69299000 2.34777000
-0.90237500 -3.03526000 6.37157000
-0.68801600 -3.07266000 6.43490000
-3.76468000 2.79059000 -1.60755000
-3.81171000 2.73783000 -1.68977000
-3.69089000 2.65370000 -1.64628000
-3.70387000 2.58764000 -1.75557000
-3.60332000 2.52584000 -1.83266000
-3.59788000 2.53696000 -1.71469000
-1.69876000 -1.24618000 4.50058000
-1.61829000 -1.13870000 4.30085000
-1.57058000 -1.30329000 4.71721000
-1.66774000 -1.28065000 4.75324000
3.99322000 -3.66043000 -4.88648000
4.01974000 -3.46514000 -4.87467000
4.23119000 -3.38307000 -4.64431000
1.37642000 0.34112700 -1.85603000
1.35476000 0.43343200 -1.86440000
1.45576000 0.53043400 -1.79742000
1.08152000 0.44142800 -2.03641000
4.06397000 -1.63272000 -3.79519000
4.47858000 -1.67661000 -3.46480000
4.35634000 -1.77212000 -3.69474000
2.54921000 3.95379000 3.77082000
2.50578000 3.86850000 3.73377000
2.74099000 3.92497000 3.57918000
-3.99643000 -2.29252000 4.66264000
-4.15407000 -2.48417000 4.66318000
-3.76107000 -2.19235000 4.64306000
-3.95242000 -2.22253000 4.55370000
-3.92881000 -2.24810000 4.66103000
0.61247500 9.36130000 1.80417000
0.37256700 9.27271000 1.85111000
0.60987500 9.25786000 1.77093000
0.85492700 9.34185000 1.66360000
1.11216000 9.40045000 1.48273000
0.86358900 9.43150000 1.70508000
3.83045000 -1.54770000 -3.80664000
3.95539000 -1.43686000 -3.44750000
4.08456000 -1.58358000 -3.68958000
-2.96914000 -6.60237000 5.39510000
-2.99309000 -6.40162000 5.38721000
-2.90780000 -6.03883000 5.34679000
-5.89312000 -2.88346000 -1.90253000
-5.75351000 -2.50925000 -1.92857000
0.16073500 -9.47530000 2.40227000
0.42297400 -9.48316000 2.36294000
-0.28439900 -9.46832000 2.38983000
-1.99408000 -1.43575000 5.04350000
-1.76181000 -1.32203000 5.02383000
-1.78601000 -1.18499000 4.81566000
-5.08604000 -2.12278000 3.07232000
-5.28165000 -2.27501000 2.91462000
-5.12397000 -2.26273000 3.08015000
-4.59232000 -1.91189000 3.45255000
2.76574000 3.68150000 3.52757000
2.60264000 3.65923000 3.58294000
-3.18274000 -6.06693000 5.16531000
-2.99005000 -5.84567000 5.31207000
-3.05619000 -6.01814000 5.26444000
4.92819000 -3.03929000 -3.77323000
5.06478000 -3.32908000 -3.69530000
4.95835000 -2.87473000 -3.72996000
-0.86572600 8.08517000 2.55171000
-0.65746100 8.10541000 2.48178000
-0.51358000 8.03519000 2.70117000
-0.45720100 8.03846000 2.64431000
-2.67868000 -9.18987000 -2.04498000
-2.52793000 -9.12615000 -2.31505000
-2.48322000 -9.18903000 -2.26912000
-2.67868000 -9.18987000 -2.04498000
2.17074000 -0.56740800 2.47957000
2.02429000 -0.58780400 2.15631000
2.12629000 -0.62259200 2.58758000
2.49559000 -0.61825300 2.83085000
2.29253000 -0.62073100 2.79776000
1.28422000 5.39312000 -3.24328000
1.47786000 4.77354000 -3.20754000
1.62768000 5.11798000 -3.10854000
1.38618000 5.09526000 -3.23805000
-3.68253000 6.73840000 -1.94103000
-3.57885000 6.81920000 -1.95645000
2.62948000 -0.76241000 3.29449000
2.46771000 -0.77492500 3.23545000
2.82690000 -0.85365900 3.40622000
-2.12017000 5.95955000 3.97139000
-2.35105000 6.03378000 3.77113000
-1.81932000 5.71822000 4.17714000
5.51679000 -3.25652000 -3.09662000
5.62026000 -3.27241000 -2.79915000
5.52425000 -3.35733000 -3.02902000
5.12798000 -3.15609000 -3.59456000
2.18301000 8.29167000 -0.25661500
2.34400000 8.24637000 -0.13434100
2.51747000 8.10163000 -0.31602500
-2.85833000 -2.50178000 -4.34246000
-2.55673000 -2.49711000 -4.53087000
-2.54563000 -2.33420000 -4.43170000
-2.00816000 -2.27542000 -4.67667000
0.78576500 1.29056000 2.85034000
0.76303600 1.26411000 2.97910000
5.21363000 -4.12118000 3.85692000
5.12223000 -4.35064000 4.02640000
5.23660000 -4.31735000 3.87932000
5.23660000 -4.31735000 3.87932000
5.35331000 -4.22760000 3.73484000
-1.72602000 0.34869300 0.02379330
-1.75616000 0.54671800 -0.15004900
-1.78515000 0.50613600 0.11301000
-1.87083000 0.78555400 -0.27951500
5.31748000 -1.59086000 -0.70380500
5.37359000 -1.60020000 -0.37187600
5.44337000 -1.71386000 -0.75412200
5.35380000 -1.52292000 -0.15509500
5.23948000 -1.44948000 -0.31995000
-4.30471000 3.33270000 0.55828200
-4.37182000 3.37027000 0.45648600
-4.26989000 3.10295000 0.40765600
-4.42295000 3.58389000 0.54390700
-4.36803000 3.66923000 0.76702600
-1.30039000 9.94802000 -0.10661500
-1.38499000 9.98065000 -0.00055258
-1.38238000 9.95946000 0.80157800
-1.53196000 9.99532000 0.49383300
1.62420000 2.48285000 3.66059000
4.73310000 -7.71469000 2.29906000
4.75893000 -7.64212000 2.37087000
-4.31578000 -2.81970000 4.55651000
-4.48081000 -2.97977000 4.47780000
-2.89835000 4.48715000 -2.00660000
-3.02812000 4.70704000 -1.84966000
-3.08994000 4.42064000 -1.72543000
-2.69317000 4.69241000 -2.26669000
-3.59652000 -6.49148000 4.66726000
-3.68636000 -6.24932000 4.71283000
-3.82070000 -6.39050000 4.59095000
-3.68327000 -6.02096000 4.83327000
-4.48850000 5.34487000 -0.77538000
-4.47036000 5.18767000 -1.06935000
-4.46219000 5.11355000 -1.01216000
-4.40407000 5.01271000 -1.31241000
-4.29952000 5.02677000 -1.41932000
-4.32266000 4.85707000 -1.43861000
-0.30831400 5.67484000 4.63697000
-0.54172900 5.53160000 4.68130000
-6.35032000 -3.91194000 0.78137700
-6.36507000 -3.93360000 0.97449500
-6.38163000 -3.82518000 1.11341000
-6.42379000 -4.06761000 1.17250000
-6.35935000 -3.86486000 1.51201000
-6.33249000 -3.76581000 1.41819000
5.40374000 -2.14614000 2.46247000
5.42367000 -2.50587000 2.72842000
-5.65851000 -6.99363000 -0.82904500
-5.87968000 -6.54989000 -1.14082000
-2.90295000 5.25608000 -1.97860000
-2.80193000 5.01602000 -2.13919000
-2.98104000 4.92368000 -1.91518000
-2.83965000 4.78270000 -2.09866000
-2.11857000 -0.67981600 -0.49206200
-2.26086000 -0.71904900 -0.27024300
-1.72657000 -0.77446200 -1.50426000
2.36379000 -1.94129000 -5.23766000
2.43334000 -2.13075000 -5.40647000
-1.80736000 9.71537000 0.17472800
-1.78253000 9.72503000 -0.04627020
-1.69819000 9.53466000 -0.06718690
5.49274000 -2.40773000 2.55517000
5.70327000 -2.87162000 2.43475000
-3.07188000 -8.85910000 -2.91457000
-3.19738000 -8.91146000 -2.77690000
-3.26802000 -8.89502000 -2.92702000
-3.19738000 -8.91146000 -2.77690000
-3.26802000 -8.89502000 -2.92702000
-4.42134000 4.83981000 -1.23190000
-4.35388000 4.56010000 -1.37472000
-4.42939000 4.67389000 -1.23630000
2.84184000 -6.55605000 -5.28941000
2.76804000 -6.71993000 -5.24507000
2.64854000 -6.45022000 -5.39351000
2.78011000 -7.09201000 -5.00109000
2.65071000 -7.17960000 -5.00174000
2.61149000 -7.10064000 -5.13294000
5.24302000 -5.66342000 3.27465000
5.18925000 -5.64446000 3.42952000
5.22556000 -5.75373000 3.31029000
5.12508000 -5.90277000 3.44408000
5.12823000 -5.81502000 3.56167000
-2.38843000 3.52316000 -2.32555000
-2.34785000 3.18209000 -2.20076000
-2.78801000 -6.09082000 -4.35308000
-2.98170000 -5.77692000 -4.38840000
3.35831000 -6.96969000 -4.79761000
3.19679000 -6.89796000 -4.90718000
2.83939000 -6.84673000 -5.15042000
2.96634000 -6.76737000 -5.10859000
-2.74984000 -4.70902000 4.85360000
-2.92520000 -4.96836000 4.72281000
-3.07266000 -4.58460000 4.68698000
-3.17484000 -5.14216000 4.53712000
-3.47114000 -5.09620000 4.34281000
-3.26039000 -4.82258000 4.54009000
-5.24007000 -2.62463000 0.55208200
-5.16952000 -2.48284000 0.64623900
-5.07819000 -2.37856000 0.95747800
-3.96681000 -7.52800000 -4.04639000
-3.98630000 -7.77338000 -3.84374000
-3.96681000 -7.52800000 -4.04639000
-3.86833000 -7.74201000 -3.97451000
2.24135000 -9.40351000 -2.54304000
2.31673000 -9.29243000 -2.59621000
2.23986000 -9.49925000 -2.50284000
2.11845000 -9.66883000 -2.65415000
-0.61796000 2.66242000 3.32925000
-0.27793800 2.69574000 3.39606000
3.08740000 -9.05465000 2.01066000
3.21905000 -9.05715000 1.77075000
2.99753000 -9.07794000 1.86113000
2.81893000 -9.20971000 1.87555000
3.00962000 -9.20218000 1.62034000
-2.11918000 -0.80984300 -1.08788000
-1.95932000 -0.66080900 -0.76920400
-3.02336000 4.21734000 3.51572000
2.72008000 -9.05639000 2.35910000
2.48795000 -9.04194000 2.51970000
-0.09505140 -0.32647600 -1.80157000
-4.41818000 -2.64899000 4.44743000
-4.51973000 -2.74856000 4.32172000
-4.50890000 -2.87764000 4.42918000
-4.60420000 -3.07443000 4.32535000
-0.45091900 -2.47763000 -6.17261000
-0.21815400 -2.83519000 -6.33240000
-0.13846100 -2.57702000 -6.20334000
-4.59843000 -3.67258000 -2.92357000
-4.72996000 -3.84664000 -2.72095000
-4.55579000 -3.91024000 -3.05430000
-4.42108000 -4.12104000 -3.30074000
-6.44697000 -4.64762000 0.99632100
-6.32835000 -4.80648000 1.17028000
-6.42050000 -4.78449000 1.04298000
-5.34613000 -2.59429000 2.97617000
-5.30939000 -2.82630000 3.30306000
-5.43737000 -3.00762000 3.40041000
-0.69070500 3.49999000 3.69906000
-0.85330100 3.31074000 3.59239000
-0.93773200 3.51025000 3.64478000
-0.83628500 3.76044000 3.74773000
-0.74067300 4.03361000 3.83016000
-4.61079000 -2.87340000 -4.15031000
-4.62710000 -2.75847000 -4.16919000
-4.41896000 -2.82215000 -4.34495000
-4.83367000 -2.86964000 -3.86906000
5.34868000 -7.01165000 -2.06605000
5.18929000 -7.10250000 -2.42521000
-0.09715610 -2.73756000 -6.27812000
-0.84624000 -9.32460000 3.19959000
-1.10130000 -9.33221000 3.14628000
-0.81260600 -9.45309000 3.17975000
0.10643600 8.59352000 -1.38933000
-0.27468800 8.52174000 -1.41816000
4.84052000 -1.40288000 1.64837000
4.36859000 -1.10439000 1.61507000
1.26980000 0.72586700 -1.12622000
1.08115000 0.74015300 -1.33389000
0.86291500 0.70664900 -1.49180000
-4.46569000 -1.81565000 1.00840000
0.73923500 -0.56870800 2.50305000
1.35955000 -0.59968500 2.23525000
-3.35275000 -8.12699000 1.78752000
-3.56694000 -8.11319000 1.23681000
-3.91795000 6.83362000 0.98369300
-4.11074000 6.61079000 0.83758500
-1.58433000 6.92032000 2.71166000
-1.92860000 6.93992000 2.43392000
-3.53732000 -0.81230500 2.57399000
-3.63173000 -0.90911200 2.80495000
-3.45207000 -0.82030900 2.72020000
-3.62082000 -1.09742000 3.37943000
-4.02360000 6.01276000 -1.46689000
-4.20697000 6.08484000 -1.08086000
-4.22086000 6.23542000 -0.83209200
0.82726500 4.70896000 -4.34346000
-0.46935800 -7.95684000 -3.65441000
-0.83256300 -7.95485000 -3.59487000
-0.46935800 -7.95684000 -3.65441000
0.29804200 -9.13313000 3.91252000
0.77935300 -9.20610000 3.65662000
0.67067500 -9.14650000 3.85394000
-3.69849000 -1.02636000 3.05400000
-3.75378000 -0.94583400 2.83150000
1.23985000 -1.05991000 3.09544000
1.60802000 -1.32811000 3.56659000
-4.21979000 5.74735000 -1.63254000
-4.26656000 5.99286000 -1.19065000
-4.34173000 5.84993000 -1.19525000
0.81808300 4.99238000 -4.37523000
1.18286000 5.03445000 -4.18601000
1.08088000 4.82370000 -4.25250000
0.08590950 -9.16951000 3.37027000
0.40115500 -9.31289000 3.35206000
0.43029500 -9.23534000 3.41459000
0.59459800 -9.29670000 3.36858000
1.57879000 6.19263000 -3.72547000
1.49832000 6.01403000 -3.86794000
-1.24626000 -9.74876000 2.16915000
-1.42701000 -9.84957000 2.10728000
-1.58324000 -9.76422000 1.95406000
-1.64303000 -9.89322000 1.98351000
-1.85135000 -9.90366000 1.80249000
5.23621000 -2.71645000 -3.15307000
5.19969000 -2.54717000 -3.08738000
5.39426000 -2.68504000 -2.84668000
5.08848000 -2.71370000 -3.38416000
1.92533000 7.82919000 -1.86481000
2.09827000 7.77406000 -1.95508000
-4.41098000 5.57318000 -1.17746000
-4.39496000 5.66000000 -1.23554000
-4.26976000 5.75511000 -1.55858000
-4.32393000 5.56392000 -1.58411000
0.42242100 -0.43304200 2.44022000
0.37958800 -0.33570700 2.34507000
0.48384600 -0.12614200 2.29052000
0.29367900 0.01236800 2.30742000
0.23750300 -0.11450500 2.33590000
0.17576000 -9.10257000 3.48521000
-0.10620000 -9.12584000 3.38606000
-2.80518000 -0.65104200 0.69052700
-2.92898000 -0.66265400 -0.25226800
-2.73957000 -0.62853200 -0.43542300
-5.62329000 -3.50838000 3.07857000
-5.70542000 -3.33646000 2.85431000
-5.12741000 -3.74292000 3.74114000
-2.46587000 -9.83736000 0.73776400
-2.27807000 -9.82707000 1.16443000
-2.36474000 -9.87281000 1.06325000
-4.66161000 -2.51233000 2.58733000
-4.46220000 -2.37887000 2.79810000
-3.30310000 -0.68717100 -0.16193800
2.95121000 -0.70766500 -2.57772000
2.84428000 -0.62811800 -2.40057000
2.96225000 -0.65536500 -2.30378000
2.86106000 -0.65263400 -2.57282000
2.15895000 6.71240000 3.41319000
2.40221000 6.63548000 3.29218000
2.27181000 6.86278000 3.23020000
2.18105000 6.90697000 3.28332000
1.99168000 6.99269000 3.40991000
6.23890000 -4.71777000 1.77981000
6.31313000 -4.65902000 1.44423000
6.21271000 -4.73740000 1.46263000
1.87450000 0.82978400 -0.23439800
1.69384000 0.49668600 -0.13170000
1.77692000 0.65042400 -0.09814750
1.63682000 0.51670000 -0.34672600
5.45658000 -3.54962000 -0.11924300
5.46341000 -3.57909000 0.11959200
5.46341000 -3.57909000 0.11959200
5.50075000 -3.91823000 0.12088400
3.86242000 -0.97460800 -2.88481000
3.94018000 -1.08022000 -2.92620000
0.65971200 5.84458000 3.76248000
-4.33466000 -7.42323000 0.13173300
-4.13735000 -7.67311000 0.35148800
-3.90855000 -7.91645000 0.38309900
-0.06686190 7.50138000 -2.24248000
0.30071600 7.25700000 -2.46970000
0.08033500 7.13403000 -2.60089000
-4.15713000 -8.79806000 -1.75651000
-4.13277000 -8.80717000 -1.49603000
-4.37668000 -8.69521000 -1.60763000
-4.26439000 -8.71723000 -2.02247000
-4.35122000 -8.61193000 -2.08481000
-1.95139000 -1.44397000 -3.39955000
-1.70035000 -1.52884000 -3.75859000
-1.59025000 -1.41271000 -3.54193000
-1.27264000 -1.38547000 -3.62496000
-1.44368000 -1.52332000 -3.87230000
-1.11527000 -1.53200000 -4.01711000
1.79405000 2.97413000 -2.55001000
1.80757000 2.76079000 -2.41475000
1.53818000 2.21134000 -2.25087000
1.48255000 2.52165000 -2.50730000
1.76813000 -9.06823000 3.42251000
1.88468000 -8.98580000 3.58509000
1.70481000 -9.11156000 3.51189000
3.97989000 -4.55371000 5.02164000
3.95929000 -4.42201000 5.05894000
-2.41542000 0.02597930 0.17062500
-2.40990000 0.17574400 -0.11756100
-2.40926000 0.30291800 -0.07800280
1.37303000 7.55057000 3.22435000
1.40643000 7.47572000 3.37011000
1.44210000 7.39859000 3.45341000
1.57392000 7.46147000 3.40478000
-0.57793900 9.43548000 1.29476000
-0.57793900 9.43548000 1.29476000
-0.32468800 9.27372000 1.38168000
-0.40894800 9.05536000 1.31568000
-3.11729000 -9.85874000 0.09619720
-3.06927000 -9.87552000 0.45351200
-3.15039000 -9.80930000 0.40842000
-3.08176000 -9.81497000 0.68773100
-3.06556000 -8.90751000 2.87790000
-2.86355000 -9.03750000 2.62771000
-2.87615000 -8.95853000 2.83437000
-2.52297000 -9.05762000 2.55862000
-2.66153000 -9.09957000 2.40630000
1.78997000 -3.56901000 -5.20901000
0.94673600 -2.95941000 -5.27705000
-1.66772000 -8.44776000 -1.33762000
-1.32627000 -8.47272000 -1.04175000
6.19650000 -2.79430000 -0.79284300
6.30554000 -2.86872000 -1.04336000
4.84395000 -4.85098000 -2.52312000
5.00564000 -4.58928000 -2.26411000
5.01221000 -4.22807000 -2.28202000
-1.81339000 0.75233400 1.67007000
-1.74731000 0.77117000 1.80486000
-1.35736000 7.76075000 3.14305000
-1.10060000 7.89587000 3.00685000
5.96036000 -2.24866000 -1.33358000
5.77905000 -2.08284000 -1.50704000
5.22819000 -7.76383000 0.22173800
5.17732000 -7.82496000 0.39480000
5.03553000 -8.00531000 -0.48947000
2.10391000 -8.77932000 -4.12697000
1.84502000 -8.90042000 -4.01846000
1.82771000 -8.85792000 -4.13036000
2.29487000 -8.71064000 -4.02414000
2.40867000 -8.68269000 -3.87377000
2.18665000 -8.82672000 -3.88372000
2.38089000 2.32026000 -2.64635000
2.12147000 2.17779000 -2.70689000
1.80023000 2.06998000 -2.81251000
-4.68800000 -1.02768000 -0.32671100
-4.63685000 -0.90895700 -0.22605300
-4.60594000 -1.01004000 -0.11279100
-3.10241000 -9.85183000 -0.75116400
-3.15029000 -9.85010000 -0.43254600
-2.98548000 -9.89857000 -0.45223600
-3.09351000 -9.88231000 -0.21400200
-4.11355000 -3.50523000 4.99212000
-4.08955000 -3.52849000 4.93305000
-1.56771000 9.97214000 0.43190400
-1.72430000 9.91579000 0.26301100
-1.78077000 9.80166000 0.29195600
-1.77160000 9.83018000 0.51200400
0.01249800 -6.97673000 -4.65771000
0.30338900 -7.08822000 -4.55284000
0.03953370 -7.29330000 -4.38670000
-6.32687000 -4.93499000 -1.11578000
-6.34421000 -5.14341000 -0.96448300
-6.33086000 -5.35335000 -0.82193400
6.15542000 -3.73152000 1.66762000
6.34681000 -4.05051000 1.19106000
6.20487000 -3.86151000 1.51468000
6.24807000 -4.03563000 1.43955000
-4.49518000 3.85760000 -0.90139200
-4.48278000 3.67082000 -0.74872600
-4.54556000 3.69629000 -0.50560000
1.82271000 8.33393000 0.16680500
1.85072000 8.30000000 0.00276289
1.76813000 8.34915000 -0.08849360
1.79042000 8.25156000 -0.58422100
-6.38852000 -4.85322000 -0.97469800
-6.36756000 -4.57461000 -1.23658000
-1.43086000 6.92686000 -2.40435000
-1.53040000 7.09806000 -2.17799000
-1.71792000 7.22600000 -1.88636000
-1.79688000 6.84967000 -2.20218000
-1.83438000 -0.37832000 -0.12524800
-1.75104000 -0.25551000 -0.13874600
-3.26032000 6.79949000 2.39806000
-2.98548000 6.76338000 2.77522000
-2.81174000 6.57781000 3.12475000
-2.97581000 6.90662000 2.65501000
0.86440200 7.56527000 3.46267000
0.91211000 7.59930000 3.29316000
-2.87810000 7.12751000 2.68757000
-2.67540000 7.24678000 2.74122000
-1.43516000 -9.30010000 1.84001000
-1.53074000 -9.22173000 1.33807000
-1.64532000 -9.24885000 1.56404000
-2.05359000 -9.21949000 0.88096300
-3.05882000 -1.46491000 4.65017000
-2.76654000 -1.41869000 4.72417000
1.66336000 8.39671000 0.90658400
1.49440000 8.78831000 0.90153000
1.46001000 9.06477000 0.88157200
1.39205000 -0.31734200 1.37664000
1.76869000 -0.41323800 0.87694800
1.61623000 0.55044800 -1.66160000
1.75208000 0.71366200 -1.56728000
-2.80359000 -0.82598900 -3.28280000
4.23202000 5.83119000 1.57185000
4.29684000 5.72277000 1.48871000
4.23326000 5.81403000 1.46223000
4.32575000 5.89543000 1.26883000
4.17043000 5.96539000 1.49779000
4.22788000 5.86041000 1.40893000
1.19367000 -0.36731000 1.62142000
0.78969800 -0.41062200 1.92565000
1.01122000 -0.37334700 1.76323000
0.36312500 5.31573000 4.72771000
0.43660100 5.07027000 4.71322000
-1.59458000 7.97847000 2.75011000
-1.43727000 7.91734000 2.73375000
0.22312700 6.59712000 3.43609000
0.06729250 6.75626000 3.31754000
0.32229900 6.90680000 3.17027000
0.15889000 7.16138000 2.93497000
4.55273000 -8.50051000 0.48939700
4.63289000 -8.44196000 0.70195200
4.65789000 -8.47220000 1.07177000
4.69375000 -8.42525000 0.89494800
4.79621000 -8.42214000 0.99048700
0.30055300 9.97447000 -1.20506000
-0.62601300 -5.26284000 -6.18654000
-0.05255170 -5.02398000 -6.25153000
0.79077100 -7.51071000 -4.09813000
0.47315200 -7.32669000 -4.32798000
1.05637000 -7.40656000 -4.13873000
6.37101000 -3.79608000 -1.40399000
6.38064000 -3.95540000 -1.37181000
6.38216000 -3.87611000 -1.50740000
6.39124000 -3.50743000 -1.17066000
6.37647000 -3.76547000 -1.16686000
-3.31831000 -7.43931000 4.42662000
-3.28441000 -7.39311000 4.58016000
-3.38783000 -7.24056000 4.52678000
-3.48354000 -7.40055000 4.33564000
-3.38143000 -7.38114000 4.41579000
-1.15483000 -5.56883000 -6.12660000
-1.25250000 -5.68974000 -6.16318000
-1.37663000 -5.89362000 -6.05488000
-1.48718000 -5.79751000 -6.09123000
2.81779000 7.18414000 -2.12047000
2.66888000 7.20366000 -2.27177000
2.46441000 7.20581000 -2.48212000
-1.22974000 7.84920000 2.93111000
-1.27866000 7.84992000 3.04226000
-1.57847000 7.72211000 2.99828000
-1.44938000 7.81553000 2.89542000
-1.52674000 7.95772000 2.78551000
2.58490000 -1.64770000 3.61630000
2.42872000 -1.74974000 3.93393000
2.42895000 -2.00581000 4.33424000
2.19875000 -2.11241000 4.58275000
-0.78782100 -7.89310000 5.07908000
-1.38758000 -7.66987000 5.18717000
1.67505000 -9.23131000 0.98588700
1.75284000 -9.23194000 0.67802100
1.90360000 -9.24117000 0.98811400
3.70225000 -8.86224000 -2.62161000
3.80291000 -8.78872000 -2.72694000
3.53940000 -8.86798000 -2.80526000
3.43362000 -8.88488000 -2.91588000
-2.82200000 -7.95388000 -2.41395000
-2.76332000 -7.82836000 -2.67833000
-2.97552000 -7.78610000 -2.51163000
-3.22205000 -7.65390000 -2.40221000
-3.26261000 5.96294000 3.15578000
-3.43039000 5.93115000 3.04198000
-3.02494000 6.01125000 3.25222000
0.40456000 9.12438000 1.81913000
0.17873400 9.27031000 1.89017000
-0.04545760 9.31953000 1.91692000
4.30615000 3.33630000 0.16915400
4.40535000 3.32114000 0.02411840
4.44535000 3.44031000 0.15732200
4.44734000 3.38376000 0.03644570
0.48122200 6.16189000 -4.26434000
0.56899200 5.93024000 -4.28291000
0.77366500 6.37747000 -3.93686000
2.61870000 5.92491000 3.49408000
2.44056000 5.93163000 3.62735000
2.38479000 5.74542000 3.74145000
2.18759000 5.57391000 3.92587000
2.05306000 5.63009000 3.97662000
1.63797000 5.46339000 4.23779000
-0.10333200 -2.31639000 -5.12417000
0.59239500 -2.11033000 -4.94759000
0.21762600 -2.17182000 -5.02972000
-0.82145500 -5.73431000 -6.05923000
-1.17691000 -5.72915000 -6.09470000
-0.98024000 -5.63208000 -6.07277000
-1.05104000 -5.84550000 -6.03572000
3.23159000 -0.64656400 0.85887600
3.37276000 -0.63261200 0.99077900
3.45357000 -0.68205900 0.77335600
3.07691000 1.85798000 -0.82590800
0.74959600 -0.20331600 -1.49470000
0.62638700 -0.04119950 -1.52775000
0.78756900 0.13265100 -1.38600000
0.78158000 0.01152290 -1.40189000
0.91541700 0.12778400 -1.26426000
-6.19623000 -4.63186000 1.66888000
-6.22140000 -4.71055000 1.61730000
-6.25945000 -4.75316000 1.41585000
4.74118000 -6.32110000 1.78578000
4.98029000 -6.07697000 1.32918000
-6.51340000 -3.55834000 -0.58439100
-6.46555000 -3.36352000 -0.40195900
-5.18946000 -5.84478000 -0.34352400
-5.16418000 -5.97832000 -0.02862840
-5.04969000 -6.17508000 -0.31714700
-5.29388000 -5.61442000 -0.17559800
3.86263000 -3.63950000 -5.17753000
3.80431000 -3.56184000 -5.27009000
-3.22877000 -9.21168000 1.82008000
-3.17376000 -9.18379000 1.59436000
-3.08751000 -9.18323000 1.81236000
-3.06257000 -9.19821000 1.63851000
-1.49893000 -0.47248600 1.50912000
-0.91440200 -0.39803400 1.87320000
0.41727700 0.98119900 2.68172000
0.42607800 0.84602000 2.61579000
4.41955000 -5.21584000 4.40135000
4.37037000 -4.91672000 4.51799000
4.34423000 -5.13721000 4.50190000
1.67091000 9.87481000 0.57537100
1.54001000 9.87878000 0.94195700
5.10694000 -2.82332000 1.63535000
4.97562000 -2.64936000 1.85581000
4.91402000 -2.46184000 1.75512000
4.86379000 -2.32275000 1.61062000
-0.67313700 6.38893000 -4.12403000
2.26145000 -0.20275500 -0.52890600
2.30085000 -0.22274600 -0.19437700
2.31356000 -0.23157900 0.04357230
-1.35699000 8.47836000 1.37588000
-1.32794000 8.58229000 1.30245000
-1.55512000 8.49421000 1.03697000
-1.04528000 8.48547000 1.66562000
-1.20699000 8.49492000 1.51604000
6.04367000 -2.66553000 -1.63313000
-4.82805000 -1.27055000 -2.14417000
-4.90053000 -1.38164000 -2.45445000
-4.97235000 -1.38478000 -2.32056000
-5.02829000 -1.52020000 -2.53153000
-4.86748000 -1.49176000 -2.72649000
2.15625000 2.92641000 -3.57638000
1.92048000 2.79938000 -3.58714000
-1.22209000 8.84566000 1.32907000
-1.75599000 -0.64326500 -3.50325000
-2.00462000 -0.67551800 -3.48347000
-0.22546800 2.56628000 3.97227000
0.00977574 2.56702000 3.97306000
2.09999000 -0.37679300 -1.49296000
2.15294000 -0.38981900 -1.26549000
2.31047000 -0.48351300 -1.42917000
2.27377000 -0.44278500 -1.54938000
2.52339000 -0.50242300 -1.70543000
1.99545000 -3.41602000 5.17120000
2.05281000 -3.18926000 5.11626000
2.34252000 -3.02331000 4.96038000
2.33570000 -3.36108000 5.02376000
-4.95963000 -1.43086000 -2.49092000
-5.04122000 -1.43183000 -2.29211000
-5.08270000 -1.53219000 -2.28668000
-0.84390800 3.16493000 -3.15363000
-0.55664900 3.04468000 -3.16809000
-2.20255000 3.04820000 -3.56374000
-2.29674000 3.24140000 -3.59769000
-2.95155000 -6.99014000 -3.49654000
-2.91271000 -6.75816000 -3.75388000
-3.10888000 -6.49920000 -3.80281000
-4.74291000 -2.64907000 4.08633000
-4.52983000 -2.28344000 4.03205000
-4.75094000 -2.53414000 3.90840000
-4.61773000 -2.78991000 4.26937000
0.13283000 7.87888000 -2.62020000
0.59573500 8.02471000 -2.17850000
1.12762000 -2.71957000 6.25146000
1.08762000 -2.48428000 6.15473000
0.95537400 -1.98483000 5.92174000
1.16682000 -6.76342000 -5.69025000
1.47580000 -6.93325000 -5.56675000
4.31472000 5.63461000 1.56852000
4.31272000 5.53926000 1.53713000
-6.23230000 -3.57108000 1.73153000
-6.26379000 -3.84731000 1.69878000
-1.82698000 8.33248000 -0.84652400
-1.70169000 8.45509000 -0.63579700
0.31312400 3.16315000 -4.03117000
0.06092980 3.16853000 -4.00788000
0.34459700 3.05301000 -3.94671000
0.31987700 -1.77786000 5.79302000
0.38443100 -1.96851000 5.97435000
0.57597200 -2.16886000 6.11089000
0.51346600 -1.81466000 5.84791000
-2.46543000 6.45218000 -3.26816000
5.88014000 -6.35376000 -1.04984000
5.82200000 -6.46575000 -1.20090000
5.93006000 -6.22002000 -1.20501000
5.68209000 -6.75122000 -1.22569000
-2.63399000 6.27693000 -1.79189000
