-0.75665100 9.56555000 0.82117300
2.91899000 3.91098000 0.08920070
1.33126000 -8.52662000 1.19262000
1.19538000 -8.48363000 1.30244000
1.14161000 -8.60875000 1.45319000
1.19394000 3.32819000 -3.11114000
-2.77885000 3.66488000 0.72411000
-3.04825000 3.43649000 0.81718800
-2.82695000 3.59595000 0.89021700
-2.91273000 3.49599000 1.02962000
-2.75589000 3.59003000 1.10743000
-1.58725000 -3.89562000 -3.91568000
-1.69792000 -3.87578000 -3.88682000
-1.86969000 -6.23103000 0.16810500
-1.86048000 -6.54716000 0.01559260
3.31640000 9.57229000 0.15194900
-0.88908100 5.28471000 0.82672100
-0.96722400 5.26180000 0.69425700
-4.21001000 1.59820000 2.21842000
-4.26357000 1.45266000 2.28476000
1.93597000 0.39912500 -4.81043000
1.90763000 0.27505900 -4.84826000
1.76403000 0.38001300 -4.87920000
-2.82297000 -5.00725000 -0.63413400
2.74451000 -4.64132000 -1.53621000
2.36584000 -4.81531000 -1.72713000
1.43870000 8.24892000 -0.84955600
1.51146000 8.21485000 -0.80635800
0.27491800 9.03920000 0.80815500
0.52178700 9.08038000 0.90280800
4.01737000 0.00889535 -3.37292000
3.98507000 -0.15384600 -3.42586000
0.96756500 9.04687000 0.99208700
1.10799000 9.06183000 1.00009000
1.06121000 9.08162000 1.01148000
0.73988200 -6.36873000 -1.55391000
-0.20980600 -6.14367000 1.61980000
-0.09742450 -6.12513000 1.61670000
-1.04080000 -5.70813000 0.67583600
-1.11220000 -5.72614000 0.42122100
3.31640000 9.57229000 0.15194900
1.30436000 -5.77954000 -0.59587200
1.25609000 -5.77325000 -0.75155200
1.25505000 -5.73207000 -0.81488700
-0.33083000 -8.85130000 -2.57454000
-0.38630900 -9.04818000 -2.72859000
5.16213000 -0.22050300 0.76213600
5.15495000 -0.38176500 0.81959500
3.83345000 -2.64568000 2.62489000
-2.99243000 1.15832000 4.01176000
4.91195000 0.75939500 1.15896000
-4.29860000 -2.58653000 2.05248000
3.24580000 0.26735200 -4.02576000
-3.51121000 -2.04215000 3.48243000
2.82841000 3.69039000 1.21068000
0.06684750 -5.42007000 -2.10595000
-1.84153000 2.66133000 -3.45509000
-3.79589000 -9.82357000 -1.68942000
-3.72702000 -9.83095000 -1.85914000
-3.48436000 -9.84833000 -2.29769000
1.72864000 8.01877000 -0.59498100
1.76267000 8.12532000 -0.55508200
1.74860000 7.86081000 -0.57756900
-2.79999000 -2.94760000 -3.84198000
-2.97789000 -2.91517000 -3.72270000
-2.91654000 -3.06365000 -3.68640000
1.79232000 8.01794000 -0.48408700
1.83386000 7.95432000 -0.37625500
-3.60231000 1.37507000 3.32940000
-3.81391000 1.06879000 3.26544000
1.69366000 1.78852000 4.28612000
1.73457000 1.38615000 4.48694000
1.37660000 -5.99808000 0.61006000
1.34670000 -6.13386000 0.57991600
1.28761000 -6.32083000 0.61032200
-0.84426000 5.43369000 -0.59556000
-0.67142400 8.94304000 0.07076060
-3.56077000 1.27782000 3.42204000
-3.83946000 1.24456000 3.14869000
-0.24772700 -9.37511000 -3.08133000
-0.06189770 -9.45926000 -3.18462000
-1.79169000 9.74889000 0.54745900
-1.77403000 -8.75848000 -1.80757000
-1.02253000 5.18741000 -0.56995200
-0.96249100 5.15612000 -0.75354400
-3.12528000 -9.53388000 -1.45522000
-4.63309000 1.22986000 -1.60526000
-4.63830000 1.07783000 -1.77513000
-4.73947000 0.93487800 -1.64106000
2.01158000 2.68640000 3.46736000
-2.88145000 -9.25439000 0.59803300
-3.03176000 -9.36821000 0.54295800
4.58137000 -1.45846000 2.17711000
4.44913000 -1.46004000 2.43479000
4.73845000 -1.51648000 1.77928000
4.67715000 -1.44880000 1.97530000
0.32525800 1.59103000 4.78000000
0.47185000 1.71113000 4.70240000
4.47507000 -2.87318000 -0.94261500
4.57505000 -2.67778000 -0.94414100
1.38108000 -5.77512000 0.10977000
1.56181000 9.98282000 -1.80693000
1.46246000 9.99186000 -1.77130000
1.56847000 9.99448000 -1.78322000
1.56181000 9.98282000 -1.80693000
-1.43949000 2.46097000 3.93669000
-1.48884000 2.19536000 4.14243000
-1.58476000 2.29736000 4.02290000
1.59319000 -7.94760000 0.21947800
-1.61608000 -9.80984000 -3.64037000
2.86006000 9.09334000 0.82072700
3.45304000 9.88905000 -0.37688900
3.42907000 9.86100000 -0.47415200
1.93036000 9.89294000 -1.79455000
1.91742000 8.33290000 -0.45436500
1.81435000 7.50830000 -0.63621300
1.80949000 8.96340000 -0.77644200
1.75472000 9.01723000 -0.88160600
1.58971000 9.02975000 -0.99766900
1.70723000 8.94801000 -0.85885200
1.74180000 8.35439000 0.47426400
1.67888000 8.36600000 0.55325000
1.72550000 8.52628000 0.51594200
1.83942000 8.26535000 0.28286700
1.78123000 8.29762000 0.40487400
1.82801000 8.45179000 0.35202900
1.05764000 -3.62886000 3.96932000
0.92943600 -3.74639000 3.91011000
1.16031000 -3.80064000 3.79721000
-2.77956000 -9.08593000 0.54905300
-2.89500000 -9.19904000 0.59735800
0.39788100 -2.76026000 -4.74430000
1.20246000 6.96301000 0.89615500
1.22706000 7.06470000 0.87984300
1.11069000 6.97183000 0.93046900
1.00018000 6.98237000 0.96078500
1.11287000 7.09918000 0.92058200
4.35306000 -0.52577600 -2.93237000
0.66425500 5.06184000 -1.74853000
0.51707200 5.13483000 -1.70909000
-2.45594000 -9.65263000 2.24727000
-2.33279000 -9.67962000 2.42936000
-1.08378000 -9.32843000 2.56000000
-1.22293000 -9.52691000 2.75062000
1.19615000 4.08454000 2.38576000
1.15740000 3.80439000 2.68865000
2.82920000 -3.20593000 3.26480000
-2.04500000 -5.42222000 -0.71223900
-1.99857000 -5.41508000 -0.84459500
-2.02493000 -3.30545000 3.87375000
-2.14479000 -3.17034000 3.89869000
-2.24138000 -3.33205000 3.74509000
1.82952000 7.28913000 -0.27163900
1.82952000 7.28913000 -0.27163900
1.26972000 6.64404000 1.11321000
2.94337000 9.02805000 -0.12912900
2.87180000 9.04517000 -0.31560300
2.02225000 9.08756000 0.59427600
-3.38785000 -9.60347000 0.28803700
-3.32587000 -9.54739000 0.08738280
2.55620000 -9.51472000 0.01678730
0.36068500 1.32590000 -4.83948000
4.04696000 0.70312300 2.93451000
3.97393000 0.90049400 2.84526000
3.91005000 0.87677300 2.95725000
3.86268000 0.94776300 2.96618000
-4.30437000 -3.49896000 -0.56671300
2.45787000 -5.06003000 0.10877300
2.77722000 -4.86765000 -0.02048050
1.82712000 4.03963000 2.04000000
1.94906000 -4.20297000 2.99388000
2.08083000 -4.06738000 3.05718000
-3.50676000 2.86542000 1.38456000
-3.47238000 2.99214000 1.10606000
0.81406600 -0.65018400 -5.18167000
0.51076200 -0.64780300 -5.22696000
-1.75515000 -6.56449000 0.47252100
-1.79963000 -6.52888000 0.35391800
-1.77815000 -6.31545000 0.52087300
-4.52193000 1.46281000 -1.59626000
0.50450300 1.95420000 -4.44792000
0.89668600 1.82088000 -4.46693000
-0.85259100 -7.47692000 1.50108000
0.37814100 -7.75168000 -1.84660000
-4.06359000 2.35289000 -1.06527000
0.21607100 -8.32704000 -2.05365000
0.24596900 -8.51598000 -2.16028000
0.10321700 -7.94057000 -1.89688000
0.16621600 -8.17755000 -1.98811000
0.34857900 -8.17155000 1.70605000
0.20558400 -8.27186000 1.79504000
4.66394000 0.71968400 -2.01140000
4.84644000 0.45581900 -1.73446000
0.26090800 -7.41393000 1.43831000
0.11249700 -7.24315000 1.45764000
0.17570200 -7.42732000 1.46624000
0.00395737 -7.30627000 1.48731000
4.08961000 -2.51014000 -2.41973000
3.90018000 -2.50143000 -2.75298000
3.89857000 -2.68972000 -2.60806000
3.78196000 -2.63758000 -2.82517000
-1.65897000 -7.53739000 0.78554900
-1.72440000 -7.50964000 0.66148700
4.73799000 0.87026500 -1.66991000
4.82113000 0.71310100 -1.59373000
4.74633000 0.71268200 -1.80901000
-3.90449000 -3.86249000 1.04638000
-1.09547000 -9.54913000 2.75280000
-1.07301000 -9.45412000 2.63558000
-1.20551000 -9.32605000 2.44168000
3.45157000 -3.60024000 2.17694000
-1.85279000 -6.38981000 -0.66217100
-1.84149000 -6.61721000 -0.62309700
0.31918300 -5.64025000 -2.02004000
2.80745000 9.92230000 -1.55686000
2.69928000 9.94301000 -1.64995000
1.79253000 6.88884000 -0.15998800
3.96331000 1.54701000 -2.54080000
3.89880000 1.45061000 -2.73105000
-0.08831420 -5.79797000 0.78578300
-0.34209100 -5.73087000 1.02743000
-2.18954000 -3.74065000 3.50028000
-2.16950000 -3.51805000 3.65737000
-2.04025000 -3.86625000 3.49112000
2.57786000 9.95032000 -1.72541000
-1.35137000 9.27807000 -0.27250500
-1.68486000 -7.44644000 -0.93706100
-4.94282000 0.48774000 1.39456000
1.50880000 -9.10356000 -2.00632000
-1.84184000 -5.82166000 0.78141400
-1.82995000 -5.95448000 0.71308100
-1.78049000 -5.88890000 0.84701700
1.19237000 -6.03120000 0.81201500
1.14137000 -6.11019000 0.86005600
1.15300000 -5.86905000 0.97253200
-4.30693000 -1.57879000 -2.79132000
-4.43377000 -1.59014000 -2.57902000
1.52244000 -3.56207000 -4.02485000
1.63914000 -3.28544000 -4.15649000
1.55277000 -3.18734000 -4.25314000
0.95029500 -8.82051000 -2.05144000
0.83545500 -8.79254000 -2.10448000
0.94251300 -8.99736000 -2.20785000
1.48745000 -5.45816000 0.78278600
-3.53650000 -3.39925000 -2.78725000
4.46160000 -0.96139300 -2.68226000
4.46779000 -1.14973000 -2.60672000
-0.22287500 7.01593000 -0.12840400
-0.23066200 7.01416000 -0.00714345
-0.22753300 7.01368000 0.08633490
-0.23069900 6.93052000 0.10453400
-0.23785200 6.93945000 0.00491672
-2.19763000 -9.80767000 3.26665000
-1.95133000 -9.80619000 3.38687000
-1.94105000 -9.80108000 3.30057000
-1.73908000 -9.81340000 3.48922000
0.93104700 8.07068000 -0.97623200
1.03758000 8.05165000 -0.97549300
0.70062700 8.10369000 -0.93779000
0.82962100 8.07574000 -0.96644600
0.86888700 8.26576000 -0.96722000
-0.24819600 -5.82415000 -0.69110300
-0.06075840 -5.83387000 -0.63942600
-0.49075300 -5.76022000 -0.96026900
-0.26972500 -5.80021000 -0.81519400
1.03033000 -4.43931000 3.20242000
0.79475600 -4.31925000 3.40910000
-2.09811000 -8.18068000 0.29765800
-2.21768000 -8.34937000 0.12383000
-2.18108000 -5.35374000 0.04315480
-2.16583000 -5.35222000 0.29233000
-2.16727000 -5.36832000 0.32271700
2.51773000 9.19337000 -1.41167000
2.59169000 9.16890000 -1.33464000
2.63767000 9.20504000 -1.32760000
-2.69334000 -9.09929000 -1.13507000
-2.71238000 -9.08246000 -1.02741000
-2.89611000 -4.93319000 -0.23375300
-3.00177000 -4.87087000 -0.28017300
-2.87613000 -4.96552000 -0.14806300
-2.14430000 -5.38768000 0.36866500
-2.03954000 -5.50691000 0.42898300
0.48602500 9.27419000 -1.36909000
0.51321100 9.22463000 -1.37076000
0.11843400 9.20242000 -1.14847000
0.82758100 -7.91880000 1.37367000
-0.15929500 8.25240000 -0.29241400
-0.13379900 8.07425000 -0.36174700
-0.09118500 8.23203000 -0.40779200
-0.11740000 8.40313000 -0.35491000
-0.00430138 8.28443000 -0.52907000
2.83085000 1.03949000 4.11355000
2.61896000 1.17382000 4.20072000
2.71418000 0.96903800 4.23663000
4.16265000 2.19834000 1.09529000
4.13965000 2.34962000 0.75617100
4.06877000 2.36481000 1.01778000
0.61054500 -1.92321000 -5.01517000
-4.33060000 0.33649600 2.81626000
-4.26985000 0.42695200 2.90438000
-4.21000000 0.27400900 3.02875000
-4.29988000 0.25210500 2.86336000
-4.36558000 0.12866300 2.79584000
4.31753000 1.65689000 1.67537000
4.25044000 1.63285000 1.88617000
-2.03277000 -8.71700000 1.29064000
-2.11273000 -8.85083000 1.35450000
2.22868000 9.08800000 -1.19359000
-0.56029500 4.84672000 1.65703000
-0.77338900 4.63724000 1.72051000
0.87572300 -6.55235000 -1.32815000
0.55685400 8.37336000 -0.88448500
0.60001500 8.13266000 -0.90780500
1.44704000 9.20882000 1.09036000
-3.26838000 -2.39785000 3.54202000
-3.59743000 -2.17233000 3.33559000
-3.46667000 -2.21641000 3.44684000
2.42750000 9.20867000 1.24986000
2.55972000 9.20695000 1.17822000
2.37382000 9.26408000 1.29326000
2.96051000 2.21547000 3.12825000
3.11544000 2.16465000 3.02743000
3.19424000 2.26711000 2.81857000
-1.30519000 4.76887000 -0.76304700
-1.30349000 4.83361000 -0.61409200
0.90655000 4.11331000 -2.39784000
1.13835000 4.21179000 -2.24035000
0.79459800 4.11212000 -2.42419000
2.76259000 3.02022000 2.39767000
2.99487000 2.75734000 2.46637000
-1.64554000 -4.89481000 0.80705700
1.33266000 8.76510000 -0.98133200
1.33528000 8.60304000 -0.94769000
1.42386000 8.74635000 -0.94158500
-0.67334300 -5.42101000 -1.90777000
-0.45983300 -5.40760000 -1.98476000
-0.22557500 -5.43573000 -1.93516000
-0.02532840 -5.45841000 -1.87387000
-4.74643000 -0.82568700 2.14287000
1.03818000 8.68607000 -1.00853000
1.18553000 8.66108000 -0.99283200
1.15198000 8.77736000 -1.02198000
0.84753900 -8.25968000 1.43605000
1.50287000 -5.97271000 0.22086500
1.59448000 -5.82489000 0.02662430
2.65418000 0.54214800 -4.25965000
2.56711000 0.53549000 -4.31488000
2.59473000 0.83055700 -4.21965000
2.50896000 0.15203500 -4.50453000
1.32265000 -5.56746000 0.08216570
1.58070000 -0.90326500 -4.97721000
1.56928000 -0.70075700 -4.99792000
1.43266000 -1.09307000 -4.99909000
-3.53711000 -9.76104000 -1.09751000
-3.59164000 -9.74598000 -0.73686900
-3.53117000 -9.70009000 -0.50437400
-3.57068000 -9.70807000 -0.24747500
-3.62600000 -9.74636000 -0.52188900
-2.16140000 -8.04763000 -0.08873880
-0.09334020 -5.83123000 1.78401000
0.09842300 -5.88392000 1.73301000
-0.41684500 -8.32328000 -2.11973000
-0.28977800 3.77750000 2.86432000
-0.13085100 4.16568000 2.46703000
1.09654000 -6.73927000 0.83946300
1.06700000 -6.83497000 0.87615400
1.13740000 -6.86044000 0.77499400
1.20371000 -6.77804000 0.66501900
-3.95383000 -2.97299000 2.32091000
-0.68952300 -4.05580000 3.71759000
-0.67846600 -3.81725000 3.92270000
1.48291000 -9.54558000 2.32631000
2.90271000 -9.79359000 -0.05492380
2.95021000 -9.83362000 0.13052800
2.26385000 9.11344000 1.01327000
2.39257000 9.10158000 1.01528000
-4.94055000 -1.36630000 1.38966000
-4.85035000 -1.29583000 1.71032000
4.07392000 0.18288200 -3.26693000
4.14066000 -0.03606390 -3.21847000
3.93649000 0.18335800 -3.43350000
3.95710000 0.35034500 -3.36664000
-0.13096600 -5.62698000 -2.08936000
-0.21383400 -5.70265000 -2.03752000
0.82250800 9.71468000 -1.51899000
0.84353400 9.94987000 -1.53203000
0.98745000 9.91098000 -1.60855000
0.95146000 9.98044000 -1.57530000
1.14454000 9.99860000 -1.65658000
1.12423000 9.95677000 -1.67937000
-1.56734000 -8.86159000 1.76739000
-1.53774000 -8.98499000 1.90552000
-1.61138000 -9.23169000 2.14488000
-3.62858000 0.65402600 -3.60486000
-3.66464000 0.85748700 -3.47990000
-2.77452000 0.02525460 4.45325000
-0.89385100 -9.49915000 -3.19382000
-0.74648700 -9.39790000 -3.08361000
-0.70466100 -9.47806000 -3.19975000
-0.49114200 -9.48410000 -3.22980000
-0.27849800 -5.82179000 0.51816900
0.75679800 -6.50330000 -1.52153000
0.99224900 -6.32947000 -1.34225000
4.27077000 2.14604000 -0.75566900
4.45589000 1.89205000 -0.59026900
-4.54223000 -0.92160200 2.53461000
2.35747000 -2.72092000 3.97597000
0.52917800 -3.49960000 4.18339000
0.31331400 -3.62960000 4.11268000
0.12155400 -3.79373000 3.99334000
0.97929800 -5.68123000 -0.47855000
0.96073600 -5.71013000 -0.21434500
1.14956000 8.84639000 0.90190200
1.04042000 8.90836000 0.92246200
1.13363000 9.02582000 0.94633400
1.13086000 8.73833000 0.88392900
-3.44608000 -0.01160240 -3.93415000
-3.56724000 0.18785400 -3.79583000
0.93040200 -6.01181000 1.15275000
0.85999300 -6.02936000 1.20989000
1.96087000 7.75427000 -0.16315700
2.00003000 6.75228000 -0.09195270
1.98095000 7.12650000 -0.08603730
-2.55028000 -4.25677000 -2.91163000
1.61710000 7.64278000 -0.72938400
1.51468000 7.36202000 -0.82032100
1.61121000 7.38738000 -0.73448200
1.68236000 7.62756000 -0.66141100
2.27326000 -9.87774000 2.09548000
-1.25007000 -9.61610000 2.79770000
-0.12364500 8.79056000 -0.32879500
-0.05258530 8.84036000 -0.44165300
1.12670000 5.50834000 -1.43887000
1.01811000 5.43246000 -1.50404000
1.79384000 9.19176000 0.92739900
1.45838000 9.19306000 1.02867000
1.57903000 9.20882000 1.09258000
-0.54068400 -2.58731000 4.53456000
-0.36612900 -2.37646000 4.72100000
-1.54516000 -6.52737000 -1.07825000
-1.45313000 -6.44103000 -1.20659000
-0.28402000 -7.05919000 1.50098000
-0.32361300 -7.52099000 1.54598000
-0.37181600 -7.31744000 1.51118000
1.78761000 8.31184000 -0.53039300
1.83545000 8.06622000 -0.38734600
1.84667000 8.31585000 -0.40670700
-0.19530300 -5.65001000 -1.91871000
-0.05574110 -5.64629000 -1.90386000
-2.51336000 -8.97645000 0.79384800
-2.51985000 -8.91884000 0.62272900
0.59968800 0.51449800 5.13507000
-2.61952000 -8.95718000 -0.44667700
-2.68952000 -9.02717000 -0.43995700
-2.86748000 -9.22178000 -0.60816800
3.43637000 2.51478000 -2.19017000
3.36204000 2.44012000 -2.39967000
2.38312000 -4.34583000 -2.64264000
-2.17578000 -0.64286900 4.72995000
-0.82394400 -5.65813000 1.79222000
-0.97020700 -5.65935000 1.72638000
-2.06969000 -5.74301000 -0.42949300
1.04106000 -7.10051000 -1.20916000
0.97055800 -7.08880000 -1.29261000
0.67756300 -9.61910000 -3.10005000
-1.32402000 -8.78208000 1.84453000
-2.97079000 -9.82243000 -2.93201000
-2.92273000 -9.84702000 -2.96809000
-3.24212000 -9.82223000 -2.63273000
-0.94905900 0.32752200 5.13034000
-0.85141800 0.43566100 5.12914000
1.01970000 -8.17634000 -1.52029000
0.93238300 -8.24962000 -1.63890000
2.73364000 -9.68670000 0.69364900
0.34579600 -6.22079000 1.54146000
1.11347000 -5.41848000 1.34628000
1.15942000 -5.41625000 1.32320000
2.07637000 -0.57627900 -4.82886000
0.36276700 -9.38023000 2.62728000
0.18376600 -9.31709000 2.59436000
0.41483300 -9.51061000 2.77930000
-3.73650000 -3.41359000 2.14891000
-3.62153000 -3.65131000 1.99185000
-2.45705000 -4.67646000 2.14989000
-2.59812000 -4.51708000 2.26768000
-0.78038300 -5.88979000 -1.85679000
-0.77634900 -5.96927000 -1.83478000
-1.28692000 4.18568000 -1.82018000
-1.39690000 4.14226000 -1.79073000
0.16641100 -5.61506000 -1.88983000
-0.98675800 0.09882280 5.14651000
0.64282000 -7.21176000 1.22051000
0.51707600 -7.20913000 1.29865000
0.80249600 -5.63260000 0.89599300
0.90466800 -5.62685000 0.79841200
-1.81979000 9.71669000 0.12082600
-3.00217000 -0.95990400 -4.28421000
-1.42552000 4.25067000 1.67913000
-1.34719000 4.20346000 1.83129000
-4.58439000 -0.99836100 -2.45641000
-4.77638000 -1.10562000 -1.99506000
-3.46522000 -3.69619000 2.23193000
-3.51352000 -3.56461000 2.31328000
-3.45847000 -3.44874000 2.52693000
-1.72032000 4.15958000 1.49747000
-2.29082000 3.70946000 1.68618000
2.09345000 5.34456000 0.54387200
1.20560000 -5.69005000 1.22154000
1.11069000 -5.66884000 1.35753000
1.34412000 -5.66859000 1.08553000
0.07269900 6.30462000 -1.10232000
-0.02464600 6.16145000 -1.08896000
0.17050700 6.30293000 -1.15762000
-3.55848000 -3.63139000 2.14503000
1.92921000 5.22013000 -0.96280200
1.99911000 5.25568000 -0.83762600
-4.68885000 -1.81144000 -1.94951000
1.86914000 2.86161000 -3.29983000
2.31327000 9.07850000 -0.11672800
2.29202000 9.08756000 0.13774900
-4.65625000 0.11560400 -2.27916000
1.20954000 -5.12269000 2.16980000
1.11700000 8.55215000 0.92810000
1.02437000 8.56156000 0.93409500
4.60797000 1.65690000 -0.44387100
4.59346000 1.63279000 -0.65976400
1.33843000 7.46254000 -1.03882000
1.22905000 7.43551000 -1.08136000
1.24048000 6.84372000 -1.14501000
-0.15119400 -5.37398000 -2.11361000
-0.21738900 -5.37414000 -2.12905000
-0.20374200 -5.38287000 -2.07952000
-1.03412000 0.21834000 -5.04873000
-1.01955000 0.50762700 -4.96832000
-2.16563000 -8.51557000 0.84291500
-2.82380000 -2.56479000 -4.00750000
-2.97681000 -2.44164000 -3.94808000
-2.83962000 -2.34256000 -4.08282000
-0.41726300 8.85358000 0.33688700
-0.44596200 8.90180000 0.39528900
-3.05878000 -9.32995000 0.56440600
-3.23389000 -9.48076000 0.62331700
-0.58555500 6.11815000 0.39874700
-3.27800000 2.50952000 2.49054000
-3.27800000 2.50952000 2.49054000
3.78303000 0.24134900 3.52238000
3.62155000 0.12881800 3.72583000
3.54458000 -0.01550640 3.82020000
0.64137900 -5.90853000 -1.55495000
0.83143900 -5.87537000 -1.38697000
0.57007100 -5.87046000 -1.60583000
-1.59930000 -5.38712000 -1.24690000
-1.81068000 -5.31023000 -1.29112000
-1.75887000 -5.31438000 -1.40939000
-1.67592000 -5.31669000 -1.48555000
1.40737000 -9.47829000 -2.62028000
1.38077000 -9.36483000 -2.46420000
1.51530000 -9.57797000 -2.72553000
1.53909000 -9.66670000 -2.89319000
-4.17805000 2.27742000 0.92595100
-4.24561000 2.21962000 0.80872100
-3.29137000 -0.99401500 -4.05906000
-1.10251000 -5.57560000 -1.74120000
-1.22077000 -5.55227000 -1.68687000
-1.82263000 -9.87152000 3.42860000
-2.27232000 -9.87149000 3.19863000
-0.98400700 -4.64839000 -3.28954000
-0.34091500 9.05774000 0.86516300
-0.78984800 9.08483000 0.75298500
0.00271087 9.10145000 1.00488000
1.88401000 7.79959000 0.00518121
1.86504000 7.64568000 0.11709400
2.24227000 -0.89931800 4.67445000
1.51846000 -9.88234000 3.14060000
1.27536000 -9.91166000 3.39414000
1.15281000 -9.92968000 3.47014000
-1.94322000 -7.27861000 -0.10427000
-1.93921000 -7.28027000 -0.25823700
-1.94195000 -7.29749000 0.00178331
-1.91470000 -7.13106000 0.04848560
-1.92211000 -7.13104000 -0.06487510
3.48100000 -4.29451000 0.30458600
3.53374000 -4.26150000 -0.05278450
0.95199400 8.70246000 0.93569100
0.85080700 8.62953000 0.92374700
0.71216300 8.75338000 0.89919700
-0.70566300 -8.37029000 1.85518000
-0.70696800 -8.49682000 1.92823000
-2.04501000 2.92782000 3.14742000
-2.10633000 2.99685000 3.01753000
2.38615000 9.07451000 -0.12398000
2.46433000 9.06979000 -0.24412400
-0.49206400 8.95746000 -0.11689900
-0.38285400 8.95927000 -0.27256700
-0.39194500 9.04672000 -0.50511400
0.87273400 -5.01153000 2.43379000
0.99336600 -5.04377000 2.34025000
0.81924500 -5.04113000 2.41967000
-0.98240800 -5.17909000 -2.56184000
-0.16006200 -9.59111000 3.01719000
-0.25880800 -9.56335000 2.97090000
1.08603000 -6.92350000 -1.01484000
0.60831400 6.19108000 -1.31018000
0.72859100 6.17880000 -1.32182000
0.38836300 8.89115000 0.81239100
0.26079000 8.85057000 0.75558400
-0.40098700 2.94506000 -3.62858000
-0.54101000 3.04458000 -3.48735000
-0.21617800 2.95950000 -3.63458000
1.02031000 9.33529000 1.28880000
2.49594000 9.05444000 -0.16548500
2.53225000 8.99854000 -0.04095260
2.46414000 9.05272000 -0.05899400
3.22839000 9.64789000 0.65911600
3.11999000 9.50574000 0.74060400
3.24125000 9.75871000 0.70976500
3.09709000 9.58286000 0.81658300
-2.27284000 -8.42420000 -0.24927400
-2.04397000 -7.97075000 -0.30599800
-2.09798000 -8.09931000 -0.31675600
0.43361800 9.38839000 1.10844000
0.21684900 9.54821000 1.04272000
2.61304000 9.00618000 -0.06189990
2.53712000 9.02265000 0.01003940
-4.85572000 -2.09413000 -1.13437000
-3.68340000 1.83818000 2.80792000
-3.60008000 1.98821000 2.74140000
-3.68340000 1.83818000 2.80792000
-4.94084000 -1.66533000 -1.26649000
2.56339000 9.47821000 1.24236000
2.72924000 9.86556000 1.26075000
3.79951000 2.87429000 0.20226800
3.62974000 3.06775000 0.28196500
3.72628000 2.93866000 0.43110300
1.10774000 9.22663000 1.26358000
0.81257200 9.20374000 1.18486000
-5.16576000 -1.01371000 -0.47296900
-5.14927000 -1.21659000 -0.38490100
1.23668000 -7.18249000 0.47427600
1.11290000 -7.16307000 0.70981900
4.63609000 0.77285700 1.90429000
4.69744000 0.78200800 1.72249000
3.29579000 1.05448000 3.73593000
3.45530000 1.00411000 3.59398000
0.84310500 7.92288000 -0.98019100
0.70551500 7.84688000 -0.96009700
0.81584400 7.77941000 -0.99238600
0.87877700 7.62809000 -1.01058000
1.10535000 7.59010000 -0.99436300
0.46851400 0.35270000 -5.16178000
0.45415300 0.54779100 -5.11759000
0.58973000 0.65345300 -5.08692000
-0.07939880 -6.41449000 -1.76869000
0.04491130 -6.28529000 -1.77474000
0.80496900 6.97993000 -1.04556000
0.72582500 6.98840000 -1.04254000
-2.10361000 -1.68930000 -4.67029000
3.07443000 -9.98083000 1.16617000
3.17050000 -9.97590000 0.80268200
-3.46849000 -3.48097000 -1.63138000
-3.53830000 -3.48086000 -1.46288000
0.27116100 -3.89336000 -4.08402000
0.01426790 -3.85306000 -4.13177000
0.04820930 -3.68117000 -4.25649000
2.75325000 -9.98038000 1.93327000
2.84959000 -9.96490000 1.64305000
2.37962000 9.91285000 1.40412000
2.62973000 9.85252000 1.29609000
2.40407000 9.86269000 1.37389000
2.30444000 9.92471000 1.40306000
-2.39663000 -5.04727000 -1.63184000
-2.21503000 -5.02509000 -1.87398000
2.02437000 -9.05853000 -0.93604300
1.93945000 -8.91248000 -0.85377800
1.87888000 -8.91370000 -1.02054000
1.77268000 -8.77066000 -1.01812000
1.63488000 -8.55715000 -0.99480400
0.53559800 -4.21148000 3.58062000
0.72876000 -4.16802000 3.57944000
-2.08349000 3.24499000 -2.63903000
-2.32569000 3.09869000 -2.64568000
-2.37912000 -8.49903000 0.13713500
-0.34900100 -9.14195000 -2.82143000
1.31462000 9.69058000 -1.67063000
1.17571000 9.27164000 -1.60663000
1.33669000 8.98273000 0.93595400
1.46560000 8.96400000 0.88169700
1.23919000 9.47437000 -1.69149000
1.39415000 9.63229000 -1.74724000
-1.10761000 0.63277500 -4.92189000
-1.36811000 0.79106600 -4.83749000
-1.27045000 0.91438900 -4.83114000
-1.40098000 0.98117400 -4.78309000
1.53371000 -9.07243000 1.62679000
-0.36103100 6.72688000 -0.37172100
-0.43903300 6.44627000 -0.39530900
0.91789700 -1.39059000 5.02690000
1.06993000 -1.44736000 4.98744000
0.97736600 -1.19450000 5.04701000
0.84099100 -1.74005000 4.96681000
1.70162000 -3.64356000 -3.88118000
-0.84931400 3.67617000 2.84157000
-1.99009000 -5.33637000 1.32087000
0.71042100 -1.58376000 5.02705000
0.92486900 -1.58149000 4.99063000
-0.90642300 -3.81346000 3.88859000
2.08562000 -3.85137000 -3.48121000
2.00344000 -3.71471000 -3.65748000
1.79754000 -3.74875000 -3.74755000
0.46846700 9.96997000 -1.33595000
1.34547000 10.00000000 -1.70783000
1.26963000 9.99770000 -1.66105000
1.51223000 9.99414000 -1.73791000
4.53321000 0.60973100 2.31409000
4.85023000 -2.14649000 0.03876630
4.87767000 -2.09063000 -0.07352450
0.17659500 -5.87782000 -0.19095900
0.23258500 3.67018000 -2.87507000
-1.14700000 0.41229500 -4.95969000
-1.78266000 9.18796000 0.29427600
4.74115000 -2.32697000 -0.19157600
-0.76334600 -1.88963000 -5.02041000
-0.95515900 -1.69202000 -5.03651000
-0.57470200 -1.83323000 -5.05775000
4.97174000 0.80949400 0.79353100
5.02293000 0.71273400 0.63191400
2.08627000 4.44915000 1.36290000
-0.65360300 -5.78263000 -0.69872400
-0.81641400 -5.78891000 -0.40844000
-2.00846000 -5.36029000 0.81044400
-1.93311000 -5.36975000 0.87027200
-2.03739000 -5.36361000 0.72874200
-2.93064000 -9.82234000 2.74991000
-2.64684000 -9.83225000 2.98447000
-2.69196000 -9.80800000 2.94638000
-3.38271000 -9.52958000 -0.30403100
-3.54856000 -9.64181000 -0.35366800
-3.06036000 -9.28061000 -0.33313200
-0.15930300 -6.52405000 -1.83972000
-3.71877000 -2.72725000 -3.09669000
-3.58665000 -2.74853000 -3.23593000
4.70270000 -1.44426000 -1.99204000
4.77014000 -1.26037000 -1.92460000
0.28479300 8.06961000 -0.85182000
0.34249100 8.28951000 -0.86521300
0.33632900 8.49027000 -0.84803700
2.15056000 5.56020000 -0.01671100
-2.85575000 -5.03067000 -0.00519146
-2.55350000 -5.29030000 -0.00611632
-2.40040000 -9.17206000 -1.82059000
-2.18553000 -8.82941000 -1.56626000
1.54600000 6.00533000 -1.08717000
1.46041000 5.98654000 -1.14954000
1.38397000 5.98214000 -1.19562000
0.12158300 -8.48901000 -2.29030000
-3.03047000 -9.24559000 -0.18440800
-2.87214000 -9.10275000 -0.22462600
-1.09615000 -7.55667000 1.33601000
-3.49379000 -4.47952000 0.21212800
-3.45253000 -4.49721000 0.41729900
-3.39202000 -4.56450000 0.27625200
4.75278000 -0.82115500 2.07952000
4.68399000 -0.82834800 2.22647000
-2.20989000 -0.47728600 -4.76304000
-2.28621000 -0.31559400 -4.72114000
0.80363200 -5.37497000 -2.15401000
1.25691000 2.97407000 3.53278000
-1.93103000 -3.26586000 -4.18379000
-2.22084000 -3.10698000 -4.11580000
-1.84039000 -3.43273000 -4.12973000
-1.89587000 -7.42024000 -0.04682800
-1.87357000 -7.27261000 -0.07351890
-1.87734000 -7.32904000 -0.22361000
-4.08862000 -3.82463000 0.22907400
5.13904000 -0.28400500 -0.85582700
2.87879000 3.94475000 -0.31202300
0.24635300 7.84065000 0.69893200
0.13848200 7.82671000 0.61673900
0.21021200 7.72716000 0.69156000
1.52129000 -2.41886000 4.53888000
-0.59653000 -6.96649000 1.52085000
-0.49110800 -7.10901000 1.54163000
-1.14477000 9.11711000 0.42807300
-0.09022650 7.73485000 0.36608700
0.06786480 7.75321000 0.55962100
0.34712700 -5.63894000 1.70080000
0.54316400 -5.64165000 1.61144000
0.70489500 -5.64301000 1.50437000
0.26802100 -6.40421000 1.45371000
0.12731600 -6.54747000 1.47420000
-0.12547600 -5.62305000 1.96009000
-1.99018000 -9.06552000 1.76375000
-2.10063000 -9.23843000 1.88962000
1.29296000 -7.78109000 -1.10564000
3.03597000 9.67082000 -1.34253000
3.01266000 9.85556000 -1.44748000
2.98558000 9.54369000 -1.31254000
1.36092000 -7.31081000 -0.02682860
1.35721000 -7.33819000 0.07783640
-0.66111700 -5.67242000 -1.22202000
-0.50930800 -5.68855000 -1.23461000
-0.74546900 -5.67020000 -1.17263000
0.92802200 -6.45549000 0.99947700
-3.17056000 -4.28972000 -2.06816000
0.99234100 4.57617000 2.02402000
0.86693400 4.58103000 2.05634000
3.48787000 2.20385000 2.52973000
1.25692000 -6.78826000 0.55675300
1.30860000 -6.79695000 0.42872000
1.20077000 -6.92171000 0.67103600
4.03743000 -0.30030300 3.08038000
-2.10004000 -5.42184000 -0.49099200
-1.01462000 9.10228000 0.55529100
-0.59221700 2.94194000 3.72318000
-0.45517000 2.57586000 4.07539000
-4.63441000 -2.82562000 -0.82527000
-1.06946000 9.91681000 0.70341200
-0.75083600 9.92139000 0.80120100
-0.93726200 9.89255000 0.73532700
-4.98010000 -2.02560000 0.12066400
3.40382000 9.62312000 0.35503600
3.40382000 9.62312000 0.35503600
3.38396000 9.55302000 0.35486200
3.41317000 9.61883000 0.25862400
-5.08103000 -0.66784600 1.15494000
2.66067000 1.67492000 -3.81747000
2.65014000 1.55498000 -3.90525000
-0.80537400 9.87950000 0.77198000
-0.65903300 9.90993000 0.82904800
-1.84880000 -6.56217000 0.37373700
1.92550000 1.47506000 -4.37002000
-3.32592000 2.73330000 2.05024000
-3.30579000 2.64775000 2.23649000
-3.19183000 2.63347000 2.42553000
-1.84534000 -8.49432000 -1.45076000
-1.70975000 -8.15633000 -1.32309000
-1.97166000 0.44770600 -4.74919000
1.20044000 7.59508000 -0.97935600
-3.89053000 -9.78694000 1.26985000
-3.79567000 -9.78612000 1.27475000
-4.07035000 -3.22360000 -2.06070000
1.99776000 -2.54808000 -4.38904000
1.78796000 -2.52275000 -4.48822000
1.50055000 -2.74330000 -4.50213000
2.54910000 1.31639000 -4.10281000
3.13722000 0.44291700 -4.04575000
3.17663000 0.74594200 -3.93739000
3.34350000 9.55996000 0.08063350
2.99443000 -4.51766000 1.19653000
-2.18322000 0.21253700 4.73016000
-2.15685000 0.48102300 4.71843000
-2.10627000 0.59119300 4.72528000
0.36072100 8.96288000 0.77523200
-2.92728000 -9.43551000 -1.29615000
-2.74315000 -9.27184000 -1.22863000
-3.07333000 -9.52545000 -1.25887000
0.02104960 -3.54180000 4.18804000
0.49583100 -6.67528000 -1.66923000
0.59774700 -7.80401000 -1.64859000
0.50421900 -7.90953000 -1.74514000
0.50104800 -7.62345000 -1.64105000
2.05081000 -9.26738000 1.03555000
2.06291000 -9.57845000 -2.21588000
1.88180000 -9.58380000 -2.42105000
-0.32832300 3.46937000 -2.98865000
-0.52526000 3.40464000 -3.01707000
1.18162000 8.75382000 -1.07559000
-0.19846300 -9.85394000 -3.70787000
3.22657000 9.18812000 0.08138680
0.20796300 2.51718000 4.14766000
0.50044900 -8.15805000 -1.85967000
0.56793100 -8.32417000 -1.92010000
0.60774700 -8.16962000 -1.81290000
-0.65317200 -6.63471000 -1.68825000
4.00029000 -3.69921000 0.56003800
4.22809000 -3.33641000 0.75426300
4.07373000 -3.55640000 0.77247200
1.85748000 2.26787000 3.90640000
1.82294000 2.39805000 3.82213000
1.98942000 2.33866000 3.79172000
3.36067000 9.56935000 0.07454140
-1.81128000 -7.22495000 -0.54045900
-1.83915000 -7.25391000 -0.43172900
-0.89206500 -7.03459000 -1.60565000
0.71364200 3.96166000 2.65389000
1.00162000 3.83627000 2.70892000
-2.43416000 -9.04221000 1.20965000
-4.32050000 1.80865000 1.63634000
3.97623000 -3.62454000 0.95136000
1.01091000 -5.74039000 -1.23700000
3.32360000 -2.36093000 3.40884000
-1.23114000 -7.79288000 -1.70020000
-1.24098000 -7.62733000 -1.62935000
1.65828000 -5.73273000 -0.03086640
3.41382000 0.69620100 -3.79171000
0.75870700 -9.94604000 3.47473000
0.47778600 -9.92341000 3.53655000
0.61810400 7.96086000 -1.03030000
0.49226400 7.43693000 -1.04874000
0.42010300 6.53633000 -1.20317000
0.47593900 7.07634000 -1.10798000
4.07554000 1.58044000 -2.31498000
1.98745000 -1.22283000 4.73637000
1.77967000 -1.23805000 4.81747000
1.25941000 -5.46599000 -1.30845000
0.44723000 -4.89411000 1.57422000
0.90755600 -4.88877000 1.59571000
0.66653700 -4.89528000 1.23090000
-0.73394500 -9.69322000 3.17715000
-0.74020100 -9.72540000 3.26590000
-1.15208000 -9.66875000 3.02521000
-2.25303000 -5.07360000 1.55197000
1.98249000 8.75210000 -0.13253300
1.97671000 8.71284000 -0.03934330
-0.24465800 3.07482000 -3.50502000
-2.61212000 2.23415000 -3.39859000
-2.67165000 2.04675000 -3.52956000
3.52706000 0.54635200 -3.75041000
3.52550000 0.70763500 -3.69042000
-0.44042500 6.64456000 0.24037800
-0.47076500 6.56773000 0.18355300
-0.41356800 6.45832000 0.48983100
-0.41653700 6.59510000 0.37317700
-0.60115300 -9.13947000 2.44874000
-0.71653000 -9.04451000 2.34249000
-0.28236000 -9.31501000 2.64252000
1.59258000 8.76644000 -0.91341000
1.52424000 8.57507000 -0.92363300
-2.90912000 -3.13023000 3.41460000
-2.93593000 -2.96750000 3.50382000
-3.07951000 -2.74117000 3.52674000
-1.83910000 -8.25293000 -1.38683000
-1.89753000 -8.22966000 -1.27742000
-1.91028000 -8.40077000 -1.43051000
-2.00362000 -8.49232000 -1.39664000
-1.98552000 -8.34358000 -1.25123000
2.62729000 -9.59516000 -0.64250500
2.65421000 -9.60154000 -0.45320500
2.97193000 9.93505000 -1.46187000
3.11046000 9.90658000 -1.27621000
3.09914000 9.87793000 -1.23838000
-4.79163000 -0.65311200 2.06614000
0.07263930 1.06172000 -4.96104000
1.26196000 -5.47794000 -1.66790000
1.15624000 -7.70749000 0.97789600
-1.71751000 -7.22706000 -0.97105400
3.04169000 9.91223000 -1.39380000
3.04169000 9.91223000 -1.39380000
3.11425000 9.88408000 -1.28773000
4.70157000 1.50949000 0.36060200
-1.18243000 -7.61459000 1.29954000
-1.29484000 -7.49685000 1.18619000
-1.41032000 -7.45271000 1.07112000
0.27710900 -8.28980000 1.71838000
0.42105200 -8.17771000 1.61423000
0.54151700 -8.20611000 1.57683000
0.71412300 -8.25741000 1.51621000
3.29284000 -1.53846000 -3.90923000
3.39190000 -1.69500000 -3.76686000
-2.83208000 0.86887200 -4.17875000
-4.59931000 0.76318200 2.18897000
-4.45871000 1.04086000 2.29310000
-0.47575000 -4.92266000 -2.95875000
-0.73765600 -4.99224000 -2.83101000
-0.29163100 -4.93028000 -2.96313000
4.71156000 1.46942000 0.50624100
4.81525000 1.27201000 0.46094800
4.85895000 1.20302000 0.26771300
2.06942000 9.06322000 0.48358200
1.95861000 9.03285000 0.58170900
2.01696000 9.01982000 0.48683700
2.08405000 9.01027000 0.35086600
0.67915600 9.08871000 0.93208900
0.68053300 9.12232000 0.98137900
-0.33951900 -4.65246000 -3.34117000
4.44705000 -3.02619000 0.38961500
4.40180000 -3.11468000 0.17976600
4.53638000 -2.83944000 0.39117000
0.12803900 -7.46774000 1.54990000
2.71179000 -4.84190000 0.71385500
2.85201000 -4.76995000 0.58482500
-0.27106800 6.11175000 0.92892800
0.82900000 -5.49881000 1.63632000
0.80655700 -5.46796000 1.68741000
-4.53648000 0.65015900 2.38220000
2.24734000 -4.09822000 2.89999000
0.15725000 1.95907000 -4.46589000
0.37119600 2.04895000 -4.39538000
3.51620000 -1.69647000 -3.64545000
-2.03307000 -5.34937000 -0.65102900
-1.77502000 -5.45130000 -0.68165000
-2.00473000 -5.33499000 -0.80652100
-2.17789000 1.71663000 4.19412000
-1.97206000 1.94599000 4.13486000
-2.36451000 1.68093000 4.12489000
-3.72664000 -1.17661000 3.59359000
0.29468300 -5.38240000 -2.03628000
0.20630800 -5.37987000 -2.08453000
0.34718300 -5.38974000 -2.03707000
4.57106000 -2.76545000 -0.34037100
4.53431000 -2.85309000 -0.41994100
-0.47656900 -8.85296000 -2.46216000
-0.51932600 -9.01247000 -2.57795000
-0.39099200 -9.04235000 -2.60970000
3.48217000 9.87962000 -0.16109400
3.48458000 9.85648000 -0.21431700
1.93586000 8.34444000 0.24954900
1.91972000 8.10052000 0.27317600
2.67695000 3.74723000 -1.40507000
2.90434000 -4.12068000 -2.38813000
-3.31793000 -2.55711000 -3.61345000
-3.44074000 -2.49277000 -3.53016000
-3.48016000 -2.26913000 -3.58570000
-0.59447600 -5.78598000 1.77524000
-0.59763400 -5.89420000 1.72626000
0.96017000 5.77207000 1.41658000
1.05300000 5.86352000 1.36841000
1.06191000 5.63987000 1.43196000
-4.73417000 -1.20807000 -2.08430000
1.40733000 -7.08376000 -0.31115900
1.38382000 -6.91367000 -0.42415700
-5.04964000 0.70128600 -0.29793100
-5.00119000 0.85080000 -0.42064800
-0.39176700 -5.74157000 0.88414700
2.68495000 -9.71716000 0.99861700
0.71224100 -3.59855000 -4.24073000
0.16156800 -5.81044000 1.67522000
-1.12716000 -6.95543000 1.24148000
-1.24358000 -6.96012000 1.15592000
-0.42951100 -9.81263000 -3.82866000
3.99345000 -2.04223000 -2.90510000
0.17393700 -1.01207000 5.18655000
0.16643900 -0.83818300 5.21464000
0.21568700 -1.19575000 5.15130000
-1.35908000 -6.46557000 1.11298000
-2.11119000 -5.36640000 -0.34091500
-2.08764000 -5.35118000 -0.53332000
-2.05302000 -5.34326000 -0.72363600
-1.63528000 9.35140000 -0.02012670
-1.62864000 9.27874000 0.00760516
-1.51317000 9.27466000 -0.09298100
-1.51889000 9.22397000 -0.05584360
-1.68844000 9.25173000 0.09395110
-0.04001720 -7.80779000 -1.87005000
-0.16786800 -7.87718000 -1.90768000
-1.29761000 9.60518000 -0.22373800
-1.52308000 9.35088000 -0.10032400
-1.28235000 9.46248000 -0.23228400
-1.30752000 9.31236000 -0.22949500
-1.42380000 9.29156000 -0.16043500
0.00333398 7.33822000 -0.56583400
2.66427000 -9.99317000 2.23944000
2.66427000 -9.99317000 2.23944000
0.27264100 -1.57067000 -5.13089000
2.56799000 -9.96282000 2.42290000
2.97218000 9.23406000 -0.88192200
2.90205000 9.14014000 -0.92447200
2.98838000 9.12364000 -0.71536300
-4.07359000 0.30070100 -3.20050000
-0.42573000 -5.71718000 -2.01469000
-0.56958700 -5.67250000 -2.02557000
-0.01281210 -5.64470000 1.77299000
-0.18682000 -5.64007000 1.79218000
0.22400600 -5.61095000 1.76322000
0.15528500 -5.65836000 1.73857000
1.86651000 0.78515800 4.73091000
1.71048000 0.95359900 4.71468000
1.15424000 -7.65981000 0.82625600
-1.24623000 9.56740000 -0.31174700
-3.12755000 -1.76795000 3.93117000
2.04333000 -9.90854000 -3.14626000
1.86548000 -9.90161000 -3.28413000
0.99596700 -5.75784000 -1.56289000
1.19025000 -5.77018000 -1.34679000
1.08870000 -5.77083000 -1.46287000
2.08256000 9.14336000 -1.28026000
1.27037000 -9.43761000 2.20121000
1.26935000 -9.28754000 2.00701000
3.82151000 -0.79026700 -3.58179000
3.93036000 -0.88307900 -3.44672000
-0.25718100 8.87390000 0.38227500
-0.25718100 8.87390000 0.38227500
1.73596000 -9.10980000 1.30774000
1.81290000 -9.09386000 1.17332000
3.54418000 -3.63545000 1.97240000
0.07070700 7.89172000 0.66586600
-0.19187300 8.52204000 0.22718900
-0.29459900 8.80071000 0.27042900
-1.39387000 -6.96620000 -1.35391000
-1.38737000 -7.08068000 -1.37346000
-1.19231000 -6.97320000 -1.52124000
-1.30992000 -6.97613000 -1.42922000
-0.29669300 -6.85905000 1.50518000
0.03919890 7.34509000 0.74492100
4.20983000 0.65826900 2.75601000
3.96910000 0.67787600 3.07159000
1.76204000 -9.64063000 2.10563000
1.72952000 -9.57272000 2.01188000
1.67081000 -9.46865000 1.89763000
0.23131200 8.09301000 -0.67893500
4.91815000 -1.98934000 0.36049200
-1.75806000 -8.41292000 1.21075000
-1.65438000 -8.42109000 1.32444000
-1.55757000 -8.37219000 1.37056000
-3.11990000 -4.06022000 -2.54099000
-3.06417000 -4.02471000 -2.65917000
-0.99367200 -9.61977000 2.89329000
-1.49384000 -8.34606000 -1.81616000
-1.46061000 -8.22724000 -1.76116000
-1.32543000 -8.27444000 -1.88821000
-5.02323000 0.12010700 -1.22030000
-5.08117000 -0.02149130 -0.99504100
1.38911000 9.20384000 1.35747000
1.35066000 9.18500000 1.30599000
1.50638000 9.21871000 1.38904000
0.30670600 -7.26040000 -1.75152000
0.25904500 -7.12352000 -1.75410000
1.32858000 -1.88751000 -4.86537000
1.23342000 -1.73162000 -4.93573000
1.32409000 -2.13548000 -4.79247000
-1.53644000 -7.77488000 -1.43810000
-1.60808000 -7.98782000 -1.48179000
1.42738000 -8.77747000 -1.57998000
1.53036000 -8.95774000 -1.64899000
0.78050900 0.41110400 -5.12785000
0.87725900 0.26759000 -5.13977000
0.96784300 0.10182900 -5.14391000
0.98467800 6.96063000 -1.02730000
1.84330000 4.90154000 1.25037000
1.96037000 4.87050000 1.13256000
-5.01481000 0.33059200 -1.12549000
-5.02535000 0.69320300 -0.60585100
-5.01829000 0.61610000 -0.82076600
2.66559000 9.05379000 -1.06835000
2.85153000 9.02349000 -0.77610200
1.52356000 5.23816000 1.35752000
1.50699000 -5.45499000 0.60781300
1.40889000 -5.44127000 0.89542200
-1.22414000 -7.45839000 -1.58745000
3.28420000 1.97669000 3.00148000
3.20070000 2.07850000 3.01623000
3.38299000 1.67507000 3.12372000
1.76633000 -9.17799000 -1.63145000
-4.43502000 0.63548000 -2.54146000
0.49342200 -9.56039000 2.74448000
0.65692300 -9.53015000 2.65389000
2.52660000 9.04809000 -0.58780100
2.59963000 9.03433000 -0.62706900
2.74820000 9.02108000 -0.75141500
-3.31828000 -9.87801000 -2.26131000
-2.10968000 -5.46654000 0.81980500
-2.05136000 -5.44594000 0.97797000
-1.04979000 5.21356000 0.56168100
-0.87954200 5.48656000 0.49885900
3.03244000 -2.89279000 -3.49309000
3.16004000 -2.91666000 -3.35578000
3.29799000 -2.98806000 -3.16110000
0.00969600 -7.56514000 -1.88464000
1.81719000 -8.58521000 -0.85121700
1.91803000 -8.77015000 -0.91436100
1.97656000 -8.77944000 -0.75843100
-1.05336000 -2.68230000 4.45457000
-1.54492000 -6.85781000 0.93067900
0.41460900 -8.00586000 -1.94043000
-3.62017000 -9.68077000 -0.35684400
-3.65024000 -9.69221000 -0.11414600
-3.59062000 -9.66784000 0.21978300
4.78517000 -2.18870000 -0.96551400
3.53131000 -0.24066800 -3.89936000
3.43861000 -0.39477900 -3.98128000
0.89876500 -9.51584000 2.63061000
1.11321000 -9.62247000 2.68957000
0.82253900 -9.41031000 2.52514000
0.96064100 -9.42012000 2.47664000
0.86342000 -9.29224000 2.36687000
2.28065000 -9.18609000 -0.77405000
0.79581900 -5.69987000 -1.49000000
-3.61365000 -9.75828000 0.85151200
-1.52739000 -6.99384000 0.85742900
-1.52739000 -6.99384000 0.85742900
-1.84973000 -0.72171100 -4.90186000
-1.79378000 -0.88148300 -4.92316000
-1.80734000 -1.03537000 -4.90801000
0.72770000 -7.16401000 -1.41465000
-2.62665000 3.59697000 1.39608000
-2.68247000 3.61741000 1.20887000
-2.82844000 3.47312000 1.31939000
-5.17155000 -1.07463000 -0.31897200
-1.24740000 -5.35595000 -2.17017000
-0.37581100 2.88362000 3.80724000
-0.59229600 2.80429000 3.85661000
-0.87134500 -5.52301000 -1.53030000
-0.69276900 -5.60746000 -1.39482000
-1.37714000 3.01051000 -3.30044000
-0.19794900 8.60917000 -0.24778800
-0.19094800 7.54909000 0.43204100
-0.19502600 3.51247000 -2.96375000
-1.27729000 -5.33363000 -1.82384000
-2.51783000 -5.27790000 -0.60621300
-0.50540400 -1.29903000 -5.16127000
0.48697800 -9.58262000 2.86499000
1.44766000 -7.96172000 0.43990500
1.42864000 -7.83837000 0.35309300
0.11774100 -5.22928000 -2.58964000
0.83038500 -2.31664000 -4.85388000
2.56819000 1.15293000 -4.14633000
-4.91983000 1.14440000 0.04519110
-4.80637000 1.39913000 0.31139600
-0.29048400 -5.54561000 -1.64539000
1.85151000 5.78765000 -0.82030000
1.87144000 6.03755000 -0.72306900
0.35383200 8.13497000 0.81990600
0.19780400 8.39792000 0.70668600
-1.78974000 1.72527000 -4.25636000
-1.69381000 1.58897000 -4.38364000
0.16091600 -5.51274000 -1.68574000
0.00230652 8.46523000 0.55245900
2.49660000 -9.59853000 -1.54703000
3.13503000 -9.99370000 1.40720000
3.06150000 -9.98727000 1.58187000
1.39550000 -8.93425000 -1.93184000
0.25946100 -5.73659000 1.78984000
0.33646000 -5.66633000 1.84582000
0.16902600 -5.67135000 1.88193000
0.42535000 -5.69369000 1.77980000
-4.35539000 -0.71646400 2.86184000
-4.25817000 -0.65334700 3.02214000
-4.05620000 -0.77214600 3.29638000
-2.40944000 -8.81101000 0.84138900
-4.18048000 -0.87506200 3.11569000
-4.18357000 -0.72544200 3.13048000
-2.13534000 -4.03657000 3.28087000
-4.93835000 -0.11307600 1.66866000
-2.53689000 -9.09675000 -1.23609000
2.28359000 -5.05503000 0.88538700
2.35204000 -5.05719000 0.67716900
2.44289000 -4.98367000 0.80243000
-0.20151800 0.40360500 5.19505000
-0.32399500 0.54551100 5.16555000
0.28304400 -9.53696000 2.75808000
4.08103000 0.59713600 2.96255000
0.52813400 -6.21775000 1.37616000
0.55309600 -6.05428000 1.41723000
0.66238900 -6.15052000 1.31676000
2.45329000 -9.37808000 -0.83261100
3.25227000 0.08824550 -4.05698000
-1.96318000 -5.68330000 0.66457900
-2.09336000 -5.71688000 0.10491600
-2.06409000 -5.70960000 0.30761800
2.27472000 -4.29765000 -2.81748000
2.36480000 -4.15267000 -2.92841000
-4.02176000 -3.23343000 1.85217000
-3.97166000 -3.18326000 2.03072000
-0.83318300 -3.12324000 4.31245000
1.20611000 -7.89397000 1.01938000
1.90719000 8.91636000 -0.68573200
1.88040000 8.82200000 -0.66243500
1.92532000 8.67140000 -0.51729600
-4.25496000 1.69346000 -1.93007000
0.55183400 -9.02096000 2.20992000
0.67291500 -8.95951000 2.10852000
0.36812600 -9.01498000 2.25847000
2.65161000 -1.82448000 4.21394000
2.89071000 -1.82513000 4.04943000
-1.42159000 -5.72818000 1.37465000
0.39487200 -7.06973000 1.35054000
-2.16255000 2.26958000 3.76285000
1.54208000 -5.55960000 0.30986800
1.56345000 -5.51562000 0.29404800
1.49845000 -5.57231000 0.15234500
1.56677000 -5.49071000 0.44030500
3.47853000 -9.94632000 -0.28793200
2.18485000 1.61075000 4.20295000
1.82533000 1.52915000 4.38319000
2.00759000 1.58409000 4.29057000
-2.51782000 0.20518200 -4.54567000
-2.73716000 0.22642900 -4.41349000
1.99194000 5.86316000 0.48874500
2.79864000 9.14707000 0.86594300
2.88777000 9.10908000 0.68832600
-1.56941000 -3.79944000 -3.99614000
-1.41457000 -3.65621000 -4.14587000
-1.96257000 -6.26289000 -0.07189140
1.49296000 -5.62811000 0.93938700
1.59150000 -5.60959000 0.79312100
2.94590000 -3.62222000 -2.97032000
2.69893000 -3.80060000 -3.03394000
2.63835000 -3.91672000 -2.96528000
-4.51465000 -2.84576000 -1.36052000
-1.41504000 1.09535000 -4.73995000
1.63943000 5.49358000 -1.15374000
1.74721000 5.00611000 -1.29869000
1.66202000 5.22560000 -1.25538000
-4.01585000 2.57801000 -0.12158800
1.39575000 -7.25341000 0.24100700
1.38550000 -7.38252000 0.36419600
1.53294000 -0.39644900 -5.01935000
2.18522000 -9.16393000 0.34343700
1.41605000 -5.52874000 -1.39771000
1.52777000 -5.43781000 -1.43938000
1.38096000 -5.45780000 -1.57925000
2.54098000 9.16226000 1.15550000
2.65874000 9.17717000 1.09209000
-0.72061300 -6.09481000 -1.75131000
-0.73924400 -6.45764000 -1.68194000
-0.74349500 -5.95755000 -1.77694000
-0.15096000 -8.34258000 1.88743000
-1.92670000 -5.59518000 0.48536500
2.00648000 8.60802000 0.09055810
2.05037000 8.79319000 -0.01776450
1.03651000 -9.95683000 3.50016000
1.22631000 -9.95024000 3.42754000
1.04895000 -5.48389000 -1.83836000
1.15395000 -5.55232000 -1.65448000
2.09313000 9.06315000 -0.60390800
2.04461000 9.02291000 -0.59640000
1.93896000 9.06352000 -0.83192300
-4.71902000 -2.54801000 0.82560200
-4.68697000 -2.37747000 1.26769000
-4.74994000 -2.39274000 0.98599400
-0.17820100 4.88362000 1.81070000
4.81755000 -2.18945000 -0.76106100
1.87906000 -2.47233000 4.36320000
1.71654000 -2.47493000 4.43673000
1.02351000 -5.63313000 1.49966000
-4.28442000 2.24427000 0.34107600
-4.22395000 2.33350000 0.16792400
-1.04331000 -6.27815000 -1.64866000
-4.21036000 -0.55307100 -3.12122000
-4.19150000 -0.82352200 -3.14018000
3.10061000 -4.59118000 0.55025900
-3.19606000 -9.67692000 1.22948000
-2.96136000 -9.62538000 1.43654000
-3.48633000 -2.88773000 3.03042000
-3.62169000 -2.68325000 3.02095000
-1.21615000 -5.71815000 0.06445570
-1.02617000 -5.76559000 0.00071348
-2.56683000 -9.50451000 1.70881000
-2.50963000 -9.43693000 1.66341000
-4.72509000 -0.06948430 -2.16102000
-4.78029000 -0.19052000 -2.04459000
-4.60357000 -0.13954800 -2.42547000
3.75745000 -3.02052000 2.41280000
-1.19725000 -9.89782000 -3.87427000
1.80203000 6.03797000 -0.81889000
-2.61692000 -9.38162000 1.43318000
-2.35896000 -8.98772000 1.10030000
-2.23812000 -8.85876000 1.07829000
1.71155000 6.88992000 -0.45318900
1.73189000 6.97865000 -0.41999500
-2.48288000 -8.79340000 -0.85220700
-2.45463000 -8.73574000 -0.79257200
-2.84915000 -9.83822000 -2.61167000
-1.39188000 0.75493000 4.94987000
-0.03727780 9.00501000 -0.75643800
-0.20683900 8.70809000 0.40783400
-0.23526700 8.62126000 0.34266600
-1.37664000 -7.37188000 1.16375000
-1.27484000 -7.28719000 1.23274000
-1.38025000 -7.25977000 1.13811000
2.87186000 3.77307000 0.90469600
2.74184000 3.94869000 0.86889100
2.63146000 4.10634000 0.83486000
-0.81383300 -7.74449000 -1.77642000
-1.27108000 -5.72512000 -1.68786000
-1.47097000 -5.65773000 -1.59277000
-1.12782000 -5.68549000 -1.81088000
0.18857800 -4.57376000 -3.40785000
-0.05385470 -4.60237000 -3.39451000
-0.45209900 8.93391000 0.25028000
-1.59472000 0.66215000 4.91278000
-0.84773100 -8.88934000 -2.41846000
-1.04359000 -7.69475000 -1.76657000
-4.08028000 -3.06431000 1.98180000
-1.57253000 -0.59787200 4.95485000
-1.45893000 -0.33950300 5.01109000
-0.23567700 4.48333000 2.13024000
-0.28649900 9.19553000 -0.85919200
-0.25275600 9.15941000 -0.86259900
0.02692670 9.20082000 -1.04335000
-0.05916610 9.21908000 -0.99524400
-0.37308000 9.30477000 -0.80955800
4.39134000 -2.61576000 1.62439000
-0.49874400 9.37794000 -0.71485400
-0.47804400 9.54169000 -0.73257600
-0.45709600 5.49434000 1.16515000
0.09798240 -9.47243000 -3.04402000
-2.03700000 9.43909000 0.51130900
-2.03939000 9.42837000 0.49419200
-2.00398000 9.48761000 0.52379000
