1.64081000 -1.55211000 2.71809000
1.68046000 -1.51627000 2.68899000
0.04022380 5.94757000 -1.77231000
0.12671400 6.00985000 -1.75980000
-0.05753740 5.97032000 -1.75689000
-0.04112510 5.84643000 -1.75966000
-4.97777000 -3.39470000 0.50009400
-4.96453000 -3.44792000 0.58304800
-4.97027000 -3.73131000 0.39419500
2.53018000 5.27729000 -0.56759700
2.53357000 5.42080000 -0.51170700
-4.90929000 -3.58247000 0.87092300
-4.91353000 -3.63001000 0.87155800
-4.94665000 -3.56482000 0.75201200
-0.70213100 -8.75994000 2.14937000
-0.61200100 -8.80634000 2.15455000
-0.83621900 -8.71143000 2.13766000
-0.71585600 -8.65849000 2.09905000
-0.77517100 -8.64467000 2.11561000
-2.83470000 3.75576000 -0.30436500
-2.82633000 3.84966000 -0.30177300
-2.77649000 3.99384000 -0.28379800
1.89672000 -8.16138000 -2.05139000
-0.44620400 3.10628000 1.96280000
-0.61025000 3.16492000 1.94118000
-0.68172700 3.07009000 1.95552000
-0.59924500 3.05398000 1.95612000
0.90535300 -2.35630000 -3.08569000
0.94060700 -2.49332000 -3.09921000
0.90593700 -2.44084000 -3.11318000
1.58296000 9.70612000 1.59083000
1.47395000 9.52824000 1.67320000
1.49156000 9.67744000 1.63740000
2.38614000 -8.86165000 -2.01661000
-4.01259000 -0.81742000 -0.94979200
-3.96708000 -0.58741700 -0.82347200
-3.89190000 -0.50885800 -0.92174000
-4.03487000 -0.76651000 -0.86440000
-2.10397000 -2.76749000 -2.73630000
0.18255200 -8.46479000 -1.00858000
-0.69195900 -2.42428000 -3.02017000
-4.94853000 -3.46342000 0.72147900
3.49535000 -9.38924000 -0.97219500
3.46180000 -9.37325000 -1.00484000
3.49535000 -9.38924000 -0.97219500
3.47051000 -9.36020000 -0.96482200
4.61653000 -3.85646000 1.32818000
-2.26674000 -2.78667000 -2.69318000
-2.32898000 -2.66175000 -2.65111000
-2.35598000 -2.88914000 -2.67024000
-2.42054000 -2.84107000 -2.64939000
2.86541000 8.93679000 0.03904780
-3.03854000 4.01879000 0.74527300
-4.06556000 -0.85878600 -0.88155900
-4.18573000 -0.81343700 -0.57391400
-4.09495000 -0.77686200 -0.72970200
-4.05089000 -0.85266600 -0.92103600
-4.11569000 -1.02091000 -0.93863300
-4.13960000 -0.88875200 -0.74542800
-4.21357000 -0.87209900 -0.55077200
-4.34233000 -1.12904000 -0.47044500
-2.66290000 7.64995000 0.76266400
-2.64127000 7.71651000 0.79975500
1.73226000 9.66359000 -1.31115000
1.59055000 9.60084000 1.62729000
1.53266000 9.63727000 1.64241000
4.75449000 -3.03820000 0.88222000
4.80168000 -3.05681000 0.75995200
4.71597000 -2.80173000 0.93677800
1.38205000 -4.38172000 3.01551000
1.34135000 -4.39722000 3.00027000
-2.69271000 5.95791000 0.55356200
-4.28987000 -2.68419000 1.96040000
-4.26104000 -2.72507000 2.00931000
-4.14127000 -2.74362000 2.12675000
1.41581000 -4.35682000 2.99558000
1.39775000 -4.16774000 3.02043000
1.44388000 -4.42124000 2.98642000
4.83502000 -2.70449000 0.49734700
4.83348000 -2.63944000 0.48060000
4.78389000 -2.64617000 0.67197600
-0.94701000 9.09368000 -1.68130000
-0.93905300 8.94224000 -1.70155000
-2.77450000 8.06491000 -0.59831000
-2.79625000 8.05332000 -0.50548400
-2.75459000 8.08774000 -0.62608700
-3.07067000 3.83347000 0.39462400
-3.04518000 3.75208000 0.40328500
-2.09705000 -8.56002000 1.95346000
-2.08498000 -8.52500000 1.93686000
-2.17306000 -8.53573000 1.93074000
-2.41393000 9.96881000 -0.27617600
-2.51608000 9.97462000 -0.35109600
-2.63664000 9.97235000 -0.32377300
-4.35132000 -2.84108000 1.89975000
-4.38358000 -2.99665000 1.89230000
-4.37754000 -3.08543000 1.91551000
-4.30938000 -3.03999000 1.95868000
2.36603000 -3.48102000 -2.93576000
2.31678000 -3.52319000 -2.94756000
2.28919000 -3.38916000 -2.96104000
2.46396000 -3.59836000 -2.89485000
2.50903000 -3.68438000 -2.84828000
2.40103000 -3.59206000 -2.89737000
-3.01642000 5.89405000 -0.01889300
-2.09481000 -8.59724000 1.97166000
-2.18657000 -8.57502000 1.91789000
1.95317000 -3.84717000 -3.02261000
1.95471000 -3.71353000 -3.04109000
2.01137000 -3.62027000 -3.03097000
3.63942000 3.26869000 0.27004700
3.54424000 3.20105000 0.19424300
4.67163000 -3.20863000 -1.41817000
4.60041000 -3.33369000 -1.54469000
4.61272000 -3.28202000 -1.50370000
2.77658000 -8.50194000 1.12483000
2.76287000 -8.58871000 1.16331000
2.86347000 -8.61702000 1.06923000
2.72677000 -8.53069000 1.17360000
0.52017100 6.95303000 -1.61634000
0.62479900 7.05813000 -1.60591000
0.58416400 7.07807000 -1.58778000
0.41330300 7.13503000 -1.56406000
0.51334700 7.14971000 -1.58245000
2.24207000 -3.49836000 -2.96688000
2.24864000 -3.62712000 -2.95258000
2.16379000 -3.60468000 -2.97690000
2.25896000 -3.58774000 -2.94704000
0.68604500 7.04806000 -1.60972000
2.63119000 -9.16109000 1.41331000
0.12044000 -2.30604000 -3.07894000
0.16628600 -2.36117000 -3.06631000
-0.65093700 -5.52337000 -2.39984000
-4.30141000 -4.41764000 -1.38825000
-4.22502000 -4.45408000 -1.48691000
-1.97360000 -8.38447000 1.95909000
-2.01628000 -8.24402000 1.90766000
-2.01029000 -8.36335000 1.91950000
-1.94845000 -8.44034000 1.97091000
-4.95764000 -3.90394000 0.43599000
-4.96275000 -3.85746000 0.33277800
1.22286000 -8.83711000 1.91888000
1.19291000 -8.80639000 1.89294000
2.60814000 -8.75379000 1.33777000
2.58826000 -8.63758000 1.32124000
2.56508000 -8.72292000 1.33642000
2.66202000 -8.50980000 1.21401000
2.65878000 -8.56419000 1.25928000
2.21868000 -3.56474000 -2.99131000
2.29704000 -3.57210000 -2.93303000
-2.39691000 4.16331000 0.69493800
-2.31128000 4.14836000 0.82160900
1.88853000 -5.68345000 -2.71966000
1.80493000 -5.60259000 -2.77672000
1.98076000 -5.73366000 -2.68725000
0.23366000 -2.35792000 -3.08576000
1.23249000 1.83369000 1.95824000
1.24120000 1.54074000 2.00837000
4.58958000 -3.44738000 -1.53150000
2.62520000 -8.69244000 1.28780000
3.35289000 3.19108000 0.36099300
-2.77366000 9.86761000 -0.51133800
-2.76918000 9.87882000 -0.45938900
-2.71166000 9.92996000 -0.39756000
1.20072000 -8.99342000 1.94227000
1.14537000 -8.98900000 1.97313000
1.15742000 -9.06997000 1.97043000
1.11900000 -9.17252000 2.02633000
1.19892000 -9.15929000 1.99271000
-0.62570900 -4.15935000 3.17346000
-0.63354600 -4.10269000 3.17484000
-0.67385600 -4.08479000 3.22934000
3.06276000 3.17029000 0.22081900
3.02320000 3.16059000 0.25073300
2.61985000 -8.79509000 1.32110000
-2.77159000 9.92985000 -0.35887300
-2.82045000 9.84555000 -0.39871000
2.34216000 4.66526000 1.01297000
2.20359000 -3.50865000 -2.99886000
2.00276000 -3.47539000 -3.03837000
2.18571000 -3.46007000 -2.98191000
3.09336000 6.01855000 0.52241200
1.26478000 2.08462000 1.92582000
-1.39815000 9.42906000 -1.57912000
-1.44419000 9.49964000 -1.56944000
1.26737000 -8.97531000 1.92281000
1.29299000 -8.89174000 1.92217000
1.23359000 -8.91087000 1.92436000
-3.64130000 -3.99024000 2.51841000
-3.75218000 -4.04259000 2.45278000
-3.72141000 -4.07211000 2.45610000
2.52726000 -8.66540000 1.34407000
2.50849000 -8.72743000 1.39266000
2.51115000 -8.62020000 1.36926000
-0.39204000 -7.86609000 -1.69113000
1.30876000 -9.04111000 1.95582000
1.20354000 -9.13308000 1.97787000
1.20865000 -9.08064000 1.97476000
1.11531000 -9.09609000 1.99987000
1.07681000 -6.21064000 2.48881000
1.24880000 -6.17034000 2.47904000
1.20882000 -6.34319000 2.35896000
1.29699000 7.90380000 1.49878000
1.24344000 7.98496000 1.50197000
-2.12063000 1.01230000 2.03428000
-3.84918000 3.41795000 0.21778000
-3.84610000 3.32900000 0.20295600
2.12956000 9.75247000 -0.69195100
-3.86675000 -0.24736000 -0.67502300
-3.83860000 -0.26522300 -0.77142800
-3.81898000 -0.18464700 -0.73065500
-0.80227000 7.21724000 1.64676000
1.05414000 0.69212200 2.24570000
1.07656000 -1.37714000 -2.83701000
0.59511600 2.64765000 1.96361000
0.54003400 2.82659000 1.95552000
0.54339000 2.68887000 1.95457000
0.67473100 2.81119000 1.94491000
2.59807000 5.29902000 0.61951200
-3.63215000 0.32178200 0.81367800
-3.66158000 0.28886300 0.75808900
2.83276000 5.20232000 0.33638300
2.78743000 5.32176000 0.34224600
-2.65787000 9.44482000 0.42101100
-2.65214000 9.32129000 0.55112400
-3.82022000 -1.35737000 -0.62225900
-0.37693300 6.60327000 1.66658000
-0.39484700 6.75845000 1.66601000
-0.34337000 6.70290000 1.65604000
-0.62194100 6.35054000 1.65166000
-0.63752900 6.57807000 1.65506000
2.22690000 9.80625000 -0.64152100
2.17878000 9.84205000 -0.68191600
1.27587000 1.92928000 1.94815000
1.27654000 1.81381000 1.95963000
0.05774340 9.41767000 -1.83462000
-0.00767394 9.41365000 -1.79503000
0.01722770 9.47272000 -1.80453000
0.11784700 9.43853000 -1.80756000
0.05958030 9.49568000 -1.82374000
2.82886000 5.11588000 0.35002300
2.56641000 -8.86007000 1.39744000
2.51221000 -8.91810000 1.43652000
2.56042000 -8.93518000 1.43342000
-1.76783000 8.98876000 1.61472000
2.13626000 -4.78390000 2.78042000
-3.70286000 -2.83515000 -2.00683000
-3.75311000 -2.76019000 -1.98498000
-3.83177000 -2.88511000 -1.94951000
-3.85768000 -2.93145000 -1.90766000
-3.82663000 -2.73395000 -1.92580000
2.40752000 -9.29753000 1.36309000
3.10466000 3.17637000 0.11831100
-0.96415200 6.57076000 1.66137000
-0.83979800 6.62919000 1.66154000
-0.75010600 6.76155000 1.64719000
-2.66686000 -3.66766000 -2.56674000
2.45467000 -9.21494000 1.32542000
-0.38555100 -0.08475670 -2.45516000
-0.26996100 -0.42167200 -2.56226000
-0.30537800 -0.24505100 -2.50944000
-0.19156500 -0.24934300 -2.51647000
-0.58003500 6.75094000 1.65734000
3.28196000 -9.95645000 -1.37152000
3.09547000 -9.96000000 -1.44986000
3.13378000 -9.97085000 -1.45067000
-0.70908400 -8.57007000 -2.11040000
-2.37871000 9.80021000 0.53514100
-2.42634000 9.75149000 0.55517600
-2.29166000 9.81158000 0.67589000
-0.08480820 9.43190000 -1.81167000
-0.01124480 9.37619000 -1.82110000
-0.10225100 9.31735000 -1.81227000
2.94424000 -9.50622000 0.95090700
2.84511000 -9.43501000 1.05597000
-0.58685900 4.25547000 1.90666000
-0.49825700 4.26362000 1.91144000
-0.56597400 4.41760000 1.89848000
-0.47184400 4.34201000 1.89402000
1.76687000 -9.19778000 -2.26560000
1.77177000 -9.01217000 -2.26324000
1.73750000 -8.97932000 -2.23663000
1.31242000 8.78906000 -1.66912000
1.18325000 8.84700000 -1.71240000
1.17601000 8.97815000 -1.70627000
1.02779000 9.01277000 -1.74576000
1.11689000 9.06634000 -1.72792000
1.02650000 8.93003000 -1.74605000
-0.47464300 6.63942000 1.66651000
-0.57424900 6.63039000 1.66464000
-0.48623900 6.79763000 1.66099000
-0.77671600 3.20142000 1.93715000
-0.75916200 3.38915000 1.94478000
2.74054000 -2.56150000 2.59177000
2.56495000 -2.63578000 2.65444000
-2.84987000 8.26497000 0.12794200
-2.85346000 8.11382000 0.17639800
4.72887000 -3.39128000 1.02147000
4.76754000 -3.46309000 0.97186000
-0.16111000 9.25346000 -1.78914000
-2.42631000 -3.99065000 -2.66310000
1.52367000 -8.21130000 -2.13672000
1.45429000 -8.22323000 -2.14756000
1.45468000 -8.16836000 -2.16950000
2.70794000 -2.86419000 2.63497000
2.88904000 -2.83805000 2.56351000
2.67585000 -2.76356000 2.64558000
-4.78019000 -4.05517000 1.15327000
-4.81473000 -3.92096000 1.03307000
2.42322000 -2.63008000 2.69284000
2.21950000 -2.67752000 2.77544000
2.27730000 -2.75114000 2.76363000
2.29969000 -2.68685000 2.73879000
3.28251000 -8.85376000 0.54406000
3.28683000 -8.82765000 0.46417000
1.04105000 -9.09041000 -2.36617000
0.98357700 -9.02592000 -2.34515000
0.84122300 -9.19444000 -2.40172000
2.28486000 -2.86165000 2.77276000
2.37991000 -2.67578000 2.72515000
2.46093000 -2.76825000 2.70608000
2.45805000 -2.86706000 2.72271000
2.50001000 -2.80668000 2.71196000
-2.60319000 4.85041000 -0.47363000
-2.76409000 2.24330000 1.20554000
1.10510000 -6.12254000 2.53357000
1.19347000 -6.04483000 2.57300000
1.03550000 -5.93498000 2.66255000
0.97124200 -5.85751000 2.71681000
4.74060000 -3.49587000 0.99597200
4.76589000 -3.53505000 0.92022900
1.51768000 -8.64474000 1.79218000
1.48811000 -8.57790000 1.77027000
-2.93248000 2.55085000 0.67698000
-2.88446000 2.67099000 0.72777100
-1.92906000 -9.92966000 -2.00499000
-1.77368000 -9.90002000 -2.01516000
-2.19463000 -9.91602000 -1.98254000
0.84911200 -5.97370000 2.67896000
0.91168800 -6.01797000 2.63672000
1.68851000 3.18814000 -1.67579000
1.82446000 3.10205000 -1.64502000
2.15269000 6.40695000 -1.22005000
2.10234000 6.28577000 -1.26101000
2.04078000 6.39692000 -1.29885000
4.73797000 -3.34981000 1.07256000
4.69303000 -3.25818000 1.09861000
1.64313000 9.83288000 -1.20608000
2.10541000 -8.87803000 -1.92728000
2.01260000 -8.87210000 -1.93814000
1.97807000 -8.96121000 -1.99433000
2.20160000 -9.08714000 -1.92575000
2.07414000 -9.13402000 -1.99067000
2.26853000 -7.82710000 0.85565300
4.72233000 -3.21529000 1.06750000
2.15047000 6.11587000 -1.23451000
2.17374000 6.32866000 -1.18695000
0.81395300 -8.04435000 1.80799000
0.88828000 -7.90583000 1.75765000
0.62827600 -7.91689000 1.80798000
-1.13875000 -6.93888000 -1.89612000
-1.23948000 -6.81313000 -1.94752000
-0.99417000 -6.82631000 -2.00130000
-0.86702600 -6.78236000 -2.06062000
-3.22944000 5.23645000 -0.04885910
2.75657000 3.87349000 -0.39877900
-0.71871500 -3.97935000 -3.06568000
-0.82096500 -4.04370000 -3.05681000
2.57061000 -2.67191000 2.67317000
2.63899000 -2.69571000 2.64995000
-1.75878000 3.63319000 1.70484000
-1.73576000 3.45131000 1.73728000
-2.36361000 -1.60633000 -2.03159000
-0.66910000 -6.30316000 -2.41057000
-0.84997000 -6.14456000 -2.48307000
-1.01964000 -6.30175000 -2.35043000
-0.91683800 -6.34441000 -2.34316000
-1.09946000 -6.46001000 -2.22894000
-1.02723000 5.34898000 -1.61385000
-1.09015000 5.13508000 -1.59948000
-0.83966100 5.50569000 -1.65850000
0.36464100 -4.50248000 -3.13645000
0.34237400 -4.55131000 -3.15746000
0.28061400 -4.57697000 -3.13490000
0.48253100 -4.58340000 -3.14055000
-0.61038700 -6.59301000 -2.23655000
-0.83610700 -6.51521000 -2.25731000
-0.82240800 -6.45435000 -2.28977000
-0.70438900 -6.71480000 -2.13184000
-4.03363000 -4.46222000 -1.68623000
-4.08767000 -4.45206000 -1.63461000
-3.95381000 -4.70801000 -1.69630000
-4.02754000 -4.54302000 -1.68934000
3.24729000 -8.88080000 0.59087600
3.28080000 -8.92153000 0.52466000
0.92111300 -7.96095000 1.76016000
3.08220000 3.32447000 -0.24622700
-0.79578900 7.11952000 -1.66560000
-0.81010700 7.20322000 -1.68055000
-0.82821900 7.01973000 -1.68215000
-0.73577100 7.06753000 -1.68907000
-0.46495100 -6.68957000 -2.20142000
-0.57015500 -6.81556000 -2.09567000
-0.59273000 -6.76100000 -2.11396000
-0.56446400 -6.70022000 -2.16825000
-0.70796800 -6.63968000 -2.19429000
-2.98639000 0.77984900 1.61111000
-3.08879000 0.82900900 1.44959000
-3.14437000 0.83881100 1.35933000
-3.19940000 0.67457700 1.39647000
0.93517300 -7.88466000 1.74571000
3.07934000 3.41895000 -0.23854400
-3.22459000 0.64001800 1.35495000
-1.61368000 -0.24336900 -2.33079000
-1.55729000 -0.26651900 -2.33701000
-3.17973000 -8.08545000 0.72636300
-3.19766000 0.90160200 1.23643000
-3.25415000 0.77505900 1.21129000
-3.25731000 0.75989200 1.26114000
-0.70483500 4.99861000 -1.67227000
-0.84973000 5.00217000 -1.64674000
-0.83250200 5.21514000 -1.64520000
0.28750700 0.79728300 -2.28594000
0.38282100 0.86233900 -2.26346000
0.41026400 0.80923100 -2.29610000
0.50021400 0.80819300 -2.29464000
-3.46643000 -9.02207000 0.42262500
-3.52279000 -9.13444000 0.44901100
-3.46157000 -8.96600000 0.41737100
-3.49277000 -9.02588000 0.47276300
0.31464000 8.24518000 -1.62598000
0.23614100 8.36490000 -1.60992000
0.39997200 8.52325000 -1.62913000
0.30831400 8.49866000 -1.61451000
0.40756000 8.43726000 -1.62241000
2.29748000 8.36713000 1.26187000
2.32290000 8.45715000 1.25405000
2.24538000 8.48348000 1.29549000
-0.91837500 -6.30525000 -2.36198000
-1.04057000 -6.20555000 -2.41685000
-0.93418600 -6.16288000 -2.45620000
4.64925000 -5.03338000 -0.70047400
-3.18474000 0.48002500 -0.32713800
-3.38131000 -0.00780270 -0.32425400
-3.38304000 0.61061000 1.09013000
3.77998000 3.32850000 0.19694700
1.60438000 -8.49468000 -0.91940500
1.80714000 -8.49908000 -0.88997100
-1.64997000 -8.50600000 -1.71230000
-1.56502000 -8.50754000 -1.72765000
-1.60275000 -8.53842000 -1.76187000
3.85545000 3.33773000 0.01300450
1.71454000 -8.48141000 -1.09130000
1.84597000 -8.49368000 -0.88773000
1.42787000 5.94798000 -1.63933000
0.05588930 0.54977700 -2.31985000
-3.53589000 -0.04327110 1.42295000
-3.37974000 -0.09232760 1.68185000
-3.36673000 0.59618900 1.13094000
-3.89090000 -4.62386000 -1.81796000
-3.91561000 -4.63823000 -1.76084000
-3.83913000 -4.81659000 -1.75574000
-3.92490000 -4.76243000 -1.74351000
-1.89331000 -8.68771000 -1.70219000
-1.93671000 -8.51581000 -1.62281000
-1.89036000 -8.62296000 -1.67385000
4.71493000 -4.93318000 -0.57365700
-3.49826000 0.64325500 0.77824400
-3.47206000 0.61078200 0.88408200
-3.40301000 0.61377800 1.04949000
-3.16883000 5.46444000 -0.05141710
-3.11820000 5.42536000 -0.04461870
-3.04067000 5.45126000 0.04690200
-4.49513000 -4.23176000 1.53555000
-4.46276000 -4.28369000 1.57953000
-4.55752000 -4.20058000 1.45515000
-4.65788000 -4.22679000 1.27747000
-4.57029000 -4.22768000 1.45637000
-3.90993000 -4.46103000 -1.83862000
-3.99964000 -4.45112000 -1.74801000
1.84309000 -1.51721000 -2.87057000
1.82055000 -1.33581000 -2.81126000
1.37251000 -1.35977000 -2.88512000
1.55698000 -1.14339000 -2.79743000
1.63803000 -1.45354000 -2.88478000
-4.52220000 -4.30986000 1.49204000
-4.47000000 -4.29802000 1.52801000
-4.60802000 -4.28643000 1.30245000
-4.58642000 -4.24779000 1.37719000
-3.48739000 0.74329900 0.69164200
-1.88414000 -8.43989000 -1.60634000
-1.73076000 -8.38574000 -1.65859000
-1.83022000 -8.43793000 -1.63126000
-0.35515600 -7.83298000 -2.02956000
-0.44311400 -7.84186000 -2.04097000
-0.53327000 -7.88422000 -2.02669000
-1.51923000 6.13269000 1.46203000
-2.12141000 9.87786000 -0.62329700
-3.66120000 0.42264200 -0.37389400
-3.68550000 0.37325000 -0.36659800
-4.49808000 -4.38848000 1.47681000
-1.50052000 6.18470000 1.44421000
3.48984000 -0.68632000 -1.89520000
3.12182000 -8.75506000 0.12219900
3.15443000 -8.85010000 0.06149450
3.14136000 -8.86511000 0.17401100
3.19915000 -8.95507000 0.07746040
3.17953000 -8.92347000 0.03679030
-2.67476000 8.78138000 -0.24921400
-2.70005000 8.87190000 -0.08097120
-2.69537000 8.85123000 -0.18078400
-1.49048000 6.40071000 1.42580000
-1.49650000 6.36627000 1.45921000
1.10818000 0.70788200 -2.31349000
1.10843000 0.82949800 -2.28605000
1.20190000 0.84333500 -2.28539000
0.69351300 8.36314000 1.85700000
2.67136000 -6.05900000 2.06141000
2.78134000 -6.13848000 1.94370000
2.85576000 -6.01514000 2.00813000
3.01556000 -5.99414000 1.91939000
2.97992000 -5.87522000 2.03621000
-2.25585000 9.93170000 1.20145000
-1.20602000 -0.90598800 2.71651000
-1.12876000 -0.90252000 2.70131000
-1.16176000 -0.82203800 2.69100000
-0.99280500 -0.94464100 2.72277000
0.72129900 8.45710000 1.84473000
2.56591000 3.08656000 -1.04808000
2.55451000 3.00418000 -1.12454000
-1.51417000 6.41606000 1.42604000
-4.45139000 -4.39522000 1.51650000
-4.46655000 -4.35139000 1.54917000
3.11356000 -7.93784000 0.44712300
3.10341000 -8.00125000 0.56836900
3.13263000 -7.99818000 0.52322700
3.09285000 -7.96767000 0.59885900
3.07398000 -7.91750000 0.58036900
-0.28198700 -1.17311000 -2.76809000
-0.16582200 -1.34574000 -2.79961000
-0.30414200 -1.28629000 -2.78188000
-0.19961700 -1.03620000 -2.73413000
-0.22334300 -1.16097000 -2.75851000
2.79128000 -6.24028000 1.85953000
3.03836000 -6.11515000 1.81827000
2.97456000 -6.07360000 1.87702000
0.41392900 -7.11438000 -1.73358000
1.77540000 -9.47185000 -2.30538000
1.83650000 -9.46790000 -2.31077000
1.84979000 -9.43113000 -2.28094000
2.79790000 -7.04961000 -1.27373000
2.89421000 -7.10097000 -1.15302000
2.98381000 -7.23671000 -1.02986000
1.63088000 6.97187000 -1.55893000
0.98452200 0.59465300 -2.33070000
0.94235800 0.45148300 -2.38602000
1.03207000 0.66348700 -2.31246000
-3.27487000 3.41027000 0.67887700
-3.24177000 3.36815000 0.65258500
-1.52629000 6.37249000 1.46012000
0.96188600 7.04816000 -1.57553000
0.79776300 0.19156500 -2.44689000
0.90063200 0.36564500 -2.41178000
0.88145600 0.28199600 -2.41839000
0.97041000 0.32518100 -2.40635000
-2.59494000 5.82358000 0.81874200
1.34779000 -9.07124000 1.94947000
1.31620000 -9.11041000 1.94826000
-0.58921900 -6.38081000 2.47870000
-4.08152000 -2.76643000 2.16186000
4.44597000 -2.70650000 1.50966000
4.49909000 -2.72359000 1.42538000
4.45534000 -2.75404000 1.52877000
4.48542000 -2.80812000 1.45125000
-1.99881000 9.92678000 -1.28684000
-3.94380000 -3.00313000 2.31139000
-4.04756000 -2.98478000 2.21660000
4.66994000 -2.73611000 0.99019600
4.64749000 -2.75130000 1.11428000
4.63884000 -2.83473000 1.14535000
-3.06560000 -3.15256000 2.84222000
-3.03392000 -3.23641000 2.86713000
1.38356000 0.07578660 2.34609000
1.30363000 0.10685100 2.36637000
1.31949000 0.14536700 2.34898000
-1.07721000 -8.43140000 -2.03904000
2.81967000 -7.23015000 -1.27009000
-2.79356000 -4.42439000 -2.47486000
-2.76124000 -4.45955000 -2.47277000
-2.95129000 -4.45670000 -2.40359000
3.05191000 -7.26903000 0.45506300
3.11462000 -7.32836000 0.33587600
-2.64921000 -4.51922000 -2.51123000
4.21988000 -5.00327000 1.47783000
-3.33777000 -4.12492000 2.65582000
-3.25973000 -4.12531000 2.70757000
-3.37160000 -4.15810000 2.68560000
-3.40394000 -4.12677000 2.62768000
2.38221000 6.85585000 0.59376000
2.42639000 6.70387000 0.47946700
3.13275000 -7.90556000 0.47622200
3.07010000 -7.93671000 0.54864400
2.18083000 8.87510000 -1.04219000
2.09252000 8.57482000 -1.11299000
2.28072000 -7.84957000 -1.88147000
2.20223000 -7.83671000 -1.90892000
2.01569000 -7.83134000 -1.99702000
2.90585000 4.59549000 -0.41518200
2.94474000 4.61656000 -0.46559500
2.89410000 4.48537000 -0.40205800
-4.57720000 -4.95889000 -0.44352600
0.37949100 -4.50470000 3.08306000
-4.62105000 -4.93824000 -0.28429600
-4.58835000 -4.89704000 -0.31100100
-4.57220000 -4.94315000 -0.33407400
-1.48744000 9.51620000 -1.28303000
-1.45180000 9.48999000 -1.30530000
3.21140000 -8.13134000 0.34057200
3.15820000 -7.99832000 0.44152600
-2.48074000 2.68184000 0.60978600
-4.59317000 -5.02036000 -0.39222900
-4.44374000 -5.11451000 -0.72111800
0.05497080 -7.07071000 -2.04496000
0.20578000 -7.08999000 -2.04771000
0.20488700 -7.17347000 -2.05753000
2.48437000 7.93629000 -0.44532000
-0.42611000 4.08295000 -1.44180000
-0.76127400 -2.07536000 -2.97696000
-0.73126500 -1.91520000 -2.95611000
-0.35670100 -1.88827000 -2.99111000
-0.33814300 -1.95915000 -3.00062000
3.13935000 -8.06062000 0.53516700
3.17535000 -8.09831000 0.37156800
3.21324000 -8.05072000 0.28057100
3.17939000 -8.05175000 0.41796400
-3.11946000 1.67319000 0.75554000
-3.10449000 1.65227000 0.78745400
-3.23572000 1.44155000 0.63455900
-3.26486000 1.33737000 0.64272200
-3.20325000 1.44813000 0.66995000
-1.78469000 -3.00757000 2.64466000
-2.01110000 -2.97448000 2.59884000
-3.18141000 1.29293000 0.90620300
-3.24163000 1.31391000 0.76757400
-3.15873000 1.47972000 0.78723100
4.55235000 -1.31297000 -0.02946830
4.52971000 -1.26446000 -0.01089290
4.43013000 -1.14457000 0.34992800
4.46374000 -1.16084000 0.26679400
4.43494000 -1.10554000 0.27887100
-0.27035600 8.48571000 -1.60662000
-0.21392600 8.42313000 -1.60331000
-0.26026200 8.55633000 -1.59290000
-3.32584000 -8.74981000 0.77864700
-3.36542000 -8.81088000 0.71123800
0.94273600 7.22558000 1.79024000
1.08203000 7.28188000 1.76606000
1.01286000 7.47739000 1.77314000
1.07957000 7.78052000 1.77362000
0.97382600 7.67323000 1.78369000
-2.76541000 -4.66778000 -2.46127000
-3.09163000 1.30630000 1.12797000
-3.12547000 1.27685000 1.04306000
-3.14430000 1.31859000 1.00155000
-0.64999300 -2.03546000 -2.98944000
-0.69167600 -2.09946000 -2.98739000
-0.18133300 8.49460000 -1.60238000
2.14564000 -8.00476000 -1.95592000
2.70962000 3.31245000 -0.67719500
2.76765000 3.11142000 -0.64538300
2.68873000 3.15141000 -0.78894800
-1.75229000 -9.07074000 2.14832000
-1.67310000 -9.08472000 2.16840000
-1.73492000 -9.01097000 2.14682000
-1.74082000 -9.15300000 2.16845000
3.29203000 -8.14686000 -0.29946400
3.28403000 -8.23697000 -0.56809500
-2.77537000 -7.86173000 1.31325000
2.84913000 -8.14390000 0.95649500
-1.16033000 -9.92235000 -2.32205000
-1.05117000 -9.95130000 -2.19354000
-3.55699000 3.36987000 0.83900000
-3.48358000 3.45076000 0.86335200
-3.19197000 1.20691000 1.00008000
-0.70085200 -2.14058000 -2.96737000
3.55302000 6.07231000 -0.08425880
3.55302000 6.07231000 -0.08425880
-1.25566000 -9.94303000 -2.16882000
-0.34075200 -2.19579000 -3.01781000
3.27443000 -8.19988000 -0.20040700
3.28324000 -8.21284000 -0.30739500
3.27218000 -8.13971000 -0.47179300
3.29449000 -8.16504000 -0.38514800
3.27336000 -8.19613000 -0.48697700
1.01882000 -1.55354000 2.79689000
0.90901800 -1.48496000 2.76670000
-0.24190900 -4.56842000 -3.10279000
-0.21264700 -4.55563000 -3.08030000
-3.53458000 3.49426000 0.84798700
2.60760000 8.94750000 0.51569000
1.24604000 9.79056000 1.25182000
1.27817000 9.74170000 1.30378000
1.39268000 9.75410000 1.23183000
3.47177000 5.95999000 -0.03764010
2.20784000 5.48972000 1.20397000
1.50686000 6.53315000 1.45075000
1.52265000 6.44616000 1.43223000
3.27762000 -8.23757000 -0.41261600
3.30567000 -8.37038000 -0.56526200
2.93641000 -4.09267000 2.61189000
2.91213000 -4.15663000 2.63378000
0.14173600 -4.58987000 3.13401000
0.16737600 -4.56482000 3.09918000
3.12621000 -4.12169000 2.54354000
3.25834000 -4.12940000 2.49199000
3.28306000 -4.22200000 2.46327000
0.11710900 -4.63322000 3.12687000
-0.86851100 -4.46223000 3.15794000
-1.11976000 -4.34792000 3.14448000
3.31112000 -8.39240000 -0.50211100
3.29107000 -8.33515000 -0.47720900
3.29677000 -8.29818000 -0.49462600
3.22905000 -4.17883000 2.47388000
2.94504000 -4.16302000 2.59680000
3.11238000 -4.15979000 2.52509000
-0.03927100 -4.67304000 3.13662000
-3.41408000 -8.63722000 -0.10025900
-3.43255000 -8.69438000 -0.09129750
-3.42616000 -8.70401000 -0.01084140
-3.39864000 -8.63079000 -0.18742800
-3.38763000 -8.66962000 -0.18856100
2.22042000 8.91274000 -1.02939000
2.25957000 8.99613000 -0.99180900
0.96955200 9.37396000 -1.77169000
0.86098300 9.32987000 -1.79477000
-0.46635900 9.25141000 1.68187000
-0.29403000 -4.58416000 -3.09752000
-0.33242600 1.91053000 -1.99958000
-0.58976900 1.95024000 -1.95432000
1.51383000 -6.40784000 -2.38081000
1.46224000 -6.44215000 -2.36887000
1.26284000 -6.35305000 -2.45002000
1.09583000 -6.10509000 -2.61711000
1.78310000 0.04292770 2.27554000
1.74453000 0.15036300 2.24761000
1.71428000 0.08149480 2.28498000
1.66513000 0.12290300 2.25488000
3.28188000 -9.70657000 -1.12723000
0.86409900 9.42190000 -1.76341000
-0.10117800 -6.95237000 2.06839000
-2.12202000 -6.52809000 -1.31343000
-3.27550000 -8.44272000 -0.58642100
-3.27906000 -8.41987000 -0.50979300
-3.25601000 -8.28257000 -0.51326100
-3.25314000 -8.32324000 -0.57241200
-3.26141000 -8.35686000 -0.53332200
-2.98808000 -8.49329000 0.70470600
-0.46156100 -8.26543000 2.01769000
0.59729700 -0.25021800 -2.53894000
0.71619100 -0.05876490 -2.50176000
0.87461400 0.14389900 -2.46151000
1.52811000 -5.91620000 -2.66997000
1.37080000 -5.90928000 -2.69065000
1.56871000 -6.03963000 -2.59926000
2.71521000 -3.08852000 -2.86544000
2.72608000 -3.01299000 -2.88565000
2.79983000 -2.99194000 -2.84858000
2.88513000 -2.84826000 -2.86307000
2.81796000 -2.83371000 -2.88188000
2.76915000 -2.74479000 -2.89787000
4.42541000 -5.27276000 -1.11748000
4.36739000 -5.34132000 -1.19261000
4.37708000 -5.24368000 -1.26341000
2.62638000 -2.81448000 -2.93690000
2.70412000 -2.78118000 -2.90402000
2.74078000 -2.89099000 -2.89804000
2.49091000 -2.84943000 -2.97126000
2.64211000 -2.85393000 -2.92272000
2.45158000 -2.91400000 -2.95865000
-3.18438000 -8.07380000 -0.54607700
0.02046380 8.13721000 1.86293000
0.02573430 7.77168000 1.85432000
-2.86861000 -4.79682000 -2.37229000
-2.67504000 -4.79282000 -2.46087000
-2.77931000 -4.81587000 -2.44379000
0.92523300 0.19778800 -2.44089000
1.33547000 -6.15472000 -2.55388000
1.37806000 -6.06348000 -2.60836000
2.87368000 2.17567000 0.77479300
2.82955000 2.35746000 0.73669800
2.76854000 2.50224000 0.78756600
4.11855000 -4.86572000 -1.85708000
-2.74150000 -9.12972000 -1.34125000
-2.79589000 -9.17424000 -1.33303000
-2.78742000 -9.11743000 -1.28656000
2.52656000 -2.79045000 -2.94763000
2.61720000 -2.73521000 -2.94720000
-2.94920000 -4.81450000 -2.37471000
-3.02772000 -4.84001000 -2.33117000
2.37108000 -2.95696000 -2.98593000
2.40385000 -2.84504000 -2.97683000
4.19147000 -4.81719000 -1.82714000
4.12848000 -5.60591000 -1.26545000
4.20942000 -5.51484000 -1.31029000
0.26362600 7.58103000 1.83889000
0.34158500 7.46378000 1.83141000
0.44854800 7.50612000 1.82904000
1.52826000 -2.25638000 2.87008000
-1.26502000 3.30260000 -1.65651000
-1.18938000 3.31683000 -1.66945000
2.35052000 0.48233400 1.93940000
2.38840000 0.24926600 1.99505000
2.26463000 0.81272500 1.88779000
2.94921000 2.17339000 0.56993200
2.99385000 -2.70329000 2.50469000
4.24406000 -3.51907000 -2.01921000
4.17625000 -3.63344000 -2.07496000
4.18016000 -3.52922000 -2.07243000
-0.35053800 -9.19321000 2.20631000
-0.30436500 -9.02899000 2.17445000
-0.34626300 -9.09465000 2.20247000
-0.38914800 -8.91483000 2.18146000
-0.34742200 -9.00217000 2.18659000
-2.60966000 -8.19723000 1.61257000
-3.23733000 -8.34406000 -0.59564900
-3.20529000 -8.29091000 -0.61829300
-3.10321000 -8.35301000 -0.90642600
-3.13523000 -8.33858000 -0.84183300
-3.09893000 -8.30251000 -0.85396200
4.14291000 -3.50763000 -2.11956000
4.11076000 -3.44719000 -2.14282000
4.17288000 -3.44017000 -2.07535000
4.21928000 -3.48694000 -2.01291000
4.19447000 -3.45580000 -2.06891000
1.51668000 8.61577000 1.48461000
2.53444000 9.17635000 0.72196000
-2.88923000 -7.91939000 1.22386000
-2.80354000 -7.90819000 1.32910000
-2.80821000 -7.97937000 1.34613000
2.77777000 -8.26164000 1.08708000
2.86513000 -8.16556000 0.97274500
2.77133000 -8.35625000 1.11749000
2.73093000 -8.38334000 1.13375000
-3.55083000 -9.13816000 0.21634700
-3.51944000 -9.03883000 0.13409600
-3.51554000 -8.98938000 -0.01395730
-3.52598000 -9.07828000 -0.01437790
1.72395000 8.61067000 1.42992000
1.68738000 8.49691000 1.43372000
-0.78214100 -9.04089000 2.18560000
-0.80088800 -9.06603000 2.20460000
-0.70156500 -9.02779000 2.20102000
-0.87188500 -8.96865000 2.18726000
-0.83815900 -8.96069000 2.16572000
-3.44859000 -8.84251000 0.14108400
-3.47572000 -8.89193000 0.17425200
-3.47333000 -8.85548000 0.23976300
-3.43756000 -8.75598000 -0.01260110
-3.43408000 -8.80076000 0.00115023
3.26936000 1.47769000 0.39293300
3.22509000 1.58469000 0.35617700
-0.71315300 0.08833610 -2.37320000
-0.64580400 0.09532340 -2.37010000
-0.70201100 -0.00881559 -2.39628000
-1.79103000 2.18890000 -1.66285000
-1.96461000 2.08088000 -1.61353000
-2.90093000 -8.48718000 -0.90327600
2.92696000 3.14825000 -0.28579800
2.90600000 3.19804000 -0.32300900
2.92045000 3.18052000 -0.31179000
2.88065000 3.20112000 -0.29779900
0.29197900 1.00879000 -2.23281000
0.18041500 0.90585900 -2.23637000
-0.02852400 0.98838400 -2.20827000
2.97312000 2.37746000 -0.29654500
3.00522000 2.25728000 -0.36854600
3.03968000 2.22045000 -0.17890400
3.04537000 2.18003000 -0.32087200
-1.26918000 3.11619000 1.36679000
-3.45307000 -8.77256000 0.14980500
-3.43714000 -8.82216000 0.06545170
-3.44140000 -8.82649000 0.23676800
-3.40672000 -8.75408000 0.17701600
-3.43342000 -8.75273000 0.22887900
-0.29826200 -2.07335000 3.04247000
2.19958000 -3.63989000 -2.97736000
2.11507000 -3.67460000 -2.98734000
2.07465000 -3.59918000 -3.00018000
-3.25850000 1.30030000 0.67831100
-3.23323000 1.36967000 0.71169300
-3.28422000 1.21847000 0.75888700
1.77047000 -3.68101000 2.96623000
1.86298000 -3.84293000 2.96324000
1.78737000 -3.75599000 2.97558000
2.89889000 -7.12844000 0.76690500
2.97436000 -7.12647000 0.64414700
1.38218000 3.49842000 1.20316000
2.69535000 -8.30839000 1.17202000
2.68208000 -8.26818000 1.13855000
2.59872000 -8.19513000 1.21327000
2.72176000 -8.43124000 1.18155000
2.80654000 -3.90882000 -2.71553000
2.60332000 -3.78187000 -2.80793000
2.72066000 -3.82972000 -2.75429000
2.29980000 -3.60915000 2.84742000
2.34194000 -3.62903000 2.82375000
2.33887000 -3.47369000 2.81598000
2.18494000 -3.66180000 2.86981000
2.09635000 -3.69972000 2.91038000
2.40819000 -3.65997000 -2.88886000
2.44041000 -3.70244000 -2.88877000
-2.83383000 -8.01244000 -1.12462000
-2.85725000 -8.05675000 -1.09679000
-2.93664000 -8.12446000 -1.06041000
-2.48174000 -8.38494000 1.73820000
-2.49102000 -8.43223000 1.72353000
-2.51007000 -8.48687000 1.76340000
-2.47243000 -8.45543000 1.76359000
2.18974000 -3.73573000 2.87350000
2.28252000 -3.69437000 2.85626000
1.95189000 -3.76299000 2.94953000
2.24937000 -3.67854000 -2.93950000
2.32664000 -3.67566000 -2.91407000
2.36551000 -3.61402000 -2.93805000
4.15327000 -4.37155000 -2.00123000
4.07648000 -4.40942000 -2.07309000
-3.19185000 -7.62418000 0.37375700
-3.18746000 -7.51133000 0.23807200
2.36234000 -3.82166000 2.82199000
2.32043000 -3.77909000 2.85057000
2.33786000 -3.72819000 2.82452000
4.11023000 -4.46134000 -2.02547000
-2.62240000 5.60372000 0.58489300
-2.64227000 5.65774000 0.58049800
2.46886000 2.26846000 1.30206000
0.80188400 -7.19545000 -2.07239000
0.76897300 -7.32622000 -2.08541000
0.74349600 -7.26348000 -2.06609000
2.28549000 -3.83057000 -2.90922000
2.32999000 -3.82204000 -2.91010000
2.36488000 -3.70500000 -2.91265000
2.49414000 2.35594000 1.26547000
1.70053000 3.09274000 1.68804000
1.74393000 2.92961000 1.68563000
1.69117000 2.98323000 1.69820000
1.69464000 2.80312000 1.71336000
2.31734000 -6.66947000 1.03384000
2.52746000 -3.90122000 2.77024000
2.61729000 -3.86291000 2.74557000
2.52692000 -3.83362000 2.77822000
2.44466000 -3.82152000 2.79892000
2.44606000 -3.98028000 2.79215000
2.50451000 -3.97557000 2.79240000
0.63137500 3.04119000 -1.91560000
0.72226900 3.06061000 -1.92207000
0.44084800 3.14187000 -1.89161000
2.24676000 -3.72612000 -2.95533000
-1.97494000 -4.60775000 3.02190000
-2.09505000 -4.57710000 3.01010000
-1.97063000 -4.75869000 3.00216000
-1.07603000 7.71854000 1.60245000
-1.02959000 7.70578000 1.63851000
-1.14674000 7.76146000 1.60463000
1.59168000 2.92823000 1.72946000
0.33063200 7.74752000 1.83629000
0.17752200 7.79311000 1.85677000
0.29464000 7.72169000 1.84896000
0.24632100 7.68652000 1.83879000
-1.88328000 3.53179000 -1.43109000
-1.77195000 3.49924000 -1.48049000
0.33079500 6.17872000 -1.76657000
0.18665500 6.06264000 -1.76635000
1.25179000 0.31143000 2.31630000
1.34347000 0.28443400 2.31289000
1.33159000 0.36287300 2.27629000
1.16752000 0.28985900 2.32699000
1.16857000 0.38328500 2.28878000
1.09065000 0.32423700 2.33600000
3.53381000 -4.40462000 -2.46921000
3.59775000 -4.45262000 -2.41675000
3.47731000 -4.43706000 -2.46711000
3.55032000 -4.36984000 -2.45132000
3.47286000 -4.37730000 -2.46117000
2.40288000 -3.99751000 2.81848000
-3.94036000 -4.90634000 -1.59480000
-3.89889000 -4.87369000 -1.72289000
-1.42964000 8.28730000 -1.55763000
-1.34263000 8.44392000 -1.59174000
-1.45956000 8.23541000 -1.52910000
-1.56761000 8.22377000 -1.49698000
-1.48377000 8.33979000 -1.54642000
2.38363000 -3.65140000 2.83594000
2.41702000 -3.47392000 2.79689000
0.19831200 5.89274000 -1.75189000
0.09152070 5.87440000 -1.77016000
2.38173000 -3.45690000 2.81979000
0.63919400 -3.18141000 3.08085000
0.74581400 -3.14310000 3.07790000
0.82590100 -3.13167000 3.04559000
0.73499800 -3.08272000 3.05805000
3.43384000 -4.45903000 -2.48447000
4.86813000 -2.31168000 -0.15451700
4.83705000 -2.31235000 0.14446600
4.85438000 -2.26313000 0.02830090
0.52077200 -2.94012000 3.06440000
0.57994000 -3.08013000 3.06810000
-3.59691000 3.31812000 -0.13505800
-3.64400000 3.52087000 -0.11560700
-3.72480000 3.40622000 -0.03865300
-3.41682000 -9.20108000 0.87802200
-0.13102300 8.31290000 1.89035000
-0.25172100 8.20596000 1.87966000
-0.39774900 8.24613000 1.90076000
-0.34946500 8.17859000 1.90993000
0.22285300 5.81330000 -1.76986000
-3.19983000 -8.70553000 -0.89918100
-3.26151000 -8.71462000 -0.83652800
-3.24077000 -8.69556000 -0.80998700
-3.31291000 -8.66807000 -0.65655900
1.79689000 9.77556000 -1.02765000
4.64068000 -3.80171000 1.29377000
4.63930000 -3.79107000 1.23910000
-0.13428500 7.81934000 1.87751000
-0.29047700 7.78436000 1.87646000
2.90056000 -4.36289000 2.61382000
4.62736000 -3.93704000 1.25571000
4.59347000 -3.96725000 1.28509000
-2.58854000 6.97935000 0.76860400
-2.58037000 6.89094000 0.81012400
-2.60363000 6.62821000 0.74074100
-2.62047000 6.68104000 0.67419900
2.82165000 8.57789000 0.39575700
2.78722000 8.44188000 0.51521800
-1.83981000 5.12809000 1.54323000
-1.70173000 5.15020000 1.60704000
4.44876000 -1.16640000 -0.49946700
4.48525000 -1.26987000 -0.51117500
4.47447000 -1.25672000 -0.60573500
4.35729000 -1.09282000 -0.77350600
4.43483000 -1.21353000 -0.72276700
4.31512000 -1.08545000 -0.92503600
-2.69766000 7.17475000 0.58010300
-2.59363000 6.68847000 0.74573700
-2.61959000 6.78435000 0.67622500
2.31150000 6.83272000 -0.63709100
2.95163000 -4.12683000 2.62456000
-1.07542000 -9.31737000 -2.22642000
-1.09791000 -9.39881000 -2.21027000
2.11720000 9.59062000 -1.03463000
2.10094000 9.53707000 -1.09277000
-1.59440000 -5.44742000 -2.69478000
-1.57337000 -5.24436000 -2.75838000
-1.72220000 -5.58908000 -2.60737000
2.36689000 -8.02046000 1.30391000
2.35518000 -7.97744000 1.33426000
-0.99123400 -9.31255000 -2.22334000
-0.05365750 8.16449000 1.88303000
-2.54399000 6.22998000 -0.11607900
-2.56846000 6.64615000 -0.11825900
0.43592900 -8.34082000 -2.23148000
0.43004100 -8.20984000 -2.19134000
0.57913300 -8.37196000 -2.23157000
0.47325200 -8.24751000 -2.19368000
3.01326000 5.22666000 -0.47635100
2.96759000 5.31569000 -0.47141500
2.21275000 7.13745000 -0.92034900
2.16152000 7.26440000 -0.98167200
-1.34933000 -1.64500000 -2.78914000
2.47465000 9.71909000 1.06410000
2.49650000 9.55785000 1.03999000
2.52842000 9.64024000 0.98520000
-3.28390000 -8.79811000 1.01845000
-3.28024000 -8.85691000 0.98577500
-3.26247000 -8.71661000 1.00513000
-3.23704000 -8.74396000 1.07526000
0.54818900 -8.46170000 -2.26013000
0.48492600 -8.40532000 -2.22439000
0.52842900 -8.40472000 -2.24240000
2.15581000 6.92103000 -0.94741400
2.10467000 6.97149000 -0.96058100
2.13158000 6.84957000 -0.97925100
-3.19135000 -8.48443000 0.99926900
-3.17742000 -8.54008000 1.01337000
-3.20188000 -8.49095000 0.94463300
2.29285000 -7.40978000 1.30520000
2.58366000 -7.41502000 1.11080000
-1.64085000 -9.33672000 -1.92769000
-1.55407000 -9.52587000 -1.99808000
2.42628000 6.38145000 -0.37058100
2.43652000 6.20504000 -0.26860500
-2.15773000 -4.00765000 3.04691000
2.23619000 -7.96398000 1.38451000
2.12711000 7.02546000 -0.97941400
2.10541000 7.02387000 -1.02395000
-3.14698000 -8.46893000 1.05951000
-3.05814000 -8.37036000 1.18182000
-3.16807000 -8.46874000 0.95952600
-3.19577000 -8.56640000 0.95374900
-3.24671000 -8.61541000 0.94219500
-3.23092000 -8.52660000 0.87015100
-3.29883000 -8.76723000 0.90393700
1.46566000 5.99892000 -1.43018000
0.85953300 7.26186000 1.79223000
0.89613400 7.53156000 1.79957000
1.00227000 6.86602000 1.76834000
0.89467500 6.97569000 1.77977000
0.89753300 6.79650000 1.77604000
3.46187000 -9.11706000 -0.10207000
-3.02025000 5.27303000 0.34622000
-2.99523000 5.25625000 0.39281300
-1.98282000 -8.34307000 -1.49149000
-2.08546000 -8.38094000 -1.44734000
-4.05726000 -1.67264000 -1.42356000
-1.48637000 8.82394000 1.74402000
-1.55359000 8.81371000 1.70626000
-1.77936000 -8.33403000 -1.58750000
-1.84458000 -8.40036000 -1.60699000
0.68361600 6.87742000 1.62115000
2.55957000 4.98269000 -0.62964900
2.63726000 4.94480000 -0.49443700
2.64340000 4.92576000 -0.44870200
2.60023000 4.91624000 -0.55875500
2.43199000 5.97284000 -0.15111800
2.57698000 8.17005000 0.26384100
2.56940000 8.33858000 0.20596000
1.21414000 3.82851000 -1.71143000
1.23978000 3.57650000 -1.74011000
0.64466200 6.94636000 1.60667000
2.58408000 -9.33471000 1.52237000
2.64455000 -9.28303000 1.46362000
-3.29830000 4.99291000 -0.23882800
2.45084000 6.12070000 -0.15426000
2.39843000 6.20609000 -0.42569800
-1.45535000 8.96217000 1.76081000
-1.31642000 8.88225000 1.78823000
2.54801000 -9.28611000 1.50971000
2.53770000 -9.23674000 1.49364000
-1.79926000 -9.21665000 -1.87872000
2.74515000 7.35118000 0.21326500
-2.82937000 -6.58679000 1.66570000
-2.88543000 -6.40029000 1.81957000
-2.65093000 -6.62968000 1.75448000
-2.77960000 -6.39695000 1.89521000
-0.12123800 9.02044000 -1.61655000
-0.15745300 9.04340000 -1.62418000
-2.53162000 4.95725000 0.38680400
-2.02977000 -8.35861000 -1.10748000
3.44410000 -9.04359000 0.07182940
-1.63336000 9.69224000 1.29169000
-1.73184000 9.69132000 1.23774000
-1.45025000 8.78637000 1.75010000
-1.32419000 8.97646000 1.79751000
-1.46784000 9.11279000 1.75355000
0.57958800 6.92697000 1.60869000
-2.59868000 8.41532000 -0.21533400
-2.59620000 8.35900000 -0.31245100
-3.47314000 4.71617000 -0.20243200
-3.53050000 4.74503000 -0.17376200
-3.62349000 4.67574000 -0.12610500
-3.58577000 4.74669000 -0.14129000
-3.57554000 4.67197000 -0.17612300
-2.13629000 -6.59172000 2.06021000
-2.76766000 -7.98377000 1.36782000
-2.75898000 -8.07653000 1.44079000
-2.72484000 -8.02906000 1.43137000
-2.71122000 -8.14577000 1.47604000
-2.60454000 8.36530000 -0.17929000
-4.56255000 -2.53429000 -0.93544800
-4.54894000 -2.62407000 -0.98374100
-2.34564000 -6.46403000 2.08153000
-2.47648000 -6.55177000 1.94190000
1.69398000 -7.38397000 1.55168000
1.79932000 -7.56010000 1.55796000
1.71304000 -7.32325000 1.55207000
-3.66137000 3.26081000 0.72141900
-3.73174000 3.30873000 0.67219900
-1.74427000 -8.33100000 -1.42510000
-1.77454000 -8.35371000 -1.32813000
-1.97992000 -8.37281000 -1.09833000
1.99137000 8.41375000 1.17784000
1.98948000 8.46507000 1.22374000
2.03625000 8.38502000 1.16703000
-3.49678000 6.00649000 0.57333100
-3.44215000 5.99733000 0.57577700
4.72731000 -2.99539000 -1.25526000
4.65272000 -3.05927000 -1.42890000
2.53700000 9.79013000 0.94180000
2.56902000 9.73005000 0.93845200
2.46303000 -4.45017000 -2.78826000
2.43859000 -4.50077000 -2.77890000
2.39499000 -4.41791000 -2.80961000
2.40796000 -4.50766000 -2.81278000
-0.41510500 -9.64128000 2.35550000
-0.07054190 -9.62252000 2.33378000
-0.26818400 -3.57966000 -3.12696000
3.77304000 3.29454000 -0.19890400
1.73477000 -9.03024000 1.63930000
1.86195000 -9.04578000 1.59833000
1.50089000 -9.10454000 1.72741000
-2.62559000 8.24283000 0.01345090
-2.62729000 8.42137000 -0.10912600
-1.89016000 9.76419000 1.07746000
-0.40115600 -3.33767000 -3.13416000
3.22876000 3.55341000 0.46023000
3.13443000 -9.14308000 0.35583400
3.10385000 -9.27207000 0.57369100
3.13963000 -9.22677000 0.45566400
-2.74543000 4.76843000 0.52914100
-2.70855000 4.82397000 0.56248100
2.48461000 9.98843000 0.08323730
-1.92461000 4.73673000 1.52032000
-1.39766000 1.59795000 -1.91261000
-1.36765000 1.51112000 -1.91878000
-1.37304000 -4.76235000 -2.89658000
-1.47317000 -4.63735000 -2.87568000
-1.53045000 -4.70135000 -2.86762000
-1.57057000 -4.67304000 -2.84144000
1.89968000 -9.96921000 1.81342000
2.11083000 -9.95614000 1.84946000
-2.86428000 3.61376000 0.58286700
-2.84027000 3.52960000 0.57827500
3.41255000 -9.27380000 -1.03200000
-2.70935000 4.68789000 0.61791500
-2.66475000 4.84788000 0.57031800
-2.73810000 4.73447000 0.59853300
1.06152000 9.60915000 1.73416000
1.08259000 9.48919000 1.77695000
-2.45407000 6.31851000 0.67083400
-2.37014000 6.42736000 0.84090600
-2.48455000 6.54858000 0.58455800
-2.47483000 6.57921000 0.64198400
1.04556000 9.29430000 1.76271000
1.01766000 9.36887000 1.76731000
0.99391200 9.43869000 1.79629000
-2.90643000 -4.43224000 2.81563000
-2.92036000 -4.34797000 2.84441000
-2.64999000 4.96669000 0.56014600
2.18974000 8.26735000 -1.21534000
2.22355000 8.15389000 -1.18605000
2.18007000 8.03922000 -1.20097000
-3.43610000 -8.80830000 0.27296600
-3.44332000 -8.76527000 0.27518900
-2.83770000 -4.40446000 2.86105000
2.22806000 8.07360000 -1.15778000
2.23737000 7.96511000 -1.15785000
1.16798000 9.05730000 1.76496000
1.05461000 8.96469000 1.78060000
1.29640000 8.96940000 1.72276000
2.39350000 -8.60024000 1.16280000
2.34592000 -8.56413000 1.16923000
-2.06162000 5.08529000 1.41618000
-2.01273000 5.05894000 1.46782000
-1.55739000 -4.55767000 -2.85482000
-1.65806000 -4.65637000 -2.81714000
0.20877600 -4.32981000 -3.14442000
-0.63321100 5.53128000 -1.66930000
-0.62182100 5.46421000 -1.68728000
-0.72837200 5.48003000 -1.67976000
-1.79896000 -2.57356000 -2.78949000
-1.79684000 -2.46189000 -2.78536000
-1.69604000 -2.62835000 -2.85708000
-2.12477000 0.39626400 -1.45852000
-0.57635200 -7.83186000 -1.99505000
-0.55312400 -7.77007000 -1.99790000
-0.68537500 -7.76554000 -1.98431000
-3.42686000 -9.86763000 -0.49745800
-3.36235000 -9.87055000 -0.66515200
-3.38925000 -9.83722000 -0.58756300
3.49451000 -6.38036000 1.03628000
3.50414000 -6.45659000 0.85233100
3.44435000 -6.33049000 1.19170000
3.41458000 -6.40855000 1.11390000
0.62313400 -4.70874000 3.08661000
0.72079200 -4.72157000 3.05112000
0.78711100 -4.78368000 3.03920000
2.56670000 2.02728000 1.28907000
2.62947000 1.98095000 1.27206000
2.63095000 1.87514000 1.28507000
-2.18767000 -6.57724000 -1.78976000
-2.28309000 -6.28251000 -1.96621000
-2.12947000 -6.43025000 -1.93228000
-2.14713000 -6.47712000 -1.87972000
-1.15168000 6.14069000 1.82105000
-1.18370000 6.00147000 1.81635000
-1.08205000 5.99604000 1.82285000
-3.51204000 -1.97457000 -1.40651000
2.96765000 2.52061000 -0.25637300
-1.34975000 8.52946000 1.59760000
-1.45629000 8.51406000 1.57923000
-1.36197000 8.62141000 1.60400000
-0.43522600 9.58594000 -1.77568000
-0.68176200 9.74272000 -1.74219000
1.80499000 -8.64976000 1.69643000
1.74062000 -8.60175000 1.73550000
1.76730000 -8.69292000 1.72608000
1.85772000 -8.76361000 1.70609000
3.37271000 -6.52163000 0.99746600
3.38948000 -6.45322000 1.09467000
3.24117000 -6.62523000 1.02110000
3.46381000 -6.43001000 1.02117000
3.05511000 3.81159000 -0.01046370
3.06231000 3.77285000 -0.10302300
-0.45806700 5.60729000 -1.71835000
-0.53161300 5.67990000 -1.69165000
3.34433000 -6.57370000 0.92251200
3.27624000 -6.66435000 0.93092400
3.25703000 -6.71286000 0.83081100
-1.35756000 -7.76440000 -1.84821000
-1.42821000 -7.79503000 -1.83241000
-1.41194000 -7.75531000 -1.87106000
-1.33563000 -7.82044000 -1.83397000
-0.79021000 5.03124000 1.84884000
-0.74453500 4.95215000 1.85881000
-0.70965000 5.15515000 1.83233000
-0.67991600 4.99630000 1.86982000
-0.67541800 4.84485000 1.87079000
-0.63886800 4.94633000 1.86613000
-3.01652000 5.68379000 0.48495200
-3.00771000 5.75490000 0.51094400
-3.33938000 -8.97557000 -0.02600900
-0.99254800 5.34373000 1.81355000
-0.80829600 5.24429000 1.82661000
-0.87887200 5.42213000 1.82407000
-0.68671400 5.41953000 1.82593000
2.69307000 8.10139000 -0.48633400
2.66866000 7.95050000 -0.52921800
3.15489000 -6.71191000 0.99405000
3.19047000 -6.62106000 1.09961000
-3.40865000 3.98495000 -0.22261300
-3.49086000 4.00217000 -0.19873300
-3.42004000 4.09044000 -0.21187500
0.18043200 -2.79597000 -3.11072000
0.14456000 -2.89743000 -3.12643000
0.40248700 -2.86808000 -3.14348000
0.25607300 -2.90876000 -3.12510000
2.66916000 1.74508000 1.28589000
2.35508000 4.79584000 -0.89985900
2.31973000 4.81419000 -0.94659000
-3.14386000 4.11531000 -0.16146200
-0.77820100 5.13735000 1.83786000
3.77523000 -1.85309000 -2.21403000
3.69997000 -1.91117000 -2.26601000
3.59243000 -1.91951000 -2.36427000
-3.28969000 -8.89936000 -0.02142520
-3.28275000 -8.89072000 -0.10284300
-3.24997000 -8.79440000 -0.12643100
-3.27076000 -8.93114000 -0.21376300
-3.27771000 -8.87912000 -0.17087800
-0.34066600 6.40984000 1.66773000
-0.36690700 6.20197000 1.65768000
-0.18737600 6.15779000 1.67603000
-0.04630970 6.04669000 1.67792000
3.83472000 -2.12738000 -2.21973000
3.68631000 -2.01700000 -2.30686000
2.27983000 4.90382000 -1.03597000
1.55606000 -8.68120000 1.78173000
1.57509000 -8.58100000 1.75665000
2.96507000 2.41545000 -0.40241800
-3.33938000 -8.97557000 -0.02600900
-0.50145800 -2.20251000 -2.99677000
-0.42655600 -2.16851000 -2.98971000
2.82113000 5.06094000 0.30547300
2.48920000 6.85738000 0.24731700
2.51713000 7.02527000 0.16935000
2.48717000 6.95574000 0.27615900
2.48327000 7.04886000 0.37111300
2.62080000 1.58778000 0.63743500
-3.28969000 -8.89936000 -0.02142520
-3.05703000 3.62858000 -0.08388110
-0.60667000 -2.11188000 -2.99132000
-0.56566500 -2.15159000 -2.96316000
-0.60473900 -2.16550000 -2.98168000
0.42592100 -2.76255000 -3.13061000
0.36972200 -2.92871000 -3.13706000
0.53687500 8.84150000 1.61592000
0.50902100 8.74828000 1.60608000
0.53757100 8.69081000 1.61189000
3.08517000 -8.56875000 -0.28057100
3.07157000 -8.54959000 -0.23006400
-1.80283000 7.30364000 1.58856000
-1.89310000 7.33804000 1.54200000
-0.73401100 2.17688000 -1.90594000
-0.72541900 2.38253000 -1.87897000
-0.68209600 2.27771000 -1.90939000
-0.85917200 2.06207000 -1.90199000
-0.86364400 1.91809000 -1.92673000
2.36696000 8.48565000 -0.82075100
2.46465000 8.64743000 -0.68659400
2.45703000 8.60391000 -0.61794100
