0.21240900 1.57475000 -7.30654000
-0.96888200 -6.04973000 -8.69481000
-0.91198500 -6.04331000 -8.75428000
-3.37125000 -2.96957000 -8.91549000
-3.42615000 -2.97803000 -8.88688000
-3.47085000 -2.84360000 -8.82690000
-3.44626000 -2.86436000 -8.85986000
-3.01672000 4.24507000 -7.36973000
-3.03937000 4.23124000 -7.33525000
-3.01672000 4.24507000 -7.36973000
-4.31556000 -2.42872000 -6.14835000
-4.32235000 -2.43236000 -6.25867000
-4.30234000 -2.57095000 -6.28892000
-4.32538000 -2.38208000 -6.33627000
-4.31085000 -2.44181000 -6.39812000
0.66011000 -4.89027000 -9.91655000
0.78981400 -4.90933000 -9.91913000
0.38665600 -4.88271000 -9.94473000
1.51197000 -4.79936000 -9.74959000
1.46755000 -4.82840000 -9.79216000
-4.11238000 -1.57109000 -5.00111000
-4.09802000 -0.81379400 -5.10999000
-4.13875000 -0.87246900 -5.20650000
-4.11602000 -0.90273900 -5.13446000
-1.41734000 3.61418000 -6.51323000
-1.37838000 3.59792000 -6.50952000
-1.36795000 3.62206000 -6.46843000
2.69585000 -6.06685000 -7.78453000
2.69585000 -6.06685000 -7.78453000
2.67136000 -6.06932000 -7.75844000
2.63364000 -6.07292000 -7.88746000
-2.61034000 -3.85224000 -4.23006000
-2.63686000 -3.90659000 -4.26145000
-2.47103000 -3.98960000 -4.15655000
-2.54410000 -4.01540000 -4.21496000
-1.66147000 0.65862700 -4.85559000
-1.66062000 0.48052600 -4.78498000
-1.82763000 0.54213000 -4.80050000
-1.75393000 0.29355400 -4.70973000
-3.57909000 -4.55195000 -5.27850000
-3.56828000 -4.50885000 -5.15484000
-3.39101000 -4.82786000 -5.23297000
1.23385000 1.03811000 -5.11242000
1.04013000 1.08045000 -5.11280000
1.22557000 0.99754900 -5.09176000
1.38743000 0.87971600 -5.04411000
-1.33370000 0.73321100 -4.57721000
-1.07211000 0.79621200 -4.60900000
-1.19533000 0.83022700 -4.62515000
-1.07964000 0.73643400 -4.58754000
-3.51337000 1.72222000 -6.91846000
-3.56254000 1.74083000 -6.85670000
-3.51393000 1.87519000 -6.87981000
-3.45559000 1.83356000 -6.99060000
-3.45697000 1.98176000 -6.93312000
-3.44059000 1.94314000 -6.98627000
0.78475400 -0.13331800 -4.48371000
-1.45554000 1.48049000 -5.25322000
-1.56486000 1.49442000 -5.23487000
-1.44234000 1.19565000 -5.12279000
-1.52378000 1.10983000 -5.06743000
3.08242000 -5.57037000 -4.50981000
3.06001000 -5.51890000 -4.39926000
2.99692000 -5.62681000 -4.46973000
2.81723000 -5.78214000 -4.48350000
0.84338000 -4.86051000 -9.85684000
0.67979700 -4.86510000 -9.87952000
0.71108300 -4.82744000 -9.81470000
1.00018000 -4.88521000 -9.87686000
0.81031100 -4.88408000 -9.89157000
1.00489000 -4.85794000 -9.84151000
-3.57172000 -2.63762000 -8.58503000
0.38244400 -5.23862000 -2.96715000
0.51980600 -5.22459000 -2.96950000
0.51063100 -5.19256000 -2.94900000
0.61547400 -5.23626000 -2.97434000
0.59838600 -5.19942000 -2.95270000
1.58075000 0.21216500 -5.16214000
1.77708000 0.62195900 -5.40996000
1.89322000 0.52219900 -5.37252000
-3.13661000 -3.10179000 -8.86875000
-3.30406000 -2.59037000 -8.67966000
-3.25717000 -2.80244000 -8.76246000
-3.32408000 -2.59416000 -8.68928000
2.35270000 -4.79193000 -3.20676000
2.28517000 -4.80325000 -3.20031000
2.16525000 -4.80193000 -3.16567000
2.11331000 -4.82950000 -3.14152000
2.20445000 -4.83180000 -3.17260000
2.17458000 -0.04821110 -5.12082000
2.13394000 0.15154400 -5.21517000
1.27527000 -5.03424000 -3.49710000
1.61090000 -5.02990000 -3.58702000
1.70933000 -4.99155000 -3.61800000
1.75234000 -5.05160000 -3.63962000
-2.87232000 -3.75259000 -3.60180000
-3.05163000 -3.75323000 -3.73018000
-3.01299000 -3.85914000 -3.72027000
-2.97367000 -3.79546000 -3.67581000
-3.67752000 4.48518000 -5.10889000
-3.67031000 4.51994000 -5.10557000
-3.76320000 4.49523000 -5.18859000
-3.69125000 4.44065000 -5.15045000
-3.75377000 4.46651000 -5.18783000
1.49615000 -5.00438000 -3.55091000
1.59543000 -4.96528000 -3.58046000
1.62659000 -4.87380000 -3.59444000
1.45440000 -4.96828000 -3.53964000
1.50790000 -4.86847000 -3.56089000
-3.74774000 1.16071000 -6.85852000
-3.74722000 1.25879000 -6.80440000
-3.67251000 1.28406000 -6.91170000
-3.78240000 1.28091000 -6.73049000
-0.48684600 0.19715200 -4.86563000
3.25436000 -2.41909000 -8.65588000
3.13466000 -2.35610000 -8.66700000
3.10192000 -2.53118000 -8.72323000
3.03718000 -2.34245000 -8.68213000
-1.12664000 -4.95261000 -9.15733000
-1.37652000 -4.78727000 -9.05238000
-1.18915000 -4.98967000 -9.12075000
-0.97786700 -4.95093000 -9.22447000
0.23795000 1.48965000 -5.31787000
0.03081310 1.44099000 -5.21476000
0.11351200 1.40714000 -5.20503000
0.10512600 1.47115000 -5.23254000
4.05209000 0.94338000 -5.75969000
3.95731000 0.89277700 -5.73134000
4.05689000 0.81401300 -5.70463000
4.10171000 0.90427300 -5.75016000
4.15737000 0.91783900 -5.77099000
4.14295000 1.14722000 -5.86139000
-2.03730000 3.70548000 -5.82200000
-2.02537000 3.82969000 -5.87131000
-1.98611000 3.60669000 -5.88815000
-1.98881000 3.72453000 -5.91406000
-2.00653000 3.84542000 -5.90921000
1.83785000 -2.95856000 -3.99305000
1.97564000 -2.99475000 -4.00919000
-2.61779000 4.66992000 -7.49668000
-2.54639000 4.67688000 -7.47481000
-2.61978000 4.69318000 -7.45145000
-2.31383000 -2.87081000 -9.01725000
-2.50635000 -2.59508000 -8.89442000
-2.21219000 -2.91995000 -9.05204000
-2.29723000 -2.78601000 -8.99582000
3.93398000 -2.96278000 -4.34789000
3.83248000 -2.99388000 -4.28623000
3.82933000 -3.06099000 -4.26660000
3.72550000 0.89171200 -5.70480000
3.65029000 0.85448500 -5.67382000
3.72448000 0.77649800 -5.64396000
3.98045000 0.78596100 -5.68365000
3.88198000 0.91445300 -5.73403000
3.89594000 0.80512100 -5.68187000
4.88589000 -1.91096000 -6.28951000
4.89633000 -1.85814000 -6.34107000
4.87901000 -1.86180000 -6.30656000
4.90131000 -1.86700000 -6.37369000
4.88849000 -1.92532000 -6.36724000
3.47022000 -2.29572000 -4.33510000
3.58682000 -2.31062000 -4.37754000
3.48110000 -2.24905000 -4.35107000
3.60013000 -2.13999000 -4.45506000
-2.61695000 -4.17477000 -3.51486000
-2.62112000 -4.07117000 -3.49725000
-2.69899000 -4.08579000 -3.55017000
-2.49371000 -4.33943000 -3.47689000
-2.59738000 -4.36591000 -3.55713000
1.66222000 4.05987000 -6.67753000
1.74502000 4.16875000 -6.67066000
1.69061000 4.02408000 -6.66805000
1.91320000 4.18416000 -6.64812000
0.18785700 -1.19865000 -3.88411000
2.71298000 -0.24375900 -4.96937000
2.87425000 -0.07676850 -5.07772000
2.75602000 -0.25806500 -4.97165000
3.62165000 -2.19776000 -4.43724000
3.60136000 -2.27151000 -4.39335000
3.67383000 -2.28287000 -4.41874000
3.73929000 -2.24744000 -4.45913000
3.77780000 1.33467000 -5.93155000
3.83190000 1.26873000 -5.90033000
3.96825000 1.28019000 -5.90532000
-1.59912000 -6.01895000 -8.32657000
-1.72107000 -6.01161000 -8.24804000
-0.80657700 -6.04236000 -8.98560000
-0.93062800 -6.00364000 -8.98213000
-0.75373900 -5.99943000 -9.05643000
-0.75912000 -5.91323000 -9.14701000
-0.75373900 -5.99943000 -9.05643000
0.68662300 1.72607000 -5.62407000
0.65937000 1.70805000 -5.59475000
0.74149300 1.69972000 -5.59068000
0.52513300 1.73160000 -5.59171000
0.65088000 1.72507000 -5.61505000
-2.00094000 4.26603000 -6.36389000
-2.00996000 4.33035000 -6.40656000
1.30158000 -0.22514900 -4.52618000
1.27566000 -0.22313200 -4.56187000
1.20594000 -0.13749200 -4.63443000
-1.02800000 -6.08702000 -3.80361000
-0.88510700 -6.07960000 -3.72933000
-0.97176300 -6.05393000 -3.73468000
-0.90597300 -6.05418000 -3.70742000
3.80421000 -2.12167000 -4.51725000
3.85999000 -2.09775000 -4.56004000
3.79565000 -2.05192000 -4.55216000
3.68608000 -2.12846000 -4.47234000
3.65848000 -2.05980000 -4.50151000
3.63149000 -2.15702000 -4.45635000
2.06182000 -4.98161000 -3.76505000
2.27806000 -4.89380000 -3.87115000
2.25688000 -4.80049000 -3.85359000
2.37295000 -4.74793000 -3.91419000
-3.74479000 -1.53704000 -7.26045000
-3.80965000 -1.42990000 -7.10501000
-3.78436000 -1.52195000 -7.17431000
-3.78158000 -1.33126000 -7.15952000
0.61290300 0.31659500 -7.91262000
0.75133200 0.31605700 -7.91976000
1.87214000 2.07468000 -6.09962000
1.87869000 1.98148000 -6.06123000
2.60893000 1.75988000 -6.07064000
2.52089000 1.84108000 -6.09677000
2.26633000 3.62892000 -6.30568000
2.22015000 3.59837000 -6.28226000
-1.84194000 2.49184000 -5.57962000
-0.20226600 -1.99611000 -3.62799000
-0.14324900 -2.00791000 -3.62194000
-0.18604200 -1.95692000 -3.61508000
-0.23692800 -1.95392000 -3.61426000
-0.28533500 -1.90496000 -3.62582000
3.54481000 4.68920000 -6.43442000
3.76323000 4.57482000 -6.53148000
3.58741000 4.63598000 -6.51737000
-2.04007000 -1.20548000 -8.13249000
-2.04855000 -1.55997000 -8.24122000
-2.20425000 -1.33150000 -8.14554000
-2.31759000 -0.91874000 -7.99744000
-2.32655000 -1.24663000 -8.09751000
0.98662300 -5.90610000 -8.32880000
0.94359700 -5.89332000 -8.27541000
0.94949400 -5.84712000 -8.06077000
0.86763800 -5.86086000 -8.15803000
3.71648000 -2.03716000 -4.52900000
3.71317000 -2.09006000 -4.49467000
3.67764000 -1.97184000 -4.53091000
4.10047000 -4.47173000 -7.99655000
4.16175000 -4.43837000 -7.88095000
4.09230000 -4.53143000 -7.92433000
4.11650000 -4.60473000 -7.70400000
4.20089000 -4.45056000 -7.71998000
-3.06274000 -3.51078000 -4.55269000
-3.00545000 -3.47852000 -4.48970000
-2.99648000 -3.61242000 -4.50909000
-3.14533000 -3.49326000 -4.63845000
-3.27225000 2.58388000 -5.66884000
-3.29643000 2.51997000 -5.68623000
-3.29452000 2.85065000 -5.66269000
-3.25448000 2.66273000 -5.64366000
2.93242000 -0.92517000 -8.23510000
2.93335000 -0.82967600 -8.20141000
2.90794000 -0.73113800 -8.15804000
3.01507000 -0.79880900 -8.17400000
-1.85815000 -1.23423000 -8.55629000
-1.77194000 -1.21261000 -8.55035000
-1.99948000 -1.23166000 -8.53949000
-3.68681000 2.88560000 -6.57036000
-3.74582000 2.95167000 -6.57509000
-3.66039000 2.86695000 -6.59485000
3.07777000 -1.20074000 -4.82962000
2.93776000 -1.09979000 -4.82519000
3.08689000 -1.01704000 -4.90118000
3.07773000 -0.75544000 -5.00341000
2.97776000 -0.92102900 -4.90662000
1.28397000 -4.86080000 -3.03009000
1.54156000 -4.84302000 -3.08054000
1.50858000 -4.83041000 -3.09461000
-2.23801000 -3.63276000 -9.22962000
-2.10562000 -3.67695000 -9.27144000
-2.28949000 -3.83811000 -9.26193000
-2.28997000 -3.03506000 -9.06762000
-2.20123000 -3.29680000 -9.15693000
-3.49080000 -3.34510000 -7.59245000
-3.53714000 -3.35510000 -7.47461000
-3.38991000 -3.59318000 -7.67576000
-3.42697000 2.52411000 -7.09580000
-3.40847000 2.40918000 -7.13056000
-3.42838000 2.39806000 -7.01009000
-2.17449000 2.99730000 -7.06357000
-2.10454000 -1.15618000 -8.50773000
-2.08687000 -1.21946000 -8.52757000
-2.00852000 -1.18048000 -8.53023000
-2.35174000 3.76090000 -6.78756000
-2.39454000 3.85260000 -6.82323000
-2.56540000 -2.13602000 -3.75679000
-2.49296000 -2.26905000 -3.68936000
-2.50576000 -2.16389000 -3.73240000
-2.31459000 -2.19147000 -3.68235000
-2.41213000 -2.27515000 -3.67221000
-2.27313000 -2.26158000 -3.65575000
3.03981000 0.37835200 -7.67724000
2.85872000 0.52343800 -7.62667000
2.85432000 0.62045400 -7.58057000
-2.63850000 -2.18657000 -3.73726000
-2.56536000 -2.22776000 -3.71685000
-2.58646000 -2.15985000 -3.74901000
-2.50280000 -2.06041000 -3.74634000
-2.60937000 -2.02481000 -3.77502000
-2.61136000 -2.07721000 -3.77795000
-0.35224500 -6.07399000 -3.84225000
-0.28873800 -6.07463000 -3.83513000
-0.33688400 -6.07352000 -3.81085000
-0.29556500 -6.06018000 -3.77879000
-0.32913900 -6.06559000 -3.77744000
-2.15665000 -1.20092000 -8.11300000
-2.16541000 -0.91627300 -8.02156000
-2.15481000 -0.59438400 -7.91854000
2.67359000 -1.82670000 -4.28411000
2.61629000 -1.74233000 -4.30327000
2.77394000 -1.69127000 -4.35554000
2.63318000 -1.72301000 -4.31046000
2.78483000 -1.78507000 -4.32060000
-4.10406000 0.29421700 -6.51540000
-4.11029000 0.38502100 -6.40465000
-4.06793000 0.46538300 -6.50958000
-4.06267000 0.34995200 -6.62700000
-0.55633200 -5.67598000 -6.23420000
-0.43495500 -5.65761000 -6.33553000
-0.74413500 -5.72535000 -5.89759000
-0.67876900 -5.70552000 -6.02787000
-0.63367700 -5.71130000 -5.98494000
-2.74536000 -2.03489000 -3.80954000
-2.74382000 -2.11782000 -3.79078000
-2.67918000 -2.08870000 -3.78748000
-2.74584000 -1.90629000 -3.84579000
-2.76912000 -1.86893000 -3.86069000
-0.58718900 1.57763000 -5.32656000
-0.42909500 1.66477000 -5.42019000
-0.52842100 1.63733000 -5.39132000
-0.88808500 1.42277000 -5.14556000
-0.81393600 1.48878000 -5.21766000
-0.92447000 1.43946000 -5.14912000
-2.15452000 -6.00669000 -7.21830000
-2.09698000 -5.99663000 -7.38164000
-2.06539000 -5.97438000 -7.30596000
-2.20545000 -6.02719000 -7.32388000
-2.26116000 -6.03349000 -7.29342000
1.49534000 0.89097800 -7.65179000
1.45565000 0.73527100 -7.71568000
1.40185000 0.81544200 -7.67824000
1.45151000 0.82695400 -7.67293000
4.43524000 2.22718000 -6.23470000
4.42295000 2.13653000 -6.17191000
-2.71926000 -2.39500000 -3.69919000
-2.58667000 -2.35987000 -3.67977000
-2.17389000 -6.10029000 -5.39328000
-2.10586000 -6.14626000 -5.26117000
-2.15205000 -6.15305000 -5.26223000
-2.08360000 -6.15713000 -5.20924000
-2.26743000 3.16160000 -6.76904000
-2.32895000 3.37924000 -6.79058000
-2.38266000 3.29304000 -6.82340000
-0.67251300 -6.09132000 -8.80706000
-0.64344500 -6.09405000 -8.80053000
-0.55526700 -6.06588000 -8.84247000
3.48395000 -4.04872000 -3.84721000
3.44289000 -4.12101000 -3.78205000
3.61095000 -3.95977000 -3.89738000
3.51455000 -4.08473000 -3.79953000
-0.74672200 -5.70589000 -6.25961000
-0.83016100 -5.74126000 -5.90069000
-0.69780400 -5.70549000 -6.11537000
-0.62493700 -5.68803000 -6.15350000
-1.49727000 -1.73530000 -8.78334000
-1.53953000 -1.67979000 -8.75527000
-1.49980000 -1.97074000 -8.86777000
-1.30247000 -1.95520000 -8.87276000
-1.57123000 -2.06878000 -8.89564000
-1.85729000 -6.08417000 -4.70305000
-1.65431000 -6.07932000 -4.46202000
-1.49702000 -6.05322000 -4.42285000
-1.53857000 -6.07106000 -4.35402000
1.84922000 -5.66445000 -9.22469000
1.84812000 -5.59790000 -9.28584000
1.95087000 -5.56808000 -9.26445000
2.21803000 -5.58106000 -9.10805000
2.06579000 -5.61361000 -9.17249000
2.25580000 -5.49981000 -9.16227000
-3.25756000 -4.39291000 -6.44674000
-3.31895000 -4.28508000 -6.49116000
-3.28462000 -4.34986000 -6.34152000
-3.25172000 -4.38495000 -6.69616000
-3.16666000 -4.51578000 -6.74992000
3.22714000 0.43194400 -7.63116000
3.29523000 0.48457000 -7.59534000
3.08950000 0.38497200 -7.66797000
-0.44321700 2.77668000 -6.05445000
-0.54972300 2.78484000 -6.04420000
-0.03943910 2.72251000 -6.08837000
-3.02139000 -2.37143000 -8.67567000
-3.09933000 -2.34363000 -8.62748000
-2.95820000 -2.44356000 -8.71549000
-2.89312000 -2.48801000 -8.73730000
-2.97474000 -2.50912000 -8.72784000
2.36082000 3.28238000 -6.22294000
2.45578000 3.36066000 -6.22225000
2.41278000 3.38230000 -6.23085000
2.40346000 3.23838000 -6.22360000
2.53531000 3.21614000 -6.22728000
-0.69622800 -0.74835800 -3.97996000
-0.61528400 -0.84370500 -3.94161000
-0.66408800 -1.01667000 -3.88340000
-0.69775500 -1.11781000 -3.85219000
-0.64237400 -1.11312000 -3.84789000
-3.24621000 -4.48464000 -8.33932000
-3.42907000 -4.40218000 -8.04297000
-3.35391000 -4.59883000 -7.93402000
-3.50928000 -4.39421000 -7.85097000
-0.06409390 -6.01295000 -3.96248000
-0.16081100 -6.02700000 -3.93549000
-0.10221200 -6.04411000 -3.89559000
-0.12857400 -6.05819000 -3.87596000
-2.14739000 3.17634000 -6.68846000
-2.09116000 3.19818000 -6.63779000
-0.91664800 0.35269100 -4.41619000
-0.96015300 0.40824600 -4.44729000
-0.95346200 0.36261600 -4.41513000
-0.97995400 0.43795000 -4.45914000
-1.06968000 0.43251500 -4.45144000
-3.93329000 -0.84125900 -6.28675000
-3.92936000 -0.84952600 -6.44539000
-3.92029000 -0.73374700 -6.49322000
-2.93100000 4.04477000 -5.15989000
-2.84671000 3.98456000 -5.17248000
-2.92525000 3.93772000 -5.19171000
-0.74524900 -1.25269000 -3.78978000
-0.97174700 -1.40030000 -3.74241000
0.89624900 1.11439000 -7.52913000
0.91768100 1.21004000 -7.48637000
0.95128300 1.19763000 -7.48895000
-0.82661100 -1.31134000 -3.77700000
-0.89438000 -1.30027000 -3.78187000
-0.95209200 -1.37632000 -3.74924000
-0.77218200 -1.11892000 -3.84253000
-0.71735500 -1.09947000 -3.85745000
-0.71573500 -1.03241000 -3.87664000
-3.32399000 -4.25268000 -6.75441000
-3.34459000 -4.22918000 -6.63951000
-3.39471000 -4.09966000 -6.87014000
-3.40639000 -4.09891000 -6.75259000
-3.35852000 -4.17409000 -6.84701000
3.10154000 0.76066500 -7.51760000
3.13796000 0.71285000 -7.54530000
3.02756000 0.69995200 -7.54820000
3.19819000 0.56818200 -7.59632000
4.17118000 3.69926000 -6.24509000
4.17118000 3.69926000 -6.24509000
-1.84447000 2.04558000 -5.18495000
-1.92948000 2.07786000 -5.16177000
-1.92677000 2.28309000 -5.24065000
-1.94935000 2.21396000 -5.20486000
-1.84423000 2.18478000 -5.24602000
4.64082000 -1.76077000 -5.02457000
4.62427000 -1.88988000 -4.94169000
4.63990000 -1.91404000 -4.99591000
4.61264000 -2.17231000 -4.91016000
4.59805000 -2.17088000 -4.86606000
-2.39932000 4.61847000 -4.88683000
-2.51959000 4.67332000 -4.88015000
-3.67109000 0.67672100 -6.80922000
-3.70005000 0.40718100 -6.85728000
-3.65016000 1.04984000 -6.67167000
-3.67107000 0.83224900 -6.73377000
-3.63540000 0.96706800 -6.75545000
-3.47794000 1.18934000 -5.39281000
-3.52433000 0.60084800 -5.23704000
-3.53699000 0.43067200 -5.19918000
3.23293000 0.77375300 -7.48603000
3.15055000 0.84232600 -7.46000000
3.20554000 0.73098800 -7.53055000
-3.75037000 0.70755000 -5.98434000
-3.68845000 0.99465200 -5.89473000
-3.66593000 1.04833000 -5.82659000
-3.70456000 0.84949000 -5.84171000
-3.79533000 3.71757000 -6.24403000
-3.79575000 3.76214000 -6.31106000
-3.83298000 3.95354000 -6.29903000
-3.85458000 4.02393000 -6.30257000
3.70099000 -2.63939000 -4.33358000
3.64048000 -2.61241000 -4.31638000
3.63645000 -2.68295000 -4.31718000
3.50942000 -2.76471000 -4.22240000
3.55677000 -2.71226000 -4.27292000
3.49875000 -2.70172000 -4.23498000
-2.61870000 -5.18020000 -5.24599000
-2.67675000 -5.13670000 -5.33839000
-3.43307000 1.25678000 -5.34334000
-3.39679000 1.27162000 -5.29134000
-3.42206000 1.07644000 -5.24928000
-3.51293000 0.94990800 -5.35357000
-3.46332000 1.07630000 -5.31740000
-3.48538000 0.88876000 -5.27826000
-0.90746800 -5.11481000 -3.58940000
-0.68856900 -5.10784000 -3.51941000
-0.79961900 -5.11062000 -3.55245000
-0.74447800 -5.07716000 -3.52353000
-3.01049000 -2.80026000 -8.79911000
-2.96556000 -2.74148000 -8.79589000
-3.05782000 -2.71258000 -8.75465000
2.48413000 -3.96821000 -3.55023000
2.54781000 -4.07743000 -3.54269000
2.63579000 -3.97078000 -3.59429000
2.44181000 -4.23822000 -3.47872000
3.53491000 -2.59918000 -4.27464000
3.55753000 -2.63038000 -4.27972000
3.58967000 -2.67349000 -4.29901000
-1.35960000 -1.23018000 -3.93236000
-2.01450000 1.82999000 -7.04315000
-2.02344000 1.89052000 -7.03009000
-2.40651000 1.84827000 -7.05710000
-2.26459000 1.84017000 -7.05479000
4.25743000 0.78134600 -7.20977000
4.23038000 0.79145600 -7.20539000
4.29842000 1.12732000 -7.06328000
4.29534000 0.96558900 -7.13068000
4.27531000 1.14243000 -7.04998000
-1.25559000 3.07521000 -5.95227000
-1.34727000 3.31777000 -5.97030000
3.20951000 1.73519000 -6.10346000
3.00242000 1.51685000 -5.98683000
2.92406000 1.58971000 -6.01835000
-3.67307000 4.41245000 -5.77935000
-3.61692000 4.28398000 -5.80022000
0.23072100 0.81207200 -7.32491000
0.30926200 1.09463000 -7.19795000
0.02663330 1.01011000 -7.24906000
4.18218000 1.31340000 -6.98267000
4.27468000 0.94430400 -7.13503000
4.24025000 1.01220000 -7.10230000
4.25497000 1.13671000 -7.04924000
-0.58761800 2.35866000 -5.97739000
-0.70928300 2.30172000 -5.91962000
-0.66645800 2.45725000 -6.02183000
-0.51867600 2.19003000 -5.89252000
-0.51610500 1.87039000 -5.70925000
-0.58661800 2.00386000 -5.76965000
1.34540000 3.86633000 -6.16118000
-1.51102000 -2.38667000 -3.56366000
-1.46973000 -2.35013000 -3.57017000
-1.55221000 -2.43087000 -3.56692000
-1.54618000 -2.37699000 -3.56987000
1.85096000 -3.61761000 -9.24810000
1.74613000 -3.22807000 -9.15789000
1.71490000 -3.19747000 -9.14745000
1.82502000 -3.14063000 -9.12344000
-3.16157000 4.12763000 -5.17930000
-3.09694000 3.97684000 -5.21421000
-3.07668000 4.10387000 -5.16352000
-3.13803000 4.22411000 -5.12423000
-3.20371000 4.16496000 -5.17774000
-3.10690000 4.15355000 -5.15076000
2.25709000 0.36026800 -4.97093000
2.33258000 0.35413100 -4.98968000
2.34511000 0.42378600 -5.04357000
2.16027000 0.31035000 -4.92567000
2.12747000 0.25532700 -4.89787000
2.19265000 0.27055700 -4.91012000
1.74437000 -3.41763000 -9.21270000
1.75988000 -3.60960000 -9.24314000
1.70005000 -3.42025000 -9.21336000
1.70664000 -3.56846000 -9.24276000
2.27924000 -5.99594000 -8.55646000
2.14048000 -6.01715000 -8.64736000
2.31853000 -5.98759000 -8.52904000
2.29571000 -6.01824000 -8.50291000
-2.85173000 -3.04144000 -3.53235000
-2.89161000 -3.07178000 -3.50077000
3.17547000 -4.28159000 -9.30986000
3.17052000 -4.26031000 -9.31640000
3.30375000 -4.15506000 -9.24696000
3.31843000 -4.06491000 -9.20560000
3.30275000 -4.11927000 -9.24009000
-2.43048000 -6.03570000 -5.51913000
-2.46833000 -6.01243000 -5.54659000
-2.54360000 -5.96610000 -5.69142000
-2.50243000 -5.97643000 -5.52580000
-2.60044000 -5.89096000 -5.64863000
-4.22212000 -2.64350000 -7.30978000
-4.25521000 -2.43650000 -7.21890000
-4.23949000 -2.61869000 -7.22269000
3.21668000 -3.64284000 -4.38355000
3.07202000 -3.88677000 -4.29446000
2.96689000 -3.92459000 -4.22981000
3.09086000 -3.70963000 -4.30405000
-2.54788000 4.70532000 -7.30094000
-2.42466000 4.73004000 -7.26105000
-2.46785000 4.72281000 -7.28914000
-2.48136000 4.71083000 -7.26574000
-3.04317000 -1.77752000 -3.91670000
-3.00597000 -2.21747000 -3.80575000
-2.97563000 -2.26009000 -3.79478000
-2.96754000 -2.44301000 -3.75110000
-2.89360000 -2.64318000 -3.69408000
-2.93975000 -2.41682000 -3.75781000
-2.88961000 2.11787000 -7.00033000
-0.05989240 -1.08520000 -8.12029000
-0.32798100 -0.95209200 -8.08024000
1.86602000 -2.81484000 -3.74161000
1.85640000 -2.91931000 -3.70487000
2.02726000 -2.80416000 -3.77854000
1.75745000 -2.89401000 -3.69131000
1.76759000 -2.83122000 -3.71849000
1.65328000 -2.85086000 -3.69319000
-2.34956000 -5.15061000 -4.63492000
-2.27647000 -5.19961000 -4.58781000
-2.34112000 -5.19825000 -4.67593000
-2.41459000 -5.18169000 -4.77037000
-2.48124000 -5.12480000 -4.81115000
4.55769000 1.21779000 -6.02206000
4.56105000 1.18742000 -5.94760000
4.59900000 0.69723900 -5.70849000
-3.17160000 -3.94395000 -3.90037000
-3.25999000 -3.94360000 -3.99791000
-3.02419000 -4.06977000 -3.80541000
-3.07349000 -3.95055000 -3.80078000
-1.66167000 -0.24378100 -4.26778000
-1.62702000 -0.43198600 -4.19089000
-1.64619000 -0.25701600 -4.25448000
-1.65380000 -0.11407200 -4.31098000
1.39533000 -4.67417000 -9.60861000
1.12968000 -4.72633000 -9.66239000
1.11333000 -4.68871000 -9.64692000
0.13172100 -4.69947000 -9.73748000
0.39293900 -4.70746000 -9.72574000
0.34876100 1.03436000 -4.96607000
0.38422100 0.96679000 -4.93535000
0.46753400 0.95475100 -4.94189000
0.54466200 0.97485100 -4.96661000
-1.52253000 -1.02847000 -8.62832000
-1.36442000 -1.20540000 -8.73709000
-1.85219000 -6.01153000 -5.14736000
-1.88987000 -6.00693000 -5.24066000
-1.84460000 -5.98994000 -5.24042000
-1.92900000 -5.99857000 -5.33551000
-1.94474000 -5.98408000 -5.41822000
-1.48303000 3.33076000 -6.58198000
-1.60279000 3.46719000 -6.59116000
-1.45642000 3.34641000 -6.57466000
-1.26334000 3.12481000 -6.57190000
-1.28984000 3.20301000 -6.57278000
3.63520000 -0.89877600 -8.09907000
3.65215000 -0.79266100 -8.05459000
-2.94201000 -0.61355000 -7.77870000
-3.03862000 -0.63577500 -7.76148000
-2.85420000 -0.94295500 -7.89157000
-3.08382000 -0.58303500 -7.73730000
0.62622000 -2.37543000 -8.57470000
3.08685000 1.64194000 -6.08214000
3.10033000 1.62017000 -6.07195000
3.10913000 1.63416000 -6.11067000
3.47396000 1.40637000 -5.96906000
-1.80503000 4.85379000 -6.12097000
-1.77908000 4.87644000 -6.18171000
-1.84182000 4.80353000 -6.12779000
1.80260000 -3.66872000 -9.25643000
1.81132000 -3.53938000 -9.23458000
1.75527000 -3.67805000 -9.26145000
1.79484000 -3.72313000 -9.27396000
-2.90689000 3.53896000 -7.17092000
-2.93788000 3.66999000 -7.17427000
-2.99201000 3.48911000 -7.15320000
-3.07967000 3.52992000 -7.13333000
-2.23856000 2.43672000 -5.17177000
-2.30991000 2.69004000 -5.22015000
-2.25459000 2.75130000 -5.24711000
4.34719000 -0.88837800 -7.25884000
4.31801000 -1.01478000 -7.33246000
-0.06802910 -5.63062000 -6.43452000
-0.01849110 -5.63332000 -6.57298000
-0.00587020 -5.62593000 -6.49119000
0.12001300 -5.63316000 -6.62520000
0.02212200 -5.63591000 -6.62969000
0.14034100 -5.64504000 -6.75278000
3.14363000 1.61958000 -6.06936000
3.16250000 1.64374000 -6.08843000
3.13551000 1.62931000 -6.11390000
3.12018000 1.65073000 -6.11888000
3.15772000 1.67376000 -6.09683000
3.13694000 1.68930000 -6.09650000
-2.03457000 4.08476000 -6.86081000
-2.11052000 4.06832000 -6.94053000
-2.07149000 3.89952000 -6.87359000
-2.10695000 3.99389000 -6.92333000
-2.03513000 4.02065000 -6.84976000
-0.48941700 -4.24036000 -3.10629000
-0.65478800 -4.19777000 -3.11556000
2.38502000 -5.12493000 -8.74591000
-2.96590000 0.96349100 -7.56692000
-3.01784000 1.01574000 -7.52767000
-2.87838000 0.97006200 -7.59748000
-2.82468000 0.94727200 -7.62241000
-2.73782000 0.90730000 -7.65680000
-2.83924000 0.80080500 -7.66808000
-1.37296000 4.58400000 -6.13792000
-1.38623000 4.57482000 -6.11180000
-1.20987000 4.60112000 -6.16580000
-1.54310000 4.57364000 -6.09697000
-1.54462000 4.58737000 -6.15752000
3.46854000 -3.99378000 -9.16340000
3.51389000 -3.91671000 -9.13192000
3.53051000 -3.92924000 -9.12133000
3.33235000 -4.08137000 -9.21432000
-2.69344000 1.96256000 -5.23464000
-2.73488000 1.79299000 -5.18553000
-2.76010000 1.60565000 -5.12846000
-0.38864500 0.75082700 -7.81108000
-0.49133000 0.74991300 -7.81689000
-0.42754600 0.80070200 -7.78783000
-0.38082900 0.81592600 -7.76818000
-0.29588000 0.71962800 -7.80809000
-2.57162000 -3.59034000 -8.55459000
-2.64371000 -3.49110000 -8.51198000
-2.46398000 -3.65585000 -8.61266000
-2.37406000 -3.61544000 -8.65353000
-1.33201000 -1.37655000 -8.79307000
-1.36725000 -1.27689000 -8.76139000
-1.43525000 -1.25687000 -8.73708000
-1.40153000 -1.22179000 -8.73653000
-3.73033000 3.00648000 -5.68746000
-0.63767200 1.32826000 -7.53635000
-0.54185800 1.30790000 -7.53171000
-0.62830700 1.24457000 -7.57436000
-0.74590200 1.28312000 -7.56699000
-0.82669300 1.28509000 -7.56560000
-0.78733500 1.33329000 -7.53615000
3.11549000 -6.01465000 -6.61403000
3.07678000 -5.98126000 -6.56157000
3.07382000 -6.00609000 -6.61308000
2.98416000 -5.98883000 -6.61018000
3.07382000 -6.00609000 -6.61308000
-0.47719900 0.84887500 -7.78684000
-0.34939700 0.87951500 -7.75393000
0.28015000 0.55765400 -4.79464000
0.07629090 0.53871100 -4.74285000
0.11030000 0.51427900 -4.73117000
-0.10716900 0.50275100 -4.67743000
-0.07856290 0.53389000 -4.70906000
-0.23720500 0.52259000 -4.65734000
2.53522000 -4.61023000 -9.53405000
2.54623000 -4.62744000 -9.54271000
2.53421000 -4.65597000 -9.55130000
2.64608000 -4.61917000 -9.51032000
4.69399000 -2.06427000 -7.83822000
4.64753000 -2.04874000 -7.91107000
4.74870000 -2.09375000 -7.72686000
4.72433000 -2.13348000 -7.78992000
4.72444000 -1.98433000 -7.76776000
0.00994673 -1.32802000 -8.87322000
-0.03977060 -1.32825000 -8.86639000
0.01797480 -1.28201000 -8.86556000
0.40794600 -1.32831000 -8.87223000
0.24309200 -1.31918000 -8.87801000
-3.78299000 -1.40092000 -5.32716000
-3.75891000 -1.24935000 -5.26957000
-3.74582000 -1.46298000 -5.23956000
-3.70835000 -1.34853000 -5.16040000
4.78898000 -2.06560000 -7.59379000
4.79292000 -2.22978000 -7.57322000
4.75103000 -1.93309000 -7.69855000
-1.49090000 -5.27229000 -4.11938000
-1.61645000 -5.27989000 -4.18089000
-1.78318000 -5.29556000 -4.31369000
-1.77696000 -5.28777000 -4.25342000
-0.41608900 1.51359000 -7.41570000
-0.45590300 1.51162000 -7.41945000
-0.45272800 1.51850000 -7.40673000
-0.60302700 1.37979000 -7.50917000
-0.65240800 1.38729000 -7.50481000
3.28972000 -4.68131000 -9.00539000
3.42919000 -4.43109000 -9.00257000
3.48406000 -4.28668000 -9.00222000
-3.29818000 -4.97871000 -7.29035000
-3.34635000 -4.85947000 -7.45636000
-3.25197000 -4.95247000 -7.52484000
-3.27940000 -5.06069000 -7.11556000
4.36873000 -2.91101000 -5.90996000
4.38811000 -2.84203000 -6.01060000
-1.13192000 -5.04547000 -9.13554000
-1.06747000 -5.00573000 -9.17861000
-1.26113000 -5.10917000 -9.02963000
-2.99759000 4.64267000 -7.45226000
-3.03372000 4.64230000 -7.43853000
2.34750000 -4.89362000 -3.25098000
2.44923000 -4.85118000 -3.26242000
2.36439000 -4.91182000 -3.27188000
2.46534000 -4.88370000 -3.31289000
-2.57544000 -5.98721000 -6.68247000
-2.54526000 -6.01238000 -6.66804000
-2.48705000 -6.00977000 -7.01003000
-2.49375000 -6.02670000 -6.89827000
-2.52653000 -5.99477000 -6.92456000
4.60418000 0.11434500 -7.22664000
4.67313000 0.24770700 -7.03103000
4.65292000 0.24819600 -7.07632000
2.99768000 1.68221000 -6.06936000
3.08698000 1.66110000 -6.08637000
3.10611000 1.67895000 -6.09552000
-3.54090000 4.22017000 -7.07446000
-3.60873000 4.20835000 -6.99803000
-3.61565000 4.23796000 -7.02545000
-3.71479000 4.17329000 -6.82759000
1.02951000 2.82562000 -6.74801000
0.92614900 2.81356000 -6.74913000
0.84318400 2.82507000 -6.74466000
0.82415500 2.74478000 -6.75021000
0.74720600 2.72818000 -6.74446000
-1.61715000 4.77565000 -6.55307000
-1.62754000 4.74728000 -6.63409000
-1.64876000 4.77699000 -6.64525000
-1.67799000 4.70763000 -6.78333000
4.68717000 -0.07296380 -7.15040000
4.70421000 -0.18282900 -7.17667000
-2.64421000 -5.89152000 -6.78748000
-2.67090000 -5.87689000 -6.69707000
-2.71365000 -5.80799000 -6.79621000
-2.70232000 -5.80495000 -6.86014000
-2.72225000 -5.75204000 -7.00375000
-2.62226000 -5.87709000 -6.94649000
-3.50057000 -3.25005000 -5.09796000
-3.50266000 -3.00656000 -5.01413000
4.22478000 -3.80011000 -8.38282000
4.09012000 -4.11676000 -8.41352000
-0.61070200 -4.55178000 -3.47872000
-0.63681900 -4.26390000 -3.50982000
0.61799100 -2.89951000 -3.51112000
0.42910600 -2.78261000 -3.53190000
0.47142600 -2.78844000 -3.52113000
0.47259500 -2.72675000 -3.56130000
2.34179000 -1.87299000 -8.66359000
2.17228000 -1.86538000 -8.69505000
-3.94188000 -3.11080000 -8.03709000
-3.98449000 -2.80194000 -8.01987000
-1.71399000 0.21643700 -8.13122000
-1.51466000 0.39537000 -8.06763000
-1.60287000 0.34571800 -8.08795000
-1.59766000 0.39067300 -8.06826000
-0.79619500 1.35762000 -7.44431000
-0.79498800 1.35784000 -7.49351000
-0.92326300 1.31018000 -7.45999000
3.85837000 -2.16498000 -4.52742000
3.93464000 -2.24151000 -4.54262000
3.89347000 -2.27468000 -4.50788000
-1.80486000 -0.35496200 -8.28129000
-1.78719000 -0.39468300 -8.35198000
-1.79774000 -0.46824000 -8.32369000
-1.80886000 -0.49226500 -8.31003000
-1.82314000 -0.34454200 -8.24970000
3.55251000 -1.49724000 -7.94449000
3.63254000 -1.50487000 -7.92117000
3.90528000 -1.31343000 -7.75131000
2.28753000 -4.87445000 -3.20942000
2.15124000 -4.99873000 -3.22897000
2.12273000 -4.96904000 -3.18141000
-0.91401200 1.20202000 -7.61257000
-0.92343200 1.24617000 -7.58100000
-0.93460100 1.26121000 -7.56227000
-0.96936600 1.24703000 -7.58860000
-0.95296200 1.26677000 -7.54185000
1.21726000 -2.94820000 -8.74476000
1.16643000 -3.13214000 -8.80470000
1.35769000 -3.08782000 -8.78123000
0.68106300 -2.80527000 -8.71820000
0.91469200 -2.68926000 -8.67290000
0.67544300 -2.60445000 -8.65172000
3.94580000 -3.81691000 -4.01591000
3.87558000 -3.89583000 -3.95826000
3.92867000 -3.90261000 -4.08040000
-3.19966000 4.30277000 -7.38281000
-3.20139000 4.27199000 -7.29861000
-3.20670000 4.25380000 -7.27267000
1.41110000 -2.21433000 -4.14436000
1.35332000 -2.34797000 -4.09907000
1.46445000 -2.48149000 -4.07198000
-3.62221000 1.50928000 -6.30603000
-3.65159000 1.36294000 -6.25201000
-3.73617000 0.88574300 -6.33376000
-3.76306000 0.72746600 -6.24950000
-0.57339400 2.58423000 -5.98229000
-0.57191000 2.50517000 -5.94746000
-0.73855800 2.59130000 -5.95060000
-0.75762600 2.48029000 -5.89404000
3.56852000 -0.49862900 -5.02583000
3.46900000 -0.62733400 -4.94947000
3.63555000 -0.69286200 -4.96256000
3.52055000 -0.32758900 -5.08710000
3.32601000 -0.33115500 -5.04355000
3.41734000 -0.53722100 -4.97546000
3.44985000 3.40946000 -6.23674000
3.42055000 3.46431000 -6.23304000
3.31485000 3.39653000 -6.22958000
-3.78906000 0.07884620 -6.76144000
-3.82415000 -0.10351600 -6.72629000
-3.79880000 -0.09355300 -6.80686000
-3.85758000 -0.29269400 -6.67957000
-3.82721000 0.04900050 -6.62892000
-3.85365000 -0.13434500 -6.60612000
-0.46595800 -0.34480800 -8.37916000
-0.41430600 -0.39896600 -8.39865000
-0.47626900 -0.42020800 -8.41515000
-0.40176600 -0.48834000 -8.44230000
-0.45149500 -0.60968500 -8.53050000
-0.49896200 -0.48305200 -8.44507000
4.42957000 1.67364000 -5.99317000
4.44449000 1.75701000 -6.02779000
4.46477000 1.57369000 -5.96136000
4.44847000 1.67076000 -5.99887000
4.42957000 1.67364000 -5.99317000
2.84116000 -3.33475000 -8.64657000
3.04522000 -3.42487000 -8.59859000
2.92527000 -3.40128000 -8.63473000
-0.72037200 -6.01518000 -9.05601000
-0.69096600 -6.05878000 -8.96037000
1.40733000 3.35760000 -6.16046000
1.56266000 3.46094000 -6.16941000
1.18474000 3.31504000 -6.15794000
3.75671000 -4.40857000 -4.15798000
-2.24725000 4.51157000 -5.01204000
-0.76156600 -6.06187000 -8.92145000
-0.80248900 -6.05276000 -8.94864000
-0.72527400 -6.05023000 -8.94670000
-0.75916400 -6.01708000 -9.03179000
1.32469000 2.13940000 -6.05749000
1.42509000 2.18654000 -6.08790000
1.80800000 2.13092000 -6.11369000
0.28997200 -5.19647000 -3.56475000
0.12757400 -5.19892000 -3.56697000
-3.85833000 -0.14002500 -5.90175000
-3.82970000 -0.01878940 -5.80740000
-3.83431000 -0.30394500 -5.67230000
-2.14175000 -6.08889000 -5.39899000
-2.09482000 -6.13012000 -5.28778000
-2.17132000 -6.06663000 -5.51101000
-2.49811000 -6.04901000 -6.08314000
-2.49113000 -6.06382000 -5.95239000
-2.53473000 -6.02197000 -6.05297000
-2.57124000 -6.00440000 -6.27798000
-2.51447000 -6.03551000 -6.17200000
-2.53865000 -6.02115000 -6.15766000
-4.18097000 -2.92555000 -5.52909000
-4.20467000 -2.93261000 -5.65852000
-4.22682000 -2.94961000 -5.82841000
-4.20889000 -3.00279000 -5.75456000
0.68245400 -5.92118000 -4.30143000
0.82545900 -5.91546000 -4.34424000
0.76325700 -5.94254000 -4.24058000
1.16166000 -5.92607000 -4.38569000
-3.34182000 2.75085000 -6.54731000
-3.36701000 2.77692000 -6.49112000
-3.34903000 2.66524000 -6.51672000
-3.42325000 0.95990900 -7.09376000
-3.37316000 0.90600700 -7.16634000
-3.40709000 1.26977000 -6.99099000
-0.50790800 4.28738000 -6.07159000
-0.56814300 4.38727000 -6.07365000
-0.41186500 4.29752000 -6.14582000
-0.45883200 4.39666000 -6.11370000
-0.45997900 4.28015000 -6.09117000
-1.89273000 2.29150000 -5.47294000
-1.89149000 2.23811000 -5.45545000
-3.37321000 2.39966000 -6.56953000
-3.35222000 2.52170000 -6.54706000
-3.32783000 2.52581000 -6.59418000
-0.43538400 4.01102000 -6.06832000
-0.54045000 3.87875000 -6.06362000
-0.45997900 3.85596000 -6.06696000
-0.46219700 4.24516000 -6.08186000
-0.43122600 4.15983000 -6.08438000
4.45874000 -0.59046000 -6.87444000
4.47645000 -0.82022400 -6.84443000
4.41656000 -0.11549000 -6.87027000
4.43931000 -0.36999000 -6.88372000
-1.90309000 3.59214000 -6.75879000
-1.91818000 3.47925000 -6.78593000
-3.50294000 3.94005000 -6.57626000
-3.52908000 3.93411000 -6.52019000
-3.58030000 4.15410000 -6.57616000
-3.54405000 4.05199000 -6.56597000
1.19104000 -4.44505000 -9.57199000
1.30755000 -4.28032000 -9.51091000
0.73373200 -4.53447000 -9.64815000
0.83852000 -4.46741000 -9.61738000
0.30081000 -4.80147000 -2.99722000
0.26324600 -4.76156000 -3.02256000
0.19466800 -4.77133000 -3.01091000
0.12380100 -4.76728000 -3.00561000
2.49650000 -2.24618000 -4.32724000
2.59162000 -2.27912000 -4.34387000
2.43165000 -2.41090000 -4.26471000
2.48242000 -2.59487000 -4.23005000
2.58308000 -2.73836000 -4.22437000
3.27971000 2.13204000 -6.69296000
3.46875000 2.19327000 -6.67268000
3.36802000 2.07739000 -6.70081000
-2.59785000 1.94369000 -7.33291000
-2.50353000 1.95695000 -7.33781000
-2.57694000 1.79104000 -7.37301000
1.43556000 -1.27833000 -3.96152000
1.43253000 -1.19596000 -3.99432000
1.34979000 -1.10940000 -4.02167000
1.38160000 -1.23276000 -3.97000000
2.67780000 -6.05247000 -4.84540000
2.66455000 -6.05778000 -4.88886000
2.72091000 -6.05291000 -4.92492000
2.58519000 -6.06273000 -4.73108000
2.45988000 -6.09037000 -4.66950000
2.51047000 -6.08020000 -4.73116000
-2.72075000 -1.21212000 -8.41513000
-2.78318000 -1.29366000 -8.41505000
-2.69066000 -1.27149000 -8.43857000
-2.65328000 -1.34960000 -8.48048000
-2.71726000 -1.36265000 -8.45992000
2.82382000 1.12530000 -5.70131000
3.08701000 1.10409000 -5.73264000
3.08407000 1.24253000 -5.82454000
2.70220000 0.99296200 -5.59445000
2.72858000 1.08973000 -5.65961000
2.54221000 1.07146000 -5.61067000
3.74558000 -3.79575000 -4.00109000
3.67674000 -3.88383000 -3.94638000
3.85867000 -3.70602000 -4.02453000
3.89012000 -3.63049000 -4.07204000
3.39684000 -1.40655000 -8.31551000
3.53438000 -1.34241000 -8.26535000
3.53740000 -1.45514000 -8.29599000
3.59563000 -1.33502000 -8.24196000
-2.06212000 3.59802000 -5.44522000
-1.99684000 3.45740000 -5.48086000
-1.98426000 3.55370000 -5.50261000
-2.09529000 3.51246000 -5.41506000
-2.14218000 3.39916000 -5.38050000
-2.06184000 3.40290000 -5.43149000
0.88309600 -5.20218000 -3.69920000
1.48798000 -5.20673000 -3.88826000
0.83672700 -5.22064000 -3.80137000
0.11775200 -5.22738000 -3.72643000
3.76089000 -3.88699000 -3.91930000
3.80594000 -3.95623000 -3.88994000
3.84341000 -3.93607000 -3.94098000
3.82725000 -3.91278000 -3.91863000
3.12007000 -1.26721000 -8.30512000
3.18289000 -1.29783000 -8.31851000
3.11404000 -1.36884000 -8.35227000
-3.38639000 2.63550000 -7.14130000
-3.35524000 2.56502000 -7.15408000
-3.37583000 2.51959000 -7.15899000
-3.32480000 2.59669000 -7.14067000
-3.26901000 2.58445000 -7.11788000
-3.30462000 2.51828000 -7.14888000
1.86539000 1.39889000 -5.70449000
1.15716000 1.72401000 -5.79248000
1.37300000 1.68421000 -5.80494000
1.27830000 1.76454000 -5.83915000
-0.51375100 3.06177000 -6.05952000
-0.40494600 3.18437000 -6.07188000
-0.57133400 3.19851000 -6.05475000
-0.32972100 3.14014000 -6.07873000
-0.37879100 2.99705000 -6.07085000
0.20638100 -0.27799100 -8.30035000
-0.16143100 -0.29139000 -8.32757000
1.30983000 -1.13749000 -4.01050000
1.23202000 -1.04392000 -4.04564000
1.25867000 -1.00295000 -4.05761000
1.16739000 -0.96780500 -4.06304000
3.00861000 -2.59064000 -8.75368000
3.59019000 -2.63130000 -8.63253000
3.32317000 -2.68898000 -8.70826000
3.39643000 -2.60680000 -8.67255000
-2.67612000 -1.52183000 -8.52144000
-2.60470000 -1.60597000 -8.57555000
-2.71225000 -1.56075000 -8.53183000
-1.23874000 1.81737000 -5.30418000
-1.19928000 1.70248000 -5.24057000
-1.17513000 1.80262000 -5.31117000
4.40024000 -3.13236000 -8.30124000
4.47547000 -2.86798000 -8.21148000
4.43655000 -2.79198000 -8.25122000
4.49776000 -2.64428000 -8.17552000
3.25625000 -5.92546000 -6.39721000
3.24570000 -5.95063000 -6.21131000
3.21707000 -5.97192000 -6.24763000
3.28480000 -5.90758000 -6.29902000
-3.27101000 3.99403000 -5.56035000
-3.23604000 3.92777000 -5.56204000
-3.28029000 3.92365000 -5.59454000
-3.32538000 4.06096000 -5.57130000
2.90405000 -5.97215000 -7.76754000
2.99927000 -5.88913000 -7.74299000
3.02381000 -5.91567000 -7.63005000
2.65070000 -6.01691000 -8.11549000
2.84362000 -5.99495000 -7.83542000
-1.61975000 2.91209000 -6.73686000
-1.56847000 2.94923000 -6.70482000
-1.56144000 2.77113000 -6.76190000
-1.59165000 2.85000000 -6.73866000
-3.89557000 -2.50762000 -4.54452000
-3.87308000 -2.44155000 -4.50208000
-3.95446000 -2.32983000 -4.64307000
-3.95854000 -2.42363000 -4.65594000
-3.94688000 -2.55346000 -4.64544000
1.78742000 1.70253000 -6.88350000
1.95043000 1.65851000 -6.89395000
1.57951000 1.51876000 -6.96468000
1.77539000 1.55414000 -6.94214000
1.54299000 1.64622000 -6.91443000
0.71797500 -5.80894000 -4.82881000
0.48908000 -5.79074000 -4.92044000
-2.86951000 -1.76973000 -8.54511000
-2.83826000 -1.80507000 -8.57208000
-2.96847000 -1.79730000 -8.52444000
-2.71641000 -1.86428000 -8.61277000
-2.78437000 -1.96185000 -8.62403000
-2.76005000 -1.87982000 -8.61284000
-2.43724000 -4.76371000 -8.26545000
-2.38123000 -4.68079000 -8.39001000
-2.45231000 -4.66326000 -8.32576000
-2.35457000 -4.78807000 -8.34170000
-0.70581000 -5.82709000 -5.09766000
-0.72038800 -5.81498000 -5.17923000
-0.63062300 -5.80422000 -5.22105000
3.46140000 -4.31045000 -8.21002000
3.43571000 -4.24976000 -8.27140000
3.37116000 -4.37829000 -8.28276000
3.53048000 -4.17050000 -8.19335000
3.51769000 -4.09619000 -8.24259000
2.94528000 -5.98950000 -6.22886000
3.06868000 -6.02294000 -6.12694000
3.03804000 -6.02222000 -6.10347000
3.05076000 -6.01265000 -6.17487000
-2.72475000 -1.74076000 -8.57216000
-2.78669000 -1.68737000 -8.53986000
-2.75721000 -1.76051000 -8.56890000
-2.85055000 -1.71913000 -8.52595000
-0.56934400 2.12694000 -6.94590000
-0.83658000 1.87551000 -7.13611000
-0.77314400 1.96256000 -7.06862000
2.65536000 -4.27729000 -9.26309000
2.40792000 -4.40730000 -9.34553000
1.07819000 2.65980000 -6.15246000
1.18585000 2.69081000 -6.15744000
1.17281000 2.74398000 -6.16152000
1.61691000 2.63406000 -6.18043000
-3.35125000 2.88273000 -5.73198000
-3.31281000 2.85278000 -5.68180000
-3.32910000 2.80284000 -5.70984000
-3.34835000 2.97744000 -5.73206000
-3.38411000 2.88651000 -5.78242000
2.02609000 0.20443000 -7.97656000
1.92707000 0.19788600 -7.99349000
1.87028000 0.22368800 -7.97020000
1.92720000 0.23047700 -7.96649000
1.06257000 -4.33305000 -9.55608000
1.17595000 -4.24769000 -9.51774000
1.04063000 -4.15702000 -9.50829000
1.06211000 -3.99480000 -9.46446000
1.26138000 -4.09638000 -9.46561000
-3.26560000 3.03255000 -5.64514000
1.86841000 -5.33960000 -7.48082000
1.69757000 -5.34803000 -7.34209000
1.34886000 -5.34132000 -7.40751000
-0.57736700 1.86945000 -7.11213000
-0.49573300 2.01248000 -7.01887000
-0.59824400 1.91101000 -7.08753000
-0.62248100 2.07961000 -6.97925000
-3.19496000 4.27307000 -5.11297000
-3.29188000 4.28150000 -5.14540000
-3.24141000 4.21686000 -5.16534000
-3.30567000 4.31240000 -5.12771000
-3.20167000 4.32363000 -5.07936000
3.18788000 -4.35525000 -3.59627000
3.16848000 -4.39237000 -3.55907000
3.21390000 -4.40679000 -3.57383000
3.13598000 -4.33310000 -3.62777000
-3.38582000 -1.84540000 -7.78137000
-3.35901000 -2.08985000 -7.84329000
-3.31091000 -2.06638000 -7.88403000
-3.35351000 -1.13608000 -7.68572000
-3.35066000 -0.64216700 -7.59553000
-3.16640000 0.87810100 -4.57320000
-3.20236000 0.86689400 -4.56314000
-3.21425000 0.69328200 -4.50312000
-3.22948000 0.79845100 -4.54730000
-3.24847000 0.76570900 -4.54686000
-3.23264000 0.59827800 -4.47570000
2.21778000 0.07027470 -7.99058000
2.07626000 0.10716500 -8.01693000
2.21828000 0.11102400 -7.98219000
2.25989000 0.05055510 -7.96518000
4.65508000 -2.87906000 -4.95283000
4.64486000 -2.78348000 -4.93829000
4.63590000 -2.92703000 -4.91474000
4.00435000 -1.76643000 -4.69143000
4.04477000 -1.62275000 -4.75633000
3.92787000 -1.71921000 -4.67707000
3.86284000 -1.72855000 -4.65391000
-3.38024000 3.33901000 -5.77480000
-3.33332000 3.39524000 -5.71967000
-3.19698000 3.38832000 -5.60173000
-3.19679000 3.44477000 -5.59274000
-3.15049000 3.38928000 -5.57153000
-4.46707000 -1.59353000 -5.94238000
-4.47868000 -1.42101000 -5.93558000
-4.48086000 -1.65359000 -5.91676000
-4.45991000 -1.75430000 -5.93435000
2.14508000 0.01671440 -8.04265000
2.22619000 0.05107690 -7.99706000
2.24540000 0.01824720 -8.01845000
-2.31783000 -1.09490000 -3.99315000
-2.29572000 -1.01238000 -4.01631000
-2.26684000 -0.69944500 -4.11075000
-2.29691000 -0.52474600 -4.17222000
-2.37483000 -0.53291000 -4.17045000
1.91822000 2.09630000 -6.73690000
2.84674000 2.24011000 -6.67891000
2.50224000 2.15569000 -6.70827000
1.18275000 3.09483000 -6.15595000
1.14478000 2.89050000 -6.16142000
1.27136000 2.92316000 -6.16592000
1.25612000 2.63831000 -6.15830000
1.35625000 2.78011000 -6.17359000
1.27057000 2.76169000 -6.16867000
2.06597000 3.63169000 -6.51842000
2.08698000 3.61613000 -6.59425000
2.04553000 3.62819000 -6.57295000
2.03092000 3.56925000 -6.72102000
2.08010000 3.58079000 -6.69175000
0.25908800 -5.75222000 -9.51437000
0.25508700 -5.92192000 -9.36516000
0.18886800 -5.74038000 -9.52381000
0.18365600 -5.92846000 -9.35570000
-0.87424700 3.74693000 -6.04956000
-0.92019200 3.73744000 -6.04523000
-3.43569000 -4.97480000 -6.58093000
-3.34738000 -5.07945000 -6.72244000
-2.74234000 -4.67082000 -7.90759000
-2.86634000 -4.53202000 -7.84512000
-2.54057000 -4.84760000 -8.04083000
-2.52794000 -4.78433000 -8.12754000
1.87015000 2.76939000 -6.20140000
1.69797000 3.03675000 -6.18143000
3.81385000 -4.15205000 -7.71655000
3.88188000 -4.07561000 -7.62295000
3.72115000 -4.26671000 -7.81548000
2.06802000 0.05679490 -8.03143000
1.91946000 0.08537950 -8.03517000
1.95611000 0.09748410 -8.03571000
-1.00623000 1.39537000 -5.09715000
-1.09546000 1.36405000 -5.05509000
-0.72139900 1.56273000 -5.29526000
-0.85338100 1.53806000 -5.22844000
-3.94471000 4.45751000 -7.02093000
-3.86515000 4.46802000 -7.11834000
-3.90112000 4.43093000 -7.08368000
3.02860000 -4.18768000 -9.20261000
3.02860000 -4.18768000 -9.20261000
3.55325000 -1.36985000 -4.67183000
3.53468000 -1.29182000 -4.70179000
3.48788000 -1.36247000 -4.65479000
-3.67377000 4.22351000 -5.48720000
-3.81526000 4.31703000 -5.55174000
4.16415000 1.85333000 -6.80276000
4.09958000 1.75953000 -6.84420000
4.09310000 1.82675000 -6.82607000
-3.70001000 -2.39473000 -4.26257000
-3.63758000 -2.49488000 -4.18952000
-3.77149000 -2.61966000 -4.35911000
-3.81211000 -2.45747000 -4.40799000
-3.84533000 -2.53918000 -4.46232000
-3.21977000 -2.02641000 -3.78447000
-3.19560000 -2.06794000 -3.79869000
-3.18254000 -2.00725000 -3.80462000
-3.20490000 -1.85334000 -3.83000000
-0.75284200 0.92644900 -4.68164000
-0.79211800 0.89042900 -4.67953000
-0.74324400 0.85235400 -4.64597000
-0.80580500 0.94716900 -4.71490000
-2.07408000 4.67876000 -7.28158000
-2.14631000 4.68504000 -7.31994000
-2.14625000 4.71668000 -7.29163000
-3.63107000 4.13996000 -5.49998000
-3.57541000 4.15575000 -5.42548000
-0.51640400 1.57829000 -5.23978000
-0.55175000 1.56272000 -5.23880000
-0.51274000 1.53089000 -5.20493000
-3.61868000 4.61420000 -7.07545000
-3.46427000 4.61707000 -7.19484000
-3.36829000 4.61739000 -7.22687000
-1.30038000 -5.83315000 -3.70974000
-1.20792000 -5.81458000 -3.64145000
-1.06420000 1.98269000 -7.10681000
-3.30897000 -3.84830000 -5.04882000
-3.25064000 -3.86336000 -4.94543000
-3.23997000 -3.94235000 -4.98185000
-3.29857000 -3.95360000 -5.11528000
-3.34861000 -3.89512000 -5.18227000
-3.36978000 -3.79644000 -5.14376000
-3.84326000 4.44303000 -7.15189000
-3.88074000 4.34048000 -7.04968000
-3.91414000 4.37557000 -7.05435000
-3.90050000 4.61331000 -6.50056000
-3.84552000 4.59903000 -6.64908000
-3.78689000 4.61150000 -6.82577000
-3.87657000 4.61608000 -6.65652000
-2.53830000 1.73697000 -4.92675000
-2.43681000 1.73924000 -4.93141000
-2.34743000 1.56924000 -4.88260000
-2.46964000 1.54499000 -4.86991000
-2.40796000 1.46182000 -4.84444000
1.03367000 -4.17680000 -3.60012000
1.33892000 -3.80454000 -3.71723000
-3.66472000 -2.28845000 -7.44789000
-3.56740000 -2.56517000 -7.61376000
-3.51995000 -2.75543000 -7.68074000
0.61473000 1.12567000 -5.52708000
0.44958100 1.18215000 -5.53101000
0.51180500 1.42753000 -5.67822000
0.49503700 0.71938800 -5.28570000
0.65747400 0.66856800 -5.28246000
0.62360600 0.50311500 -5.18960000
0.47106700 0.15917600 -4.55672000
0.56019700 0.16473000 -4.57766000
0.35696800 0.22211700 -4.56194000
3.55683000 -2.89603000 -4.19972000
3.59162000 -2.96644000 -4.19612000
3.60032000 -2.86648000 -4.23321000
3.55575000 -2.80397000 -4.23769000
1.20908000 -4.59096000 -3.53794000
1.09481000 -4.80200000 -3.48549000
1.07300000 -4.66383000 -3.50566000
1.21075000 -4.40611000 -3.57287000
-1.87729000 2.53482000 -7.07101000
-1.80348000 2.45052000 -7.06933000
-1.92264000 2.66769000 -7.04838000
-3.91928000 -0.92668700 -7.62284000
-3.88647000 -1.06033000 -7.72155000
-3.92777000 -1.24335000 -7.73490000
-3.94977000 -0.69643900 -7.46751000
4.71915000 -2.84387000 -7.75521000
4.75211000 -2.76366000 -7.64288000
4.72491000 -2.93246000 -7.69760000
4.78202000 -2.69503000 -7.50885000
-1.90487000 0.97719400 -7.68521000
-1.72140000 1.05078000 -7.64868000
-1.63576000 1.10294000 -7.62081000
3.98097000 4.45684000 -6.55366000
3.90072000 4.51467000 -6.54511000
3.70809000 4.54480000 -6.56381000
3.89037000 4.48012000 -6.57225000
-1.24578000 0.58107400 -7.51374000
-0.56477300 0.65777300 -7.43692000
-0.60996800 0.84366300 -7.35966000
-0.09658110 0.82313900 -7.33745000
-3.83858000 -0.88172000 -7.70578000
-3.87598000 -0.85690700 -7.65111000
-1.96484000 -0.76394100 -4.39223000
