3.00840000 -4.42930000 -8.31980000
3.39950000 -4.16100000 -8.16830000
3.03150000 -4.14890000 -8.32280000
2.65270000 -4.13760000 -8.45060000
3.05080000 -3.86800000 -8.31360000
2.67280000 -3.85650000 -8.44410000
2.28850000 -3.84590000 -8.55830000
2.69260000 -3.57530000 -8.43440000
2.30960000 -3.56440000 -8.55290000
1.91910000 -3.55450000 -8.64790000
2.32950000 -3.28280000 -8.54040000
1.93980000 -3.27270000 -8.63780000
1.54450000 -3.26330000 -8.71430000
1.96030000 -2.99070000 -8.62330000
1.56560000 -2.98120000 -8.70190000
1.16770000 -2.97230000 -8.76820000
1.58550000 -2.69940000 -8.67880000
1.18780000 -2.69040000 -8.74300000
0.78750000 -2.68190000 -8.79380000
0.76660000 -2.96430000 -8.81560000
0.38450000 -2.67440000 -8.82330000
0.80770000 -2.40070000 -8.75710000
0.40590000 -2.39270000 -8.79070000
0.00210000 -2.38620000 -8.79970000
0.42760000 -2.11180000 -8.75110000
0.02490000 -2.10450000 -8.76560000
-0.37880000 -2.09890000 -8.75480000
0.04850000 -1.82360000 -8.72470000
-0.35420000 -1.81780000 -8.71560000
-0.75660000 -1.81350000 -8.68440000
-0.78260000 -2.09400000 -8.72640000
-1.15810000 -1.80920000 -8.63760000
-1.18520000 -2.09000000 -8.67840000
-1.55830000 -1.80510000 -8.57540000
-1.58590000 -2.08610000 -8.61310000
-1.95540000 -1.80210000 -8.49220000
-1.98310000 -2.08320000 -8.52720000
-2.34830000 -1.79960000 -8.38860000
-2.37700000 -2.08080000 -8.42350000
-2.73660000 -1.79740000 -8.26730000
-2.76710000 -2.07800000 -8.30470000
-3.12000000 -1.79510000 -8.13010000
-3.15040000 -2.07600000 -8.16330000
-3.49520000 -1.79390000 -7.96960000
-3.52620000 -2.07470000 -8.00240000
-3.86150000 -1.79340000 -7.78850000
-3.89260000 -2.07420000 -7.81930000
-4.22020000 -1.79270000 -7.59210000
-4.25220000 -2.07310000 -7.62250000
-4.56890000 -1.79220000 -7.37720000
-4.60330000 -2.07180000 -7.41020000
-4.90710000 -1.79180000 -7.14560000
-4.94260000 -2.07100000 -7.17830000
-5.23490000 -1.79190000 -6.89810000
-5.27020000 -2.07100000 -6.92910000
-5.54990000 -1.79270000 -6.63300000
-5.58280000 -2.07200000 -6.65950000
-5.86040000 -1.79200000 -6.36070000
-5.89290000 -2.07110000 -6.38540000
-6.16500000 -1.79030000 -6.08080000
-6.19830000 -2.06910000 -6.10490000
-6.45290000 -1.78940000 -5.78230000
-6.49090000 -2.06710000 -5.80950000
-6.72650000 -1.78870000 -5.46960000
-6.76360000 -2.06650000 -5.49490000
-6.97980000 -1.78920000 -5.13930000
-7.01840000 -2.06660000 -5.16420000
-7.21990000 -1.78960000 -4.79820000
-7.25690000 -2.06690000 -4.82070000
-7.44090000 -1.79060000 -4.44320000
-7.48090000 -2.06720000 -4.46620000
-7.64500000 -1.79120000 -4.07720000
-7.68290000 -2.06800000 -4.09800000
-7.82780000 -1.79270000 -3.69950000
-7.86970000 -2.06880000 -3.72080000
-7.99840000 -1.79400000 -3.31500000
-8.03930000 -2.07000000 -3.33500000
-8.15200000 -1.79580000 -2.92240000
-8.19180000 -2.07200000 -2.94090000
-8.29070000 -1.79710000 -2.52370000
-8.33260000 -2.07330000 -2.54140000
-8.41060000 -1.79850000 -2.11840000
-8.45730000 -2.07420000 -2.13620000
-8.50970000 -1.80080000 -1.70690000
-8.55280000 -2.07700000 -1.72270000
-8.58560000 -1.80390000 -1.29010000
-8.62580000 -2.08050000 -1.30380000
-8.64180000 -1.80720000 -0.86920000
-8.68080000 -2.08400000 -0.88160000
-8.67730000 -1.81080000 -0.44570000
-8.71990000 -2.08700000 -0.45700000
-8.69040000 -1.81490000 -0.02020000
-8.63260000 -1.53480000 -0.43420000
-8.64100000 -1.53950000 -0.01040000
-8.62860000 -1.54450000 0.41390000
-8.67690000 -1.82000000 0.40560000
-8.59450000 -1.54970000 0.83750000
-8.63900000 -1.82600000 0.83060000
-8.53510000 -1.55580000 1.25840000
-8.54310000 -1.27460000 0.84350000
-8.48640000 -1.28010000 1.26310000
-8.40600000 -1.28660000 1.67940000
-8.45270000 -1.56230000 1.67610000
-8.30760000 -1.29260000 2.09200000
-8.35560000 -1.56800000 2.09110000
-8.19110000 -1.29770000 2.50060000
-8.25440000 -1.01790000 2.09170000
-8.14220000 -1.02230000 2.49970000
-8.01060000 -1.02640000 2.90150000
-8.05580000 -1.30250000 2.90290000
-7.85810000 -1.03070000 3.29560000
-7.90470000 -1.30680000 3.29930000
-7.68950000 -1.03440000 3.68290000
-7.73640000 -1.31080000 3.68860000
-7.50060000 -1.03850000 4.06070000
-7.54610000 -1.31510000 4.06720000
-7.28750000 -1.04350000 4.42450000
-7.45300000 -0.76210100 4.05280000
-7.23890000 -0.76700100 4.41440000
-7.01160000 -0.77160100 4.76730000
-7.18790000 -0.49150100 4.40240000
-6.96120000 -0.49580100 4.75390000
-6.72370000 -0.49910100 5.09700000
-6.90840000 -0.22010100 4.73810000
-6.67200000 -0.22310100 5.07970000
-6.41800000 -0.22640100 5.40780000
-6.61780000 0.05239900 5.06030000
-6.36580000 0.04959900 5.38700000
-6.09910000 0.04679900 5.70140000
-6.31230000 0.32519900 5.36480000
-6.04670000 0.32259900 5.67690000
-5.76560000 0.31979900 5.97500000
-5.98810000 0.59699900 5.64630000
-5.70610000 0.59309900 5.94000000
-5.41360000 0.59059900 6.22460000
-5.46940000 0.31609900 6.25860000
-5.10270000 0.58599900 6.48780000
-5.15920000 0.31219900 6.52650000
-4.77950000 0.58209900 6.73590000
-4.83050000 0.30649900 6.77120000
-4.44430000 0.57869900 6.96680000
-4.49560000 0.30319900 7.00620000
-4.09970000 0.57549900 7.18150000
-4.15180000 0.30079900 7.22650000
-3.74430000 0.57169900 7.37640000
-3.79500000 0.29699900 7.42430000
-3.38140000 0.56839900 7.55720000
-3.42940000 0.29269900 7.60400000
-3.01330000 0.56599900 7.72450000
-3.05710000 0.28899900 7.76850000
-2.63780000 0.56399900 7.87350000
-2.67970000 0.28629900 7.91770000
-2.25410000 0.55989900 7.99780000
-2.29760000 0.28409900 8.05250000
-1.86570000 0.55579900 8.10340000
-1.90640000 0.27869900 8.15520000
-1.47390000 0.55159900 8.19080000
-1.51320000 0.27429900 8.24430000
-1.07980000 0.54719900 8.26040000
-1.11770000 0.26969900 8.31590000
-0.68380000 0.54229900 8.30770000
-0.72020000 0.26479900 8.36690000
-0.28740000 0.53739900 8.33690000
-0.32160000 0.25869900 8.39360000
0.10830000 0.53239900 8.34770000
0.07590000 0.25339900 8.40560000
0.50240000 0.52769900 8.34100000
0.47170000 0.24799900 8.39930000
0.89390000 0.52149900 8.31310000
0.86500000 0.24179900 8.37280000
1.28180000 0.51529900 8.26800000
1.25590000 0.23599900 8.33340000
1.66450000 0.50669900 8.19750000
1.64110000 0.22809900 8.26680000
2.04290000 0.49979900 8.11570000
2.02050000 0.21939900 8.17960000
2.41360000 0.49049900 8.01120000
2.39460000 0.21079900 8.07910000
2.77780000 0.48089900 7.89180000
2.76170000 0.20169900 7.96250000
3.13470000 0.47099900 7.75850000
3.12140000 0.19189900 7.83020000
3.48360000 0.46019900 7.60980000
3.47250000 0.18099900 7.68180000
3.82320000 0.44919900 7.44710000
3.81390000 0.16929900 7.51760000
4.15160000 0.43689900 7.26800000
4.14700000 0.15749900 7.34040000
4.47030000 0.42429900 7.07580000
4.46890000 0.14499900 7.14890000
4.78060000 0.41199900 6.87550000
4.78090000 0.13199900 6.94550000
5.07920000 0.39819900 6.66090000
5.08170000 0.11839900 6.72980000
5.36740000 0.38469900 6.43710000
5.37180000 0.10459900 6.50340000
5.64190000 0.36949900 6.20000000
5.65250000 0.09069900 6.26790000
5.90320000 0.35359900 5.95070000
5.91670000 0.07509900 6.01670000
6.15300000 0.33719900 5.69180000
6.16850000 0.05889900 5.75640000
6.39180000 0.32099900 5.42640000
6.41230000 0.04359900 5.48920000
6.61960000 0.30489900 5.15190000
6.64110000 0.02779900 5.21240000
6.83360000 0.28829900 4.86960000
6.85690000 0.01139900 4.92600000
7.03170000 0.27059900 4.57740000
7.06030000 -0.00500100 4.63320000
7.21640000 0.25289900 4.27870000
7.24960000 -0.02140100 4.33220000
7.39160000 0.23609900 3.97490000
7.42760000 -0.03740100 4.02480000
7.55440000 0.21989900 3.66590000
7.59280000 -0.05280100 3.71130000
7.70660000 0.20589900 3.35130000
7.74730000 -0.06610100 3.39290000
7.84300000 0.19210000 3.03020000
7.88630000 -0.07900100 3.06760000
7.96530000 0.17960000 2.70370000
8.01110000 -0.09100000 2.73780000
8.07610000 0.16870000 2.37330000
8.12480000 -0.10080000 2.40320000
8.17350000 0.15930000 2.03860000
8.22260000 -0.10960000 2.06340000
8.25700000 0.15240000 1.70040000
8.30700000 -0.11640000 1.72010000
8.32360000 0.14610000 1.35830000
8.37600000 -0.12200000 1.37380000
8.37490000 0.14170000 1.01380000
8.42680000 -0.12660000 1.02410000
8.41300000 0.13910000 0.66720000
8.46580000 -0.12830000 0.67190000
8.43380000 0.13800000 0.31830000
8.48960000 -0.12830000 0.31860000
8.43720000 0.13910000 -0.03210000
8.49210000 -0.12730000 -0.03660000
8.42570000 0.14250000 -0.38280000
8.47870000 -0.12350000 -0.39250000
8.52860000 -0.39110000 -0.40130000
8.45060000 -0.11690000 -0.74790000
8.50240000 -0.38390000 -0.76080000
8.55030000 -0.65210000 -0.77350000
8.45720000 -0.37580000 -1.11890000
8.50280000 -0.64420000 -1.13480000
8.54740000 -0.91340000 -1.15160000
8.43960000 -0.63460000 -1.49540000
8.48170000 -0.90430000 -1.51390000
8.52140000 -1.17470000 -1.53280000
8.40400000 -0.89310000 -1.87430000
8.44130000 -1.16390000 -1.89680000
8.47830000 -1.43500000 -1.91790000
8.34170000 -1.15170000 -2.25520000
8.37880000 -1.42260000 -2.28080000
8.41160000 -1.69440000 -2.30480000
8.26450000 -1.40910000 -2.63850000
8.29620000 -1.68130000 -2.66580000
8.32240000 -1.95450000 -2.69070000
8.16520000 -1.66710000 -3.02090000
8.19210000 -1.94060000 -3.04920000
8.21300000 -2.21500000 -3.07470000
8.04330000 -1.92600000 -3.40030000
8.06340000 -2.20060000 -3.42850000
8.08110000 -2.47570000 -3.45460000
7.90480000 -2.18470000 -3.77750000
7.91810000 -2.46070000 -3.80480000
7.93090000 -2.73670000 -3.83050000
7.74360000 -2.44470000 -4.14910000
7.75460000 -2.72120000 -4.17660000
7.76420000 -2.99800000 -4.20250000
7.56730000 -2.70490000 -4.51690000
7.57390000 -2.98210000 -4.54310000
7.57250000 -3.26000000 -4.56430000
7.37120000 -2.96560000 -4.87680000
7.36410000 -3.24410000 -4.89580000
7.34920000 -3.52260000 -4.90930000
7.14270000 -3.22790000 -5.21900000
7.12610000 -3.50660000 -5.23210000
7.10660000 -3.78530000 -5.24240000
6.88590000 -3.49030000 -5.54240000
6.87010000 -3.76940000 -5.55620000
6.85220000 -4.04850000 -5.56740000
6.61970000 -3.75320000 -5.85890000
6.60160000 -4.03260000 -5.87040000
6.58200000 -4.31200000 -5.87980000
6.33680000 -4.01670000 -6.16120000
6.31780000 -4.29640000 -6.17130000
6.29450000 -4.57590000 -6.17630000
6.03820000 -4.28070000 -6.44820000
6.01590000 -4.56050000 -6.45400000
5.98740000 -4.83960000 -6.45240000
5.72190000 -4.54470000 -6.71560000
5.69240000 -4.82390000 -6.71170000
5.65860000 -5.10230000 -6.70180000
5.38630000 -4.80800000 -6.95800000
5.35300000 -5.08640000 -6.94740000
5.31590000 -5.36390000 -6.93060000
5.03820000 -5.07060000 -7.18070000
5.00160000 -5.34780000 -7.16210000
4.71110000 -5.05490000 -7.39820000
5.07050000 -4.79230000 -7.19250000
4.74310000 -4.77670000 -7.41160000
4.40730000 -4.76160000 -7.61820000
4.77090000 -4.49750000 -7.41730000
4.43550000 -4.48260000 -7.62630000
4.09130000 -4.46810000 -7.82170000
4.45980000 -4.20270000 -7.62620000
4.11530000 -4.18820000 -7.82220000
3.76040000 -4.17410000 -8.00050000
4.13550000 -3.90770000 -7.81430000
3.78190000 -3.89370000 -7.99580000
3.42030000 -3.88040000 -8.16250000
3.80210000 -3.61300000 -7.98610000
3.43980000 -3.59960000 -8.15170000
3.07080000 -3.58700000 -8.30390000
3.45910000 -3.31850000 -8.13830000
3.09010000 -3.30570000 -8.29030000
2.71360000 -3.29380000 -8.42510000
3.10970000 -3.02430000 -8.27460000
2.73320000 -3.01220000 -8.40910000
2.35000000 -3.00100000 -8.52640000
2.75040000 -2.73090000 -8.38320000
2.36870000 -2.71930000 -8.50320000
1.97950000 -2.70900000 -8.59940000
2.38610000 -2.43800000 -8.47240000
1.99760000 -2.42770000 -8.56720000
1.60380000 -2.41850000 -8.64300000
2.01550000 -2.14670000 -8.53060000
1.62270000 -2.13750000 -8.60560000
1.22720000 -2.12840000 -8.66970000
1.20700000 -2.40950000 -8.70690000
0.82870000 -2.11960000 -8.71890000
1.24710000 -1.84790000 -8.62680000
0.84990000 -1.83900000 -8.67680000
0.45020000 -1.83090000 -8.70980000
0.87150000 -1.55850000 -8.63290000
0.47310000 -1.55010000 -8.66690000
0.07270000 -1.54300000 -8.68070000
0.49690000 -1.26880000 -8.62680000
0.09760000 -1.26150000 -8.64310000
-0.30320000 -1.25610000 -8.63330000
-0.32900000 -1.53700000 -8.67410000
-0.70400000 -1.25090000 -8.60900000
-0.73040000 -1.53240000 -8.64510000
-1.10430000 -1.24630000 -8.56640000
-1.13130000 -1.52800000 -8.59990000
-1.50240000 -1.24290000 -8.50210000
-1.53040000 -1.52400000 -8.53870000
-1.89760000 -1.24010000 -8.41900000
-1.92670000 -1.52100000 -8.45610000
-2.28880000 -1.23780000 -8.31700000
-2.31890000 -1.51870000 -8.35300000
-2.67620000 -1.23550000 -8.19850000
-2.70650000 -1.51640000 -8.23300000
-3.05830000 -1.23350000 -8.06260000
-3.08940000 -1.51420000 -8.09610000
-3.43300000 -1.23240000 -7.90560000
-3.46440000 -1.51320000 -7.93790000
-3.79890000 -1.23210000 -7.72720000
-3.83040000 -1.51260000 -7.75800000
-4.15770000 -1.23150000 -7.53410000
-4.18870000 -1.51220000 -7.56230000
-4.50470000 -1.23150000 -7.31990000
-4.53650000 -1.51190000 -7.34810000
-4.84020000 -1.23230000 -7.08690000
-4.87300000 -1.51230000 -7.11550000
-5.16440000 -1.23380000 -6.83790000
-5.19980000 -1.51270000 -6.86790000
-5.48150000 -1.23470000 -6.57810000
-5.51650000 -1.51360000 -6.60630000
-5.79250000 -1.23450000 -6.30930000
-5.82700000 -1.51310000 -6.33550000
-6.09410000 -1.23350000 -6.02880000
-6.12820000 -1.51220000 -6.05320000
-6.37830000 -1.23380000 -5.72980000
-6.41640000 -1.51140000 -5.75670000
-6.64750000 -1.23410000 -5.41630000
-6.68690000 -1.51140000 -5.44280000
-6.90130000 -1.23490000 -5.08910000
-6.94070000 -1.51190000 -5.11430000
-7.13900000 -1.23610000 -4.74890000
-7.18030000 -1.51260000 -4.77410000
-7.36110000 -1.23720000 -4.39770000
-7.40210000 -1.51380000 -4.42100000
-7.56650000 -1.23790000 -4.03510000
-7.60600000 -1.51450000 -4.05630000
-7.75040000 -1.23960000 -3.66020000
-7.78850000 -1.51620000 -3.67940000
-7.91800000 -1.24170000 -3.27670000
-7.95690000 -1.51810000 -3.29520000
-8.06800000 -1.24400000 -2.88540000
-8.11020000 -1.52000000 -2.90380000
-8.20360000 -1.24580000 -2.48810000
-8.24710000 -1.52140000 -2.50600000
-8.32200000 -1.24730000 -2.08520000
-8.36640000 -1.52290000 -2.10160000
-8.42200000 -1.24890000 -1.67650000
-8.46730000 -1.52460000 -1.69180000
-8.49530000 -1.25230000 -1.26150000
-8.54300000 -1.52770000 -1.27610000
-8.55050000 -1.25570000 -0.84370000
-8.59910000 -1.53090000 -0.85670000
-8.58640000 -1.25910000 -0.42280000
-8.50140000 -0.98080000 -0.83080000
-8.53900000 -0.98350000 -0.41190000
-8.54690000 -0.98810000 0.00870000
-8.59740000 -1.26330000 -0.00080000
-8.52840000 -0.99450000 0.42930000
-8.57990000 -1.26920000 0.42170000
-8.48950000 -1.00000000 0.84890000
-8.47260000 -0.72010000 0.43630000
-8.43300000 -0.72590000 0.85380000
-8.37260000 -0.73210000 1.26930000
-8.43220000 -1.00550000 1.26680000
-8.29550000 -0.73800000 1.68210000
-8.35230000 -1.01190000 1.68100000
-8.19950000 -0.74380000 2.09140000
-8.23630000 -0.46470000 1.68260000
-8.14420000 -0.46970000 2.09090000
-8.03530000 -0.47310000 2.49530000
-8.08930000 -0.74760000 2.49750000
-7.91080000 -0.47550000 2.89560000
-7.96180000 -0.75060000 2.89880000
-7.76130000 -0.47920100 3.28700000
-7.81120000 -0.75480100 3.29200000
-7.58820000 -0.48320100 3.66860000
-7.64020000 -0.75860100 3.67640000
-7.40050000 -0.48650100 4.04260000
-7.53450000 -0.20810100 3.65990000
-7.34360000 -0.21200100 4.03000000
-7.13330000 -0.21650100 4.38830000
-7.28380000 0.06189900 4.01480000
-7.07490000 0.05779900 4.37240000
-6.85310000 0.05479900 4.72040000
-7.01680000 0.33229900 4.35520000
-6.79660000 0.32939900 4.70200000
-6.56310000 0.32729900 5.04000000
-6.73810000 0.60379900 4.68220000
-6.50460000 0.60159900 5.01680000
-6.25630000 0.60039900 5.34020000
-6.44300000 0.87519900 4.99080000
-6.19420000 0.87369900 5.31050000
-5.92650000 0.87019900 5.61380000
-6.12910000 1.14600000 5.27800000
-5.86360000 1.14310000 5.58040000
-5.58240000 1.13810000 5.86670000
-5.64510000 0.86599900 5.90480000
-5.28920000 1.13450000 6.14160000
-5.35150000 0.86239900 6.18270000
-4.98240000 1.13020000 6.40010000
-5.04300000 0.85819900 6.44510000
-4.66350000 1.12700000 6.64340000
-4.72240000 0.85509900 6.69190000
-4.33150000 1.12390000 6.86840000
-4.39010000 0.85239900 6.92120000
-3.98870000 1.12040000 7.07700000
-4.04510000 0.84859900 7.13070000
-3.63910000 1.11870000 7.27280000
-3.69140000 0.84529900 7.32520000
-3.28400000 1.11830000 7.45760000
-3.33380000 0.84389900 7.50950000
-2.91840000 1.11610000 7.61910000
-2.96710000 0.84149900 7.67390000
-2.54470000 1.11280000 7.76070000
-2.59240000 0.83929900 7.81950000
-2.16470000 1.10930000 7.88240000
-2.21030000 0.83529900 7.94200000
-1.77960000 1.10560000 7.98400000
-1.82320000 0.83119900 8.04480000
-1.39200000 1.10200000 8.06830000
-1.43310000 0.82729900 8.13220000
-1.00100000 1.09820000 8.13300000
-1.04080000 0.82359900 8.20040000
-0.60890000 1.09430000 8.17880000
-0.64650000 0.81879900 8.24580000
-0.21690000 1.09100000 8.20870000
-0.25230000 0.81479900 8.27490000
0.17440000 1.08760000 8.21950000
0.14160000 0.81039900 8.28600000
0.56420000 1.08340000 8.20890000
0.53340000 0.80659900 8.27990000
0.95080000 1.07720000 8.17530000
0.92250000 0.80009900 8.24780000
1.33250000 1.06890000 8.11910000
1.30730000 0.79219900 8.19450000
1.71070000 1.06180000 8.04860000
1.68760000 0.78479900 8.12580000
2.08360000 1.05440000 7.96230000
2.06360000 0.77789900 8.04220000
2.44920000 1.04550000 7.85730000
2.43160000 0.76859900 7.93620000
2.80990000 1.03730000 7.74060000
2.79340000 0.75899900 7.81660000
3.16110000 1.02760000 7.60590000
3.14780000 0.74939900 7.68290000
3.50420000 1.01750000 7.45760000
3.49390000 0.73909900 7.53490000
3.83830000 1.00720000 7.29560000
3.83150000 0.72869900 7.37380000
4.16190000 0.99609900 7.11920000
4.15630000 0.71619900 7.19300000
4.47580000 0.98419900 6.93010000
4.47240000 0.70409900 7.00360000
4.77960000 0.97119900 6.73000000
4.77960000 0.69159900 6.80300000
5.07120000 0.95729900 6.51630000
5.07590000 0.67819900 6.59130000
5.34900000 0.94179900 6.28880000
5.35830000 0.66349900 6.36470000
5.61730000 0.92589900 6.05400000
5.63010000 0.64799900 6.12790000
5.87450000 0.90929900 5.80960000
5.88900000 0.63159900 5.88100000
6.11860000 0.89219900 5.55520000
6.13620000 0.61489900 5.62510000
6.35190000 0.87489900 5.29340000
6.37350000 0.59859900 5.36210000
6.57200000 0.85709900 5.02390000
6.59670000 0.58149900 5.08950000
6.77730000 0.83849900 4.74450000
6.80490000 0.56339900 4.80820000
6.96700000 0.81879900 4.45680000
7.00080000 0.54489900 4.51830000
7.14850000 0.80009900 4.16510000
7.18370000 0.52659900 4.22380000
7.31930000 0.78259900 3.86930000
7.35590000 0.50949900 3.92330000
7.47480000 0.76479900 3.56620000
7.51480000 0.49269900 3.61710000
7.61730000 0.74769900 3.25900000
7.66130000 0.47699900 3.30540000
7.74940000 0.73250000 2.94760000
7.79490000 0.46230000 2.98940000
7.86680000 0.71760000 2.63060000
7.91800000 0.44910000 2.66740000
7.97460000 0.70620000 2.30980000
8.02850000 0.43820000 2.34280000
8.06640000 0.69560000 1.98470000
8.12050000 0.42780000 2.01230000
8.14420000 0.68700000 1.65570000
8.20090000 0.41990000 1.67850000
8.20850000 0.68020000 1.32480000
8.26760000 0.41340000 1.34210000
8.25950000 0.67510000 0.99100000
8.31930000 0.40850000 1.00300000
8.29690000 0.67170000 0.65420000
8.35670000 0.40580000 0.66130000
8.31830000 0.66980000 0.31600000
8.37860000 0.40480000 0.31740000
8.32150000 0.66960000 -0.02400000
8.38200000 0.40520000 -0.02800000
8.30920000 0.67200000 -0.36470000
8.36830000 0.40780000 -0.37480000
8.28020000 0.67790000 -0.70560000
8.33920000 0.41410000 -0.71990000
8.39510000 0.14870000 -0.73390000
8.29430000 0.42250000 -1.06440000
8.35090000 0.15720000 -1.08300000
8.40560000 -0.10870000 -1.10140000
8.28510000 0.16670000 -1.42940000
8.33970000 -0.09940000 -1.45220000
8.39180000 -0.36630000 -1.47340000
8.26050000 -0.08770000 -1.79920000
8.31250000 -0.35510000 -1.82640000
8.35970000 -0.62340000 -1.85000000
8.21820000 -0.34150000 -2.17280000
8.26300000 -0.61070000 -2.20200000
8.30520000 -0.88060000 -2.22950000
8.14840000 -0.59670000 -2.54730000
8.18760000 -0.86730000 -2.57810000
8.22700000 -1.13790000 -2.60900000
8.05830000 -0.85240000 -2.92310000
8.09560000 -1.12340000 -2.95680000
8.13310000 -1.39460000 -2.98990000
7.95190000 -1.10790000 -3.29960000
7.98580000 -1.37970000 -3.33500000
8.01660000 -1.65240000 -3.36880000
7.82890000 -1.36300000 -3.67600000
7.85710000 -1.63620000 -3.71220000
7.88690000 -1.90960000 -3.74810000
7.68280000 -1.61960000 -4.04820000
7.70800000 -1.89380000 -4.08530000
7.72900000 -2.16880000 -4.11870000
7.52050000 -1.87670000 -4.41680000
7.54180000 -2.15190000 -4.45420000
7.55630000 -2.42810000 -4.48690000
7.33670000 -2.13470000 -4.77870000
7.35220000 -2.41110000 -4.81490000
7.36600000 -2.68780000 -4.84920000
7.13220000 -2.39380000 -5.13240000
7.14270000 -2.67130000 -5.16680000
7.14850000 -2.94920000 -5.19740000
6.90160000 -2.65440000 -5.47160000
6.90460000 -2.93270000 -5.50230000
6.89980000 -3.21140000 -5.52640000
6.64810000 -2.91590000 -5.79710000
6.64800000 -3.19440000 -5.82680000
6.63610000 -3.47380000 -5.84530000
6.38380000 -3.17760000 -6.11670000
6.37150000 -3.45730000 -6.13550000
6.35400000 -3.73690000 -6.14870000
6.09010000 -3.44100000 -6.41000000
6.07480000 -3.72090000 -6.42570000
6.05740000 -4.00090000 -6.43820000
5.78260000 -3.70490000 -6.68950000
5.76410000 -3.98500000 -6.70110000
5.74380000 -4.26490000 -6.70960000
5.45890000 -3.96910000 -6.95040000
5.43700000 -4.24900000 -6.95680000
5.41350000 -4.52870000 -6.96030000
5.12090000 -4.23330000 -7.19280000
5.09630000 -4.51300000 -7.19420000
4.79500000 -4.21770000 -7.41590000
5.14290000 -3.95320000 -7.18660000
4.81620000 -3.93760000 -7.40900000
4.47990000 -3.92240000 -7.61760000
4.83550000 -3.65720000 -7.39780000
4.49910000 -3.64200000 -7.60640000
4.15540000 -3.62720000 -7.80430000
4.51750000 -3.36140000 -7.59240000
4.17630000 -3.34640000 -7.79430000
3.82230000 -3.33200000 -7.97480000
4.19340000 -3.06540000 -7.77560000
3.84030000 -3.05090000 -7.95700000
3.47840000 -3.03730000 -8.12240000
3.85460000 -2.77010000 -7.92950000
3.49450000 -2.75620000 -8.09740000
3.12570000 -2.74320000 -8.24730000
3.50600000 -2.47600000 -8.05960000
3.13910000 -2.46280000 -8.21110000
2.76510000 -2.45030000 -8.34740000
3.15170000 -2.18250000 -8.17080000
2.77990000 -2.16960000 -8.30900000
2.40260000 -2.15700000 -8.43460000
2.79500000 -1.88880000 -8.26810000
2.41870000 -1.87630000 -8.39230000
2.03300000 -1.86600000 -8.48880000
2.43460000 -1.59590000 -8.34670000
2.05060000 -1.58560000 -8.44300000
1.66090000 -1.57620000 -8.52010000
1.64180000 -1.85670000 -8.56480000
1.26740000 -1.56750000 -8.58240000
1.68040000 -1.29580000 -8.47410000
1.28830000 -1.28710000 -8.53610000
0.89350000 -1.27810000 -8.58780000
1.30970000 -1.00670000 -8.48950000
0.91660000 -0.99779900 -8.54070000
0.52090000 -0.98849900 -8.57940000
0.93970000 -0.71729900 -8.49320000
0.54520000 -0.70879900 -8.52850000
0.14850000 -0.70149900 -8.54650000
0.12270000 -0.98079900 -8.59880000
-0.24990000 -0.69519900 -8.54520000
-0.27700000 -0.97519900 -8.59250000
-0.64850000 -0.69009900 -8.52220000
-0.67700000 -0.96969900 -8.57040000
-1.04620000 -0.68659900 -8.47780000
-1.07620000 -0.96549900 -8.52760000
-1.44230000 -0.68299900 -8.41580000
-1.47310000 -0.96239900 -8.46220000
-1.83560000 -0.67999900 -8.33500000
-1.86710000 -0.95979900 -8.37850000
-2.22580000 -0.67759900 -8.23710000
-2.25800000 -0.95739900 -8.27890000
-2.61150000 -0.67559900 -8.12070000
-2.64470000 -0.95509900 -8.16180000
-2.99010000 -0.67469900 -7.98160000
-3.02580000 -0.95339900 -8.02520000
-3.36320000 -0.67399900 -7.82610000
-3.39960000 -0.95269900 -7.86920000
-3.72910000 -0.67379900 -7.65350000
-3.76580000 -0.95229900 -7.69370000
-4.08720000 -0.67319900 -7.46380000
-4.12560000 -0.95119900 -7.50430000
-4.43410000 -0.67329900 -7.25340000
-4.47290000 -0.95119900 -7.29190000
-4.76740000 -0.67479900 -7.02140000
-4.80520000 -0.95299900 -7.05620000
-5.09190000 -0.67669900 -6.77580000
-5.13000000 -0.95459900 -6.80900000
-5.40810000 -0.67809900 -6.51820000
-5.44560000 -0.95609900 -6.54880000
-5.71740000 -0.67869900 -6.25100000
-5.75540000 -0.95629900 -6.28060000
-6.01590000 -0.67859900 -5.97090000
-6.05620000 -0.95579900 -6.00100000
-6.29700000 -0.67979900 -5.67230000
-6.33970000 -0.95639900 -5.70290000
-6.56490000 -0.68069900 -5.36070000
-6.60770000 -0.95689900 -5.38970000
-6.81580000 -0.68229900 -5.03440000
-6.85940000 -0.95839900 -5.06230000
-7.05350000 -0.68369900 -4.69740000
-7.09700000 -0.95979900 -4.72370000
-7.27370000 -0.68539900 -4.34810000
-7.31900000 -0.96099900 -4.37380000
-7.47660000 -0.68709900 -3.98750000
-7.52320000 -0.96209900 -4.01220000
-7.66160000 -0.68879900 -3.61630000
-7.70940000 -0.96349900 -3.63980000
-7.82470000 -0.69169900 -3.23410000
-7.87490000 -0.96599900 -3.25680000
-7.97390000 -0.69390000 -2.84570000
-8.02360000 -0.96850000 -2.86640000
-8.10840000 -0.69580000 -2.45140000
-8.15740000 -0.97050000 -2.47030000
-8.22510000 -0.69770000 -2.05100000
-8.27460000 -0.97230000 -2.06830000
-8.31880000 -0.70030000 -1.64390000
-8.37180000 -0.97440000 -1.66030000
-8.39390000 -0.70320000 -1.23260000
-8.44630000 -0.97750000 -1.24760000
-8.44700000 -0.70670000 -0.81760000
-8.33730000 -0.42990000 -1.21740000
-8.38960000 -0.43320000 -0.80430000
-8.43060000 -0.43480000 -0.38990000
-8.48480000 -0.70910000 -0.40080000
-8.43800000 -0.43950000 0.02690000
-8.49220000 -0.71380000 0.01800000
-8.41700000 -0.44600000 0.44350000
-8.37970000 -0.16610000 0.03610000
-8.35640000 -0.17290000 0.45040000
-8.31300000 -0.17950000 0.86330000
-8.37310000 -0.45270000 0.85850000
-8.25790000 -0.18470000 1.27520000
-8.31380000 -0.45870000 1.27170000
-8.18140000 -0.19070000 1.68410000
-8.19950000 0.08870000 1.27810000
-8.12590000 0.08330000 1.68540000
-8.03680000 0.07910000 2.09000000
-8.09030000 -0.19530000 2.09030000
-7.93010000 0.07600000 2.49080000
-7.98310000 -0.19840000 2.49340000
-7.79840000 0.07250000 2.88490000
-7.85530000 -0.20130000 2.89040000
-7.64930000 0.06949900 3.27220000
-7.70750000 -0.20420100 3.28060000
-7.47660000 0.06589900 3.64910000
-7.58650000 0.34209900 3.26180000
-7.41540000 0.33959900 3.63650000
-7.22490000 0.33609900 4.00100000
-7.34970000 0.61189900 3.62130000
-7.16000000 0.60859900 3.98350000
-6.95420000 0.60539900 4.33660000
-7.08980000 0.87979900 3.96290000
-6.89250000 0.87899900 4.31700000
-6.67610000 0.87729900 4.65970000
-6.82290000 1.15020000 4.29260000
-6.61010000 1.14960000 4.63410000
-6.37580000 1.14690000 4.96090000
-6.53970000 1.42050000 4.60500000
-6.30500000 1.41740000 4.92750000
-6.05840000 1.41610000 5.24140000
-6.23170000 1.68700000 4.89140000
-5.98420000 1.68470000 5.20000000
-5.72170000 1.68170000 5.49700000
-5.79780000 1.41450000 5.54320000
-5.44370000 1.67780000 5.77760000
-5.51500000 1.40900000 5.82450000
-5.15570000 1.67480000 6.04710000
-5.22380000 1.40530000 6.09630000
-4.85510000 1.67210000 6.30240000
-4.92010000 1.40160000 6.35330000
-4.54050000 1.66910000 6.54060000
-4.60260000 1.39840000 6.59320000
-4.21290000 1.66580000 6.76130000
-4.27170000 1.39480000 6.81460000
-3.87500000 1.66320000 6.96570000
-3.93170000 1.39190000 7.02100000
-3.52960000 1.66150000 7.15760000
-3.58440000 1.39030000 7.21540000
-3.17680000 1.66090000 7.33550000
-3.23080000 1.39010000 7.39770000
-2.81590000 1.65940000 7.49530000
-2.86750000 1.38810000 7.55800000
-2.44670000 1.65690000 7.63420000
-2.49550000 1.38500000 7.69760000
-2.07090000 1.65440000 7.75440000
-2.11750000 1.38200000 7.81810000
-1.69080000 1.65260000 7.85710000
-1.73550000 1.37920000 7.91990000
-1.30600000 1.64800000 7.93260000
-1.34930000 1.37520000 8.00220000
-0.92010000 1.64440000 7.99240000
-0.96030000 1.37130000 8.06390000
-0.53250000 1.64170000 8.03560000
-0.57110000 1.36860000 8.10940000
-0.14520000 1.63980000 8.06270000
-0.18110000 1.36600000 8.13780000
0.24150000 1.63650000 8.06740000
0.20780000 1.36300000 8.14670000
0.62640000 1.63230000 8.05190000
0.59520000 1.35880000 8.13400000
1.00800000 1.62790000 8.01950000
0.97930000 1.35290000 8.09810000
1.38570000 1.62160000 7.96560000
1.35940000 1.34530000 8.04280000
1.75830000 1.61380000 7.89160000
1.73400000 1.33770000 7.97010000
2.12600000 1.60660000 7.80250000
2.10410000 1.33050000 7.88200000
2.48750000 1.59960000 7.70020000
2.46850000 1.32240000 7.77880000
2.84250000 1.59250000 7.58300000
2.82660000 1.31530000 7.66370000
3.18700000 1.58290000 7.44540000
3.17440000 1.30560000 7.52680000
3.52470000 1.57390000 7.29720000
3.51420000 1.29570000 7.37830000
3.85340000 1.56460000 7.13650000
3.84660000 1.28640000 7.21830000
4.17200000 1.55410000 6.96130000
4.16750000 1.27560000 7.04230000
4.47960000 1.54210000 6.77260000
4.47810000 1.26360000 6.85330000
4.77540000 1.52840000 6.57020000
4.77720000 1.25000000 6.65120000
5.05790000 1.51270000 6.35420000
5.06330000 1.23480000 6.43590000
5.33070000 1.49680000 6.13030000
5.34060000 1.21960000 6.21180000
5.59240000 1.48040000 5.89780000
5.60560000 1.20360000 5.97740000
5.84540000 1.46400000 5.65800000
5.86050000 1.18710000 5.73550000
6.08240000 1.44550000 5.40690000
6.10080000 1.16900000 5.48210000
6.31010000 1.42750000 5.15040000
6.33110000 1.15140000 5.22330000
6.52160000 1.40780000 4.88390000
6.54770000 1.13280000 4.95570000
6.71480000 1.38620000 4.60700000
6.74840000 1.11310000 4.67810000
6.89660000 1.36450000 4.32430000
6.93190000 1.09190000 4.39180000
7.06670000 1.34310000 4.03790000
7.10890000 1.07220000 4.10290000
7.23000000 1.32390000 3.74800000
7.27620000 1.05380000 3.81060000
7.38020000 1.30480000 3.45400000
7.42740000 1.03520000 3.51170000
7.51730000 1.28590000 3.15580000
7.56790000 1.01750000 3.20890000
7.64240000 1.26870000 2.85350000
7.69770000 1.00100000 2.90210000
7.75600000 1.25290000 2.54740000
7.81420000 0.98590000 2.59020000
7.85820000 1.23920000 2.23780000
7.91740000 0.97300000 2.27410000
7.94910000 1.22820000 1.92370000
8.00960000 0.96260000 1.95520000
8.02500000 1.21890000 1.60670000
8.09090000 0.95460000 1.63290000
8.08260000 1.20980000 1.28600000
8.14900000 0.94610000 1.30630000
8.13310000 1.20440000 0.96290000
8.19810000 0.94060000 0.97680000
8.17130000 1.20120000 0.63780000
8.23620000 0.93710000 0.64670000
8.18630000 1.19710000 0.31070000
8.25220000 0.93340000 0.31420000
8.18810000 1.19560000 -0.01670000
8.25620000 0.93290000 -0.02030000
8.17530000 1.19670000 -0.34550000
8.24380000 0.93470000 -0.35500000
8.14970000 1.20270000 -0.67460000
8.21810000 0.94150000 -0.68990000
8.10520000 1.21120000 -1.00200000
8.16770000 0.94870000 -1.02300000
8.23360000 0.68620000 -1.04390000
8.10330000 0.95810000 -1.35370000
8.16820000 0.69560000 -1.38040000
8.22960000 0.43210000 -1.40530000
8.08940000 0.70710000 -1.71290000
8.14910000 0.44350000 -1.74300000
8.20530000 0.17830000 -1.77130000
8.05730000 0.45840000 -2.07690000
8.11520000 0.19290000 -2.11140000
8.16740000 -0.07380000 -2.14310000
8.00910000 0.20940000 -2.44620000
8.05780000 -0.05860000 -2.48190000
8.10650000 -0.32700000 -2.51570000
7.93510000 -0.04230000 -2.81500000
7.97910000 -0.31180000 -2.85210000
8.02010000 -0.58180000 -2.88860000
7.84010000 -0.29509900 -3.18470000
7.87890000 -0.56559900 -3.22440000
7.91620000 -0.83629900 -3.26270000
7.72610000 -0.54749900 -3.55520000
7.76170000 -0.81899900 -3.59690000
7.79490000 -1.09100000 -3.63640000
7.59410000 -0.80079900 -3.92470000
7.62500000 -1.07330000 -3.96780000
7.65510000 -1.34600000 -4.00900000
7.44390000 -1.05410000 -4.29270000
7.47060000 -1.32770000 -4.33580000
7.49690000 -1.60190000 -4.37760000
7.27540000 -1.30870000 -4.65620000
7.29890000 -1.58340000 -4.69970000
7.31870000 -1.85880000 -4.74020000
7.08380000 -1.56490000 -5.01150000
7.10210000 -1.84060000 -5.05420000
7.11730000 -2.11700000 -5.09370000
6.87030000 -1.82260000 -5.35800000
6.88530000 -2.09910000 -5.40030000
6.89520000 -2.37650000 -5.43770000
6.63770000 -2.08130000 -5.69490000
6.64330000 -2.35930000 -5.73150000
6.64520000 -2.63770000 -5.76390000
6.37840000 -2.34210000 -6.01450000
6.38000000 -2.62060000 -6.04900000
6.38520000 -2.89860000 -6.08640000
6.10470000 -2.60320000 -6.32460000
6.10710000 -2.88180000 -6.36170000
6.10210000 -3.16110000 -6.38990000
5.81930000 -2.86480000 -6.62730000
5.81230000 -3.14450000 -6.65500000
5.79760000 -3.42470000 -6.67270000
5.50880000 -3.12830000 -6.90470000
5.49390000 -3.40860000 -6.92310000
5.47730000 -3.68890000 -6.93840000
5.17970000 -3.39250000 -7.16120000
5.16280000 -3.67290000 -7.17650000
4.85330000 -3.37680000 -7.38320000
5.19470000 -3.11200000 -7.14200000
4.86670000 -3.09630000 -7.36040000
4.53240000 -3.08090000 -7.57110000
4.87830000 -2.81600000 -7.33390000
4.54400000 -2.80050000 -7.54300000
4.20460000 -2.78490000 -7.74450000
4.55610000 -2.51980000 -7.51360000
4.21400000 -2.50480000 -7.70830000
3.86470000 -2.48990000 -7.89210000
4.22210000 -2.22480000 -7.66850000
3.87360000 -2.21000000 -7.85060000
3.51780000 -2.19550000 -8.02080000
3.88190000 -1.93010000 -7.80600000
3.52880000 -1.91530000 -7.97810000
3.16450000 -1.90210000 -8.12860000
3.53880000 -1.63540000 -7.93060000
3.17750000 -1.62160000 -8.08360000
2.80970000 -1.60830000 -8.22320000
3.19080000 -1.34120000 -8.03710000
2.82410000 -1.32790000 -8.17550000
2.45010000 -1.31570000 -8.29720000
2.83810000 -1.04790000 -8.12420000
2.46580000 -1.03560000 -8.24550000
2.08580000 -1.02510000 -8.34540000
2.06800000 -1.30540000 -8.39540000
1.69990000 -1.01550000 -8.42600000
2.10320000 -0.74509900 -8.29270000
1.71980000 -0.73519900 -8.37660000
1.33100000 -0.72649900 -8.44040000
1.73940000 -0.45519900 -8.32290000
1.35270000 -0.44649900 -8.38840000
0.96310000 -0.43729900 -8.44220000
1.37470000 -0.16729900 -8.33130000
0.98680000 -0.15789900 -8.38640000
0.59540000 -0.14939900 -8.42450000
0.57020000 -0.42889900 -8.47820000
0.20130000 -0.14319900 -8.43830000
0.17450000 -0.42219900 -8.49390000
-0.19390000 -0.13789900 -8.43470000
-0.22200000 -0.41619900 -8.49160000
-0.58960000 -0.13359900 -8.41150000
-0.61890000 -0.41179900 -8.46740000
-0.98460000 -0.12959900 -8.37210000
-1.01550000 -0.40819900 -8.42430000
-1.37780000 -0.12639900 -8.31280000
-1.41070000 -0.40439900 -8.36590000
-1.76940000 -0.12299900 -8.23730000
-1.80320000 -0.40099900 -8.28800000
-2.15730000 -0.12099900 -8.14120000
-2.19240000 -0.39859900 -8.19180000
-2.54000000 -0.11939900 -8.02520000
-2.57640000 -0.39729900 -8.07440000
-2.91720000 -0.11859900 -7.88990000
-2.95440000 -0.39639900 -7.93660000
-3.28670000 -0.11899900 -7.73330000
-3.32610000 -0.39599900 -7.78190000
-3.64930000 -0.11959900 -7.56050000
-3.68990000 -0.39619900 -7.60850000
-4.00330000 -0.12019900 -7.37080000
-4.04580000 -0.39649900 -7.41750000
-4.35080000 -0.11949900 -7.16730000
-4.39280000 -0.39609900 -7.21080000
-4.68720000 -0.11999900 -6.94460000
-4.72770000 -0.39719900 -6.98340000
-5.01290000 -0.12159900 -6.70510000
-5.05340000 -0.39879900 -6.74180000
-5.32830000 -0.12379900 -6.45080000
-5.36860000 -0.40079900 -6.48520000
-5.63240000 -0.12599900 -6.18220000
-5.67510000 -0.40219900 -6.21700000
-5.92490000 -0.12759900 -5.90040000
-5.97100000 -0.40289900 -5.93640000
-6.20360000 -0.12919900 -5.60410000
-6.25090000 -0.40439900 -5.63870000
-6.47040000 -0.13059900 -5.29590000
-6.51930000 -0.40529900 -5.32960000
-6.72120000 -0.13209900 -4.97370000
-6.76970000 -0.40699900 -5.00440000
-6.95350000 -0.13469900 -4.63700000
-7.00520000 -0.40869900 -4.66840000
-7.17110000 -0.13699900 -4.29020000
-7.22430000 -0.41079900 -4.32040000
-7.37510000 -0.13859900 -3.93440000
-7.42720000 -0.41249900 -3.96170000
-7.55860000 -0.14099900 -3.56620000
-7.61100000 -0.41469900 -3.59210000
-7.72520000 -0.14339900 -3.18940000
-7.77700000 -0.41719900 -3.21250000
-7.87220000 -0.14600000 -2.80390000
-7.92400000 -0.41980000 -2.82500000
-8.00180000 -0.14860000 -2.41160000
-8.05660000 -0.42190000 -2.43200000
-8.11430000 -0.15100000 -2.01380000
-8.17190000 -0.42380000 -2.03290000
-8.20620000 -0.15410000 -1.61030000
-8.26350000 -0.42690000 -1.62720000
-8.27760000 -0.15720000 -1.20220000
-8.14530000 0.11810000 -1.59260000
-8.21780000 0.11550000 -1.18680000
-8.27280000 0.11320000 -0.77820000
-8.33250000 -0.15970000 -0.79160000
-8.31030000 0.11100000 -0.36760000
-8.37130000 -0.16180000 -0.37880000
-8.31620000 0.10620000 0.04460000
-8.24580000 0.38310000 -0.35630000
-8.24890000 0.37780000 0.05370000
-8.22880000 0.37150000 0.46320000
-8.29220000 0.09900000 0.45670000
-8.19240000 0.36630000 0.87250000
-8.25330000 0.09360000 0.86810000
-8.13940000 0.36150000 1.28040000
-8.12900000 0.63830000 0.87680000
-8.07640000 0.63360000 1.28230000
-8.00350000 0.62850000 1.68520000
-8.06660000 0.35640000 1.68590000
-7.91840000 0.62540000 2.08610000
-7.98010000 0.35280000 2.08890000
-7.80670000 0.62110000 2.48080000
-7.87290000 0.34970000 2.48740000
-7.67590000 0.61799900 2.86990000
-7.73820000 0.34540000 2.87830000
-7.51970000 0.61369900 3.24920000
-7.60570000 0.88849900 2.85880000
-7.44860000 0.88459900 3.23430000
-7.27720000 0.88219900 3.60250000
-7.37470000 1.15430000 3.21760000
-7.20440000 1.15230000 3.58340000
-7.01960000 1.15050000 3.94150000
-7.12860000 1.42130000 3.56260000
-6.94430000 1.41990000 3.91750000
-6.75080000 1.42070000 4.26690000
-6.86820000 1.68860000 3.89230000
-6.67560000 1.69010000 4.23830000
-6.46400000 1.68960000 4.57210000
-6.59690000 1.95820000 4.20680000
-6.38670000 1.95820000 4.53770000
-6.15490000 1.95550000 4.85310000
-6.30750000 2.22570000 4.50080000
-6.07630000 2.22270000 4.81280000
-5.83120000 2.21920000 5.11320000
-5.90870000 1.95260000 5.15820000
-5.57160000 2.21650000 5.40160000
-5.64710000 1.94930000 5.44990000
-5.29910000 2.21400000 5.67800000
-5.37150000 1.94580000 5.72770000
-5.01600000 2.21190000 5.94300000
-5.08600000 1.94350000 5.99540000
-4.71990000 2.20970000 6.19380000
-4.78830000 1.94150000 6.24920000
-4.41140000 2.20750000 6.42810000
-4.47620000 1.93840000 6.48510000
-4.09040000 2.20570000 6.64730000
-4.15250000 1.93640000 6.70490000
-3.75750000 2.20290000 6.84830000
-3.81740000 1.93380000 6.90830000
-3.41800000 2.20220000 7.03860000
-3.47330000 1.93190000 7.09830000
-3.06790000 2.20100000 7.21080000
-3.12210000 1.93070000 7.27200000
-2.70840000 2.19780000 7.36120000
-2.76280000 1.92950000 7.42980000
-2.34420000 2.19660000 7.49810000
-2.39620000 1.92770000 7.56900000
-1.97340000 2.19430000 7.61270000
-2.02280000 1.92510000 7.68640000
-1.59650000 2.19170000 7.70670000
-1.64450000 1.92320000 7.78460000
-1.21770000 2.18960000 7.78190000
-1.26180000 1.91950000 7.85930000
-0.83630000 2.18760000 7.84040000
-0.87870000 1.91670000 7.91810000
-0.45430000 2.18520000 7.87940000
-0.49400000 1.91370000 7.95750000
-0.07220000 2.18340000 7.90020000
-0.10880000 1.91170000 7.98110000
0.30890000 2.18050000 7.89930000
0.27500000 1.90920000 7.98510000
0.68860000 2.17780000 7.88360000
0.65690000 1.90550000 7.96890000
1.06550000 2.17450000 7.85080000
1.03670000 1.90190000 7.93700000
1.43830000 2.16970000 7.79750000
1.41220000 1.89650000 7.88410000
1.80610000 2.16320000 7.72440000
1.78240000 1.88930000 7.81070000
2.16880000 2.15810000 7.63810000
2.14750000 1.88300000 7.72230000
2.52420000 2.15090000 7.53060000
2.50620000 1.87610000 7.61800000
2.87110000 2.14290000 7.40660000
2.85730000 1.86860000 7.49760000
3.21030000 2.13510000 7.27000000
3.19920000 1.85960000 7.36010000
3.54000000 2.12580000 7.11870000
3.53400000 1.85110000 7.21230000
3.86100000 2.11590000 6.95440000
3.85850000 1.84130000 7.04910000
4.17230000 2.10500000 6.77820000
4.17410000 1.83090000 6.87400000
4.47490000 2.09390000 6.59140000
4.47890000 1.81920000 6.68560000
4.76570000 2.08060000 6.39140000
4.77150000 1.80520000 6.48340000
5.04370000 2.06580000 6.18000000
5.05060000 1.78960000 6.26890000
5.30940000 2.04890000 5.95720000
5.32030000 1.77320000 6.04610000
5.56450000 2.03200000 5.72720000
5.57850000 1.75640000 5.81370000
5.80620000 2.01360000 5.48670000
5.82510000 1.73900000 5.57370000
6.03650000 1.99450000 5.23900000
6.06270000 1.72140000 5.32780000
6.25150000 1.97340000 4.98370000
6.28630000 1.70260000 5.07260000
6.45460000 1.95230000 4.72130000
6.49130000 1.68120000 4.80600000
6.64690000 1.93100000 4.45450000
6.68120000 1.65890000 4.53200000
6.81850000 1.90720000 4.17740000
6.85980000 1.63670000 4.25370000
6.97830000 1.88290000 3.89670000
7.02510000 1.61410000 3.96980000
7.13150000 1.86120000 3.61520000
7.18070000 1.59250000 3.68370000
7.27380000 1.84000000 3.32980000
7.32760000 1.57270000 3.39380000
7.40350000 1.81940000 3.04120000
7.46190000 1.55320000 3.10010000
7.52270000 1.80000000 2.74910000
7.58420000 1.53460000 2.80240000
7.63110000 1.78260000 2.45320000
7.69470000 1.51820000 2.50070000
7.73030000 1.76810000 2.15570000
7.79670000 1.50430000 2.19760000
7.81390000 1.75510000 1.85570000
7.88660000 1.49310000 1.89120000
7.88240000 1.74310000 1.55040000
7.95550000 1.48170000 1.57880000
7.93880000 1.73320000 1.24220000
8.01220000 1.47220000 1.26400000
7.98420000 1.72540000 0.93200000
8.06160000 1.46590000 0.94750000
8.01950000 1.72210000 0.61940000
8.09900000 1.46300000 0.62880000
8.03550000 1.71890000 0.30500000
8.11360000 1.45890000 0.30790000
8.03960000 1.71780000 -0.01040000
8.11650000 1.45750000 -0.01340000
8.02920000 1.71860000 -0.32590000
8.10370000 1.45800000 -0.33540000
7.99750000 1.72170000 -0.64190000
8.07500000 1.46220000 -0.65690000
7.95350000 1.72920000 -0.95650000
8.02900000 1.47010000 -0.97870000
7.89350000 1.73910000 -1.26920000
7.96570000 1.47990000 -1.29800000
8.03750000 1.21990000 -1.32570000
7.89100000 1.49290000 -1.61410000
7.96010000 1.23220000 -1.64810000
8.02620000 0.96990000 -1.68040000
7.87480000 1.24870000 -1.96710000
7.93900000 0.98600000 -2.00630000
7.99930000 0.72290000 -2.04240000
7.84080000 1.00580000 -2.32760000
7.89850000 0.74110000 -2.36860000
7.95450000 0.47570000 -2.40850000
7.78440000 0.76050000 -2.69090000
7.83720000 0.49380000 -2.73410000
7.88670000 0.22610000 -2.77540000
7.70470000 0.51220000 -3.05420000
7.75230000 0.24370100 -3.09920000
7.79720000 -0.02549900 -3.14330000
7.60650000 0.26320100 -3.41910000
7.64990000 -0.00629900 -3.46700000
7.68930000 -0.27659900 -3.51190000
7.48560000 0.01270100 -3.78300000
7.52430000 -0.25789900 -3.83310000
7.56000000 -0.52899900 -3.88010000
7.35020000 -0.23669900 -4.14940000
7.38350000 -0.50859900 -4.19960000
7.41390000 -0.78119900 -4.24700000
7.19580000 -0.48699900 -4.51320000
7.22390000 -0.76029900 -4.56330000
7.24940000 -1.03450000 -4.61030000
7.01930000 -0.73959900 -4.87060000
7.04140000 -1.01460000 -4.91920000
7.06320000 -1.28970000 -4.96630000
6.81540000 -0.99529900 -5.21590000
6.83440000 -1.27110000 -5.26500000
6.85260000 -1.54680000 -5.31220000
6.59320000 -1.25200000 -5.55450000
6.60960000 -1.52810000 -5.60410000
6.62590000 -1.80430000 -5.65180000
6.35680000 -1.50910000 -5.88780000
6.36740000 -1.78630000 -5.93430000
6.37500000 -2.06390000 -5.97690000
6.09550000 -1.76820000 -6.20540000
6.10210000 -2.04620000 -6.25010000
6.10460000 -2.32450000 -6.28890000
5.82020000 -2.02780000 -6.51420000
5.81810000 -2.30700000 -6.55110000
5.81880000 -2.58590000 -6.59000000
5.52090000 -2.28980000 -6.80220000
5.52050000 -2.56880000 -6.84190000
5.51780000 -2.84830000 -6.87820000
5.20870000 -2.55210000 -7.07800000
5.20510000 -2.83160000 -7.11530000
4.88630000 -2.53590000 -7.30090000
5.21270000 -2.27250000 -7.04000000
4.89280000 -2.25590000 -7.26390000
4.56370000 -2.23970000 -7.47540000
4.89660000 -1.97650000 -7.22140000
4.56860000 -1.96020000 -7.43130000
4.22850000 -1.94510000 -7.62350000
4.57340000 -1.68080000 -7.38450000
4.23520000 -1.66560000 -7.57620000
3.89060000 -1.65030000 -7.75950000
4.24140000 -1.38590000 -7.52720000
3.89780000 -1.37080000 -7.70870000
3.54890000 -1.35540000 -7.88100000
3.90720000 -1.09090000 -7.65850000
3.55950000 -1.07560000 -7.82980000
3.20400000 -1.06070000 -7.98790000
3.56960000 -0.79579900 -7.77660000
3.21630000 -0.78069900 -7.93450000
2.85220000 -0.76799900 -8.07010000
3.22840000 -0.50099900 -7.87820000
2.86570000 -0.48839900 -8.01300000
2.49530000 -0.47729900 -8.12970000
2.48100000 -0.75599900 -8.19030000
2.12020000 -0.46589900 -8.23480000
2.50930000 -0.19919900 -8.06480000
2.13640000 -0.18769900 -8.17030000
1.75830000 -0.17649900 -8.26130000
2.15190000 0.08910100 -8.09930000
1.77670000 0.10110100 -8.19380000
1.39610000 0.11130100 -8.26960000
1.79430000 0.37700100 -8.11900000
1.41690000 0.38830100 -8.19950000
1.03320000 0.39660100 -8.25510000
1.01020000 0.11990100 -8.32350000
0.64550000 0.40400100 -8.29070000
0.62060000 0.12850100 -8.36320000
0.25540000 0.41010100 -8.30830000
0.22830000 0.13480100 -8.37900000
-0.13670000 0.41540100 -8.30800000
-0.16560000 0.13950100 -8.37400000
-0.52900000 0.42090100 -8.29210000
-0.55970000 0.14460100 -8.35590000
-0.92060000 0.42440100 -8.25420000
-0.95370000 0.14880100 -8.32000000
-1.31040000 0.42740100 -8.19630000
-1.34560000 0.15200100 -8.26070000
-1.69800000 0.42980100 -8.11980000
-1.73410000 0.15380100 -8.18010000
-2.08310000 0.43230100 -8.02880000
-2.12070000 0.15610100 -8.08650000
-2.46330000 0.43330100 -7.91620000
-2.50170000 0.15720100 -7.97130000
-2.83860000 0.43380100 -7.78500000
-2.87810000 0.15780100 -7.83770000
-3.20690000 0.43380100 -7.63370000
-3.24740000 0.15770100 -7.68450000
-3.56620000 0.43280100 -7.46150000
-3.60790000 0.15670100 -7.51130000
-3.91870000 0.43260100 -7.27610000
-3.96120000 0.15640100 -7.32300000
-4.26290000 0.43170100 -7.07380000
-4.30710000 0.15620100 -7.12140000
-4.59790000 0.43050100 -6.85520000
-4.64450000 0.15620100 -6.90270000
-4.92330000 0.42890100 -6.62030000
-4.97040000 0.15460100 -6.66570000
-5.23780000 0.42660100 -6.37040000
-5.28460000 0.15200100 -6.41260000
-5.54250000 0.42560100 -6.10820000
-5.58840000 0.15000100 -6.14650000
-5.83130000 0.42300100 -5.82780000
-5.87820000 0.14770100 -5.86460000
-6.10420000 0.41940100 -5.53090000
-6.15400000 0.14510100 -5.56780000
-6.36610000 0.41670100 -5.22370000
-6.41880000 0.14330100 -5.26050000
-6.61540000 0.41470100 -4.90500000
-6.67000000 0.14190100 -4.94090000
-6.84850000 0.41230100 -4.57370000
-6.90190000 0.13900100 -4.60620000
-7.06640000 0.41020100 -4.23130000
-7.11930000 0.13670100 -4.26090000
-7.26690000 0.40790100 -3.87780000
-7.32280000 0.13520100 -3.90690000
-7.44850000 0.40490100 -3.51320000
-7.50470000 0.13220100 -3.54010000
-7.61530000 0.40250100 -3.14110000
-7.67080000 0.12960100 -3.16510000
-7.76310000 0.40030000 -2.76020000
-7.81910000 0.12760000 -2.78230000
-7.88730000 0.39670000 -2.37020000
-7.94580000 0.12450000 -2.39130000
-7.99200000 0.39260000 -1.97440000
-8.05600000 0.12160000 -1.99470000
-8.08080000 0.38930000 -1.57440000
-7.92560000 0.66290000 -1.95360000
-8.01420000 0.65970000 -1.55590000
-8.08680000 0.65760000 -1.15490000
-8.15390000 0.38710000 -1.17110000
-8.14530000 0.65670000 -0.75130000
-8.21020000 0.38530000 -0.76470000
-8.18010000 0.65470000 -0.34500000
-8.07540000 0.92690000 -0.73740000
-8.10920000 0.92470000 -0.33340000
-8.11590000 0.92040000 0.07180000
-8.18460000 0.64960000 0.06270000
-8.09900000 0.91510000 0.47660000
-8.16450000 0.64340000 0.47010000
-8.06450000 0.91010000 0.88080000
-8.02740000 1.18540000 0.48270000
-7.99370000 1.18040000 0.88420000
-7.94100000 1.17550000 1.28420000
-8.01020000 0.90480000 1.28340000
-7.86350000 1.16930000 1.68020000
-7.93580000 0.89930000 1.68300000
-7.77120000 1.16410000 2.07330000
-7.84810000 0.89580000 2.08080000
-7.66150000 1.16020000 2.46260000
-7.73680000 0.89160000 2.47290000
-7.53110000 1.15780000 2.84540000
-7.58320000 1.42820000 2.45080000
-7.45190000 1.42570000 2.82960000
-7.29700000 1.42270000 3.19920000
-7.36920000 1.69230000 2.81220000
-7.21740000 1.69020000 3.17950000
-7.04850000 1.68880000 3.53920000
-7.13480000 1.95650000 3.15820000
-6.96810000 1.95580000 3.51510000
-6.79220000 1.95750000 3.86670000
-6.88870000 2.22300000 3.49040000
-6.71250000 2.22500000 3.83760000
-6.51620000 2.22500000 4.17300000
-6.62810000 2.49060000 3.80470000
-6.43120000 2.49000000 4.13520000
-6.22010000 2.48960000 4.45700000
-6.34140000 2.75320000 4.09330000
-6.13080000 2.75210000 4.41150000
-5.90840000 2.75100000 4.72040000
-5.99350000 2.48760000 4.76780000
-5.67110000 2.75040000 5.01820000
-5.75420000 2.48640000 5.06890000
-5.41540000 2.74800000 5.30040000
-5.49590000 2.48370000 5.35390000
-5.14730000 2.74600000 5.57020000
-5.22400000 2.48070000 5.62560000
-4.86760000 2.74360000 5.82760000
-4.94280000 2.47840000 5.88650000
-4.57470000 2.74020000 6.06960000
-4.65090000 2.47700000 6.13610000
-4.27100000 2.73890000 6.30000000
-4.34470000 2.47560000 6.36880000
-3.95570000 2.73700000 6.51440000
-4.02520000 2.47280000 6.58410000
-3.62990000 2.73500000 6.71310000
-3.69640000 2.47080000 6.78550000
-3.29520000 2.73390000 6.89840000
