0.78726200 5.19742000 2.83746000
1.34270000 5.00954000 3.07248000
1.22899000 5.31111000 2.56329000
0.31936800 4.01214000 4.60196000
0.91942100 4.02311000 4.55641000
0.33132900 3.53226000 5.07231000
0.96523800 3.55216000 5.02554000
0.34486100 3.01382000 5.47190000
1.01390000 3.03929000 5.42502000
1.64136000 3.19182000 5.27059000
0.99973200 2.47769000 5.76870000
1.64192000 2.57274000 5.67659000
2.17538000 2.61744000 5.59943000
2.23646000 3.30898000 5.11027000
2.71627000 2.62736000 5.52605000
2.79740000 3.37460000 4.97108000
3.21672000 2.59084000 5.47623000
3.29131000 3.32087000 4.93407000
3.35748000 3.96791000 4.29306000
3.45483000 4.50205000 3.58327000
3.78954000 3.24949000 4.89948000
3.85746000 3.88665000 4.26843000
3.94030000 4.41765000 3.55442000
4.03757000 4.83633000 2.79668000
3.58334000 4.92101000 2.81626000
4.34812000 3.78771000 4.22471000
4.41652000 4.31576000 3.51856000
4.49348000 4.74143000 2.76202000
4.58517000 5.07948000 1.91623000
4.15241000 5.17484000 1.92853000
4.88463000 4.19881000 3.46483000
4.94558000 4.62887000 2.71452000
5.01732000 4.96497000 1.88487000
5.09700000 5.19227000 0.97234800
4.68043000 5.31394000 0.97637900
5.39404000 4.50296000 2.65592000
5.44680000 4.83686000 1.84398000
5.51251000 5.06132000 0.95699500
5.57053000 5.13179000 0.04653410
5.16019000 5.27098000 0.03786410
5.87204000 4.69690000 1.79724000
5.91944000 4.90974000 0.93262600
5.97104000 4.97085000 0.05037790
6.01367000 4.89738000 -0.80809800
5.60876000 5.06637000 -0.83012800
6.31327000 4.73949000 0.90165400
6.36027000 4.79387000 0.05246460
6.40804000 4.71095000 -0.78647700
6.44618000 4.51475000 -1.54699000
6.04039000 4.70664000 -1.59338000
6.72944000 4.59735000 0.04314930
6.78498000 4.49971000 -0.75217000
6.84090000 4.29221000 -1.49750000
6.85029000 4.01842000 -2.17413000
6.45608000 4.22602000 -2.25282000
6.43020000 -5.83926000 -1.58130000
6.03638000 -5.99879000 -1.66943000
6.12404000 -5.71599000 -2.35099000
6.55078000 -5.56045000 -2.19964000
6.21276000 -5.37082000 -2.91117000
6.65993000 -5.22002000 -2.73676000
5.68907000 -5.85720000 -2.46919000
5.75465000 -5.50492000 -3.05822000
5.81094000 -5.11389000 -3.56413000
5.28916000 -5.61905000 -3.18436000
5.33316000 -5.22158000 -3.70386000
5.37601000 -4.78680000 -4.16276000
4.85020000 -5.31360000 -3.82335000
4.88443000 -4.87003000 -4.29101000
4.91405000 -4.37767000 -4.69512000
4.39242000 -4.93444000 -4.39907000
4.41285000 -4.42584000 -4.80990000
4.43029000 -3.89112000 -5.16844000
4.93944000 -3.85411000 -5.04110000
4.44109000 -3.32316000 -5.45394000
4.95775000 -3.30262000 -5.32337000
4.44911000 -2.73173000 -5.67664000
3.91693000 -3.32356000 -5.55914000
3.92156000 -2.72129000 -5.78601000
3.92953000 -2.09515000 -5.94221000
3.38579000 -2.69787000 -5.87169000
3.39484000 -2.06251000 -6.02877000
3.41401000 -1.40940000 -6.12506000
2.85276000 -2.02472000 -6.10243000
2.87541000 -1.36357000 -6.19593000
2.91104000 -0.69200700 -6.23830000
2.32922000 -1.31590000 -6.25266000
2.36813000 -0.63955600 -6.29570000
2.41812000 0.04011930 -6.28509000
1.81628000 -0.59013200 -6.34335000
1.86827000 0.09263430 -6.33173000
1.92848000 0.77067500 -6.25024000
1.30827000 0.14096800 -6.36649000
1.37000000 0.82065800 -6.28558000
1.44017000 1.48274000 -6.11339000
0.80273100 0.86750800 -6.31476000
0.87459400 1.52952000 -6.13864000
0.95702000 2.16778000 -5.89455000
0.29991200 1.57514000 -6.15707000
0.38196500 2.21367000 -5.91601000
0.46968400 2.82417000 -5.63111000
-0.20369500 2.26369000 -5.93579000
-0.12293300 2.87294000 -5.65548000
-0.04245720 3.42837000 -5.30870000
-0.72626300 2.92338000 -5.65961000
-0.65384800 3.47389000 -5.30439000
-0.57943200 3.96223000 -4.89696000
0.03814040 3.91735000 -4.90490000
-0.49997500 4.39271000 -4.46445000
0.11839400 4.34473000 -4.46992000
-0.41297300 4.75203000 -4.01332000
-1.11006000 4.47435000 -4.41210000
-1.00534000 4.83116000 -3.94359000
-0.87721800 5.10499000 -3.49506000
-0.31672100 5.03616000 -3.56295000
-0.72221100 5.32091000 -3.07726000
-0.20429000 5.27124000 -3.13016000
-0.20429000 5.27124000 -3.13016000
-0.72221100 5.32091000 -3.07726000
-0.56298100 5.57101000 -2.71632000
-0.09538090 5.55704000 -2.75395000
-0.45486100 5.94007000 -2.50214000
-0.02649390 5.95405000 -2.54075000
0.41280900 5.98711000 -2.48077000
0.02851660 6.39536000 -2.50260000
0.46523800 6.43556000 -2.44987000
0.89847400 6.48216000 -2.30378000
0.52311700 6.81897000 -2.50983000
0.96369600 6.85426000 -2.34967000
1.37961000 6.88797000 -2.09791000
1.31220000 6.52881000 -2.06430000
1.75271000 6.92013000 -1.75715000
1.68782000 6.58342000 -1.73095000
2.05978000 6.95234000 -1.33475000
1.99874000 6.63874000 -1.31400000
2.27065000 6.97958000 -0.84931100
2.20316000 6.68408000 -0.82935400
2.35573000 6.98844000 -0.32716600
2.28335000 6.69893000 -0.31093800
2.30401000 6.97337000 0.19429000
2.47842000 7.25169000 -0.34081300
2.43510000 7.24224000 0.19902300
2.26492000 7.20039000 0.70520500
2.56866000 7.43689000 0.21257000
2.39458000 7.40735000 0.73706000
2.10592000 7.36596000 1.20505000
2.51764000 7.55337000 0.77820100
2.22090000 7.52402000 1.26379000
1.84838000 7.49061000 1.66665000
2.34141000 7.63017000 1.33100000
1.95498000 7.60061000 1.75652000
1.51304000 7.57599000 2.07984000
2.16442000 7.71987000 1.92640000
1.69342000 7.69274000 2.30508000
1.15929000 7.66354000 2.57784000
1.20314000 7.76127000 2.66353000
0.61784200 7.73623000 2.82578000
0.01685630 7.70667000 2.88736000
0.62370100 7.85278000 2.81645000
0.02372630 7.83098000 2.88918000
-0.57093400 7.80487000 2.84296000
0.03424650 8.01044000 2.68446000
-0.52599900 7.99451000 2.65160000
-1.07374000 7.98427000 2.52889000
-0.97833200 8.10668000 2.30498000
-1.46387000 8.10988000 2.10090000
-1.89862000 8.09766000 1.79952000
-1.80185000 8.07789000 1.69282000
-2.13769000 8.08245000 1.31934000
-2.39111000 8.08506000 0.88338900
-1.94620000 7.85832000 1.16497000
-2.17388000 7.86215000 0.76956700
-2.32602000 7.85978000 0.33619500
-2.39089000 7.86522000 -0.11615300
-2.09542000 7.55652000 0.26969600
-2.15031000 7.56407000 -0.14081400
-2.15031000 7.56407000 -0.14081400
-2.12893000 7.57650000 -0.55489600
-2.01366000 7.34048000 -0.54510700
-1.91880000 7.35196000 -0.92103100
-1.75159000 7.36164000 -1.28189000
-1.83502000 6.69203000 -0.92185500
-1.66862000 6.71506000 -1.26465000
-1.43570000 6.73430000 -1.56212000
-1.45664000 6.33832000 -1.61103000
-1.16360000 6.35677000 -1.85896000
-0.82855400 6.36306000 -2.04413000
-0.82855400 6.36306000 -2.04413000
-1.16360000 6.35677000 -1.85896000
-1.22393000 5.95965000 -1.98493000
-0.86299000 5.97012000 -2.17260000
-0.47222200 5.96590000 -2.29069000
-0.46355900 6.35825000 -2.16122000
-0.92037400 5.60602000 -2.36591000
-0.48905300 5.60266000 -2.47832000
-0.48905300 5.60266000 -2.47832000
-0.04510340 5.58760000 -2.52362000
-0.47222200 5.96590000 -2.29069000
-0.46355900 6.35825000 -2.16122000
-0.48666500 5.21955000 -2.57992000
-0.01889240 5.20803000 -2.62282000
0.44796200 5.19956000 -2.62972000
0.00667298 4.94496000 -2.92316000
0.51253200 4.93897000 -2.92231000
1.01503000 4.91834000 -2.84497000
0.57696600 4.67503000 -3.21780000
1.11092000 4.65507000 -3.13256000
1.63562000 4.62589000 -2.98755000
1.20268000 4.38765000 -3.42584000
1.74869000 4.35134000 -3.27710000
2.27600000 4.30113000 -3.08156000
1.85365000 4.03806000 -3.56820000
2.40188000 3.99026000 -3.38350000
2.92103000 3.91663000 -3.15316000
2.50598000 3.61852000 -3.65530000
3.05585000 3.57119000 -3.45426000
3.59870000 3.51387000 -3.22159000
3.18499000 3.20599000 -3.74794000
3.74605000 3.15643000 -3.51849000
4.31874000 3.11876000 -3.28205000
4.14479000 3.45058000 -2.96934000
4.88967000 3.04543000 -3.00263000
4.67965000 3.34498000 -2.67575000
5.46029000 2.94053000 -2.69071000
5.21713000 3.22531000 -2.36130000
6.00760000 2.82548000 -2.35061000
5.73077000 3.09404000 -2.02382000
6.51250000 2.71308000 -1.96743000
6.19525000 2.96961000 -1.65365000
6.92933000 2.64640000 -1.51330000
6.58483000 2.90096000 -1.23370000
6.79601000 2.45138000 -2.29105000
7.25475000 2.40060000 -1.80126000
7.04042000 2.13764000 -2.55726000
7.53187000 2.11183000 -2.03426000
8.11861000 0.29922300 -2.41399000
8.57070000 0.29930900 -1.73459000
8.89586000 0.31723000 -0.98737200
9.02184000 0.34308300 -0.20119600
8.88174000 0.32617300 0.56692200
8.51069000 0.31582500 1.23835000
7.56856000 -1.61811000 2.25350000
7.01216000 -1.59812000 2.64213000
6.44855000 -1.56273000 2.96812000
5.33272000 -1.49278000 3.53014000
5.22631000 -3.35457000 3.03274000
4.68673000 -3.36434000 3.25656000
4.77167000 -1.46926000 3.76323000
4.13647000 -3.36433000 3.45002000
4.20280000 -1.45014000 3.95386000
2.87479000 -4.65550000 2.74486000
2.34944000 -4.65902000 2.87684000
1.82050000 -4.66057000 2.97601000
1.27945000 -4.92754000 2.84285000
0.76239200 -4.91962000 2.88774000
0.24853000 -4.91432000 2.91615000
0.75753700 -5.18394000 2.69531000
0.25363600 -5.17634000 2.72258000
-0.25003600 -5.17776000 2.74856000
0.25760900 -5.43432000 2.53219000
-0.23416600 -5.43521000 2.55866000
-0.73001400 -5.44576000 2.57855000
-0.22312900 -5.60886000 2.32942000
-0.70437700 -5.60885000 2.34323000
-1.18720000 -5.60885000 2.32319000
-0.67540500 -5.60884000 2.02359000
-1.13440000 -5.60883000 2.00617000
-1.57595000 -5.60880000 1.95375000
-1.07716000 -5.60881000 1.69123000
-1.50679000 -5.60877000 1.64405000
-1.92555000 -5.60872000 1.56570000
-1.43701000 -5.60875000 1.33708000
-1.83662000 -5.60870000 1.26482000
-2.22313000 -5.60866000 1.16347000
-1.74588000 -5.60869000 0.96668200
-2.11446000 -5.60865000 0.88387000
-2.48099000 -5.60862000 0.75787800
-2.00778000 -5.60865000 0.59204300
-2.35411000 -5.60863000 0.49303700
-2.69906000 -5.60862000 0.34239100
-2.21866000 -5.60865000 0.22508400
-2.55284000 -5.60865000 0.09618790
-2.88111000 -5.60867000 -0.12013300
-3.01028000 -5.60864000 0.12669400
-3.18247000 -5.60869000 -0.37977400
-2.99690000 -5.60871000 -0.62732500
-3.29704000 -5.60872000 -0.91461200
-2.74548000 -5.60872000 -0.85032200
-3.01615000 -5.60874000 -1.14384000
-3.28657000 -5.60876000 -1.42600000
-3.59699000 -5.60872000 -1.18261000
-3.57309000 -5.60877000 -1.70264000
-3.92616000 -5.60873000 -1.43841000
-3.86865000 -5.60879000 -1.97019000
-4.27174000 -5.60874000 -1.68269000
-4.11815000 -5.39318000 -2.17134000
-4.56384000 -5.35582000 -1.87105000
-4.36187000 -5.11003000 -2.35780000
-4.84653000 -5.06709000 -2.04298000
-4.60238000 -4.82601000 -2.54819000
-5.13722000 -4.78171000 -2.21360000
-5.60872000 -4.74278000 -1.80268000
-5.43070000 -4.49052000 -2.39107000
-5.94057000 -4.44750000 -1.95307000
-6.34595000 -4.41075000 -1.43253000
-7.17837000 -3.28552000 -2.61619000
-7.75705000 -3.27221000 -1.90805000
-8.12284000 -3.26490000 -1.07013000
-8.52807000 -1.68660000 0.88933400
-8.03907000 -1.68529000 1.73345000
-7.39004000 -1.67378000 2.38984000
-6.07801000 0.39509600 3.18817000
-5.45922000 0.45204200 3.48704000
-5.38689000 -1.59258000 3.56462000
-6.02906000 -1.62617000 3.25548000
-4.75323000 -1.55603000 3.79418000
-4.83729000 0.48902400 3.69821000
-3.57330000 2.51144000 3.33691000
-3.01837000 2.53615000 3.53574000
-2.46276000 2.56934000 3.72797000
-1.29582000 2.99308000 3.63632000
-0.71567100 2.97584000 3.66141000
-0.13257100 2.95254000 3.63801000
-0.72799900 3.42588000 3.45971000
-0.15439300 3.39608000 3.43826000
0.42229600 3.38191000 3.40530000
-0.17419300 3.83200000 3.23558000
0.39044200 3.81329000 3.20317000
0.95755800 3.81791000 3.15964000
0.35375400 4.21061000 2.95444000
0.90461200 4.20906000 2.90310000
1.45047000 4.19414000 2.79082000
0.83480800 4.54729000 2.59137000
1.35866000 4.52900000 2.48042000
1.87479000 4.49426000 2.30631000
1.25453000 4.85008000 2.16627000
1.74733000 4.81279000 1.99595000
2.23666000 4.75978000 1.76970000
1.60487000 5.13891000 1.71060000
1.14280000 5.18604000 1.88240000
1.04675000 5.57720000 1.68318000
1.46057000 5.50994000 1.48748000
0.93972300 5.97159000 1.50572000
1.31005000 5.90468000 1.30395000
0.86383700 6.39376000 1.40744000
1.19861000 6.33354000 1.19620000
0.86383700 6.39376000 1.40744000
0.83361000 6.78252000 1.39793000
1.15903000 6.73943000 1.18659000
1.19861000 6.33354000 1.19620000
0.86766600 7.35785000 1.56917000
1.21735000 7.34891000 1.35117000
1.52254000 7.33211000 1.07274000
1.59624000 7.56002000 1.17036000
1.85997000 7.55035000 0.82239800
2.04605000 7.55228000 0.43008100
2.03253000 7.87187000 0.96479700
2.23873000 7.88306000 0.53239300
2.34944000 7.89890000 0.07404310
2.57367000 8.12433000 0.13066700
2.59811000 8.13935000 -0.39995400
2.50298000 8.14616000 -0.92513300
2.60274000 8.24319000 -0.94870500
2.39721000 8.24092000 -1.46723000
2.10421000 8.24264000 -1.92676000
2.61914000 8.19488000 -1.58144000
2.29403000 8.19671000 -2.09064000
1.88641000 8.20207000 -2.53188000
2.01038000 8.03318000 -2.69575000
1.48041000 8.01342000 -3.06978000
0.89436500 7.98837000 -3.34339000
0.87979300 7.85901000 -3.33032000
0.25688500 7.82552000 -3.44170000
-0.35813500 7.80381000 -3.43253000
0.23756500 7.74726000 -3.33147000
-0.35434100 7.72684000 -3.32124000
-0.93247200 7.71425000 -3.21376000
-0.34137600 7.61747000 -3.03551000
-0.85652900 7.60822000 -2.93093000
-1.34877000 7.59155000 -2.72496000
-1.28668000 7.48092000 -2.59780000
-1.69838000 7.46577000 -2.31282000
-2.05917000 7.44890000 -1.96016000
-1.62246000 7.28281000 -2.20065000
-1.96237000 7.26962000 -1.86421000
-2.24304000 7.26590000 -1.47569000
-1.87982000 7.00871000 -1.77277000
-2.13924000 7.00970000 -1.40229000
-2.32696000 7.01312000 -0.98899300
-2.08174000 6.71795000 -1.35405000
-2.27090000 6.72726000 -0.95620600
-2.37584000 6.73567000 -0.52066800
-2.38592000 6.73590000 -0.06639130
-2.26243000 6.42910000 -0.93758200
-2.38613000 6.44661000 -0.50643300
-2.41102000 6.44859000 -0.04801870
-2.41102000 6.44859000 -0.04801870
-2.47415000 6.17034000 -0.50482600
-2.51932000 6.18256000 -0.03068590
-2.51932000 6.18256000 -0.03068590
-2.46472000 6.16352000 0.45406800
-2.74152000 6.00637000 -0.01126610
-2.68966000 5.98806000 0.53167600
-2.53641000 5.90397000 1.05995000
-2.97465000 5.91645000 0.61619600
-2.81938000 5.81496000 1.24628000
-2.55322000 5.65209000 1.84510000
-3.02440000 5.94689000 0.00662622
-2.97465000 5.91645000 0.61619600
-3.02440000 5.94689000 0.00662622
-3.33741000 5.92411000 0.01886040
-3.30328000 5.88838000 0.70187100
-3.73057000 5.89354000 0.02827610
-3.74131000 5.85184000 0.78071100
-4.18628000 5.83092000 0.02853440
-4.20372000 5.78858000 0.81569200
-4.16271000 5.63812000 1.61808000
-4.67962000 5.69349000 0.79668100
-4.68004000 5.54697000 1.56965000
-4.66936000 5.30280000 2.27713000
-4.09474000 5.37992000 2.36025000
-4.67663000 4.97963000 2.89132000
-4.08113000 5.03863000 3.00931000
-4.72464000 4.58075000 3.46240000
-4.16316000 4.61221000 3.61052000
-3.62611000 4.60072000 3.74322000
-4.23896000 4.11297000 4.17741000
-3.70322000 4.08524000 4.32134000
-3.16660000 4.02567000 4.45885000
-3.10564000 4.54243000 3.88555000
-2.62039000 3.94561000 4.59164000
-2.57268000 4.44819000 4.03860000
-2.05924000 3.85408000 4.71571000
-2.01892000 4.33989000 4.18926000
-1.95609000 4.75864000 3.62705000
-1.44954000 4.24373000 4.33073000
-1.48388000 3.77043000 4.83577000
-0.89391300 3.69394000 4.94056000
-0.86907100 4.16394000 4.45371000
-0.28921900 3.61359000 5.02203000
-0.27873500 4.08465000 4.54365000
-0.90968900 3.15878000 5.36862000
-0.29695700 3.08655000 5.43788000
-0.92283400 2.56944000 5.73448000
-0.31009500 2.51288000 5.78394000
0.33242600 2.46245000 5.80407000
-0.33122800 1.88813000 6.07492000
0.28828800 1.85477000 6.08121000
0.91653800 1.84153000 6.05748000
0.23801000 1.16774000 6.29646000
0.82747100 1.14042000 6.27171000
1.40161000 1.12231000 6.24568000
1.51689000 1.86385000 6.01683000
1.95576000 1.10583000 6.22215000
2.07197000 1.87228000 5.97667000
2.49511000 1.08403000 6.19682000
2.60262000 1.85989000 5.93363000
3.02483000 1.05284000 6.16163000
3.12307000 1.83033000 5.88579000
3.54858000 1.01080000 6.11112000
3.63893000 1.78634000 5.83093000
3.72016000 2.53752000 5.42478000
4.15183000 1.72862000 5.76321000
4.22396000 2.46874000 5.36152000
4.28655000 3.16456000 4.84686000
4.72363000 2.38241000 5.27674000
4.77722000 3.06315000 4.77092000
4.82900000 3.67442000 4.15839000
5.25865000 2.94827000 4.67198000
5.30003000 3.55149000 4.07111000
5.34613000 4.07197000 3.39148000
5.76019000 3.42002000 3.96566000
5.80277000 3.93726000 3.30152000
5.83952000 4.36354000 2.58502000
6.25292000 3.78281000 3.19288000
6.27885000 4.20240000 2.49801000
6.28711000 4.53299000 1.73886000
6.70878000 4.02295000 2.39186000
6.71741000 4.34498000 1.63891000
6.68937000 4.55190000 0.86803500
6.35761000 -5.99085000 0.74983200
5.91992000 -6.13824000 0.84766900
5.92988000 -6.15682000 -0.01940530
6.35571000 -6.01424000 -0.06386720
6.35571000 -6.01424000 -0.06386720
5.92988000 -6.15682000 -0.01940530
5.97574000 -6.15505000 -0.88191200
6.37909000 -5.98500000 -0.85619600
5.50488000 -6.29420000 0.02331370
5.56509000 -6.31045000 -0.90376200
5.62247000 -6.14376000 -1.75041000
5.14343000 -6.44269000 -0.91467000
5.19389000 -6.26950000 -1.82189000
5.24350000 -5.97769000 -2.57327000
4.75873000 -6.37675000 -1.88423000
4.79159000 -6.07616000 -2.66725000
4.81902000 -5.71375000 -3.29384000
4.34121000 -6.15808000 -2.75450000
4.34975000 -5.79342000 -3.38880000
4.36696000 -5.39074000 -3.92429000
3.88679000 -5.85294000 -3.46747000
3.88917000 -5.44241000 -4.00781000
3.90238000 -4.96712000 -4.48605000
3.42088000 -5.46159000 -4.08958000
3.41406000 -4.97361000 -4.57549000
3.40199000 -4.44665000 -4.99571000
3.91015000 -4.44725000 -4.90479000
3.39127000 -3.89384000 -5.35662000
3.91414000 -3.89965000 -5.26515000
3.38508000 -3.30940000 -5.64718000
2.85479000 -3.87738000 -5.44861000
2.84193000 -3.28590000 -5.72864000
2.84170000 -2.66750000 -5.94788000
2.28409000 -3.25220000 -5.79942000
2.28697000 -2.63013000 -6.01181000
2.30240000 -1.98246000 -6.16273000
1.71899000 -2.58665000 -6.06322000
1.74140000 -1.93799000 -6.21114000
1.77412000 -1.26967000 -6.30372000
1.16832000 -1.89388000 -6.25340000
1.20870000 -1.22601000 -6.35124000
1.25453000 -0.54406400 -6.38115000
0.63355400 -1.18438000 -6.39126000
0.68442000 -0.50082900 -6.41764000
0.74007600 0.18643400 -6.40106000
0.10706300 -0.45934300 -6.45947000
0.16453300 0.23007100 -6.43681000
0.22747600 0.91237100 -6.33798000
-0.41796500 0.27241000 -6.45779000
-0.35422700 0.95648200 -6.34954000
-0.28222700 1.62230000 -6.16914000
-0.94083400 1.00068000 -6.34144000
-0.87127300 1.67060000 -6.16779000
-0.79875000 2.31595000 -5.94388000
-1.46431000 1.72227000 -6.16578000
-1.39968000 2.37009000 -5.94179000
-1.33504000 2.97788000 -5.64893000
-2.00471000 2.42407000 -5.93238000
-1.94650000 3.03752000 -5.63395000
-1.88111000 3.60170000 -5.25879000
-1.26777000 3.53185000 -5.28414000
-1.80370000 4.11756000 -4.82106000
-1.19461000 4.03294000 -4.86696000
-1.70423000 4.57792000 -4.32429000
-2.41270000 4.18721000 -4.76162000
-1.57479000 4.94145000 -3.81475000
-1.40830000 5.19958000 -3.35985000
-1.63988000 5.48185000 -2.77273000
-1.20671000 5.39513000 -2.95120000
-1.20671000 5.39513000 -2.95120000
-1.63988000 5.48185000 -2.77273000
-1.40863000 5.67979000 -2.43965000
-1.00429000 5.61598000 -2.60418000
-1.23833000 5.98599000 -2.22937000
-0.85826400 5.95002000 -2.39521000
-1.16630000 6.35431000 -2.18379000
-0.79693600 6.35065000 -2.35881000
-0.39484500 6.36547000 -2.46657000
-0.78416400 6.72799000 -2.43971000
-0.36752900 6.75291000 -2.55320000
0.07366670 6.78366000 -2.57860000
-0.35134400 7.07343000 -2.65152000
0.11163100 7.10005000 -2.67337000
0.57899500 7.12278000 -2.59916000
0.14115500 7.34690000 -2.78864000
0.63521800 7.37591000 -2.71045000
1.11256000 7.40448000 -2.53103000
1.03324000 7.14809000 -2.42609000
1.55790000 7.42483000 -2.25344000
1.46094000 7.17556000 -2.16295000
1.95489000 7.43704000 -1.88426000
1.84460000 7.19952000 -1.81128000
2.27683000 7.45045000 -1.42797000
2.15934000 7.22356000 -1.37593000
2.49785000 7.46154000 -0.90780000
2.38010000 7.24491000 -0.87720700
2.60225000 7.45696000 -0.35136200
2.61344000 7.60869000 -0.93906700
2.71741000 7.60470000 -0.36146600
2.68975000 7.58316000 0.21972700
2.84782000 7.70761000 -0.37296200
2.81694000 7.68796000 0.23536000
2.64784000 7.65089000 0.82017400
3.05692000 7.81432000 0.26045200
2.88364000 7.77514000 0.89089000
2.56895000 7.74716000 1.45123000
2.63334000 7.85074000 1.48238000
2.22988000 7.82296000 1.97634000
1.74847000 7.79249000 2.37161000
2.22268000 7.93907000 1.95319000
1.74743000 7.91045000 2.35504000
1.20542000 7.87971000 2.64874000
1.65346000 8.07090000 2.18079000
1.14724000 8.04683000 2.45931000
0.60033700 8.02946000 2.62150000
0.56789400 8.11594000 2.39456000
0.04823040 8.12294000 2.45329000
-0.47241600 8.10765000 2.42244000
-0.44305700 8.04278000 2.31194000
-0.93165500 8.05401000 2.19177000
-1.39240000 8.06382000 1.98909000
-0.84803800 7.85323000 1.98814000
-1.26782000 7.85603000 1.79089000
-1.64217000 7.85460000 1.51307000
-1.47648000 7.58062000 1.32393000
-1.75625000 7.56606000 1.01534000
-1.96213000 7.54946000 0.65724400
-1.85847000 7.33597000 0.60348100
-1.98495000 7.32648000 0.23344500
-2.04347000 7.32856000 -0.15570900
-1.91522000 6.65824000 0.22002100
-1.95886000 6.65414000 -0.16313100
-2.04347000 7.32856000 -0.15570900
-1.95886000 6.65414000 -0.16313100
-1.93102000 6.66923000 -0.54999100
-1.99644000 6.22954000 -0.58510100
-1.88445000 6.27195000 -0.96752900
-1.70194000 6.31000000 -1.31285000
-1.88445000 6.27195000 -0.96752900
-2.06174000 5.84249000 -1.08113000
-1.82989000 5.89598000 -1.43334000
-1.70194000 6.31000000 -1.31285000
-1.54693000 5.93377000 -1.73512000
-1.45664000 6.33832000 -1.61103000
-2.04371000 5.52678000 -1.62179000
-1.69943000 5.56449000 -1.92875000
-1.32622000 5.59344000 -2.18112000
-1.84239000 5.20565000 -2.12849000
-1.40341000 5.21608000 -2.34406000
-0.95065800 5.22194000 -2.49327000
-1.50372000 4.93813000 -2.64608000
-1.00294000 4.95089000 -2.79199000
-0.49780900 4.95245000 -2.87979000
-0.48666500 5.21955000 -2.57992000
-1.04336000 4.67625000 -3.10449000
-0.50267100 4.68033000 -3.18851000
-0.50267100 4.68033000 -3.18851000
0.03741600 4.67878000 -3.22541000
-0.49780900 4.95245000 -2.87979000
-0.49856900 4.40471000 -3.50050000
0.07096310 4.41340000 -3.52491000
0.64114100 4.41668000 -3.51624000
0.11128000 4.09116000 -3.82456000
0.70395400 4.10291000 -3.80868000
1.28723000 4.07952000 -3.71443000
0.76278700 3.70824000 -4.04866000
1.36179000 3.69627000 -3.97302000
1.94345000 3.66311000 -3.83534000
1.43150000 3.27685000 -4.21340000
2.02822000 3.25899000 -4.09246000
2.60698000 3.22495000 -3.92300000
2.11118000 2.84071000 -4.34502000
2.70846000 2.82077000 -4.19119000
3.30383000 2.81208000 -4.02512000
2.80868000 2.40719000 -4.45930000
3.41602000 2.39776000 -4.28859000
4.02705000 2.39946000 -4.11382000
3.88948000 2.78676000 -3.81888000
4.62347000 2.36923000 -3.87424000
4.47580000 2.75733000 -3.58326000
5.23075000 2.33938000 -3.62435000
5.07120000 2.71267000 -3.32021000
5.84438000 2.25681000 -3.32750000
5.67651000 2.62742000 -3.02145000
6.47593000 2.21226000 -3.00587000
6.24795000 2.53732000 -2.68858000
6.33992000 0.36014300 -3.94564000
6.97524000 0.31998400 -3.52377000
7.56775000 0.29885800 -3.00823000
8.94740000 -1.63828000 0.53913300
8.58527000 -1.63173000 1.21629000
8.12186000 -1.63158000 1.80456000
7.01216000 -1.59812000 2.64213000
6.79984000 -3.31066000 2.24449000
6.28389000 -3.32771000 2.52896000
6.44855000 -1.56273000 2.96812000
5.75977000 -3.34980000 2.79321000
5.89465000 -1.52549000 3.27173000
4.38146000 -4.61812000 2.18632000
3.89298000 -4.63327000 2.39382000
3.39107000 -4.64563000 2.58120000
2.83292000 -4.92127000 2.52920000
2.31856000 -4.92611000 2.66842000
1.79896000 -4.92774000 2.77099000
2.28742000 -5.18605000 2.46851000
1.77800000 -5.18738000 2.57384000
1.26650000 -5.18887000 2.64888000
1.74894000 -5.44175000 2.38051000
1.24811000 -5.44647000 2.45831000
0.75092500 -5.44380000 2.50792000
1.22098000 -5.60895000 2.22301000
0.73704900 -5.60894000 2.27448000
0.25575900 -5.60889000 2.30319000
0.71484700 -5.60892000 1.95631000
0.25125500 -5.60887000 1.98844000
-0.21363400 -5.60885000 2.01437000
0.24341700 -5.60886000 1.67195000
-0.20308600 -5.60884000 1.69566000
-0.64219500 -5.60882000 1.70633000
-0.19149000 -5.60882000 1.37254000
-0.61367500 -5.60881000 1.38586000
-1.02807000 -5.60879000 1.38062000
-0.58416500 -5.60879000 1.05888000
-0.98021800 -5.60876000 1.05537000
-1.36698000 -5.60873000 1.02534000
-0.93546300 -5.60874000 0.70066600
-1.30272000 -5.60871000 0.68837400
-1.65703000 -5.60868000 0.66094400
-1.23857000 -5.60870000 0.32549500
-1.56918000 -5.60868000 0.32276300
-1.89724000 -5.60866000 0.28558000
-1.50864000 -5.60870000 -0.05319610
-1.78562000 -5.60869000 -0.03021240
-1.52587000 -5.60873000 -0.48992500
-1.82311000 -5.60872000 -0.43053200
-1.64514000 -5.60876000 -0.90216300
-1.93361000 -5.60874000 -0.82082700
-1.79515000 -5.60879000 -1.27301000
-2.13021000 -5.60877000 -1.16912000
-2.44933000 -5.60875000 -1.03376000
-2.33324000 -5.60879000 -1.49380000
-2.68987000 -5.60877000 -1.33826000
-2.53746000 -5.60881000 -1.80630000
-2.92765000 -5.60879000 -1.63706000
-2.74943000 -5.60882000 -2.11181000
-3.17239000 -5.60881000 -1.92610000
-2.96426000 -5.60883000 -2.41318000
-3.43034000 -5.60883000 -2.21415000
-3.15312000 -5.43995000 -2.64804000
-3.65102000 -5.42053000 -2.43353000
-3.32078000 -5.17058000 -2.84558000
-3.84741000 -5.14477000 -2.62576000
-3.49037000 -4.89936000 -3.04945000
-4.04797000 -4.86658000 -2.82242000
-3.65980000 -4.62383000 -3.26065000
-4.25202000 -4.58526000 -3.02687000
-4.84530000 -4.53861000 -2.74201000
-5.04798000 -3.34376000 -3.95645000
-5.76921000 -3.32417000 -3.62712000
-6.49544000 -3.29819000 -3.18623000
-8.27738000 -1.67242000 -1.95825000
-8.61753000 -1.67251000 -1.03995000
-8.71294000 -1.67830000 -0.06378820
-7.99783000 0.27255400 1.75938000
-7.38104000 0.29657000 2.37801000
-7.39004000 -1.67378000 2.38984000
-8.03907000 -1.68529000 1.73345000
-6.72900000 0.34384300 2.84474000
-6.70224000 -1.65487000 2.87886000
-5.25766000 2.41454000 2.72346000
-4.70322000 2.48276000 2.95992000
-4.13477000 2.49754000 3.14768000
-2.97493000 2.95769000 3.23621000
-2.43025000 2.98843000 3.43002000
-1.87314000 3.00819000 3.57612000
-2.39343000 3.39852000 3.13056000
-1.86155000 3.44568000 3.32659000
-1.29838000 3.44157000 3.41761000
-1.83578000 3.85269000 3.04162000
-1.29608000 3.87779000 3.18669000
-0.73652500 3.86889000 3.25381000
-1.27924000 4.26551000 2.89412000
-0.73636800 4.25979000 2.97332000
-0.19385600 4.22997000 2.98113000
-0.72787700 4.59644000 2.63696000
-0.21121800 4.57263000 2.65889000
0.31016700 4.55244000 2.64108000
-0.22598400 4.90105000 2.32872000
0.26392000 4.88292000 2.32017000
0.75640400 4.87002000 2.27106000
0.21864800 5.24280000 2.04224000
0.67974400 5.22117000 1.99398000
0.18038900 5.65106000 1.86325000
0.61500200 5.62197000 1.80823000
0.14381600 6.05006000 1.69202000
0.54818700 6.02095000 1.64109000
0.11587700 6.45413000 1.59858000
0.49934400 6.43352000 1.54445000
0.11587700 6.45413000 1.59858000
0.09845760 6.83667000 1.59103000
0.47722100 6.81145000 1.54574000
0.49934400 6.43352000 1.54445000
0.08168420 7.39199000 1.79769000
0.49063100 7.36770000 1.73325000
0.50936200 7.57773000 1.86129000
0.90937400 7.56915000 1.69666000
1.27671000 7.57377000 1.46425000
0.98148800 7.85025000 1.92518000
1.38700000 7.85857000 1.67601000
1.74424000 7.86936000 1.35011000
1.87235000 8.09561000 1.52637000
2.19330000 8.09987000 1.10914000
2.43551000 8.10552000 0.63965300
2.53141000 8.19349000 0.69372400
2.67310000 8.21481000 0.16033400
2.69754000 8.23918000 -0.39864200
2.90842000 8.17146000 0.21258400
2.93589000 8.19514000 -0.40287300
2.84121000 8.19915000 -1.01211000
3.02735000 8.04170000 -1.05878000
2.79070000 8.03718000 -1.67080000
2.44106000 8.03529000 -2.21730000
2.45188000 7.91875000 -2.23059000
2.01296000 7.90914000 -2.70861000
1.47706000 7.89080000 -3.07921000
1.94696000 7.81767000 -2.64691000
1.42142000 7.80007000 -3.00081000
0.83668600 7.77536000 -3.23183000
1.26654000 7.68789000 -2.76166000
0.73232300 7.65947000 -2.96371000
0.19002000 7.63277000 -3.04803000
0.16674900 7.52136000 -2.91700000
-0.34572200 7.50883000 -2.89990000
-0.83486400 7.49691000 -2.79645000
-0.34403600 7.32789000 -2.76991000
-0.80528300 7.31216000 -2.66741000
-1.23356000 7.29814000 -2.47328000
-0.78939200 7.04694000 -2.54364000
-1.19455000 7.02752000 -2.35208000
-1.56133000 7.01443000 -2.09215000
-1.17145000 6.71201000 -2.25386000
-1.52228000 6.70654000 -2.00932000
-1.82870000 6.70989000 -1.70794000
-1.50469000 6.36676000 -1.94943000
-1.80992000 6.38295000 -1.66786000
-2.06899000 6.40691000 -1.33112000
-1.88351000 6.05712000 -1.72285000
-2.13893000 6.10042000 -1.36010000
-2.33849000 6.13800000 -0.95376700
-2.34625000 5.88524000 -1.49213000
-2.55275000 5.93850000 -1.03694000
-2.68651000 5.97724000 -0.53630100
-2.74152000 6.00637000 -0.01126610
-2.83607000 5.86306000 -1.15806000
-2.97449000 5.91696000 -0.58862200
-3.02440000 5.94689000 0.00662622
-2.83607000 5.86306000 -1.15806000
-3.16586000 5.82353000 -1.28400000
-3.29261000 5.89007000 -0.64651600
-2.97449000 5.91696000 -0.58862200
-3.56318000 5.77565000 -1.38992000
-3.67008000 5.85596000 -0.69360900
-4.02454000 5.70738000 -1.45830000
-4.12099000 5.79558000 -0.72830400
-4.52797000 5.61475000 -1.49064000
-4.59833000 5.70554000 -0.75474400
-4.65367000 5.74068000 0.00849082
-5.09774000 5.58906000 -0.77825200
-5.13678000 5.62842000 -0.03471600
-5.17312000 5.58136000 0.72671900
-5.62774000 5.46938000 -0.09391460
-5.66165000 5.42576000 0.62723200
-5.73411000 5.27656000 1.31554000
-5.21001000 5.43604000 1.45703000
-5.79603000 5.05208000 1.95542000
-5.24185000 5.20867000 2.12611000
-5.83967000 4.75728000 2.55130000
-5.26642000 4.89589000 2.72915000
-5.84952000 4.39146000 3.11416000
-5.29053000 4.51183000 3.29586000
-5.85355000 3.95214000 3.65323000
-5.32037000 4.05268000 3.84319000
-4.77908000 4.10171000 4.01707000
-5.34496000 3.51945000 4.35468000
-4.81758000 3.55416000 4.53172000
-4.28441000 3.55126000 4.69203000
-4.83558000 2.94345000 4.98176000
-4.30628000 2.93095000 5.13774000
-3.76797000 2.89213000 5.27138000
-3.74682000 3.51691000 4.83417000
-3.22114000 2.83455000 5.38623000
-3.20304000 3.45977000 4.96216000
-2.66511000 2.76893000 5.49069000
-2.65006000 3.38789000 5.08004000
-2.09690000 2.69691000 5.57836000
-2.08384000 3.30646000 5.18395000
-1.51656000 2.62789000 5.65776000
-1.50387000 3.22971000 5.28036000
-2.10494000 2.04120000 5.90748000
-1.52568000 1.98068000 5.97589000
-0.93511100 1.93115000 6.03857000
-1.53483000 1.29471000 6.23058000
-0.94937500 1.24781000 6.28423000
-0.35728900 1.20565000 6.30852000
-0.96548900 0.52248500 6.44728000
-0.38433200 0.47407200 6.46067000
0.19172700 0.42767500 6.43920000
-0.41686000 -0.28899700 6.50994000
0.14786800 -0.34433100 6.48998000
0.70439900 -0.39468700 6.45826000
0.75992500 0.38724300 6.40835000
1.25278000 -0.43915600 6.42914000
1.31816000 0.35318000 6.38185000
1.79296000 -0.47842600 6.41005000
1.86445000 0.32307500 6.36390000
2.32672000 -0.51423200 6.39394000
2.40144000 0.29220300 6.34460000
2.85602000 -0.54924900 6.36951000
2.93225000 0.25780900 6.31772000
3.38283000 -0.58549200 6.33530000
3.45914000 0.21814500 6.27731000
3.90824000 -0.62442500 6.28394000
3.98272000 0.17220600 6.21659000
4.06754000 0.95774400 6.03980000
4.50171000 0.11934000 6.12627000
4.58228000 0.89518900 5.94880000
4.65924000 1.65419000 5.67020000
5.09099000 0.82160500 5.82947000
5.16002000 1.56523000 5.55138000
5.21599000 2.28051000 5.16790000
5.65462000 1.46709000 5.41193000
5.70002000 2.16784000 5.03767000
5.72941000 2.82392000 4.55348000
6.16940000 2.04049000 4.87506000
6.18492000 2.68651000 4.41107000
6.20468000 3.27395000 3.84228000
6.62542000 2.53804000 4.24849000
6.62917000 3.11590000 3.71596000
6.70337000 3.59865000 3.07502000
6.28949000 -2.98305000 5.05099000
5.82453000 -2.99009000 5.26540000
5.82332000 -3.66597000 4.89808000
6.30691000 -3.63739000 4.67175000
5.81834000 -4.28436000 4.45380000
6.27974000 -4.24137000 4.23733000
5.80976000 -4.85842000 3.91864000
6.25621000 -4.79639000 3.70269000
5.81356000 -5.36765000 3.29151000
6.23787000 -5.28013000 3.09442000
5.82891000 -5.78200000 2.56481000
6.23541000 -5.66665000 2.39245000
5.88853000 -6.05196000 1.71710000
6.33719000 -5.88774000 1.57342000
5.39686000 -5.87808000 2.74279000
5.44247000 -6.17195000 1.88230000
5.47867000 -6.26683000 0.95868000
4.98755000 -6.25902000 2.05327000
5.03413000 -6.36478000 1.07845000
5.07814000 -6.42362000 0.07404310
5.50488000 -6.29420000 0.02331370
4.58955000 -6.45380000 1.20194000
4.65475000 -6.55126000 0.14141000
5.07814000 -6.42362000 0.07404310
4.65475000 -6.55126000 0.14141000
4.71770000 -6.56674000 -0.91597500
4.23780000 -6.66094000 0.21194600
4.30204000 -6.68173000 -0.90635100
4.32813000 -6.47575000 -1.94004000
3.90869000 -6.77340000 -0.88183300
3.91713000 -6.55510000 -1.97753000
3.90095000 -6.21869000 -2.83212000
3.53642000 -6.62370000 -1.98444000
3.48695000 -6.25676000 -2.90809000
3.44271000 -5.88747000 -3.54177000
2.94553000 -5.44524000 -4.19180000
2.40823000 -5.39830000 -4.32852000
2.36536000 -4.92253000 -4.80074000
2.91009000 -4.95676000 -4.68056000
2.32368000 -4.40372000 -5.19817000
2.87833000 -4.43408000 -5.09770000
2.29618000 -3.84489000 -5.52897000
1.73268000 -4.34751000 -5.27545000
1.71215000 -3.79494000 -5.59042000
1.70841000 -3.20729000 -5.85486000
1.10514000 -3.74109000 -5.64640000
1.11471000 -3.15946000 -5.90649000
1.13647000 -2.54188000 -6.11077000
0.50318800 -3.11541000 -5.95813000
0.54012700 -2.50041000 -6.16204000
0.58496900 -1.85427000 -6.30811000
-0.06752770 -2.46110000 -6.20712000
-0.00891729 -1.81525000 -6.35699000
0.05023840 -1.14445000 -6.43777000
-0.61282900 -1.77418000 -6.38420000
-0.54254300 -1.10331000 -6.47198000
-0.47821700 -0.41800100 -6.49500000
-1.14088000 -1.06039000 -6.48283000
-1.07005000 -0.37537500 -6.50859000
-1.00583000 0.31516500 -6.45743000
-1.66473000 -0.33115000 -6.50994000
-1.59575000 0.36016400 -6.44922000
-1.52976000 1.04804000 -6.33253000
-2.18649000 0.40667000 -6.43742000
-2.12099000 1.09633000 -6.32404000
-2.06135000 1.77304000 -6.15904000
-2.71468000 1.13598000 -6.29067000
-2.66146000 1.81005000 -6.12052000
-2.61284000 2.46226000 -5.89271000
-3.26332000 1.83460000 -6.06337000
-3.22285000 2.48086000 -5.82892000
-3.17818000 3.09391000 -5.52018000
-2.56064000 3.07967000 -5.59118000
-3.11988000 3.67263000 -5.14343000
-2.49680000 3.65639000 -5.21487000
-3.03498000 4.21204000 -4.68913000
-3.75629000 3.64873000 -5.05873000
-3.68900000 4.17979000 -4.61807000
-4.40382000 3.59005000 -4.96730000
-4.36133000 4.09456000 -4.53559000
-4.31596000 4.54262000 -4.04809000
-5.01723000 3.96613000 -4.41928000
-4.98834000 4.39851000 -3.95069000
-4.96991000 4.77119000 -3.41810000
-4.31492000 4.91562000 -3.49660000
-4.98142000 5.07913000 -2.82100000
-4.37396000 5.22284000 -2.87554000
-5.01889000 5.32379000 -2.17504000
-4.45185000 5.45983000 -2.19926000
-3.90034000 5.56572000 -2.16474000
-3.39292000 5.65461000 -2.05827000
-2.95075000 5.73055000 -1.87600000
-2.62430000 5.78907000 -1.68290000
-2.34298000 5.69133000 -2.14842000
-2.62430000 5.78907000 -1.68290000
-2.08206000 5.82347000 -1.89345000
-2.34298000 5.69133000 -2.14842000
-1.76625000 5.75081000 -2.20726000
-2.01545000 5.58582000 -2.51564000
-2.01545000 5.58582000 -2.51564000
-1.57955000 6.02097000 -2.00810000
-5.05805000 5.49281000 -1.49266000
-5.57903000 5.14830000 -2.11937000
-5.59449000 5.32651000 -1.47352000
-5.60981000 5.43166000 -0.79661700
-6.12626000 5.11041000 -1.44872000
-6.12801000 5.22662000 -0.81163400
-6.12611000 5.27266000 -0.15201600
-6.13407000 5.24267000 0.51554000
-6.24234000 5.08561000 1.15194000
-6.32627000 4.85506000 1.76341000
-6.39764000 4.56079000 2.35341000
-6.38656000 4.22515000 2.93030000
-6.37803000 3.80006000 3.46465000
-6.36271000 3.31355000 3.96135000
-5.85788000 3.43550000 4.15734000
-6.34493000 2.75885000 4.40632000
-5.85490000 2.85943000 4.60751000
-5.35403000 2.92385000 4.80745000
-5.84906000 2.22706000 4.98560000
-5.35335000 2.27138000 5.18439000
-4.84042000 2.28004000 5.35570000
-5.34998000 1.58079000 5.48092000
-4.84037000 1.57831000 5.64648000
-4.31867000 1.55476000 5.79418000
-4.31527000 2.26256000 5.50842000
-3.78395000 1.51417000 5.91609000
-3.77778000 2.22129000 5.63316000
-3.23754000 1.46340000 6.01729000
-3.23042000 2.16685000 5.73971000
-2.68061000 1.40815000 6.10416000
-2.67312000 2.10547000 5.83099000
-2.11269000 1.34950000 6.17145000
-2.68797000 0.67962900 6.28640000
-2.12112000 0.62602400 6.34866000
-1.54571000 0.57261200 6.40172000
-2.13088000 -0.11839400 6.43114000
-1.56009000 -0.17314600 6.47296000
-0.98768400 -0.23106100 6.50550000
-1.58246000 -0.93050100 6.42608000
-1.02010000 -0.99602400 6.46622000
-0.45739900 -1.06244000 6.46986000
-1.05821000 -1.75227000 6.31291000
-0.50108700 -1.82538000 6.33396000
0.05828440 -1.89604000 6.33460000
0.10166300 -1.12623000 6.45138000
0.61612100 -1.96051000 6.31849000
0.65487400 -1.18484000 6.42572000
1.16909000 -2.01760000 6.29522000
1.20200000 -1.23645000 6.39759000
1.71485000 -2.06838000 6.26762000
1.74262000 -1.28196000 6.37666000
2.25311000 -2.11345000 6.24187000
2.27681000 -1.32176000 6.35521000
2.78470000 -2.14995000 6.20358000
2.80623000 -1.35719000 6.33054000
3.31068000 -2.17882000 6.15097000
3.33245000 -1.38913000 6.29105000
3.83216000 -2.20265000 6.08351000
3.85730000 -1.42031000 6.23839000
4.34888000 -2.22269000 5.99234000
4.37936000 -1.45139000 6.15620000
4.43059000 -0.66647000 6.20033000
4.89443000 -1.48301000 6.03140000
4.94644000 -0.71180600 6.07750000
5.01483000 0.05999800 6.00499000
5.45517000 -0.76247100 5.92949000
5.52207000 -0.00578375 5.85920000
5.59501000 0.73947300 5.68949000
6.01644000 -0.08078050 5.67610000
6.08294000 0.64282600 5.50363000
6.13386000 1.35563000 5.23217000
6.55855000 0.54245700 5.28866000
6.60342000 1.23741000 5.02703000
6.62630000 1.90331000 4.68313000
6.49249000 -0.17025600 5.45846000
5.94958000 -0.81974100 5.74636000
6.42376000 -0.88084000 5.52486000
5.89942000 -1.55854000 5.69252000
6.38225000 -1.59499000 5.46770000
5.85354000 -2.28087000 5.52819000
6.33258000 -2.29953000 5.30469000
5.40248000 -1.51925000 5.87930000
5.36084000 -2.26074000 5.71097000
5.33753000 -2.98565000 5.44408000
4.85774000 -2.23953000 5.86271000
4.84010000 -2.97805000 5.59385000
4.84075000 -3.68433000 5.23380000
5.33613000 -3.68025000 5.08448000
4.85301000 -4.34395000 4.78889000
5.34128000 -4.32264000 4.63802000
4.87276000 -4.95019000 4.25272000
5.35006000 -4.91376000 4.10084000
4.90385000 -5.50087000 3.63932000
5.36985000 -5.44441000 3.47535000
4.93973000 -5.94978000 2.91408000
4.42466000 -5.54425000 3.78663000
4.46673000 -6.00635000 3.07209000
4.52165000 -6.33098000 2.21694000
3.98677000 -6.04684000 3.20541000
4.05869000 -6.37974000 2.35503000
4.15382000 -6.53670000 1.32775000
3.61409000 -6.43814000 2.47289000
3.77031000 -6.61614000 1.42222000
3.85589000 -6.73438000 0.26835500
4.23780000 -6.66094000 0.21194600
3.44379000 -6.66370000 1.47880000
3.56586000 -6.80176000 0.31136100
3.85589000 -6.73438000 0.26835500
3.56586000 -6.80176000 0.31136100
3.57095000 -6.83589000 -0.82973400
3.31113000 -6.83821000 0.36941900
3.31342000 -6.88306000 -0.76822600
3.05930000 -6.89182000 0.40235700
3.07375000 -6.92281000 -0.70201400
2.90931000 -6.96320000 0.41834100
2.89150000 -6.96040000 -0.60629200
2.84774000 -7.05520000 0.44331900
2.77163000 -7.02227000 -0.51687400
2.55522000 -6.88347000 -1.43945000
2.77163000 -7.02227000 -0.51687400
2.70951000 -7.13489000 -0.45661400
2.42813000 -6.98363000 -1.29617000
2.55522000 -6.88347000 -1.43945000
2.04286000 -6.79266000 -2.00787000
2.17129000 -6.70308000 -2.21783000
2.17129000 -6.70308000 -2.21783000
1.58824000 -6.59373000 -2.58348000
1.67522000 -6.49418000 -2.78324000
1.67522000 -6.49418000 -2.78324000
1.03181000 -6.45117000 -2.89076000
1.11061000 -6.31723000 -3.14534000
1.11061000 -6.31723000 -3.14534000
1.16118000 -6.14727000 -3.43102000
0.47935100 -6.21239000 -3.32535000
0.49385800 -6.04501000 -3.60097000
0.49616700 -5.82132000 -3.92958000
1.18634000 -5.91291000 -3.78477000
0.48848000 -5.53370000 -4.29797000
1.18164000 -5.61497000 -4.17689000
0.47526300 -5.15602000 -4.68646000
1.15725000 -5.23253000 -4.59909000
1.81517000 -5.32146000 -4.47791000
1.12941000 -4.78315000 -4.99135000
1.76855000 -4.86122000 -4.90767000
1.11037000 -4.28289000 -5.33905000
0.46510900 -4.71349000 -5.05301000
0.46434100 -4.22585000 -5.39328000
0.47729300 -3.69235000 -5.69883000
-0.19799400 -4.17919000 -5.42422000
-0.16485600 -3.65032000 -5.73518000
-0.12052300 -3.07520000 -5.99846000
-0.81401100 -3.61586000 -5.74524000
-0.75297600 -3.03772000 -6.01419000
-0.68479900 -2.42094000 -6.22734000
-1.38617000 -3.00242000 -6.00060000
-1.30381000 -2.37990000 -6.21967000
-1.22012000 -1.73078000 -6.38399000
-1.91980000 -2.34230000 -6.20724000
-1.82750000 -1.69006000 -6.38523000
-1.74153000 -1.01744000 -6.48862000
-2.43249000 -1.64699000 -6.37089000
-2.34204000 -0.97236600 -6.47805000
-2.25975000 -0.28530400 -6.49700000
-2.93984000 -0.92223200 -6.43932000
-2.85444000 -0.23817500 -6.45984000
-2.77847000 0.45005600 -6.40460000
-3.44973000 -0.19006300 -6.40650000
-3.37301000 0.49065200 -6.35522000
-3.31075000 1.16785000 -6.23742000
-3.97036000 0.52731900 -6.28183000
-3.91064000 1.19205000 -6.16431000
-3.86876000 1.84665000 -5.98806000
-4.51377000 1.21087000 -6.06982000
-4.47831000 1.84652000 -5.88942000
-4.45497000 2.45959000 -5.64548000
-3.83615000 2.47860000 -5.74425000
-4.43285000 3.04308000 -5.33801000
-3.80178000 3.07924000 -5.43175000
-5.07788000 2.41511000 -5.51139000
-5.06280000 2.96672000 -5.20184000
-5.04364000 3.48700000 -4.83739000
-5.68961000 2.86363000 -5.02679000
-5.67270000 3.35510000 -4.67102000
-5.65143000 3.80837000 -4.26895000
-6.28392000 3.20145000 -4.45968000
-6.27112000 3.62456000 -4.06916000
-6.20905000 4.02358000 -3.64145000
-5.61551000 4.23168000 -3.82672000
-6.13479000 4.39123000 -3.16618000
-5.57055000 4.59086000 -3.30299000
-6.12605000 4.69013000 -2.63276000
-5.56486000 4.90124000 -2.72937000
-6.12613000 4.92817000 -2.05708000
-6.31533000 1.50391000 5.07090000
-5.83938000 1.55418000 5.28195000
-6.33590000 2.15157000 4.77695000
-6.31061000 0.82245100 5.27347000
-5.83099000 0.85116500 5.49039000
-5.34279000 0.85946900 5.68609000
-5.81897000 0.13143100 5.60680000
-5.33159000 0.11761900 5.79172000
-4.82973000 0.09214670 5.94757000
-4.83679000 0.84519100 5.84584000
-4.31731000 0.05886500 6.09089000
-4.31960000 0.81705800 5.99036000
-3.79002000 0.02013310 6.20776000
-3.78837000 0.77710700 6.10922000
-3.24829000 -0.02196920 6.30101000
-3.24389000 0.73005000 6.20586000
-2.69454000 -0.06790820 6.37521000
-3.24936000 -0.78311000 6.28487000
-2.70005000 -0.82542000 6.34555000
-2.14350000 -0.87376200 6.38836000
-2.70897000 -1.57600000 6.19258000
-2.16183000 -1.62258000 6.22636000
-1.61102000 -1.68093000 6.26512000
-2.19197000 -2.36029000 5.99594000
-1.64591000 -2.41848000 6.03778000
-1.09476000 -2.48899000 6.08951000
-1.68670000 -3.13144000 5.78870000
-1.12469000 -3.19480000 5.83921000
-0.55134300 -3.26011000 5.86709000
-0.53517900 -2.56170000 6.12206000
0.02822990 -3.32584000 5.86621000
0.03084730 -2.63369000 6.13569000
0.60605900 -3.39001000 5.83480000
0.59760400 -2.69919000 6.11932000
1.17592000 -3.45838000 5.79587000
1.15928000 -2.76107000 6.09106000
1.73351000 -3.52827000 5.75812000
1.71143000 -2.82032000 6.06107000
2.27572000 -3.58839000 5.71217000
2.25320000 -2.87316000 6.02996000
2.80555000 -3.63085000 5.64446000
2.78543000 -2.91155000 5.97535000
3.32536000 -3.66260000 5.56859000
3.30926000 -2.93904000 5.90640000
3.83683000 -3.67963000 5.47508000
3.82676000 -2.95951000 5.82692000
4.34221000 -3.68739000 5.36760000
4.33751000 -2.97213000 5.72582000
3.86378000 -4.36274000 5.04332000
4.36088000 -4.35931000 4.92455000
3.89888000 -4.99627000 4.51960000
4.38727000 -4.97696000 4.38949000
3.93996000 -5.57798000 3.91790000
3.40714000 -4.99704000 4.63898000
3.45440000 -5.58945000 4.03458000
3.51131000 -6.08894000 3.32231000
2.97378000 -5.57507000 4.15195000
3.08308000 -6.10821000 3.42094000
3.23947000 -6.49338000 2.51700000
2.48069000 -5.52663000 4.28177000
2.39055000 -4.91440000 4.85217000
1.84693000 -4.82539000 4.95073000
1.93832000 -5.42587000 4.42956000
2.90681000 -4.96505000 4.74438000
2.84734000 -4.31545000 5.23429000
2.32236000 -4.26477000 5.31389000
3.35999000 -4.34923000 5.14658000
1.77975000 -4.19541000 5.38570000
1.21510000 -4.11200000 5.44417000
1.27566000 -4.71704000 5.04338000
0.63306600 -4.03101000 5.49572000
0.67643800 -4.61534000 5.11671000
0.72384700 -5.14679000 4.70470000
1.34370000 -5.28119000 4.58497000
0.78170400 -5.60258000 4.24964000
0.09304330 -5.03522000 4.77903000
0.12955200 -5.46420000 4.37050000
0.17205600 -5.82534000 3.95452000
0.83842900 -5.98550000 3.78951000
0.20427700 -6.14197000 3.58989000
0.85679500 -6.28683000 3.40021000
0.21998200 -6.39992000 3.27152000
0.84200700 -6.50758000 3.10962000
1.50945000 -6.69899000 2.75961000
2.14724000 -6.88319000 2.18856000
1.50945000 -6.69899000 2.75961000
0.84200700 -6.50758000 3.10962000
0.82767200 -6.78879000 2.91055000
1.48748000 -6.94566000 2.62209000
2.11007000 -7.08337000 2.12898000
2.14724000 -6.88319000 2.18856000
1.45899000 -7.20343000 2.57992000
2.09573000 -7.32378000 2.10251000
2.57336000 -7.39483000 1.36497000
2.59535000 -7.20267000 1.36116000
2.65536000 -7.00969000 1.37358000
2.79801000 -7.21473000 0.46293200
2.84774000 -7.05520000 0.44331900
2.65536000 -7.00969000 1.37358000
2.84774000 -7.05520000 0.44331900
2.90931000 -6.96320000 0.41834100
2.77839000 -7.38322000 0.47951900
2.69308000 -7.29192000 -0.43061100
2.78415000 -7.55322000 0.50162100
2.70393000 -7.43378000 -0.38883900
2.37332000 -7.29497000 -1.17645000
2.38159000 -7.12742000 -1.22138000
1.91302000 -7.11391000 -1.84495000
1.95610000 -6.93885000 -1.87780000
1.43226000 -6.96289000 -2.29821000
1.48770000 -6.74568000 -2.39442000
0.92034600 -6.83926000 -2.58902000
0.96224800 -6.60635000 -2.68072000
0.38626100 -6.74526000 -2.76756000
0.40671300 -6.50015000 -2.84709000
0.44469200 -6.34846000 -3.07544000
-0.15689600 -6.45562000 -2.94077000
-0.14691300 -6.29016000 -3.15088000
-0.15891800 -6.15907000 -3.40112000
0.47935100 -6.21239000 -3.32535000
-0.73421600 -6.27439000 -3.11723000
-0.79848500 -6.14628000 -3.36443000
-0.79848500 -6.14628000 -3.36443000
-0.85173100 -5.98551000 -3.64136000
-0.17820900 -5.99707000 -3.67083000
-0.15891800 -6.15907000 -3.40112000
-0.89527500 -5.76383000 -3.96856000
-0.19762800 -5.77809000 -3.98677000
-0.92213100 -5.46411000 -4.33099000
-0.21400700 -5.48233000 -4.34462000
-0.92568800 -5.07867000 -4.71301000
-0.22181000 -5.10169000 -4.72159000
-0.90519300 -4.63601000 -5.07824000
-0.21663900 -4.66281000 -5.08232000
-0.86593800 -4.14779000 -5.42639000
-1.59116000 -4.62861000 -5.03270000
-1.53282000 -4.13208000 -5.39955000
-1.46303000 -3.58991000 -5.72795000
-2.19419000 -4.13728000 -5.36079000
-2.10665000 -3.57549000 -5.70027000
-2.01411000 -2.97328000 -5.97946000
-2.73641000 -3.55847000 -5.65991000
-2.63256000 -2.94347000 -5.95071000
-2.52982000 -2.30345000 -6.18493000
-3.23562000 -2.89543000 -5.89251000
-3.12960000 -2.25185000 -6.13588000
-3.03132000 -1.59449000 -6.32473000
-3.72170000 -2.18802000 -6.07065000
-3.62635000 -1.53499000 -6.26352000
-3.53564000 -0.86760900 -6.37899000
-4.21808000 -1.46603000 -6.18273000
-4.13024000 -0.80794400 -6.29743000
-4.04580000 -0.14150700 -6.32824000
-4.72259000 -0.74177500 -6.18451000
-4.64182000 -0.09059800 -6.22008000
-4.56937000 0.56175500 -6.18144000
-5.23385000 -0.03631890 -6.07458000
-5.16718000 0.59594000 -6.04120000
-5.11862000 1.22071000 -5.93434000
-5.75693000 0.62176400 -5.84108000
-5.71877000 1.21771000 -5.73769000
-5.70439000 1.79661000 -5.56512000
-5.09195000 1.83016000 -5.75505000
-5.70233000 2.34608000 -5.32737000
-6.31199000 1.74046000 -5.31405000
-6.32762000 2.25262000 -5.07290000
-6.30535000 2.74134000 -4.79349000
-6.28372000 -0.57197400 5.41367000
-5.81120000 -0.59729600 5.62755000
-6.28612000 0.12950900 5.39636000
-6.28796000 -1.25838000 5.34168000
-5.82247000 -1.31064000 5.54820000
-5.33383000 -1.36288000 5.71687000
-5.32394000 -0.62978200 5.80317000
-4.83058000 -1.41307000 5.86122000
-4.82491000 -0.66757400 5.95545000
-4.31593000 -1.46111000 5.99161000
-4.31411000 -0.70690100 6.09449000
-3.78718000 -1.49984000 6.08180000
-3.78855000 -0.74471500 6.20351000
-3.25118000 -1.53676000 6.14864000
-3.80665000 -2.23477000 5.88795000
-3.27108000 -2.27472000 5.93609000
