5.78415000 3.28327000 -4.43200000
-3.50816000 -5.56029000 6.72667000
2.33466000 9.94610000 -1.30918000
2.53474000 9.90210000 -1.08551000
-5.31152000 1.08569000 -5.45557000
7.98780000 -5.74368000 -0.58928300
7.96895000 -5.66989000 -0.96968100
8.03052000 -5.34121000 -1.22850000
2.10404000 -9.75808000 -5.01840000
2.59622000 -9.74968000 -4.83967000
1.00466000 -2.60015000 -8.06438000
-5.54088000 -8.61754000 -0.87729800
-5.63433000 -8.52661000 -0.88442000
-5.63433000 -8.52661000 -0.88442000
-5.54088000 -8.61754000 -0.87729800
6.13983000 3.44811000 -1.25219000
0.42783400 5.06951000 -4.42470000
0.74402300 5.11971000 -4.29892000
-4.28502000 3.89900000 -5.19721000
-4.20333000 4.27869000 -4.72202000
-3.81499000 -6.87323000 6.62258000
-4.17502000 -6.90601000 6.38834000
2.01030000 5.64113000 2.87940000
2.29199000 5.41028000 3.20066000
-6.35251000 -1.87191000 -4.92726000
-6.39193000 -2.35147000 -4.81834000
-5.89670000 -2.70538000 -5.35835000
0.11098700 1.78092000 -7.45520000
0.13432900 2.19119000 -7.23154000
-7.68192000 -0.10162900 -2.13617000
-7.61539000 0.30586300 -2.04816000
-3.30106000 4.52197000 5.09554000
-2.81376000 4.97165000 4.71702000
-3.22065000 4.96375000 4.47055000
-3.00371000 5.06973000 4.42487000
-3.96585000 -1.28113000 -7.10105000
-4.46772000 -0.74315600 -6.72619000
4.39622000 5.55445000 0.74572200
-7.29740000 -5.50245000 -0.94390400
5.54217000 -3.17142000 5.93045000
-5.57360000 -3.76429000 -5.43836000
8.70958000 -1.68863000 1.84407000
8.58446000 -1.10118000 2.32311000
8.67710000 -2.29637000 1.73304000
-2.57574000 5.36726000 -3.00998000
-2.14991000 5.62135000 -2.77173000
0.47249200 1.34485000 -8.35819000
0.54924200 1.03702000 -8.43623000
-0.66820400 -0.93045700 -8.17089000
-0.23902300 -1.14711000 -8.20714000
0.07888710 -0.75588300 -8.17949000
4.34804000 4.94536000 3.37519000
3.92145000 5.19023000 3.30514000
4.66888000 4.58022000 3.72430000
5.21574000 -9.35092000 -2.90373000
5.01494000 -9.50979000 -3.07458000
-7.30081000 -5.34170000 -1.26489000
3.07998000 2.71166000 7.03263000
3.32560000 2.95305000 6.72301000
2.70814000 2.80255000 7.11368000
3.81237000 2.52559000 6.82460000
-7.35582000 -0.24205900 3.32151000
4.54157000 -9.61268000 -3.59907000
4.96988000 -9.59442000 -3.00766000
5.12339000 -9.52687000 -2.72470000
6.40523000 1.26495000 -4.16472000
6.18579000 1.35755000 -4.42527000
-6.49078000 -1.44533000 -6.14803000
-6.32046000 -1.78908000 -6.30136000
-6.69356000 -1.76765000 -5.93022000
-6.02840000 -1.49848000 -6.57611000
-5.84325000 -1.81296000 -6.72432000
-7.32003000 -1.33532000 3.68371000
-6.31279000 3.34823000 -0.59358500
4.32620000 -2.49367000 7.70981000
1.01819000 9.45692000 2.16096000
0.63674600 9.35942000 2.23311000
6.98521000 -3.17335000 -5.28949000
6.77682000 -3.67274000 -5.37167000
-6.05302000 -8.26192000 -3.15828000
3.95018000 -2.52095000 -7.88091000
4.39204000 -3.00305000 -7.57405000
4.02803000 1.85198000 -6.19684000
3.57371000 1.86273000 -6.46238000
3.99962000 2.70761000 6.54717000
3.47967000 2.72256000 6.83425000
3.20735000 2.54203000 7.10161000
-3.25916000 5.74357000 -0.61191300
-2.79144000 5.97221000 -0.55112400
-7.63686000 -2.91562000 -4.39034000
-2.68930000 3.54180000 5.66839000
-3.14893000 3.47084000 5.49985000
-2.18358000 9.31961000 0.81496500
-2.21434000 9.47874000 1.05703000
-3.96670000 -8.78516000 -2.56779000
-3.63400000 -8.79675000 -2.30745000
-7.31653000 -2.81149000 -4.93257000
5.08454000 -0.85150700 -7.27864000
3.63162000 0.23761000 -7.10554000
6.31370000 -2.99409000 -6.10753000
7.93802000 -2.04794000 -4.02543000
8.02985000 -2.13049000 -3.76335000
7.88941000 -2.59628000 -3.95771000
8.47282000 -1.60349000 -2.78266000
8.23507000 -1.92896000 -3.35235000
8.14543000 -1.61132000 -3.66746000
0.52918900 6.70817000 -1.72408000
0.39685400 0.93683500 -7.79401000
-1.69658000 6.67235000 -0.93559100
0.71120200 7.34701000 1.62738000
0.52022400 6.97709000 -1.55537000
3.34578000 -8.42163000 -5.80901000
4.94033000 -5.22434000 -5.60517000
5.12431000 -4.65540000 -5.69496000
-2.40813000 9.19101000 -1.80851000
-2.55408000 9.26511000 -1.68852000
-0.25147300 -7.15880000 -7.39547000
-0.62954800 -7.13117000 -7.38885000
0.37470800 -6.82382000 -7.54503000
0.13443000 -7.16070000 -7.39356000
-0.12273700 -6.87731000 -7.53258000
-4.23846000 1.19070000 6.52864000
7.20284000 -6.99195000 1.97266000
7.12272000 -7.32995000 1.66159000
7.43016000 -6.73590000 1.61125000
7.11560000 -7.48854000 1.28306000
5.72633000 -3.06158000 -6.63603000
5.30218000 -2.72898000 -7.03967000
-4.16302000 4.88441000 -3.70278000
-1.10662000 9.02718000 -1.18607000
-1.00577000 8.27547000 -0.97140100
0.25179700 9.63805000 -1.85486000
7.85183000 -5.88504000 1.38106000
7.91035000 -5.89847000 0.95885700
7.73572000 -6.35967000 0.54421400
7.65695000 1.57854000 -3.26403000
7.87782000 1.18753000 -3.14478000
-6.35526000 -6.80835000 4.26005000
-6.34181000 -7.69798000 3.39014000
5.32654000 0.54973400 5.88923000
5.73415000 0.03786020 5.68549000
5.49877000 0.17889100 5.86900000
0.38025600 4.25897000 6.30015000
-0.05145690 4.29251000 6.27557000
-6.19460000 3.83942000 -2.80653000
-5.92836000 3.90223000 -3.19404000
-6.15641000 3.65580000 -3.27452000
-5.65076000 3.80214000 -3.83139000
-2.57313000 -8.28568000 -6.38750000
-2.37602000 -8.60070000 -6.24706000
6.66792000 -6.22661000 -3.95958000
6.31102000 -6.25166000 -4.49801000
6.51399000 -5.87501000 -4.49906000
-0.10799300 5.54713000 4.50093000
8.73081000 0.38612900 0.14262800
8.66861000 0.53113000 0.67198300
8.73763000 0.16943800 0.66917600
-6.56122000 -4.34896000 -3.91388000
-6.82899000 -3.97993000 -3.64289000
4.26029000 0.05819320 -6.79687000
3.99062000 -0.08072610 -6.99090000
5.61178000 3.89470000 3.71673000
5.46904000 4.08067000 3.60746000
5.72082000 3.91707000 3.51101000
5.46904000 4.08067000 3.60746000
5.61178000 3.89470000 3.71673000
-5.16560000 4.98666000 1.80645000
-5.30302000 5.00627000 1.21905000
-5.51173000 4.82721000 1.38455000
4.66179000 4.86620000 -0.68853600
4.59014000 4.95297000 -0.25385100
3.50338000 -4.19972000 -6.94438000
-5.04813000 -9.71035000 2.23502000
-5.00066000 -9.71764000 2.66464000
-5.23090000 -9.67705000 2.19442000
-5.23090000 -9.67705000 2.19442000
-3.85701000 -9.27154000 -3.11153000
2.47794000 -4.23125000 -7.37464000
2.40632000 -3.23387000 -7.63402000
-6.29123000 -3.88286000 4.90759000
-7.10277000 -7.70658000 -0.82911200
-1.86821000 6.32399000 1.02569000
-1.40944000 6.49647000 1.16127000
-1.21599000 6.47234000 1.42079000
6.21940000 -4.97495000 4.47878000
5.98603000 -4.88936000 4.83708000
6.38402000 -4.52612000 4.46861000
-0.69325200 -8.91766000 6.43336000
-3.14613000 -2.92351000 -7.41821000
-2.85193000 -2.70699000 -7.58241000
-0.54256100 9.20601000 -2.60007000
-0.23222600 9.20223000 -2.65836000
1.41435000 -7.88636000 -5.99291000
-5.38838000 2.55726000 -4.26212000
-5.65470000 2.49418000 -3.96959000
-5.38897000 2.84913000 -3.93109000
-3.47575000 -6.16012000 -6.17038000
0.81216000 9.63679000 1.88658000
0.83936300 9.40010000 1.68063000
1.07541000 9.82619000 1.95850000
2.44544000 -9.55500000 -5.32651000
1.90341000 -9.64421000 -5.47049000
0.93575200 -9.54721000 -5.80647000
1.55821000 -9.46253000 -5.71826000
-0.43561300 -9.60923000 1.10260000
-1.58021000 6.46840000 0.99162600
-5.51478000 -9.55123000 2.18205000
-5.28436000 -9.57365000 2.67523000
-1.72448000 8.00247000 0.72776000
2.35176000 9.52698000 0.52209200
2.23822000 9.39397000 0.48037400
-4.59291000 3.86296000 -4.98110000
-4.98675000 3.37096000 -5.18196000
6.92967000 2.25022000 1.72480000
6.78769000 2.52740000 1.57548000
-3.32733000 -8.80613000 -1.26954000
-4.21099000 -8.79647000 -1.65708000
-2.31346000 -8.81283000 -0.46873900
-6.62237000 -3.93199000 -4.01391000
-2.46447000 -9.54728000 0.85067700
-2.28055000 -9.56420000 1.05348000
-2.51253000 -9.54912000 1.55436000
-2.85297000 -9.53339000 1.28254000
2.56727000 -9.72646000 -5.06105000
5.68441000 3.31603000 2.88012000
5.58743000 3.19262000 3.27734000
5.48505000 3.09107000 3.60825000
8.88244000 -0.87196600 0.40128500
8.91984000 -1.04127000 0.13307200
8.90375000 -1.02044000 0.41994900
-1.99938000 -9.57317000 1.43105000
-0.95870900 -9.58456000 1.16100000
-1.00607000 -9.55678000 0.37515500
7.81951000 -1.14230000 4.25005000
7.63206000 -0.92671200 4.54706000
-1.30771000 -2.82860000 8.11456000
7.70274000 -2.65318000 4.26387000
-1.47396000 9.47737000 1.91342000
4.60184000 -4.81955000 -6.89340000
4.91345000 -4.24761000 -6.89249000
4.96284000 -4.69072000 -6.69111000
0.31338700 3.41796000 -6.32723000
-4.31106000 -2.68717000 -6.78015000
-4.35569000 -3.31302000 -6.62984000
7.35754000 -2.29948000 3.56132000
-2.72690000 -9.74340000 4.19644000
-2.95440000 -9.67412000 3.95223000
7.48449000 -3.54154000 4.37811000
7.66574000 -3.52108000 4.05617000
7.16719000 -0.80101400 -3.85461000
7.35859000 -0.83413300 -3.48350000
7.43357000 -0.54882600 -3.24680000
5.03258000 -3.97765000 -6.91442000
-1.45852000 9.98015000 -2.09540000
3.00078000 2.26858000 7.37006000
2.63711000 2.39540000 7.41751000
2.91690000 2.13917000 7.43589000
-1.86247000 -9.56310000 4.46985000
-2.04456000 -9.48172000 4.27049000
-1.21728000 -9.57295000 4.65182000
-0.96312800 -9.70569000 4.75651000
-1.23862000 -9.79977000 4.73009000
-1.55227000 -9.76474000 4.75620000
-1.50911000 -9.69792000 4.69413000
-1.56724000 9.38287000 2.80520000
-2.59464000 9.36816000 1.86461000
-2.27639000 9.30070000 2.24129000
2.45908000 -9.64050000 1.41874000
1.91026000 -9.67001000 0.72448400
-1.50906000 -9.57510000 4.61429000
-1.69948000 -9.61143000 4.56291000
-2.31829000 -9.75227000 4.33126000
-4.56013000 2.64882000 6.31676000
-4.67181000 2.80326000 6.10275000
-5.01189000 2.81314000 5.81496000
-4.94233000 1.18247000 6.89106000
-5.23526000 0.60184500 6.91568000
3.05472000 4.88109000 4.69330000
3.48996000 4.62001000 4.79422000
3.41678000 4.85810000 4.47441000
1.18450000 -8.49337000 5.79699000
0.83866400 -8.31006000 5.99150000
0.37864500 -8.56397000 5.85040000
-0.08284890 2.36818000 7.10516000
-0.35271700 2.64962000 6.91568000
0.39626000 2.36020000 7.09541000
6.79101000 -3.15317000 5.48224000
6.59205000 -4.22064000 5.35497000
6.70103000 -3.51653000 5.52036000
0.76629600 -8.51636000 5.84975000
0.37062700 -8.41323000 5.96816000
0.45482200 -8.07983000 6.18975000
0.10028600 -1.56141000 -8.85193000
0.52214600 -0.88904500 -8.81574000
1.29669000 7.68648000 0.34995300
-5.26024000 -7.94307000 3.33034000
-5.42314000 -8.23573000 2.54643000
-5.31635000 -8.09464000 3.00838000
-3.73015000 2.88592000 5.69628000
-1.83247000 9.50790000 1.66194000
-5.75088000 -7.31162000 -2.87498000
-5.70782000 -6.95847000 -3.34949000
-1.82329000 4.30164000 6.01162000
7.81678000 -1.34503000 2.45727000
7.75356000 -0.98807400 2.59689000
-0.47986500 4.71273000 -4.93680000
6.02249000 3.16970000 -2.43735000
-1.94021000 9.46758000 -1.31135000
2.91833000 9.53560000 1.13349000
2.80543000 9.50223000 1.44968000
2.69515000 9.56443000 1.61771000
4.72584000 -9.88197000 -2.26925000
-6.79415000 1.63774000 3.06349000
-6.86127000 1.79339000 2.69160000
-6.52560000 1.73515000 3.53031000
6.77824000 -0.79741000 4.59340000
-1.06119000 9.87117000 2.76192000
-1.39626000 9.85058000 2.62570000
4.40043000 -9.85505000 -2.11807000
2.13227000 9.87502000 0.76475700
2.17173000 9.93523000 0.98718600
-1.88519000 3.45732000 -6.00366000
4.92196000 -6.64219000 -4.79606000
4.81099000 -7.14363000 -4.52306000
-6.97072000 -0.33473500 -3.86737000
-7.24413000 -0.72081400 -3.46159000
6.49711000 3.24805000 -3.37160000
6.52477000 3.06027000 -3.61578000
7.63453000 -4.63685000 -1.08258000
-2.47640000 9.48284000 0.93336100
4.86688000 4.62243000 1.29244000
5.37023000 4.15134000 1.50735000
3.79477000 2.96945000 -6.49538000
3.83091000 4.79488000 2.96228000
4.19747000 4.51258000 3.05730000
-0.76418800 2.97036000 -6.66980000
2.75597000 4.33065000 -4.63257000
-7.79368000 -3.52721000 -1.35501000
-7.87271000 -3.48884000 -0.94806400
-2.79819000 -0.12706400 -8.29480000
-3.46709000 0.09116730 -8.02044000
-2.50518000 0.29246700 -8.30956000
-7.94268000 0.38252500 -3.56002000
-7.95878000 0.02624800 -3.74697000
0.59733700 -7.25147000 6.68280000
-7.95824000 -2.29356000 -1.45573000
1.63584000 -3.29525000 7.93814000
1.83626000 -2.87436000 7.96244000
-4.24704000 5.65789000 -0.29342300
1.95252000 -3.60169000 8.37815000
2.44786000 -3.48244000 8.27627000
-7.31632000 2.55500000 2.82740000
-7.05961000 2.58284000 3.40368000
-7.21526000 2.78592000 2.70576000
-7.53494000 2.16849000 2.79884000
7.17203000 1.34775000 -2.51990000
6.89280000 1.66269000 -2.85000000
-1.80668000 2.46348000 -7.64403000
-1.62492000 2.28581000 -7.79522000
-1.91515000 1.84075000 -7.93677000
6.74987000 -6.99773000 -0.39497100
6.51439000 -7.40911000 -0.45129000
-3.92667000 -7.21460000 -5.18812000
-3.55890000 -7.22322000 -5.46469000
-4.18922000 -6.91449000 -5.18145000
-8.84369000 -2.18840000 -1.11682000
-8.86967000 -1.90360000 -1.10559000
-4.56605000 -1.51198000 -7.64554000
-4.91911000 -1.19381000 -7.40257000
-4.61689000 -2.02147000 -7.58692000
-5.58199000 -5.64097000 4.97243000
-5.37577000 -5.80912000 5.11956000
-7.02515000 1.72143000 2.34111000
3.40842000 5.51018000 3.04460000
3.55504000 5.35275000 3.31525000
-6.30818000 4.26119000 -0.87507400
-6.04071000 3.62096000 -0.82998000
-2.20647000 6.43926000 0.35946500
-2.34888000 6.40975000 -0.21196100
3.34228000 4.42603000 4.13109000
0.27616900 -9.73150000 5.70477000
0.81836000 -9.57375000 5.77774000
1.01468000 -9.71517000 5.60082000
4.79143000 -4.15781000 6.99915000
4.46717000 -4.63495000 7.05896000
7.03330000 -2.36980000 5.36505000
6.89726000 -2.60498000 5.50182000
6.76355000 -3.01051000 5.55930000
6.54640000 -4.23811000 -4.21129000
0.62811700 9.41122000 1.78394000
6.01360000 1.48416000 5.76179000
-6.54295000 -1.37729000 6.06975000
-6.68391000 -1.09937000 5.91241000
-6.45472000 -1.06128000 6.15218000
-6.50452000 -0.50201500 6.04565000
-5.73725000 -0.80550000 -6.79759000
-6.29466000 -1.23925000 -6.31592000
-6.03178000 -0.74568300 -6.54365000
-5.30407000 -0.62315800 -7.10190000
-2.68701000 -2.85444000 8.35607000
-0.24963800 -5.77073000 -7.32259000
-0.97484600 9.00148000 -1.27093000
-0.98321600 9.26206000 -1.39073000
-6.02122000 -9.18286000 -1.33469000
-5.89349000 -9.07889000 -2.00340000
6.34941000 -8.88362000 -0.34157600
4.39868000 -5.37460000 6.14395000
4.15765000 -5.74612000 6.14568000
4.57732000 -4.98886000 6.17419000
7.96586000 -1.48461000 3.97755000
7.74768000 -1.43944000 4.37232000
8.12886000 -1.64514000 3.62101000
7.96304000 -1.10626000 3.95847000
-5.26561000 -5.24119000 6.39793000
-5.23412000 -4.49856000 6.69391000
-7.07285000 1.00186000 -4.74394000
-6.91286000 1.20363000 -4.85788000
-6.77887000 1.73661000 -4.65172000
5.52182000 -9.04073000 2.87554000
3.16308000 -9.79147000 -3.78247000
3.12241000 -9.69804000 -3.82134000
1.98213000 1.20527000 8.14778000
1.66118000 1.51789000 8.09052000
-1.91835000 -9.58278000 2.92507000
2.61287000 -9.04900000 5.76055000
2.22883000 9.52962000 1.37445000
2.22883000 9.52962000 1.37445000
2.10190000 9.55538000 1.54779000
-0.11579400 -2.63156000 8.78650000
-0.59123700 -2.58015000 8.78104000
-2.33069000 1.90279000 -6.99557000
-1.97276000 2.04622000 -7.03244000
1.12739000 8.08928000 -0.62274900
1.02166000 7.93225000 -0.73234300
-7.79352000 -1.20125000 4.37935000
-7.94214000 -1.32338000 4.10358000
-7.71710000 -1.85913000 4.49697000
2.89125000 9.20021000 -0.61316100
3.00062000 9.21623000 -0.01200130
-4.58813000 -0.26494100 -7.51601000
-4.30362000 0.26150700 -7.58012000
-4.53305000 0.07083610 -7.49292000
1.46086000 -5.34802000 -7.30491000
1.67285000 -9.45318000 4.08746000
2.05368000 -9.46224000 4.02738000
2.78505000 -9.48341000 3.57085000
3.99497000 -3.56256000 7.66193000
1.94911000 9.13042000 0.98491300
1.91636000 9.26912000 1.20442000
1.83382000 9.07449000 1.15839000
1.64094000 8.42070000 1.04777000
-2.60719000 -7.21757000 -6.03972000
-2.42840000 -6.94540000 -6.28955000
-2.12495000 -6.77929000 -6.50450000
-7.05743000 -6.78103000 2.90195000
-4.08690000 -8.15476000 -5.62962000
-3.92238000 -7.95904000 -5.85666000
3.06033000 -9.83186000 4.67519000
3.64538000 -9.86423000 4.20050000
-0.99541500 -9.58193000 3.65419000
-1.89253000 -9.50650000 3.86195000
-1.94727000 -9.54423000 3.50343000
-4.62072000 -9.59171000 -3.69334000
-4.60076000 -9.60486000 -3.46482000
-4.62593000 -9.63321000 -3.23512000
-4.11899000 -7.70866000 -5.88122000
-3.48874000 -7.67191000 -6.29914000
0.24252400 6.88018000 1.44246000
0.49568600 6.92140000 1.35801000
0.56597400 6.78572000 1.37027000
0.93499800 6.78536000 1.11037000
0.82718100 6.97167000 1.15389000
4.49430000 4.06137000 -4.80885000
4.07954000 4.30950000 -4.80649000
3.98686000 -9.87285000 3.83097000
1.20472000 -9.74985000 -4.93608000
0.81210600 -9.71429000 -4.99780000
1.21466000 -9.74924000 -5.29379000
1.51630000 -9.74447000 -5.25241000
1.48221000 -9.75445000 -4.84741000
-6.20611000 1.12822000 5.82880000
-6.17984000 0.61933400 6.08068000
-6.61118000 2.84932000 1.26229000
0.88295600 -9.68570000 -4.94221000
-7.54355000 -5.05840000 -0.02168990
-2.43336000 5.52075000 3.84574000
-2.92241000 5.31991000 3.96397000
0.19760900 6.71231000 -1.78601000
2.19344000 9.41415000 -1.44479000
1.45038000 5.19146000 -4.86855000
6.09978000 2.17907000 3.80695000
-1.06245000 9.17899000 1.48879000
-1.26240000 9.15330000 1.29051000
-1.37963000 -8.30904000 -6.73279000
-1.35408000 -7.04911000 -7.33878000
-1.23764000 -6.83872000 -7.46390000
-1.67594000 5.93953000 -2.32178000
4.88974000 -9.84659000 2.53353000
2.47617000 4.94947000 -4.86334000
1.72701000 5.21220000 -4.73509000
0.02153310 -9.41811000 -4.95771000
-0.12525600 0.34273900 -7.98868000
-7.14746000 -1.53410000 -3.72548000
-7.21945000 -2.23188000 -3.51795000
-5.22614000 -9.53699000 -2.69085000
-5.32209000 -9.57574000 -2.30678000
2.78630000 0.19753400 8.25045000
3.04026000 -0.14398300 8.25546000
3.17470000 0.37253500 8.07609000
2.90884000 -0.67667300 8.36120000
-4.06372000 4.76501000 -2.64497000
3.49838000 -5.52827000 -6.46134000
-0.83214200 -4.71955000 7.75396000
-2.64176000 9.96397000 0.13342200
-2.60461000 9.95730000 -0.57452000
-4.32732000 -3.81264000 -6.52516000
0.76157100 -9.72413000 5.60894000
0.58264500 -9.73602000 5.51934000
0.67538300 -9.73571000 5.46373000
-5.86077000 -4.75599000 -5.91330000
-5.81183000 -4.37274000 -6.08603000
-6.21544000 -4.50840000 -5.62784000
-6.08293000 -4.97058000 -5.58311000
-6.42207000 -4.81190000 -5.27460000
-8.73852000 -1.82410000 -1.91245000
-8.66091000 -1.88432000 -2.24441000
-1.89366000 5.23015000 3.87855000
-1.32246000 5.50082000 3.61448000
-1.05574000 7.76119000 1.01594000
-1.16514000 7.77426000 0.89616200
-1.21991000 8.13815000 0.89159500
-1.11099000 8.15868000 1.02105000
4.44417000 -9.48934000 -0.88334600
4.48318000 -9.49022000 -0.02535080
-1.65545000 4.89634000 -5.29866000
-1.96864000 4.59174000 -5.62666000
-2.55841000 4.37902000 -5.65202000
-2.14088000 4.42278000 -5.78301000
3.72880000 -5.12985000 -7.28557000
4.03608000 -5.12593000 -7.12413000
4.32578000 -5.16954000 -6.93494000
-0.04325570 -0.09724520 8.12722000
-2.05163000 3.70720000 -6.61071000
-2.01011000 3.89661000 -6.44270000
-1.56741000 3.86978000 -6.59458000
7.30930000 -0.43983600 4.98470000
7.27888000 -0.21041600 4.96797000
7.14366000 -0.54702200 5.23650000
7.49277000 -0.43185400 4.72099000
7.30930000 -0.43983600 4.98470000
2.17965000 -1.35035000 -7.88690000
0.32694700 -1.96489000 8.26308000
5.52155000 -0.31822200 -5.91937000
-2.59976000 -6.49290000 -7.24421000
-2.54341000 -6.12230000 -7.42487000
-2.19366000 -6.34735000 -7.43341000
1.09884000 9.88684000 -1.84905000
1.31212000 9.86330000 -1.68008000
-2.11332000 -1.94562000 -7.91643000
-1.81845000 -2.27826000 -7.96895000
7.35385000 -1.63107000 4.97414000
7.34683000 -1.84981000 4.96305000
4.40630000 -1.84280000 -7.70942000
-1.63990000 6.40519000 -0.94201300
-1.71641000 6.44665000 -0.65136000
0.10304400 -8.65677000 5.75296000
0.69026000 6.96198000 1.24884000
0.75594300 6.79134000 1.25340000
5.10737000 -7.81533000 4.87120000
4.92325000 -8.20880000 4.73882000
5.09252000 -8.31225000 4.45529000
1.09739000 6.92668000 -0.67676200
1.07058000 7.48425000 -0.66274300
8.67198000 -0.13253200 -1.61906000
3.80911000 -1.24057000 7.33782000
3.47791000 -1.17084000 7.49625000
8.29653000 -3.51340000 2.53386000
8.33775000 -3.11477000 2.60079000
8.23070000 -2.04770000 3.29579000
8.38844000 -2.11078000 2.88527000
0.12448700 9.64837000 -2.95238000
0.34443700 9.55639000 -2.97780000
3.80182000 4.82363000 -2.88025000
3.46361000 4.85189000 -3.22551000
-1.48970000 8.18332000 0.22455200
-1.44580000 8.17248000 0.44602700
-1.45971000 8.06783000 -0.09503570
2.92986000 9.21415000 0.78677000
2.92343000 9.19254000 0.55291100
-7.55221000 2.16557000 -2.74172000
-2.12545000 -0.87013900 -7.89835000
-0.56493100 -8.50860000 -5.75060000
-0.26030600 -8.55884000 -5.72310000
-0.49643600 4.05428000 -6.56240000
-0.64711200 3.76038000 -6.84485000
4.63183000 2.55975000 6.26546000
4.95725000 2.57325000 5.99391000
4.37395000 2.89214000 6.13221000
4.08332000 2.56562000 6.62969000
-0.67500800 9.26701000 -2.95966000
2.40403000 -6.25781000 -7.37580000
-0.45279600 -3.35547000 -8.63951000
-1.89339000 2.03430000 7.09629000
6.65057000 -8.20499000 1.51087000
6.38665000 -8.63278000 1.40301000
4.60567000 -8.78856000 -1.74523000
-0.12620900 -5.55318000 7.50672000
0.37239300 -5.57733000 7.48147000
-2.36575000 9.18247000 -1.36559000
-3.13731000 0.88888100 7.25391000
0.13308400 0.47101100 -8.61890000
3.27840000 5.67911000 -0.72940500
3.17451000 5.67658000 -1.08664000
4.80232000 -2.66653000 6.64247000
4.73437000 -2.20162000 6.75037000
-6.89085000 0.84243900 5.16185000
-7.20286000 0.81072000 4.72914000
-6.67380000 1.66321000 4.95385000
-7.03507000 1.11623000 4.79424000
4.65412000 -7.17869000 5.74915000
4.07928000 -7.87559000 5.75680000
1.89160000 9.30138000 -1.01120000
1.82668000 9.08488000 -0.91385600
4.71170000 -5.92326000 6.39894000
-5.89082000 -8.64939000 3.08824000
4.83795000 0.58934500 -6.23415000
4.75542000 0.24887800 -6.40980000
4.68382000 2.09872000 5.55293000
4.42544000 2.97929000 4.99568000
-6.21486000 -7.85169000 -3.32539000
0.88884900 9.55092000 -2.14704000
-2.77742000 -9.50626000 -0.59236200
-3.28744000 -9.47083000 -0.58227400
-3.38421000 -9.44087000 -1.16351000
-2.05379000 9.07940000 0.86434800
-2.13129000 9.35148000 1.03101000
-1.89537000 8.58006000 0.75475400
-1.23730000 7.80914000 -0.59298400
-1.26175000 8.03237000 -0.59873600
-1.36214000 8.00306000 -0.40202900
-2.72597000 9.20929000 0.56991900
-5.60889000 -1.78174000 6.15208000
-5.33258000 -1.72249000 6.41035000
-5.34827000 4.38829000 3.19709000
-4.90978000 4.41936000 3.78136000
0.54251100 8.52830000 1.92927000
0.56676700 7.89617000 1.72903000
1.98010000 4.59043000 -5.61954000
2.71045000 -9.20462000 -5.48975000
2.91586000 -9.50349000 -5.07992000
2.44658000 -9.69270000 -5.21042000
-4.95618000 -9.48856000 -0.98462900
-5.01078000 -9.44899000 -0.55428300
-5.01966000 -9.59614000 -0.66596600
3.01776000 -5.11426000 -7.61447000
1.74711000 -8.79899000 4.20148000
1.37074000 -8.80750000 3.32605000
2.93013000 -8.80280000 3.02577000
7.88097000 0.11199000 -1.42180000
7.79479000 0.11828500 -1.80963000
3.31741000 -9.89151000 3.29091000
0.99999900 6.40265000 1.63072000
1.08946000 6.39795000 1.57604000
3.48007000 -9.73714000 -4.45553000
3.63317000 -9.56844000 -4.49055000
4.06943000 -9.75677000 -3.91194000
8.25747000 1.66221000 -0.73795700
7.90806000 2.16790000 -1.49423000
7.94448000 2.21459000 -1.09851000
-0.85413300 -6.68404000 7.63889000
-0.32479300 -7.28035000 7.43026000
8.54036000 -2.82216000 -2.14512000
8.33940000 -2.74744000 -2.84776000
8.54507000 -2.68052000 -2.18019000
5.55914000 1.79451000 -4.90744000
5.30895000 2.10990000 -4.93644000
-0.78827700 6.66838000 -1.24394000
-0.99551000 6.68568000 -1.08991000
1.28150000 7.80223000 -1.07780000
1.43388000 7.83142000 -0.90503600
-7.62541000 -4.68586000 0.81713400
2.47609000 9.90132000 1.49101000
4.52496000 -8.39634000 -4.94118000
-1.60029000 -6.92810000 7.43415000
-0.21522200 6.49449000 -1.64743000
8.13466000 -0.65029900 0.51818400
8.16636000 -0.96386400 0.50232900
8.18637000 -1.33053000 0.48323200
8.03743000 0.06041450 3.48699000
8.01377000 0.47682300 3.35912000
7.95961000 0.73930900 3.25048000
-1.48373000 9.95957000 -2.19988000
0.72170300 9.62112000 3.12224000
2.99081000 2.46387000 7.23999000
2.58440000 2.63803000 7.27228000
7.04956000 -3.44905000 3.83314000
7.19820000 -3.55667000 3.48577000
5.47870000 -5.70048000 -5.80675000
5.22273000 -5.70899000 -6.03121000
-1.24280000 9.57945000 2.39649000
-1.12276000 9.60315000 2.34761000
-0.56874000 9.59449000 2.61681000
-1.70054000 9.52272000 2.10882000
-1.46953000 9.59476000 2.17078000
1.14778000 1.02637000 7.69015000
5.42801000 -9.43265000 -2.40705000
5.74515000 -9.23572000 -2.00306000
-5.01928000 4.61272000 -0.77024500
-5.29496000 4.37348000 -0.78787500
-6.83950000 -8.28496000 0.66588400
-6.81105000 -8.21141000 1.16181000
-7.06909000 -7.75192000 1.00130000
4.05463000 -9.51661000 2.04147000
4.04447000 -9.55863000 2.17452000
3.82834000 -9.60860000 2.57190000
5.97718000 -7.54465000 2.54143000
6.22616000 -7.25012000 2.36638000
-0.96849900 8.10628000 -0.95661200
-1.14864000 8.12730000 -0.77796500
7.54095000 -4.24334000 2.13705000
7.68572000 -3.76662000 2.01712000
7.80276000 -3.47961000 1.77788000
7.87661000 -3.47943000 1.41607000
7.85691000 -3.77265000 1.18008000
-6.70188000 1.45896000 -3.27733000
-6.46955000 1.09022000 -3.98453000
4.75113000 -8.33524000 -3.43187000
4.75113000 -8.33524000 -3.43187000
-7.74727000 -4.32215000 -0.36151100
-0.80603000 6.92862000 -1.49190000
-0.79961600 7.50926000 -1.42129000
8.07606000 -1.43159000 1.42872000
4.07480000 -0.87993800 7.16290000
0.92283900 8.15987000 1.09853000
1.13476000 8.88616000 1.16487000
-4.92546000 -0.12449400 6.55007000
-5.14086000 0.02439490 6.33106000
-1.47337000 -1.06211000 -8.71196000
-1.25975000 -0.60432500 -8.74101000
-2.49855000 -4.33341000 8.12386000
-2.62838000 -3.72841000 8.23902000
7.82385000 2.33261000 1.29309000
3.13571000 -8.54144000 4.96793000
8.79950000 -2.81798000 -0.29476200
-6.90577000 -5.00094000 -2.84678000
-0.44967400 9.31878000 2.85848000
-8.73350000 -2.72205000 1.41361000
-8.76454000 -3.18289000 0.72792400
-8.69979000 -3.16579000 1.12115000
1.94182000 -9.57849000 2.87838000
-4.78822000 -7.53885000 4.47568000
-3.02269000 -9.28777000 -3.96630000
3.50279000 5.89792000 1.26441000
3.86497000 5.71099000 1.50589000
3.95935000 5.72346000 1.08998000
3.28426000 5.83744000 2.04027000
3.41810000 5.87717000 1.60788000
-0.29155600 9.53972000 -2.46373000
-1.81383000 -6.33320000 -7.53992000
-1.56144000 -6.59232000 -7.48810000
4.39263000 -3.23744000 -6.68164000
-1.95593000 9.87302000 1.33526000
1.90460000 -1.79365000 8.04596000
-4.18048000 -0.16398600 -6.83162000
5.79347000 -4.74585000 -5.98518000
6.05594000 -4.06569000 -6.02097000
5.62880000 -5.25134000 -5.89616000
0.02477510 4.99449000 4.62517000
-0.31775400 4.77288000 4.91861000
6.76850000 -6.73101000 3.49837000
-4.42482000 -0.42809300 -6.71110000
1.91840000 8.60195000 -0.17462700
2.06913000 9.05668000 -0.18407100
2.10926000 9.10404000 0.02109390
-6.01711000 2.62345000 -4.90142000
-5.54730000 2.83087000 -5.22108000
-1.03376000 7.77253000 -1.31236000
-1.22573000 7.78899000 -1.16944000
-1.30024000 8.05755000 -1.18791000
-1.46133000 8.05387000 -1.01912000
-0.27506200 6.84884000 -1.67137000
-1.17182000 8.82548000 1.73696000
7.79728000 -4.02074000 -1.09422000
-1.36315000 6.69796000 -0.64419200
-7.10461000 -0.10373400 5.25565000
-7.09942000 0.25332300 5.13698000
3.57317000 1.74132000 -7.38984000
-0.95439300 7.00494000 -0.95701700
-1.10249000 6.88883000 -0.84453000
-0.83834500 6.88372000 -1.07051000
0.17363000 -6.45074000 -7.69573000
0.10159700 -6.09237000 -7.83648000
-2.86220000 -0.64255300 7.77921000
-2.45422000 -0.55792000 7.89560000
-5.06888000 -5.95773000 6.23961000
-3.29865000 4.81589000 -3.46232000
-3.77209000 4.64841000 -3.27375000
-3.86786000 4.32930000 -3.71270000
-3.53355000 4.62998000 -3.55932000
0.09545500 -9.64038000 -5.85221000
0.43943000 -9.64737000 -5.83736000
-2.44012000 3.16896000 6.93156000
-2.11461000 3.28848000 6.93373000
-6.89754000 2.33582000 -1.44368000
-7.22749000 1.55907000 -1.80349000
-7.03988000 1.98074000 -1.71087000
4.11809000 3.43070000 -4.76491000
5.19959000 4.36725000 1.21522000
4.54716000 1.06773000 6.28927000
6.76608000 0.68764000 -3.96575000
-4.91083000 -9.41175000 0.82121100
-0.32208000 7.99809000 -1.24069000
-0.17175100 7.82525000 -1.24659000
-0.09994760 8.12585000 -1.29194000
0.02005550 7.80626000 -1.26388000
0.17645100 8.04722000 -1.27293000
4.00858000 -8.51899000 -4.06159000
3.75825000 -8.60903000 -4.17344000
-3.22558000 4.05892000 5.73488000
-7.26375000 1.18840000 -2.21736000
-8.93534000 -1.90248000 -0.23671200
-8.20979000 0.35742100 2.93620000
5.70268000 -8.63369000 0.07088310
3.06807000 -5.44607000 6.88180000
2.73480000 -5.43633000 7.02406000
6.38632000 -6.31079000 3.19658000
5.86893000 -6.90302000 3.56031000
7.33930000 -0.22953100 -3.33531000
4.84817000 5.33300000 -0.62828400
-5.71689000 -8.60520000 3.45970000
-5.32983000 -8.94483000 3.58917000
-5.52055000 -8.58726000 3.77547000
0.02556310 6.86957000 -1.30738000
-0.20703100 6.93942000 -1.27917000
-0.28813700 7.06702000 -1.24634000
-0.72096600 -9.57409000 4.72840000
-1.24457000 -9.52052000 4.59592000
-0.21366400 -9.54509000 4.71639000
4.30504000 2.53465000 -5.50986000
-1.71876000 6.52827000 0.36079900
-1.72666000 6.50072000 -0.35446800
-1.85152000 6.45879000 0.04017730
-5.78459000 -4.18549000 5.44823000
-5.46230000 -4.35360000 5.74120000
-5.38398000 2.81910000 5.48343000
6.01171000 -0.25762400 5.47515000
-3.20595000 4.20374000 -4.48716000
-2.75912000 4.32099000 -4.64388000
-2.89980000 4.50068000 -4.30099000
-1.36738000 8.11521000 0.62677800
-1.26212000 7.78483000 0.75878800
-3.56175000 5.55739000 2.69997000
-4.38690000 1.89959000 -6.86037000
-4.68683000 2.20633000 -6.49365000
-0.01988190 -2.44561000 -8.79385000
0.41377100 -2.81778000 -8.74454000
-0.03255930 -2.81131000 -8.75451000
-0.51930900 -2.86970000 -8.73575000
-1.87905000 6.64554000 0.45022600
-1.87905000 6.64554000 0.45022600
1.60033000 3.84184000 -6.60771000
4.51531000 -1.05475000 7.67987000
4.20834000 -1.56506000 7.85805000
4.69613000 -1.59113000 7.58632000
4.08000000 -1.04846000 7.91083000
-2.55945000 0.11000200 7.72179000
2.55485000 4.20856000 5.86856000
6.11088000 3.99135000 -2.63788000
6.13763000 -3.70495000 -6.07074000
1.92711000 9.43004000 -1.10418000
-1.78449000 7.64635000 0.20176200
6.86743000 3.21535000 2.53111000
6.82959000 3.05157000 2.92463000
-0.84156700 8.12644000 -1.05329000
-2.07404000 8.86703000 -0.16236200
-2.65936000 0.31642300 -7.51299000
-7.88870000 -1.89007000 -4.18273000
-7.62076000 -1.89043000 -4.65223000
0.09229290 9.53868000 3.24627000
-0.03716890 -1.53881000 -8.86158000
0.33167800 9.88883000 2.31491000
4.75134000 -8.62079000 -3.03547000
-3.12940000 9.33147000 0.42041300
-4.15708000 -3.59438000 -7.52083000
5.59308000 3.38834000 4.49514000
0.18602600 6.34953000 -2.55927000
8.65281000 -3.50873000 0.71381500
8.49775000 -3.92425000 1.16257000
8.58399000 -3.86958000 0.34143800
-2.25906000 3.99610000 -5.30672000
5.67652000 -8.32245000 -1.66316000
-6.29344000 -0.50333700 5.25803000
-6.14925000 -0.05796760 5.30961000
8.52516000 -4.08504000 -0.06916020
7.92992000 -5.95797000 0.04469400
7.74979000 -6.35466000 -0.01783310
7.91983000 -5.85729000 -0.84089600
7.74020000 -6.31464000 -0.54706500
-2.55951000 9.49853000 -0.59287400
-2.55951000 9.49853000 -0.59287400
-2.47300000 9.54373000 -0.73494200
-2.50759000 9.52715000 -0.57963200
-7.08477000 -3.62991000 -3.32047000
-7.29944000 -3.36795000 -2.98665000
-1.79402000 7.87250000 -0.22644500
-3.59404000 -6.74067000 6.08615000
-4.12875000 -8.51251000 -3.84266000
-4.01302000 -8.62946000 -3.80389000
1.30849000 7.33874000 1.18724000
1.32908000 6.92815000 1.20365000
0.60851800 -9.53020000 -5.87435000
5.12366000 -8.74896000 1.78955000
5.32297000 -8.76086000 0.35783900
-3.31009000 -9.64974000 4.76058000
1.62997000 9.53993000 -1.95357000
1.01756000 -4.89501000 8.20693000
-0.93379200 6.55092000 1.47502000
-1.04276000 6.44199000 1.61228000
-1.24277000 6.35968000 -1.49545000
-2.30380000 -5.52217000 -7.03766000
7.47836000 -5.29339000 3.27227000
7.59973000 -5.45445000 2.83080000
8.72062000 -2.19286000 -1.75607000
8.69984000 -1.79134000 -2.01267000
8.68207000 -2.02578000 -2.02179000
0.14302100 9.49797000 1.95556000
-2.20233000 1.06422000 -7.42964000
-2.21745000 1.49626000 -7.24150000
-4.74194000 -8.61294000 -2.87072000
-8.03907000 -3.02030000 0.15791600
-8.10208000 -2.56657000 0.21196600
-8.18568000 0.95228800 -2.44214000
0.69193600 4.59646000 5.89525000
2.95707000 0.61181900 -7.30670000
2.12153000 5.09125000 4.85609000
2.54141000 5.00336000 4.79586000
7.28145000 -4.82127000 4.06394000
0.57529900 6.44572000 1.76445000
0.32263000 6.51793000 1.71903000
-5.36940000 -6.87072000 -3.93552000
-5.33249000 -7.20374000 -3.67773000
-5.10817000 -7.63662000 -3.55179000
-1.48171000 9.07487000 0.98227400
1.47289000 -8.81468000 -1.00868000
2.69478000 6.22548000 -1.03113000
3.02721000 6.02536000 -1.51032000
-2.38210000 -9.01049000 -5.91357000
-2.84927000 -8.44105000 -6.16233000
-2.62670000 -8.78301000 -5.99899000
-0.09677710 6.28496000 2.20005000
4.80126000 4.12438000 2.91193000
-0.75046000 2.74978000 7.57702000
-0.38093900 2.24232000 7.89831000
6.76781000 2.33617000 2.09941000
3.25142000 -9.58144000 -3.65583000
3.32265000 -9.79526000 -3.59544000
3.42342000 -9.63911000 -3.48302000
-4.09306000 -3.77569000 7.64630000
-4.43462000 -3.84348000 7.43121000
0.97463100 3.57270000 6.90514000
0.61585400 3.75634000 6.76793000
-2.47877000 -8.09034000 5.76546000
7.89723000 -2.06662000 2.14130000
0.98643000 6.67241000 1.16020000
-5.20941000 -3.37952000 -6.91930000
-5.20866000 3.90498000 -4.24030000
3.46204000 3.71614000 4.96256000
-1.76998000 9.12040000 0.24606300
-1.77017000 9.14665000 -0.10852900
1.35921000 8.88593000 0.88836700
-1.09051000 4.36488000 -5.27405000
-1.45342000 4.16450000 -5.41359000
4.09188000 3.53310000 4.67645000
-1.69041000 -9.48694000 -2.30708000
-1.93925000 -9.45816000 -2.49205000
2.26541000 -9.56330000 -4.39907000
2.64935000 -2.68775000 7.75790000
0.24555700 5.73352000 -3.25738000
-3.37834000 -9.27621000 -2.70124000
-3.26531000 -9.37448000 -2.50164000
-3.68712000 -9.25464000 -2.53404000
-3.53766000 -1.58313000 -8.14865000
-3.11458000 -2.03062000 -8.28652000
-3.59628000 -2.03838000 -8.09962000
-2.68531000 -1.86540000 -8.44035000
4.44523000 -2.54230000 -7.62284000
4.86180000 -2.80403000 -7.33073000
4.11114000 -2.78743000 -7.76495000
6.91887000 -7.71504000 1.62306000
4.52316000 4.67075000 -2.04033000
4.25797000 4.97822000 -1.59145000
4.23395000 4.87265000 -2.02884000
-5.78421000 -2.80689000 6.69829000
-5.61359000 -2.17610000 6.91238000
-3.10192000 5.90342000 -2.17152000
-2.63193000 6.15919000 -1.82605000
-0.71079200 9.93828000 -2.14466000
-1.38248000 -0.08120200 -7.96246000
-1.30336000 0.34298500 -7.88188000
-0.71285300 9.87202000 -2.01933000
-0.92618300 9.54205000 -1.60842000
-4.08821000 -0.12635300 7.11686000
-4.41480000 -0.03022730 6.89140000
4.37243000 5.31118000 -2.26502000
0.13198100 -7.73221000 6.43064000
-1.27899000 9.38202000 -1.82755000
-1.22502000 8.99665000 -1.61877000
-1.32320000 9.30129000 -1.73040000
0.01830410 6.79732000 -1.33575000
0.17901300 6.82205000 -1.30754000
0.27053800 6.98140000 -1.25695000
-6.95910000 2.45111000 3.75113000
-7.15233000 2.21759000 3.63553000
4.69164000 0.33074100 -7.31593000
-4.94536000 4.54601000 1.53588000
-2.79119000 -2.98515000 7.74941000
-2.62347000 -2.60206000 7.85814000
-2.46677000 -3.15277000 7.82436000
1.42221000 6.63692000 0.43943700
1.51609000 6.59244000 0.13034800
-8.29415000 -3.82926000 -2.38550000
-6.21396000 3.33411000 -1.24584000
-3.93590000 -8.70385000 4.10554000
-3.70062000 -8.68062000 4.41219000
-3.14549000 -9.30075000 -2.71216000
-3.20541000 -9.33910000 -2.60437000
-3.19792000 -9.37040000 -2.29814000
7.88723000 -1.83805000 -2.14814000
7.98095000 -1.84934000 -1.78142000
8.05018000 -1.90923000 -1.45461000
2.31900000 -7.59622000 6.08095000
1.18447000 6.58965000 -0.89731600
0.91330800 6.64712000 -1.09819000
0.60434500 6.62756000 -1.31730000
0.83183200 6.59183000 -1.23296000
-7.47807000 0.81584200 4.27739000
-7.67804000 0.37873000 4.13479000
6.22905000 -4.67094000 5.60021000
6.58632000 -4.56301000 5.23641000
-3.00333000 -9.32933000 -2.67433000
-3.01883000 -9.38135000 -2.37283000
-3.20211000 6.10255000 -0.64365800
-3.73326000 5.89015000 -0.29194900
0.99724700 -8.52170000 -5.63394000
0.99724700 -8.52170000 -5.63394000
-7.73901000 -0.97993900 -2.32961000
4.83306000 -9.97622000 1.25905000
5.17363000 -9.96646000 0.80849200
4.36281000 -9.50290000 0.71350600
-1.07241000 0.09761210 8.65189000
-0.89710300 0.73631100 8.50546000
-4.84851000 -8.22222000 -4.91531000
-5.84573000 -6.45590000 3.98072000
-6.03903000 -5.94045000 4.10098000
-5.62870000 -6.78057000 4.02891000
-2.00169000 -9.60925000 -4.69551000
-2.16941000 -9.65632000 -4.82994000
-3.49679000 2.05779000 -6.34438000
-3.73588000 2.55494000 -5.83366000
-6.03481000 3.03580000 -4.41249000
-6.36888000 2.80797000 -4.23254000
-5.89295000 2.84989000 -4.81352000
-1.36811000 -8.60925000 5.70140000
-2.04933000 4.19179000 5.25250000
-1.68097000 4.48154000 5.04304000
-2.17623000 3.86444000 5.56017000
-6.04818000 0.89591700 -4.70876000
-5.74629000 0.89378400 -5.08153000
3.25016000 -8.79676000 -3.12405000
1.86958000 -8.79263000 -4.37359000
-0.47775600 -9.51721000 5.87958000
-2.63372000 4.61977000 -5.29651000
-3.07073000 4.56342000 -5.13164000
4.29567000 -9.50764000 -2.03797000
4.15502000 -9.52713000 -2.39027000
0.33830900 6.65216000 1.98057000
-0.26624400 -4.11760000 -7.86030000
-0.38107900 -3.20744000 -8.04817000
-3.94019000 -8.78811000 2.83465000
-4.70015000 -8.77620000 2.16198000
3.42998000 -9.82122000 -3.66817000
3.32697000 -9.82617000 -3.69133000
-5.86698000 3.59017000 -1.69630000
5.10254000 3.93776000 4.32644000
5.34661000 3.92463000 4.04743000
0.83745000 6.35551000 2.44054000
-5.48933000 -3.60550000 -6.65489000
-5.34693000 -4.11217000 -6.61635000
-4.41040000 2.24887000 -6.65944000
-3.94647000 2.38751000 -6.85014000
-3.72442000 2.23123000 -7.07718000
-3.97607000 -9.58499000 -3.18634000
-7.34309000 0.13800900 -4.79528000
7.96736000 -5.35962000 -1.54461000
7.87905000 -5.71665000 -1.44767000
5.12699000 2.30527000 -6.08895000
7.58329000 -0.74639100 -4.66962000
7.76451000 -0.70703600 -4.36074000
-7.10230000 2.27860000 -0.22976800
-7.29627000 1.92826000 0.36689200
4.66236000 -0.71946700 -6.67950000
4.86217000 -1.07660000 -6.56688000
-1.01009000 0.16184700 -8.64666000
-0.96496800 0.41820400 -8.60187000
-1.22433000 0.41641600 -8.56341000
-1.33787000 0.76997200 -8.44460000
0.91291400 5.65730000 3.38404000
-6.73826000 -6.79019000 1.11227000
6.33572000 -7.73759000 0.40261100
-4.62162000 -0.37327800 7.59416000
-4.99573000 -0.32087500 7.34080000
-5.32385000 -3.41327000 -6.79428000
7.37481000 -5.53015000 0.96469400
-3.67224000 3.13501000 -6.41869000
1.49875000 3.27638000 7.08596000
1.46052000 3.47199000 6.92588000
-1.82853000 2.34853000 -6.89263000
-1.42769000 2.44135000 -6.93376000
6.48068000 0.27010100 -5.86297000
0.99019400 -4.51450000 -7.67060000
1.91264000 -3.59820000 -7.70769000
1.01403000 7.80827000 -1.29538000
0.82283700 7.78906000 -1.41389000
3.96131000 -3.27789000 -6.93589000
3.62321000 -2.84251000 -7.98519000
-4.26573000 -6.34400000 -6.48411000
-3.99820000 -6.75183000 -6.47598000
-0.06475540 4.61579000 -5.92770000
5.85897000 1.55637000 -4.72175000
7.24839000 -6.42455000 2.69238000
8.79172000 -2.58650000 0.83381700
8.83943000 -2.38848000 0.61025300
8.86441000 -1.82700000 0.84346700
-4.59650000 -4.29762000 -7.07528000
0.79542300 -2.44677000 8.76751000
1.14008000 -2.26247000 8.75193000
0.77904600 -2.10132000 8.79958000
-0.20888700 -2.16192000 8.84025000
0.34051500 -2.26518000 8.82127000
0.36253300 -1.90604000 8.83904000
1.32819000 8.21426000 -0.21392000
1.32903000 8.04249000 -0.04414740
2.89810000 -9.92756000 4.60969000
-1.66591000 6.06136000 2.84132000
-1.21078000 6.07125000 3.05872000
-3.97563000 5.70444000 -1.33989000
-4.47530000 5.45023000 -1.40771000
-8.12541000 -5.11394000 -1.43023000
-7.97894000 -5.55460000 -1.28052000
-3.04097000 1.61104000 7.73238000
-7.52089000 -3.24410000 -2.49561000
-7.70353000 -2.77955000 -2.18914000
-2.85679000 5.95630000 0.58292200
-0.30452100 5.15466000 -5.15534000
-7.16332000 -1.85963000 -5.35371000
-7.35851000 -1.76994000 -5.07222000
1.26152000 9.25819000 -2.35506000
1.20911000 9.21804000 -2.44105000
0.69158800 9.23464000 -2.57348000
1.00068000 9.28229000 -2.43998000
-4.47790000 2.77549000 -5.04200000
-4.77727000 2.23420000 -5.23027000
-2.87491000 -9.64347000 -4.26105000
0.61039500 -9.84147000 4.94262000
1.23765000 2.74151000 6.73468000
1.13061000 3.14431000 6.44702000
1.88299000 9.26455000 -1.91303000
2.61999000 9.26848000 0.94063000
-7.19604000 -5.92108000 3.50761000
0.84335000 -9.79808000 5.25478000
2.33520000 -9.91079000 4.91474000
1.97431000 -9.87425000 5.12695000
1.61155000 5.07810000 4.18437000
-8.14221000 -1.71001000 -3.68044000
0.82219200 -9.84830000 4.95354000
0.68026800 -9.81282000 5.13444000
0.72447500 -9.75333000 5.16656000
0.79412900 -9.68750000 5.13298000
-7.51205000 2.85447000 1.41258000
2.13220000 6.33591000 1.35272000
2.51483000 2.10331000 -6.80669000
-4.48599000 -9.26497000 -1.85529000
-4.64030000 -9.28086000 -1.33337000
-4.35945000 -9.23781000 -1.90597000
1.41161000 2.48817000 7.66074000
1.50055000 2.16412000 7.80375000
-1.87865000 4.04700000 -5.40786000
1.76538000 9.86510000 -2.14424000
7.40270000 -5.31265000 -3.30736000
-8.66487000 -3.54541000 0.61368800
1.01444000 -9.85255000 5.00229000
0.98021100 -9.81314000 5.21862000
0.90578200 -9.71525000 5.16473000
-5.63898000 -3.37165000 5.87123000
-0.25240800 -6.94565000 7.58458000
0.21977400 -6.94636000 7.57734000
0.65453200 -6.96510000 7.53307000
-6.03693000 -2.65818000 6.49971000
-6.30688000 -1.99439000 6.33591000
-5.99140000 -1.86987000 6.62645000
2.63050000 5.77630000 1.83865000
2.99966000 5.56122000 2.04425000
3.13275000 5.39289000 2.38472000
-4.32359000 4.55729000 2.87456000
-4.02257000 4.61302000 3.19981000
2.08849000 9.81756000 -0.41466400
4.30713000 -9.67873000 1.70590000
4.43122000 -9.57922000 1.31359000
4.57533000 -9.73685000 0.96103900
-8.02878000 -5.64786000 0.44491400
-8.06927000 2.04130000 0.75674200
0.86108700 0.15551200 8.01326000
1.28317000 0.22131700 7.93654000
-0.40447300 9.03544000 1.70060000
-0.50326400 9.52990000 1.95225000
-0.30706600 2.65318000 7.66362000
-0.81514800 2.58818000 7.68144000
7.71169000 0.99618400 -0.80081500
7.84292000 0.66501300 -0.58800900
-0.51081100 0.23516800 8.03691000
-0.66836600 0.60765900 7.91730000
3.75048000 2.13299000 -6.19134000
1.65226000 5.71623000 -2.83590000
1.48649000 6.00040000 -2.22549000
-0.99531300 -9.40457000 -4.90547000
-1.21864000 -9.44596000 -4.88733000
-1.09510000 -9.66906000 -4.98055000
0.18218000 1.41050000 -7.62155000
6.49414000 -6.12299000 -2.97092000
-1.65991000 9.96063000 2.01403000
-5.10232000 2.69479000 4.66000000
7.70670000 -4.72668000 3.25548000
1.15792000 5.04873000 -4.31063000
2.54902000 9.51192000 -0.43405900
-6.31310000 2.68879000 4.55298000
-5.81477000 3.14736000 4.62216000
2.09700000 9.44735000 1.76212000
1.80619000 9.51904000 1.99328000
5.49715000 4.93908000 0.48693000
-5.50697000 3.53737000 4.50175000
-2.06398000 -1.56660000 8.07315000
-1.57309000 -1.42026000 8.16642000
-0.17325400 -5.96787000 7.96192000
-2.89990000 -0.84638000 8.40666000
-3.08054000 -1.40738000 8.37979000
2.10025000 9.52037000 1.65571000
4.65709000 -6.86880000 5.94966000
0.12301000 9.19077000 -2.05404000
-5.33854000 1.36450000 -5.27002000
-5.10542000 1.70612000 -5.29438000
4.29309000 -7.62553000 -4.62475000
4.04265000 -7.64864000 -4.81856000
-0.07221400 7.14519000 -1.27217000
-1.33027000 7.66333000 -1.03523000
-1.56892000 8.02691000 -0.86164200
-1.48294000 7.72123000 -0.86912100
-1.65733000 8.00761000 -0.70410400
-6.81124000 -8.36693000 0.25649900
1.37834000 5.99564000 3.27577000
1.08505000 6.28006000 2.61972000
0.98411600 6.08330000 3.18684000
-1.94334000 -5.37503000 -7.21272000
-2.03918000 -5.77901000 -7.02108000
-6.56005000 -6.75065000 3.97883000
1.60762000 -9.67369000 0.43149700
1.18321000 -9.66429000 0.35369500
1.86666000 -9.66342000 -0.07773970
1.10681000 -9.65835000 -0.35546000
-0.40768100 -5.42532000 -7.45181000
-0.77780100 -5.25650000 -7.48454000
1.55375000 5.96819000 -3.15094000
-1.58532000 7.68911000 -0.70074500
-1.73842000 8.02509000 -0.53417800
-8.86193000 -1.02782000 -1.08097000
-0.48774900 7.53366000 -1.19896000
-1.30783000 -9.30893000 -4.39212000
-1.24120000 -9.38411000 -3.72180000
-1.55905000 -9.31061000 -4.00403000
-3.96847000 5.33520000 0.99294600
-3.92357000 5.40816000 0.58088000
7.66534000 -6.28410000 -1.23015000
7.76934000 -5.97339000 -1.45389000
7.69611000 -6.31999000 -0.91516300
-3.96356000 5.40710000 0.09560590
-2.37955000 9.50751000 0.89470800
-2.38428000 9.49997000 1.11209000
-8.56409000 -1.83020000 -2.57749000
-0.91890400 7.88167000 -0.95394600
1.72490000 6.71117000 -0.58811300
1.56105000 6.71259000 -0.93383100
1.56111000 6.63288000 -1.14193000
1.13871000 5.24479000 -3.99455000
-6.76212000 -3.19704000 4.42193000
8.78552000 -0.03399730 0.42259100
8.86514000 -0.50848700 0.38639100
3.28426000 5.83744000 2.04027000
7.82581000 -2.48821000 2.26484000
-2.22394000 -3.65336000 8.36414000
-6.10153000 -0.99513700 -5.23272000
-5.88137000 -0.67142700 -5.44397000
-0.74919100 6.70710000 1.78496000
-0.49769500 6.75823000 1.83090000
-1.04119000 6.69761000 1.63906000
4.27241000 -9.93078000 3.43736000
3.87673000 -9.94751000 3.83946000
3.90533000 -9.95593000 3.67360000
2.30371000 -9.70250000 4.10653000
2.54293000 -9.91459000 4.23069000
5.87767000 -3.46995000 5.50964000
1.89742000 6.67025000 -0.03446400
1.83355000 6.71675000 -0.09900500
1.36201000 6.37764000 1.37572000
-0.81609200 5.68025000 3.40762000
0.68325200 4.29927000 5.42870000
5.82994000 -6.44116000 -4.98673000
5.78453000 -6.00260000 -5.31011000
-4.93385000 -8.55449000 -2.67723000
8.01953000 -5.73034000 0.09462040
-3.05993000 -6.18185000 7.31211000
-2.91548000 -6.50755000 7.20361000
-2.41503000 -6.88527000 7.23045000
8.28069000 -2.45111000 -3.10363000
5.83048000 4.17848000 2.76054000
5.84967000 3.97071000 3.18120000
8.16265000 -0.50969300 3.42798000
-0.36295100 9.20992000 2.20420000
-0.25762000 9.44495000 2.36329000
5.43931000 -9.83007000 1.08025000
-2.65427000 -6.17463000 7.46725000
0.61904300 7.57091000 1.67291000
7.99023000 0.03162410 0.84410300
3.05296000 -7.87323000 -6.30422000
2.52764000 -8.21824000 -6.35390000
1.97007000 9.63847000 0.36845100
4.69647000 -5.30039000 -5.77213000
-3.38004000 -9.22980000 -3.29925000
-3.31497000 -9.24721000 -3.50722000
-3.14490000 -9.23802000 -3.30904000
-3.16813000 6.04708000 0.87746400
-2.12159000 3.05621000 -6.27613000
-1.70722000 3.26126000 -6.23962000
-7.06328000 3.56623000 -0.18770700
8.12695000 -4.27687000 2.42241000
8.25990000 -3.80431000 2.43406000
0.92436300 -0.94820700 8.19571000
8.55705000 -1.46147000 -2.48608000
-5.55925000 -9.65561000 -1.03025000
-5.69664000 -9.63554000 -1.03778000
7.32232000 -4.73950000 2.39521000
-2.51796000 -7.54288000 -6.82231000
-2.94378000 -7.41579000 -6.70368000
-3.23831000 -7.38443000 -6.58297000
2.63622000 -0.05246960 -7.60023000
-2.09672000 -7.20753000 7.16725000
6.57990000 -7.07439000 1.48693000
5.20287000 -4.46578000 5.85928000
-6.42505000 1.71425000 5.24123000
-6.35184000 2.04138000 5.08050000
1.30564000 6.60470000 0.84508600
1.33579000 6.65569000 0.65167900
-1.80842000 6.56550000 -1.20083000
-1.80134000 6.65792000 -0.69003400
1.82762000 -9.76022000 -5.15357000
-1.61512000 -9.68577000 5.52308000
-1.86053000 -9.51326000 5.58983000
1.42579000 6.58467000 -0.48604700
-2.37344000 -9.30418000 5.59989000
-2.66720000 -9.07450000 5.70422000
-2.78005000 -9.51564000 2.93454000
-3.11816000 -6.09860000 -7.21364000
-2.98172000 -6.38881000 -7.13970000
-3.49399000 -6.41306000 -6.89546000
-6.97951000 -4.54092000 3.32784000
-6.76112000 -5.05976000 3.43065000
1.06233000 6.70658000 -1.47607000
1.24552000 6.71138000 -1.32299000
1.24552000 6.71138000 -1.32299000
1.06233000 6.70658000 -1.47607000
-5.26028000 -3.87839000 -5.71835000
6.77995000 -6.28976000 2.23136000
8.37080000 0.36783400 -2.48097000
8.26864000 0.65903600 -2.54695000
8.46560000 0.48361000 -2.05298000
1.61269000 6.80545000 0.81967800
-2.87080000 -8.79077000 -5.86793000
-2.95381000 -8.74218000 -5.89783000
-2.91605000 -8.53316000 -6.03495000
-2.85312000 -8.94541000 -5.71902000
-2.94290000 -7.25920000 -5.83570000
