-2.11675000 -1.75243000 4.96810000
-2.18859000 -1.77963000 4.91904000
-2.11675000 -1.75243000 4.96810000
-2.01686000 -1.83571000 5.01152000
-2.12201000 -1.82830000 4.94910000
-2.08096000 -1.93868000 4.94636000
-1.98132000 -1.98419000 4.99562000
-1.88823000 -1.97325000 5.05450000
-1.88823000 -1.97325000 5.05450000
-1.94260000 -1.91039000 5.03984000
-1.88928000 -1.88953000 5.07240000
-1.98132000 -1.98419000 4.99562000
-1.81994000 -2.04781000 5.07324000
-1.71489000 -2.01837000 5.12654000
-1.73468000 -2.13965000 5.09605000
7.59845000 -1.53555000 -2.41701000
7.59845000 -1.53555000 -2.41701000
7.58056000 -1.55717000 -2.46219000
-7.18425000 -0.02758620 -2.99822000
-7.22029000 -0.20409200 -3.01460000
-6.98431000 0.22276400 -3.26431000
-6.93802000 0.39269300 -3.19829000
6.62744000 0.85376200 -3.44931000
6.52832000 0.95125600 -3.51398000
6.50176000 0.91347700 -3.59661000
6.39302000 1.10850000 -3.56132000
6.22009000 1.09413000 -3.84331000
6.18012000 1.28867000 -3.67786000
6.24477000 1.24880000 -3.63097000
6.18038000 1.17993000 -3.81042000
5.95251000 1.43829000 -3.82134000
6.12386000 1.35910000 -3.66984000
-3.17967000 9.88889000 -0.67012900
-3.17967000 9.88889000 -0.67012900
4.01244000 2.72222000 -4.34474000
4.06879000 2.68689000 -4.35282000
-3.65266000 2.84723000 -4.38597000
-3.58500000 2.88328000 -4.38175000
-3.57487000 2.78033000 -4.54466000
-3.60235000 9.84251000 -0.51528200
-3.58562000 9.84542000 -0.56314400
-3.61879000 9.81681000 -0.54598200
-3.57268000 9.86019000 -0.51845800
-3.63359000 9.81071000 -0.48692400
-3.61879000 9.81681000 -0.54598200
-3.64215000 9.77869000 -0.53224100
-3.60235000 9.84251000 -0.51528200
3.83318000 9.64053000 -0.35235000
3.87228000 9.62642000 -0.43210100
3.87228000 9.62642000 -0.43210100
3.87198000 9.62886000 -0.37540800
-1.44280000 3.42543000 -4.67948000
-0.62338900 3.47597000 -4.77119000
-0.68592200 3.51447000 -4.78791000
-0.67621900 3.56812000 -4.74767000
-0.61528100 3.52858000 -4.71563000
-0.55653700 3.48505000 -4.72382000
-0.61528100 3.52858000 -4.71563000
0.13628200 3.48362000 -4.70483000
0.30250200 3.50263000 -4.69394000
0.23618900 3.44254000 -4.75250000
-1.35652000 3.53271000 -4.79573000
-1.39246000 3.59983000 -4.76292000
-1.34015000 3.56556000 -4.86868000
-0.68820100 3.64848000 -4.77625000
-0.49911300 3.83340000 -4.85120000
-0.45326700 3.87605000 -4.87950000
-0.49911300 3.83340000 -4.85120000
-1.65635000 4.10896000 -5.01097000
-1.65456000 4.07514000 -5.08550000
-1.65635000 4.10896000 -5.01097000
-1.63488000 4.17347000 -4.98775000
-1.28672000 4.27685000 -5.08553000
-1.16210000 4.24667000 -5.16423000
-1.29544000 4.23895000 -5.22566000
2.29537000 7.99724000 0.31357300
2.29304000 8.01453000 0.42891100
2.33279000 8.07857000 0.38469600
2.24920000 7.90678000 0.33869700
2.17284000 7.79669000 0.53807100
2.12583000 7.68758000 0.53993500
2.17284000 7.79669000 0.53807100
2.17201000 7.76297000 0.44510200
2.06164000 7.48337000 0.47844800
2.06403000 7.55795000 0.61926500
2.09274000 7.58630000 0.50285500
-2.51539000 6.66877000 0.90031200
-2.50271000 6.73443000 0.97836600
2.50691000 5.92048000 1.20431000
5.98387000 -6.45753000 0.04864520
-1.65830000 5.37529000 1.54358000
-1.54067000 5.59428000 1.62660000
-1.56916000 5.40650000 1.63392000
6.13348000 -6.22552000 -0.10317100
6.18018000 -6.16664000 0.04474430
6.18377000 -6.14500000 -0.15569500
6.13348000 -6.22552000 -0.10317100
-1.64960000 5.28546000 1.57602000
6.21447000 -6.09076000 -0.22461400
6.28169000 -5.98190000 -0.26553700
-2.32666000 -5.99889000 -0.26075900
-2.38571000 -5.95933000 -0.28647700
6.35196000 -5.85869000 -0.32110700
2.49570000 5.12428000 1.55943000
2.43106000 5.11376000 1.69192000
6.53744000 -5.44974000 -0.46471500
6.61422000 -5.27723000 -0.70441100
6.65934000 -5.22163000 -0.62565300
6.72299000 -5.11138000 -0.65576500
6.72928000 -5.08134000 -0.74867700
6.76235000 -5.01063000 -0.81541200
6.80418000 -4.96339000 -0.68314400
6.93480000 -4.70193000 -0.77677300
6.93480000 -4.70193000 -0.77677300
6.92102000 -4.69347000 -0.91723500
7.06160000 -4.47912000 -0.76454500
6.98088000 -4.58737000 -0.91216600
6.98088000 -4.58737000 -0.91216600
7.03211000 -4.45568000 -0.99936900
7.02823000 -4.50440000 -0.89094400
7.62790000 -1.53579000 -2.33462000
7.62790000 -1.53579000 -2.33462000
-7.23221000 -0.10330700 -2.93634000
-7.14642000 0.08148710 -3.02129000
-7.10783000 0.11144300 -3.08709000
-7.11250000 -0.00747564 -3.14142000
-7.14642000 0.08148710 -3.02129000
6.62744000 0.85376200 -3.44931000
6.72812000 0.76944500 -3.35066000
6.05705000 1.43463000 -3.66908000
6.00700000 1.51983000 -3.62472000
4.23637000 2.63324000 -4.27881000
4.12927000 2.70057000 -4.27354000
4.19086000 2.68151000 -4.24880000
4.01244000 2.72222000 -4.34474000
4.12927000 2.70057000 -4.27354000
4.12108000 2.67665000 -4.32008000
4.06879000 2.68689000 -4.35282000
7.13702000 0.09806810 3.90460000
-3.69331000 2.78976000 -4.44071000
-3.78802000 2.77701000 -4.38673000
-3.76358000 2.90750000 -4.20455000
-3.65266000 2.84723000 -4.38597000
-3.51863000 2.96962000 -4.30229000
-3.48082000 2.89887000 -4.43597000
-3.44395000 2.98434000 -4.33304000
-3.34632000 3.00931000 -4.36518000
-3.31495000 2.90467000 -4.54136000
7.09348000 -0.02826670 4.04513000
7.06677000 -0.14090700 4.14891000
7.10872000 -0.14664200 4.07475000
7.11912000 -0.27991500 4.11181000
7.10872000 -0.14664200 4.07475000
-1.77427000 3.37996000 -4.53286000
-1.62365000 3.39808000 -4.56413000
-1.58762000 3.30099000 -4.74412000
-1.56061000 3.42818000 -4.54687000
-1.50630000 3.42890000 -4.59411000
-1.50119000 3.39660000 -4.64851000
-1.50119000 3.39660000 -4.64851000
-1.50630000 3.42890000 -4.59411000
-1.45955000 3.47098000 -4.59809000
-1.44280000 3.42543000 -4.67948000
-0.62544300 3.58054000 -4.69059000
-0.55905900 3.54453000 -4.67188000
-0.47864100 3.52883000 -4.64944000
-0.49082400 3.47970000 -4.70446000
-0.17245000 3.51944000 -4.64620000
-0.10203100 3.52712000 -4.65056000
-0.14120400 3.47527000 -4.69169000
0.03399400 3.53878000 -4.65641000
-0.01130680 3.48111000 -4.69778000
0.16132900 3.55753000 -4.65198000
0.54835300 3.52636000 -4.65356000
0.69168800 3.50813000 -4.64990000
0.65894900 3.47737000 -4.69154000
0.69168800 3.50813000 -4.64990000
0.78298200 3.47839000 -4.67397000
0.65894900 3.47737000 -4.69154000
-0.65064400 3.63847000 -4.70367000
-0.63642600 3.70581000 -4.73418000
-0.64539400 3.71538000 -4.82193000
-0.63642600 3.70581000 -4.73418000
-0.68820100 3.64848000 -4.77625000
-0.49841000 3.82220000 -4.78645000
-0.54712100 3.78671000 -4.76422000
-0.43863100 3.86777000 -4.80302000
-0.49841000 3.82220000 -4.78645000
-1.65870000 3.99991000 -4.94896000
-1.67001000 4.08177000 -4.91997000
-1.66477000 4.05499000 -4.98100000
-1.67001000 4.08177000 -4.91997000
-1.65607000 4.13713000 -4.94857000
-2.71420000 -1.14760000 4.56413000
-2.69381000 -1.04558000 4.57517000
-2.68258000 -1.22090000 4.59235000
-2.59439000 -1.26291000 4.66856000
-2.68258000 -1.22090000 4.59235000
-2.60950000 -1.18942000 4.65630000
-2.62893000 -1.53848000 4.59389000
-2.42402000 -1.61517000 4.76562000
-1.81994000 -2.04781000 5.07324000
-1.88762000 -2.08911000 5.02531000
-1.81363000 -1.96536000 5.09444000
-1.81486000 -2.14572000 5.05402000
-1.76768000 -2.19147000 5.06922000
-1.80309000 -2.20879000 5.04487000
-1.60845000 -2.36319000 5.10676000
-1.71254000 -2.24796000 5.08312000
-1.78065000 -2.26445000 5.04269000
-1.78065000 -2.26445000 5.04269000
-1.80309000 -2.20879000 5.04487000
-1.76768000 -2.19147000 5.06922000
-1.68639000 -2.39361000 5.06427000
5.72118000 -6.88697000 0.17980400
5.84831000 -6.67842000 0.13147100
6.18377000 -6.14500000 -0.15569500
6.21447000 -6.09076000 -0.22461400
6.24677000 -6.04702000 -0.15888600
6.24677000 -6.04702000 -0.15888600
6.28169000 -5.98190000 -0.26553700
6.35518000 -5.87224000 -0.19305100
6.32267000 -5.91171000 -0.29742600
6.35196000 -5.85869000 -0.32110700
6.39966000 -5.78775000 -0.23326700
6.71177000 -5.16881000 -0.44759600
6.69523000 -5.16143000 -0.63728300
6.72299000 -5.11138000 -0.65576500
-3.11467000 9.87568000 -0.72192900
-3.17103000 9.89548000 -0.82171200
-3.57090000 9.84091000 -0.62648700
-3.53690000 9.86744000 -0.57381700
-3.58562000 9.84542000 -0.56314400
-3.57090000 9.84091000 -0.62648700
7.02823000 -4.50440000 -0.89094400
4.07853000 -4.46166000 -0.91499400
7.06814000 -4.42803000 -0.88168400
4.04552000 -4.48436000 -1.00559000
4.07853000 -4.46166000 -0.91499400
4.07375000 -4.40465000 -1.01231000
7.10129000 -4.35110000 -0.88910900
3.84489000 9.63185000 -0.50824200
3.90041000 9.61002000 -0.56967400
3.84489000 9.63185000 -0.50824200
2.37160000 8.12306000 0.20454400
2.43875000 8.22768000 0.18379200
7.63376000 -1.65485000 -2.28771000
7.66969000 -1.53921000 -2.19777000
7.67276000 -1.64501000 -2.16440000
2.21398000 7.82242000 0.28827200
2.16023000 7.71725000 0.37635800
2.13422000 7.67171000 0.44079500
2.16023000 7.71725000 0.37635800
7.69049000 -1.41908000 -2.14901000
7.66969000 -1.53921000 -2.19777000
-7.27484000 -0.13252100 -2.85722000
-2.49729000 6.52291000 0.90577100
-2.49244000 6.68867000 0.98850200
-2.51539000 6.66877000 0.90031200
-2.45423000 6.37087000 0.99821800
-2.47322000 6.56498000 1.00166000
-7.01727000 0.39906500 -3.04217000
6.57671000 0.89241800 -3.49675000
6.61572000 0.96959500 -3.34735000
6.52832000 0.95125600 -3.51398000
6.39302000 1.10850000 -3.56132000
6.52028000 1.07284000 -3.39536000
6.18012000 1.28867000 -3.67786000
6.27961000 1.31293000 -3.49129000
6.24477000 1.24880000 -3.63097000
6.12386000 1.35910000 -3.66984000
6.05705000 1.43463000 -3.66908000
4.45057000 2.59800000 -4.11551000
4.08565000 2.74605000 -4.23401000
4.19506000 2.70810000 -4.19601000
4.19086000 2.68151000 -4.24880000
-1.64494000 4.83642000 1.72160000
-1.66617000 5.07652000 1.61842000
-1.51163000 3.45647000 -4.54337000
-1.51163000 3.45647000 -4.54337000
-1.43344000 3.53559000 -4.59291000
-1.41357000 3.51207000 -4.65816000
-0.55905900 3.54453000 -4.67188000
-0.62544300 3.58054000 -4.69059000
-0.59192700 3.63504000 -4.65281000
-0.53677200 3.59204000 -4.63373000
-0.48281800 3.59691000 -4.60909000
-0.42027100 3.54870000 -4.61627000
-0.36186400 3.55300000 -4.60329000
-0.39171000 3.50223000 -4.65155000
-0.30029300 3.55756000 -4.60024000
-0.27810200 3.51049000 -4.63884000
-0.23788400 3.56777000 -4.60176000
-0.17245000 3.51944000 -4.64620000
-0.23788400 3.56777000 -4.60176000
-0.17438100 3.58281000 -4.60590000
-0.10203100 3.52712000 -4.65056000
0.03399400 3.53878000 -4.65641000
-0.09927170 3.59515000 -4.61438000
0.02624640 3.60575000 -4.62023000
0.08190030 3.62139000 -4.61434000
0.43353300 3.53323000 -4.66160000
0.46376600 3.59042000 -4.60730000
0.63881900 3.55949000 -4.60104000
0.87940500 3.54972000 -4.56684000
0.98043700 3.49090000 -4.63597000
-0.60605300 3.69728000 -4.67835000
-0.59626200 3.75188000 -4.76985000
-0.56516400 3.75868000 -4.70308000
-0.43283600 3.84552000 -4.72255000
-1.36442000 4.31538000 -4.89659000
-1.26473000 4.29569000 -4.98779000
-1.36655000 4.29190000 -5.02782000
-2.38757000 -6.00875000 -0.09321550
-2.31423000 -6.06152000 -0.05258960
-2.32112000 -6.02522000 -0.17422100
6.90912000 -4.78940000 -0.58494700
6.86397000 -4.81989000 -0.82729600
4.11276000 -4.41026000 -0.85518300
7.06814000 -4.42803000 -0.88168400
-7.08083000 0.15722600 3.83560000
4.11276000 -4.41026000 -0.85518300
4.12999000 -4.30160000 -0.93149000
7.10712000 -4.28131000 -1.00883000
7.13678000 -4.26549000 -0.88882600
7.16201000 -4.16424000 -0.96518400
-7.07503000 0.02361770 3.92329000
7.22239000 -3.94429000 -1.08874000
7.14572000 -0.02466920 3.94951000
7.14558000 -0.09138070 3.97920000
7.13907000 -0.14817100 4.01601000
7.13907000 -0.14817100 4.01601000
-2.87208000 -1.07841000 4.42702000
-2.82619000 -1.03982000 4.46424000
-2.83283000 -1.12138000 4.46007000
-2.78422000 -1.18293000 4.50177000
-2.72912000 -1.25794000 4.54571000
-2.71420000 -1.14760000 4.56413000
7.70181000 -1.61726000 -2.07456000
7.67276000 -1.64501000 -2.16440000
-2.12079000 -2.03418000 4.89199000
-2.08096000 -1.93868000 4.94636000
-1.94838000 -2.17207000 4.96318000
-1.85880000 -2.25689000 4.99707000
-1.81486000 -2.14572000 5.05402000
-1.79244000 -2.37874000 5.00657000
-1.71254000 -2.24796000 5.08312000
-1.68639000 -2.39361000 5.06427000
-7.30672000 -0.26922800 -2.85794000
-7.33685000 -0.24262700 -2.77465000
-7.27868000 -0.22366700 -2.89882000
-7.27484000 -0.13252100 -2.85722000
-7.27593000 -0.03893020 -2.80659000
-7.23221000 -0.10330700 -2.93634000
-7.24431000 0.00953917 -2.85119000
-7.18425000 -0.02758620 -2.99822000
-7.21909000 0.06984450 -2.87416000
-7.21313000 0.14566200 -2.84555000
-7.16993000 0.19326300 -2.90635000
-7.12851000 0.24021900 -2.95713000
-7.07897000 0.29357200 -3.01259000
6.00700000 1.51983000 -3.62472000
6.19261000 1.48842000 -3.37687000
5.88781000 1.65265000 -3.61331000
5.98795000 1.58264000 -3.55982000
5.73907000 1.69299000 -3.79202000
5.63417000 1.90270000 -3.64764000
5.51829000 1.86580000 -3.87227000
5.48383000 1.96839000 -3.77191000
4.19506000 2.70810000 -4.19601000
4.25369000 2.70041000 -4.15124000
4.42391000 2.64643000 -4.07264000
4.17413000 2.79379000 -4.05532000
4.25369000 2.70041000 -4.15124000
-3.58500000 2.88328000 -4.38175000
-3.59494000 3.02114000 -4.16581000
-3.51863000 2.96962000 -4.30229000
-3.44395000 2.98434000 -4.33304000
-3.47019000 3.10066000 -4.13608000
-3.34632000 3.00931000 -4.36518000
-3.33341000 3.08177000 -4.26102000
-3.29404000 3.07000000 -4.30717000
-1.55346000 3.47571000 -4.48358000
-1.48741000 3.50608000 -4.50840000
-0.36186400 3.55300000 -4.60329000
-0.42027100 3.54870000 -4.61627000
-0.42469200 3.60808000 -4.58700000
-0.30029300 3.55756000 -4.60024000
-0.36421400 3.61334000 -4.57485000
-0.30208500 3.62134000 -4.57180000
-0.23981600 3.63542000 -4.57374000
0.63881900 3.55949000 -4.60104000
0.57686600 3.57546000 -4.59910000
0.59267700 3.60728000 -4.56257000
0.67531700 3.61959000 -4.52487000
0.71631900 3.55411000 -4.58944000
0.08190030 3.62139000 -4.61434000
-0.01694560 3.67762000 -4.59211000
0.08062870 3.68305000 -4.58987000
0.18306300 3.61546000 -4.61855000
0.08062870 3.68305000 -4.58987000
0.14303700 3.68470000 -4.58642000
0.20600400 3.68305000 -4.58338000
0.52007300 3.62828000 -4.56196000
0.59267700 3.60728000 -4.56257000
0.57686600 3.57546000 -4.59910000
-0.48873100 3.66674000 -4.59778000
-0.54886600 3.71576000 -4.63909000
-0.47765800 3.73741000 -4.61102000
-0.35734200 3.89640000 -4.73212000
-0.30465000 3.85742000 -4.63813000
-0.37446700 3.84583000 -4.66329000
-1.67958000 4.06666000 -4.82860000
-1.67720000 4.13478000 -4.80248000
-1.67415000 4.10940000 -4.86019000
-1.67415000 4.10940000 -4.86019000
-1.65263000 4.18972000 -4.82884000
-1.65400000 4.16571000 -4.88946000
-1.61370000 4.23955000 -4.85551000
-0.32250200 4.20298000 -4.95225000
-0.29448300 4.25859000 -4.85178000
-0.26413600 4.20184000 -4.84215000
-3.10443000 9.88154000 -0.81517300
-3.56170000 9.83234000 -0.70188700
-3.51091000 9.86379000 -0.72113800
-3.56170000 9.83234000 -0.70188700
-3.59629000 9.79614000 -0.66535800
2.13026000 7.63766000 0.33652200
2.17137000 7.72936000 0.30564800
-2.16635000 -6.18964000 0.11704900
-2.06114000 -6.16273000 -0.18649700
-2.31423000 -6.06152000 -0.05258960
-2.51365000 6.55781000 0.85743800
-2.52803000 6.61151000 0.82146000
-2.49219000 6.41990000 0.88069800
4.11961000 -4.43766000 -0.77789700
4.13821000 -4.37300000 -0.79732200
7.13467000 -4.34868000 -0.69025600
7.10129000 -4.35110000 -0.88910900
7.15506000 -4.28108000 -0.74532000
7.13678000 -4.26549000 -0.88882600
7.17220000 -4.18378000 -0.86624000
7.17220000 -4.18378000 -0.86624000
7.16201000 -4.16424000 -0.96518400
7.19536000 -4.10488000 -0.90314600
7.19536000 -4.10488000 -0.90314600
7.20636000 -4.03482000 -0.99084500
7.20636000 -4.03482000 -0.99084500
7.26324000 -3.99852000 -0.74542200
7.24931000 -3.93220000 -0.97374000
7.24931000 -3.93220000 -0.97374000
7.32402000 -3.70166000 -1.06709000
7.28814000 -3.64369000 -1.33610000
7.39323000 -3.46117000 -1.16388000
-1.74949000 5.08953000 1.51712000
-1.69095000 5.15035000 1.56658000
-1.66617000 5.07652000 1.61842000
-1.71713000 4.98082000 1.59343000
7.39830000 -3.36085000 -1.31793000
7.39447000 -3.28522000 -1.46633000
7.49389000 -3.08657000 -1.37859000
-1.71050000 4.88173000 1.63594000
-1.71713000 4.98082000 1.59343000
7.73613000 -1.65440000 -1.94433000
7.67256000 -1.76085000 -2.12134000
7.70181000 -1.61726000 -2.07456000
-7.30961000 -0.05976330 -2.73793000
5.98795000 1.58264000 -3.55982000
5.84362000 1.73083000 -3.56755000
5.77071000 1.77446000 -3.62347000
5.71853000 1.82784000 -3.62744000
5.62719000 1.81587000 -3.78460000
4.29153000 2.71518000 -4.08592000
4.29153000 2.71518000 -4.08592000
-3.29404000 3.07000000 -4.30717000
-3.33341000 3.08177000 -4.26102000
-3.28947000 3.14590000 -4.18821000
-2.53558000 3.29302000 -4.35260000
-2.28936000 3.32483000 -4.40087000
-2.36531000 3.21886000 -4.57098000
-1.68992000 3.48908000 -4.42723000
-1.56923000 3.52349000 -4.42983000
-1.62365000 3.45166000 -4.48371000
-1.51368000 3.53892000 -4.44961000
-1.48741000 3.50608000 -4.50840000
-1.51368000 3.53892000 -4.44961000
-1.47339000 3.57039000 -4.47709000
0.57826300 3.66476000 -4.50582000
0.51097000 3.68522000 -4.51005000
0.14303700 3.68470000 -4.58642000
0.08090790 3.75842000 -4.56502000
0.14345600 3.75980000 -4.55687000
0.32853300 3.71831000 -4.54253000
0.34895400 3.60359000 -4.61583000
0.27694600 3.67893000 -4.57798000
0.40533500 3.65016000 -4.57276000
-1.68548000 4.07903000 -4.77625000
-1.69142000 4.10290000 -4.71827000
-1.68146000 4.14707000 -4.75122000
-1.49528000 4.31214000 -4.81276000
-1.42484000 4.32083000 -4.83461000
-1.44259000 4.31171000 -4.89350000
-1.51163000 4.30051000 -4.87228000
-1.42484000 4.32083000 -4.83461000
-1.44259000 4.31171000 -4.89350000
-7.10518000 0.09602190 3.82944000
-7.07268000 0.08535010 3.89595000
-7.07355000 0.13235000 3.86578000
-7.13024000 0.02944220 3.81804000
7.14039000 0.03425660 3.93205000
7.17690000 -0.00163111 3.88452000
7.14572000 -0.02466920 3.94951000
7.17690000 -0.00163111 3.88452000
7.14039000 0.03425660 3.93205000
7.20187000 -0.07567030 3.86820000
7.17479000 -0.18921300 3.96067000
-3.01757000 -0.93913300 4.30047000
-2.92977000 -0.85468000 4.35672000
-2.90731000 -0.94191700 4.38676000
-2.94997000 -1.02942000 4.35932000
-2.91614000 -1.08464000 4.38861000
-2.85035000 -1.19621000 4.43794000
-2.87208000 -1.07841000 4.42702000
-2.83283000 -1.12138000 4.46007000
-2.91614000 -1.08464000 4.38861000
-1.73034000 -2.51423000 5.01397000
-1.63703000 -2.54761000 5.06370000
-1.68145000 -2.48800000 5.04869000
-1.61313000 -2.47453000 5.08784000
-1.49534000 -2.58107000 5.12927000
-1.57244000 -2.60244000 5.09116000
-2.38371000 -6.04051000 0.02484830
-2.29678000 -6.10653000 0.07893880
-2.38371000 -6.04051000 0.02484830
-2.51581000 -5.94181000 -0.02518900
7.01166000 -4.61118000 -0.55170700
4.10055000 -4.49705000 -0.75249000
4.14442000 -4.44378000 -0.61904000
4.11961000 -4.43766000 -0.77789700
4.15564000 -4.36208000 -0.72265400
7.29608000 -3.84085000 -0.92449300
-3.10443000 9.88154000 -0.81517300
-3.02416000 9.86912000 -0.92792900
-3.10840000 9.89054000 -0.90186300
-3.10840000 9.89054000 -0.90186300
-3.02650000 9.85841000 -0.85057900
-3.54328000 9.83813000 -0.76858700
-3.57247000 9.80579000 -0.75583300
-3.51091000 9.86379000 -0.72113800
7.73341000 -1.85470000 -1.85239000
7.73420000 -1.72531000 -1.91943000
7.72233000 -1.61160000 -2.00359000
-7.36761000 -0.16893200 -2.65694000
-7.34429000 -0.09847400 -2.67552000
2.08153000 7.50318000 0.34491100
2.10426000 7.57844000 0.38038200
2.09437000 7.53085000 0.27479600
-7.29932000 0.06251460 -2.70440000
-7.24431000 0.00953917 -2.85119000
-7.27593000 -0.03893020 -2.80659000
-7.30961000 -0.05976330 -2.73793000
-7.25218000 0.10743300 -2.78394000
-7.21909000 0.06984450 -2.87416000
-7.25218000 0.10743300 -2.78394000
-2.51021000 6.42687000 0.81367900
-2.51365000 6.55781000 0.85743800
-2.52803000 6.61151000 0.82146000
-2.49729000 6.52291000 0.90577100
-2.49219000 6.41990000 0.88069800
5.88781000 1.65265000 -3.61331000
5.97429000 1.69074000 -3.41326000
5.84362000 1.73083000 -3.56755000
4.28315000 2.75605000 -4.01440000
4.45532000 2.69773000 -3.94760000
4.28315000 2.75605000 -4.01440000
-2.44064000 5.41946000 1.36045000
-2.37235000 5.55143000 1.41493000
-2.43486000 5.54444000 1.25815000
-3.36217000 3.11393000 -4.19086000
-3.36217000 3.11393000 -4.19086000
-1.77442000 4.87564000 1.56443000
-1.71050000 4.88173000 1.63594000
-1.76918000 3.46565000 -4.42076000
-1.87315000 3.49143000 -4.35240000
-1.81239000 3.51379000 -4.36717000
-1.75301000 3.53792000 -4.38018000
-1.77193000 4.76510000 1.61011000
-1.70677000 4.77530000 1.67873000
-1.68965000 3.55616000 -4.39190000
-1.62435000 3.56584000 -4.40019000
-1.56182000 3.57759000 -4.40959000
-1.51368000 3.53892000 -4.44961000
-1.56923000 3.52349000 -4.42983000
-1.56182000 3.57759000 -4.40959000
-1.51045000 3.61145000 -4.43455000
-1.77416000 4.65152000 1.65235000
-1.77193000 4.76510000 1.61011000
-1.70677000 4.77530000 1.67873000
0.90725300 3.63249000 -4.45182000
0.81020200 3.60070000 -4.51187000
0.82008300 3.68792000 -4.40071000
0.57826300 3.66476000 -4.50582000
0.51097000 3.68522000 -4.51005000
0.46908600 3.78165000 -4.42579000
0.32853300 3.71831000 -4.54253000
0.21078300 3.76024000 -4.54517000
0.26715700 3.80432000 -4.50595000
0.40142100 3.71382000 -4.52349000
0.34227600 3.77277000 -4.49819000
0.39390600 3.78495000 -4.46351000
0.46201700 3.73541000 -4.47912000
0.46201700 3.73541000 -4.47912000
0.46559100 3.68467000 -4.52736000
-1.58240000 3.79329000 -4.56382000
-1.62079000 3.79087000 -4.50000000
-1.67784000 3.89783000 -4.54362000
0.20472200 3.86006000 -4.49883000
-1.70144000 4.00840000 -4.61582000
-1.71075000 4.06160000 -4.62656000
-1.69281000 4.04850000 -4.68939000
-1.70031000 4.12748000 -4.65114000
-1.69142000 4.10290000 -4.71827000
-1.70031000 4.12748000 -4.65114000
-1.67199000 4.19017000 -4.69611000
-1.56142000 4.28575000 -4.82470000
-1.50077000 4.31619000 -4.73591000
-1.49528000 4.31214000 -4.81276000
-1.50077000 4.31619000 -4.73591000
-1.43394000 4.32789000 -4.73571000
-1.37002000 4.32932000 -4.75997000
-1.36781000 4.32338000 -4.82596000
-1.37002000 4.32932000 -4.75997000
-1.13171000 4.31830000 -4.81374000
-1.36781000 4.32338000 -4.82596000
-1.14481000 4.33110000 -4.70631000
-0.77576700 4.34533000 -4.78878000
-0.58134700 4.37926000 -4.77359000
-0.64109300 4.35148000 -4.88884000
-2.11128000 -6.24534000 0.20577600
-2.02237000 -6.30300000 0.23123400
-2.16636000 -6.24859000 0.33146800
-2.16635000 -6.18964000 0.11704900
-2.29678000 -6.10653000 0.07893880
-2.34278000 -6.12739000 0.27196100
4.12191000 -4.50835000 -0.59644700
4.12154000 -4.47938000 -0.67321000
4.06357000 -4.56166000 -0.79135400
7.29608000 -3.84085000 -0.92449300
7.30932000 -3.78289000 -0.97756800
7.33115000 -3.73564000 -0.95900600
7.36585000 -3.61597000 -1.01769000
7.33115000 -3.73564000 -0.95900600
7.39911000 -3.50602000 -1.04989000
7.42984000 -3.41586000 -1.06131000
7.45329000 -3.33147000 -1.10253000
7.45286000 -3.28066000 -1.20617000
7.49156000 -3.16266000 -1.24706000
7.58315000 -2.98384000 -1.13428000
7.53100000 -3.04862000 -1.27067000
7.63256000 -2.67041000 -1.43645000
7.60695000 -2.64311000 -1.58451000
7.66403000 -2.46575000 -1.56837000
-7.06688000 0.30002800 3.74979000
-7.15663000 0.11776700 3.71216000
-7.13813000 0.08547340 3.76995000
-7.10518000 0.09602190 3.82944000
-7.13813000 0.08547340 3.76995000
7.19146000 0.05610350 3.83025000
7.73613000 -1.65440000 -1.94433000
7.72233000 -1.61160000 -2.00359000
7.75869000 -1.46237000 -1.90149000
-3.15955000 -0.78046600 4.18014000
-3.11384000 -0.67737900 4.19052000
-3.01791000 -0.78297300 4.27842000
-3.06256000 -1.03479000 4.26462000
-3.00369000 -0.99821000 4.31632000
-3.00369000 -0.99821000 4.31632000
-2.94997000 -1.02942000 4.35932000
-3.06256000 -1.03479000 4.26462000
-2.96579000 -1.12826000 4.33805000
-2.88749000 -1.27296000 4.38527000
-2.67427000 -1.42141000 4.57348000
-7.34429000 -0.09847400 -2.67552000
-7.33984000 -0.00507537 -2.63943000
-7.30638000 0.18129000 -2.62140000
-7.29932000 0.06251460 -2.70440000
-7.24555000 0.20062800 -2.74059000
-1.63703000 -2.54761000 5.06370000
-1.57244000 -2.60244000 5.09116000
-1.64697000 -2.66611000 5.03960000
-1.50491000 -2.74231000 5.11008000
-1.56995000 -2.69705000 5.08039000
-1.56995000 -2.69705000 5.08039000
-1.50491000 -2.74231000 5.11008000
-1.55983000 -2.79282000 5.07279000
5.77071000 1.77446000 -3.62347000
5.80073000 1.81926000 -3.50891000
5.71853000 1.82784000 -3.62744000
5.63417000 1.90270000 -3.64764000
5.58959000 1.97290000 -3.61236000
5.66480000 1.94955000 -3.53272000
5.53574000 2.02261000 -3.61858000
5.58959000 1.97290000 -3.61236000
4.24704000 2.80298000 -3.96067000
4.24704000 2.80298000 -3.96067000
-3.37874000 3.14041000 -4.13576000
-3.37874000 3.14041000 -4.13576000
-1.93693000 3.46602000 -4.34356000
-1.93693000 3.52815000 -4.29911000
-1.87315000 3.49143000 -4.35240000
-1.93693000 3.52815000 -4.29911000
-1.86717000 3.56839000 -4.32038000
-1.80233000 3.57509000 -4.35113000
-1.80233000 3.57509000 -4.35113000
-1.75273000 3.61285000 -4.36841000
-1.75301000 3.53792000 -4.38018000
-1.68965000 3.55616000 -4.39190000
-1.62435000 3.56584000 -4.40019000
-1.68923000 3.62849000 -4.38677000
-1.62379000 3.63086000 -4.39756000
-1.56905000 3.63457000 -4.41006000
-1.81349000 3.64063000 -4.34177000
-1.75192000 3.68382000 -4.37474000
-1.68550000 3.69476000 -4.40071000
-1.62379000 3.63086000 -4.39756000
-1.68923000 3.62849000 -4.38677000
-1.68550000 3.69476000 -4.40071000
-1.61965000 3.68980000 -4.41867000
-1.75192000 3.68382000 -4.37474000
-1.74708000 3.74928000 -4.39338000
-1.67578000 3.75820000 -4.43452000
-1.60784000 3.73192000 -4.45337000
-1.74156000 3.81183000 -4.41851000
-1.68729000 3.81946000 -4.46279000
0.25642700 3.88178000 -4.46185000
0.32396200 3.84165000 -4.45176000
-1.72953000 4.05957000 -4.55701000
-1.71075000 4.06160000 -4.62656000
-1.72953000 4.05957000 -4.55701000
-1.72013000 4.11426000 -4.58007000
-1.56343000 4.29945000 -4.62411000
-1.49925000 4.32020000 -4.66370000
-1.49925000 4.32020000 -4.66370000
-1.36864000 4.33332000 -4.69025000
-1.36864000 4.33332000 -4.69025000
-1.30014000 4.33237000 -4.68885000
-0.65453900 4.37384000 -4.69660000
-0.47877900 4.40066000 -4.66461000
-0.49429000 4.38619000 -4.78217000
-3.05593000 9.88353000 -0.96214600
-3.11440000 9.89813000 -1.00500000
-3.53474000 9.83030000 -0.82984900
-3.50155000 9.86097000 -0.79972900
-3.50401000 9.85006000 -0.85761900
-3.54328000 9.83813000 -0.76858700
-3.55925000 9.79311000 -0.82812300
-3.53474000 9.83030000 -0.82984900
3.85354000 9.61168000 -0.77269300
3.79990000 9.63301000 -0.72881800
3.87069000 9.61655000 -0.63531800
-2.12030000 -6.26380000 0.28711500
2.16465000 7.70666000 0.22148200
2.22673000 7.84367000 0.17396000
2.18414000 7.75434000 0.12315400
-2.12030000 -6.26380000 0.28711500
-2.11128000 -6.24534000 0.20577600
-2.47438000 -6.02600000 0.22214900
2.06518000 7.43915000 0.23480200
4.15647000 -4.43700000 -0.56255700
4.14442000 -4.44378000 -0.61904000
4.15647000 -4.43700000 -0.56255700
4.18616000 -4.38342000 -0.49384900
-2.46794000 5.93505000 0.91640100
-2.43990000 5.97250000 1.02098000
-2.45398000 6.05702000 0.95298800
7.36585000 -3.61597000 -1.01769000
7.39911000 -3.50602000 -1.04989000
7.41148000 -3.50310000 -0.98353600
7.35722000 -3.69274000 -0.90273300
7.41148000 -3.50310000 -0.98353600
7.49125000 -3.28394000 -0.99451100
7.56273000 -2.92886000 -1.35542000
7.61230000 -2.84992000 -1.25402000
7.58533000 -2.84470000 -1.39573000
7.62570000 -2.76168000 -1.33530000
7.59652000 -2.76859000 -1.45995000
7.63256000 -2.67041000 -1.43645000
7.65267000 -2.65652000 -1.36176000
7.67094000 -2.53871000 -1.43867000
7.65267000 -2.65652000 -1.36176000
7.70050000 -2.40892000 -1.48415000
-1.83715000 4.58987000 1.60427000
-1.82415000 4.71316000 1.56819000
-1.77416000 4.65152000 1.65235000
-1.82647000 4.54058000 1.63938000
-1.73792000 4.62393000 1.70428000
-1.83715000 4.58987000 1.60427000
7.75406000 -2.07340000 -1.62741000
7.70846000 -2.15929000 -1.73279000
7.71962000 -2.03486000 -1.78686000
-1.86816000 4.13382000 1.80875000
-1.76849000 4.31931000 1.81078000
-1.77606000 4.19141000 1.87975000
7.77043000 -1.84914000 -1.69796000
7.74248000 -1.77011000 -1.86446000
7.75880000 -1.68497000 -1.83979000
7.75880000 -1.68497000 -1.83979000
7.74248000 -1.77011000 -1.86446000
7.73420000 -1.72531000 -1.91943000
7.77137000 -1.59636000 -1.82012000
-7.56893000 -0.48121700 -2.24961000
-7.43855000 -0.62547100 -2.61538000
-7.53593000 -0.67242400 -2.36923000
-7.38502000 -0.27159300 -2.66751000
-7.44543000 -0.38729800 -2.55624000
-7.51731000 -0.32306800 -2.33701000
-7.40553000 -0.13547400 -2.53529000
-7.36761000 -0.16893200 -2.65694000
-7.37160000 -0.06832100 -2.59096000
-7.35482000 0.15218400 -2.52616000
-7.33984000 -0.00507537 -2.63943000
5.53574000 2.02261000 -3.61858000
5.52651000 2.06794000 -3.56622000
5.38677000 2.09789000 -3.72306000
5.45647000 2.13658000 -3.56058000
5.52651000 2.06794000 -3.56622000
-3.41574000 3.17542000 -4.04771000
-3.41574000 3.17542000 -4.04771000
-2.01897000 3.50446000 -4.27447000
-2.00388000 3.56100000 -4.24748000
-2.00388000 3.56100000 -4.24748000
-1.94091000 3.60282000 -4.26930000
-1.74708000 3.74928000 -4.39338000
-1.81876000 3.72135000 -4.34571000
-1.74156000 3.81183000 -4.41851000
-1.79743000 3.78614000 -4.37204000
-1.80064000 3.84540000 -4.38221000
-1.73540000 3.88208000 -4.45626000
-1.80094000 3.91142000 -4.39268000
0.38533800 3.86390000 -4.39235000
0.39390600 3.78495000 -4.46351000
0.32396200 3.84165000 -4.45176000
-1.77032000 3.94843000 -4.43832000
-1.73134000 3.94774000 -4.49832000
-1.73540000 3.88208000 -4.45626000
-1.80094000 3.91142000 -4.39268000
0.19898500 3.96156000 -4.44252000
0.14593700 3.91605000 -4.49415000
0.08005300 3.98059000 -4.49894000
-1.73162000 4.00422000 -4.52802000
-1.75010000 4.07170000 -4.49390000
-1.73312000 4.12499000 -4.51889000
-1.70661000 4.17662000 -4.53946000
-1.70048000 4.16738000 -4.59270000
-1.66989000 4.22479000 -4.56196000
-1.49649000 4.32076000 -4.59217000
-1.49649000 4.32076000 -4.59217000
-1.43284000 4.33111000 -4.63393000
-1.33924000 4.33419000 -4.56062000
-1.25268000 4.33447000 -4.62688000
-1.30014000 4.33237000 -4.68885000
-1.05362000 4.33876000 -4.62158000
-0.90543600 4.34700000 -4.60400000
-0.89294100 4.34008000 -4.71018000
-0.81389800 4.35100000 -4.68525000
-0.83101800 4.35265000 -4.62357000
-0.75206300 4.36118000 -4.64065000
-0.74687500 4.35773000 -4.71093000
-0.65453900 4.37384000 -4.69660000
-0.68718600 4.37016000 -4.62320000
-0.62255100 4.38123000 -4.62170000
-0.55209300 4.39192000 -4.65490000
-7.23406000 0.15795900 3.51601000
-7.17314000 0.14968000 3.65266000
-7.19390000 0.05862160 3.67161000
7.20235000 -0.35839300 3.96028000
7.26666000 -0.11946800 3.74067000
-3.68196000 -0.29412000 3.85581000
-3.52402000 -0.25483800 3.91354000
-3.43157000 -0.44286100 3.98390000
-3.13660000 -0.85975400 4.20757000
-3.03923000 -0.86172300 4.27593000
-3.11532000 -0.92085500 4.22760000
-3.16682000 -0.98827900 4.18421000
-3.18848000 -0.92931500 4.17248000
-2.10848000 -6.29792000 0.38879300
-2.02661000 -6.36132000 0.44426800
-2.16636000 -6.24859000 0.33146800
-2.23448000 -6.25316000 0.50654900
-1.71894000 -2.69985000 4.98660000
-1.62954000 -2.79661000 5.03043000
-1.51118000 -2.92670000 5.08459000
-1.42776000 -2.83204000 5.13827000
4.15561000 -4.47344000 -0.49106400
7.32389000 -3.89250000 -0.61176700
7.36227000 -3.72403000 -0.78037600
7.64839000 -2.75913000 -1.21985000
7.67696000 -2.58478000 -1.34238000
7.67696000 -2.58478000 -1.34238000
7.67094000 -2.53871000 -1.43867000
7.70318000 -2.46770000 -1.38813000
7.72215000 -2.35094000 -1.46512000
7.70318000 -2.46770000 -1.38813000
7.72215000 -2.35094000 -1.46512000
7.70050000 -2.40892000 -1.48415000
7.71142000 -2.31350000 -1.56360000
7.74278000 -2.25366000 -1.49832000
7.74278000 -2.25366000 -1.49832000
7.72263000 -2.21711000 -1.62801000
7.76564000 -2.19393000 -1.45573000
7.78102000 -1.68414000 -1.73563000
-3.05494000 9.88886000 -1.03547000
-2.94970000 9.83670000 -0.97582800
-3.45093000 9.86506000 -0.94452600
-3.45694000 9.87202000 -0.86136700
-3.40540000 9.88345000 -0.92020700
-3.49183000 9.84497000 -0.91096300
-3.50401000 9.85006000 -0.85761900
-3.49183000 9.84497000 -0.91096300
-3.52638000 9.81694000 -0.88699900
-7.48131000 -0.45369600 -2.47758000
-7.57934000 -0.37871900 -2.19289000
-7.47391000 -0.19413600 -2.38152000
-7.44478000 -0.12879800 -2.42527000
-7.40553000 -0.13547400 -2.53529000
-7.42857000 0.03441900 -2.38745000
-7.37160000 -0.06832100 -2.59096000
-7.37023000 0.10285900 -2.51434000
5.51767000 2.11504000 -3.50318000
5.59871000 2.06544000 -3.45701000
5.51767000 2.11504000 -3.50318000
5.37943000 2.22231000 -3.53382000
2.07127000 7.46101000 0.14764700
4.26907000 2.82728000 -3.89023000
4.34250000 2.81032000 -3.84657000
4.22660000 2.89120000 -3.81109000
4.26907000 2.82728000 -3.89023000
-3.33807000 3.24524000 -3.97415000
-3.19874000 3.23552000 -4.09066000
-2.17981000 3.52305000 -4.18341000
-2.12137000 3.56694000 -4.18121000
-2.06061000 3.59414000 -4.19985000
-2.00206000 3.62727000 -4.22374000
-2.00206000 3.62727000 -4.22374000
-1.87783000 3.65543000 -4.30311000
-1.93830000 3.67600000 -4.26030000
0.57783200 3.82729000 -4.31133000
0.51732800 3.80524000 -4.37199000
0.51641900 3.93029000 -4.22129000
-1.85158000 3.88093000 -4.33292000
-1.84036000 3.94221000 -4.34493000
-1.81150000 3.98794000 -4.38514000
-1.77032000 3.94843000 -4.43832000
-1.76787000 4.01258000 -4.45722000
-1.79404000 4.05310000 -4.40179000
-1.55971000 4.29965000 -4.52165000
-1.48472000 4.31943000 -4.51211000
-1.42910000 4.32974000 -4.56503000
-1.43284000 4.33111000 -4.63393000
-1.17773000 4.33639000 -4.54979000
-1.17773000 4.33639000 -4.54979000
-1.25268000 4.33447000 -4.62688000
-1.02181000 4.34093000 -4.53860000
-2.49032000 6.10320000 0.81723200
-2.45619000 6.17915000 0.94523000
-2.48600000 6.19034000 0.84128300
-0.82138700 4.35487000 -4.56487000
-0.69030800 4.36953000 -4.56362000
-0.30348000 4.37818000 -4.56581000
-0.24945200 4.35830000 -4.54413000
-0.24738800 4.34700000 -4.61247000
-2.48819000 6.03411000 0.82482400
-2.46941000 5.87874000 0.93061900
-2.46894000 5.82851000 0.95660600
-2.48430000 5.73973000 0.94536800
-2.42327000 5.86715000 1.11688000
-2.46340000 5.72689000 1.04157000
-1.91880000 4.52738000 1.53003000
-1.90061000 4.70160000 1.47609000
-1.87931000 4.40671000 1.63671000
-1.82647000 4.54058000 1.63938000
-1.81911000 4.45280000 1.68594000
-1.82563000 4.36952000 1.71906000
-1.88653000 4.29304000 1.68716000
-2.00636000 -6.38714000 0.49188400
-1.95084000 -6.42535000 0.52038600
-2.10848000 -6.29792000 0.38879300
7.45104000 -3.46742000 -0.80750300
7.42984000 -3.41586000 -1.06131000
7.70143000 -2.54305000 -1.26959000
7.75115000 -2.29059000 -1.40615000
7.78680000 -2.06284000 -1.46850000
7.78291000 -2.12860000 -1.42448000
7.78898000 -1.74468000 -1.65813000
7.80320000 -1.68834000 -1.60609000
-7.23991000 0.10496400 3.54389000
7.23039000 0.01917070 3.76984000
7.28727000 -0.04548610 3.65650000
-7.50179000 -0.26152300 -2.34605000
-3.23808000 -0.93665400 4.13633000
-3.31827000 -0.89708400 4.08514000
-3.21624000 -0.86548500 4.15179000
-3.28556000 -0.98057500 4.09944000
-3.22592000 -0.99598400 4.13769000
-3.18848000 -0.92931500 4.17248000
-3.16682000 -0.98827900 4.18421000
-3.23808000 -0.93665400 4.13633000
-3.14374000 -1.05385000 4.19307000
-3.09317000 -0.95932400 4.24316000
-3.09626000 -1.13217000 4.21967000
5.37943000 2.22231000 -3.53382000
5.45647000 2.13658000 -3.56058000
5.16520000 2.35097000 -3.63335000
5.29470000 2.29961000 -3.52896000
5.21572000 2.35374000 -3.55325000
4.39052000 2.82017000 -3.77613000
4.49902000 2.77881000 -3.73724000
4.34250000 2.81032000 -3.84657000
4.39052000 2.82017000 -3.77613000
-1.55983000 -2.79282000 5.07279000
-1.57938000 -2.89153000 5.04799000
-1.62954000 -2.79661000 5.03043000
-1.65446000 -2.90504000 4.99783000
-1.65446000 -2.90504000 4.99783000
-1.58185000 -2.97751000 5.03495000
-3.28246000 3.28352000 -3.94321000
-1.45345000 -3.06883000 5.10329000
-2.16968000 3.60312000 -4.13025000
-2.12137000 3.56694000 -4.18121000
-2.16968000 3.60312000 -4.13025000
-2.09544000 3.64676000 -4.15405000
-2.06061000 3.59414000 -4.19985000
0.88961500 3.79342000 -4.22864000
0.75862800 3.76925000 -4.30773000
0.75271500 3.85024000 -4.19721000
0.45951600 3.86928000 -4.33369000
0.39169500 3.93567000 -4.31128000
0.45490000 3.96209000 -4.22779000
0.32199800 3.94545000 -4.36007000
0.27019600 4.02742000 -4.32129000
0.33232900 4.01830000 -4.26983000
0.39169500 3.93567000 -4.31128000
0.38533800 3.86390000 -4.39235000
0.12744000 4.04720000 -4.43700000
0.19604600 4.05716000 -4.36554000
0.24538100 3.99240000 -4.38097000
-1.43062000 4.32425000 -4.48292000
-1.37115000 4.32863000 -4.48224000
-1.20475000 4.33194000 -4.46938000
-1.20475000 4.33194000 -4.46938000
-1.09297000 4.33623000 -4.48078000
-0.91924800 4.34504000 -4.49630000
-0.81308200 4.35459000 -4.49323000
-0.82138700 4.35487000 -4.56487000
-0.81308200 4.35459000 -4.49323000
-0.30236400 4.37542000 -4.49430000
-0.65676000 4.37072000 -4.49377000
-0.50135900 4.39858000 -4.59650000
-0.42552900 4.39419000 -4.50784000
-0.36284100 4.38812000 -4.50300000
-0.36353800 4.39433000 -4.57658000
-0.42538900 4.40069000 -4.58433000
-3.05494000 9.88886000 -1.03547000
-2.99651000 9.87383000 -1.04711000
-3.04750000 9.89134000 -1.11812000
-3.04750000 9.89134000 -1.11812000
-3.48509000 9.83459000 -0.97213800
3.87692000 9.58553000 -0.82844900
3.89217000 9.58568000 -0.76388900
3.91865000 9.53030000 -0.76752100
3.87692000 9.58553000 -0.82844900
3.89217000 9.58568000 -0.76388900
-2.05479000 -6.36509000 0.51323000
-2.00874000 -6.39933000 0.53968800
-2.00636000 -6.38714000 0.49188400
-2.00874000 -6.39933000 0.53968800
-2.02661000 -6.36132000 0.44426800
-2.05479000 -6.36509000 0.51323000
4.20385000 -4.40768000 -0.33624300
4.22653000 -4.31188000 -0.38178800
4.18616000 -4.38342000 -0.49384900
4.22653000 -4.31188000 -0.38178800
4.20879000 -4.19556000 -0.70390300
-2.49032000 6.10320000 0.81723200
-2.48600000 6.19034000 0.84128300
-2.51413000 6.25416000 0.74081400
7.80066000 -1.97987000 -1.45119000
7.77302000 -1.96870000 -1.60954000
7.80320000 -1.68834000 -1.60609000
7.78898000 -1.74468000 -1.65813000
7.78102000 -1.68414000 -1.73563000
-1.95909000 4.29419000 1.59472000
-7.51731000 -0.32306800 -2.33701000
-7.52899000 -0.27765100 -2.28169000
-7.50179000 -0.26152300 -2.34605000
-1.95073000 4.19721000 1.66093000
-1.88653000 4.29304000 1.68716000
-1.85119000 4.24275000 1.76026000
-1.95857000 4.08757000 1.72235000
-2.00541000 3.89011000 1.80799000
-1.89548000 4.00494000 1.86710000
-1.94543000 3.85141000 1.92319000
5.36285000 2.34225000 -3.35253000
5.29470000 2.29961000 -3.52896000
5.15904000 2.41983000 -3.51788000
5.21572000 2.35374000 -3.55325000
5.15904000 2.41983000 -3.51788000
4.59219000 2.77017000 -3.64133000
4.64881000 2.69639000 -3.73047000
4.30642000 2.90075000 -3.70169000
-3.24203000 3.32498000 -3.89422000
-2.24748000 3.56425000 -4.10852000
-2.20383000 3.63789000 -4.07666000
-2.20383000 3.63789000 -4.07666000
-2.13465000 3.68566000 -4.10027000
-1.43062000 4.32425000 -4.48292000
-1.35899000 4.31891000 -4.38620000
-1.15880000 4.32794000 -4.40967000
-1.15880000 4.32794000 -4.40967000
-0.95906000 4.33827000 -4.42643000
-1.09297000 4.33623000 -4.48078000
-0.91924800 4.34504000 -4.49630000
-0.78105900 4.35236000 -4.41725000
-0.36256200 4.37404000 -4.42542000
-0.30194500 4.36369000 -4.41920000
-0.23955800 4.35499000 -4.48173000
-7.28286000 -0.05626440 3.53730000
-7.19439000 -0.04502120 3.72186000
-3.21154000 -1.06486000 4.13729000
-3.13856000 -1.20836000 4.16220000
-3.19951000 -1.13958000 4.13052000
-2.01432000 -6.41347000 0.60511200
-2.01432000 -6.41347000 0.60511200
-1.68444000 -3.00707000 4.96046000
-1.57938000 -2.89153000 5.04799000
-1.58185000 -2.97751000 5.03495000
-1.56676000 -3.03995000 5.03622000
-1.50477000 -3.03734000 5.07736000
-1.49695000 -3.09989000 5.07524000
-1.49695000 -3.09989000 5.07524000
-1.56676000 -3.03995000 5.03622000
-1.50477000 -3.03734000 5.07736000
-1.44652000 -3.13627000 5.09724000
-1.36252000 -3.03079000 5.15183000
-1.44652000 -3.13627000 5.09724000
-1.45345000 -3.06883000 5.10329000
-1.52091000 -3.21928000 5.03547000
-1.45087000 -3.22856000 5.07680000
-1.35273000 -3.15535000 5.13460000
7.45770000 -3.50410000 -0.65714300
7.49311000 -3.34890000 -0.82813700
7.58942000 -3.09518000 -0.85759000
7.81211000 -2.10307000 -1.24840000
7.78019000 -2.20487000 -1.34416000
7.78291000 -2.12860000 -1.42448000
7.80797000 -2.03726000 -1.35384000
7.78680000 -2.06284000 -1.46850000
7.80066000 -1.97987000 -1.45119000
-2.97051000 9.87466000 -1.17815000
-3.02953000 9.89734000 -1.27864000
-2.97051000 9.87466000 -1.17815000
-3.10106000 9.90158000 -1.19007000
-3.44329000 9.85463000 -1.05591000
-3.45412000 9.85560000 -1.00091000
-3.40475000 9.87769000 -1.00408000
-7.56627000 -0.30276100 -2.19303000
-3.47219000 9.82311000 -1.06403000
-3.45412000 9.85560000 -1.00091000
-3.44329000 9.85463000 -1.05591000
-7.54253000 -0.24945700 -2.22593000
-7.52899000 -0.27765100 -2.28169000
-7.47391000 -0.19413600 -2.38152000
-7.54253000 -0.24945700 -2.22593000
3.84815000 9.59743000 -0.89153800
3.84932000 9.60591000 -0.84567700
3.88124000 9.55372000 -0.89142900
4.99642000 2.52205000 -3.57808000
5.14396000 2.47284000 -3.44510000
4.68706000 2.75537000 -3.55339000
4.60046000 2.81696000 -3.52759000
4.59219000 2.77017000 -3.64133000
4.49902000 2.77881000 -3.73724000
-3.48960000 3.19963000 -3.94937000
-3.45457000 3.30436000 -3.77570000
-3.33807000 3.24524000 -3.97415000
-3.28246000 3.28352000 -3.94321000
-3.24203000 3.32498000 -3.89422000
-2.29168000 3.61187000 -4.02796000
-2.24769000 3.66298000 -4.01131000
-2.17451000 3.70807000 -4.04077000
-2.17451000 3.70807000 -4.04077000
-1.93407000 3.99513000 -4.17816000
-1.97472000 3.87165000 -4.18629000
-2.06178000 3.82457000 -4.09079000
0.58765900 3.96205000 -4.11853000
0.57968800 3.90195000 -4.21378000
0.31893700 4.05988000 -4.21540000
0.39436300 4.02600000 -4.18754000
-0.32108900 4.34881000 -4.34761000
-0.23872100 4.33234000 -4.33539000
-0.23886100 4.34835000 -4.40994000
-0.30194500 4.36369000 -4.41920000
-0.23872100 4.33234000 -4.33539000
-0.17272800 4.31592000 -4.32918000
-0.17370500 4.32613000 -4.40152000
-2.51281000 5.86249000 0.74239000
-2.47981000 5.98804000 0.86149100
-2.50585000 5.97280000 0.75379600
-2.46794000 5.93505000 0.91640100
-2.49839000 5.82340000 0.82820300
-2.52361000 5.72843000 0.77201700
-2.46894000 5.82851000 0.95660600
-2.48430000 5.73973000 0.94536800
-2.51253000 5.65142000 0.90874400
-2.51667000 5.69203000 0.84056500
-2.48970000 5.67696000 0.97618300
-1.93550000 4.41077000 1.56405000
-2.00427000 4.42757000 1.46056000
-1.98731000 3.97134000 1.76863000
-2.03566000 4.02200000 1.66166000
-1.95857000 4.08757000 1.72235000
-2.05360000 3.89481000 1.73397000
-2.00541000 3.89011000 1.80799000
-2.12612000 3.64682000 1.84307000
-2.05360000 3.89481000 1.73397000
-2.05573000 3.67212000 1.92427000
-1.99493000 -6.45978000 0.72294300
-1.97572000 -6.48406000 0.77000800
-1.91099000 -6.55052000 0.87164500
-2.06238000 -6.40903000 0.69022800
-1.95143000 -6.46027000 0.64461400
-2.06238000 -6.40903000 0.69022800
-7.27387000 0.08980860 3.47794000
-7.30865000 0.03818960 3.43039000
-7.23991000 0.10496400 3.54389000
-7.27387000 0.08980860 3.47794000
7.81672000 -1.92155000 -1.38900000
7.81672000 -1.92155000 -1.38900000
7.81953000 -1.77849000 -1.45300000
7.82293000 -1.62174000 -1.53062000
7.82293000 -1.62174000 -1.53062000
7.81572000 -1.51343000 -1.62323000
7.83360000 -1.40556000 -1.56041000
7.82324000 -1.35865000 -1.62181000
-3.70015000 -0.56528600 3.87704000
-3.48969000 -0.72711700 3.98747000
-3.79003000 -0.65000200 3.83522000
-3.57012000 -0.75979500 3.94784000
-3.62130000 -0.81654500 3.92025000
-3.56952000 -0.91013000 3.93816000
-3.51570000 -0.83526900 3.97352000
-3.50694000 -0.93495900 3.97103000
-3.45689000 -1.01783000 3.98422000
-3.45813000 -0.90939900 4.00115000
-3.38363000 -0.96401100 4.04098000
-3.35372000 -1.05665000 4.04387000
-3.27698000 -1.05595000 4.09283000
-3.40598000 -1.04484000 4.01251000
-3.30558000 -1.13746000 4.05357000
-3.35372000 -1.05665000 4.04387000
-3.27698000 -1.05595000 4.09283000
-7.60419000 -0.42652000 -2.14415000
-7.65335000 -0.50029900 -2.02255000
-7.62247000 -0.39651300 -2.07997000
-7.58451000 -0.27944300 -2.12758000
-7.56627000 -0.30276100 -2.19303000
-7.58451000 -0.27944300 -2.12758000
-7.55682000 -0.09006580 -2.09168000
-1.61509000 -3.15759000 4.98127000
-1.45087000 -3.22856000 5.07680000
-1.44015000 -3.31567000 5.06270000
-1.34934000 -3.23059000 5.11803000
-1.36876000 -3.38957000 5.07859000
-1.35236000 -3.45232000 5.07072000
5.14396000 2.47284000 -3.44510000
5.32481000 2.38935000 -3.32070000
5.08654000 2.52905000 -3.43445000
5.00848000 2.58045000 -3.45936000
4.87907000 2.61184000 -3.59038000
4.94386000 2.63029000 -3.46211000
4.68706000 2.75537000 -3.55339000
-3.20984000 3.37891000 -3.81910000
-3.20984000 3.37891000 -3.81910000
-3.14198000 3.45440000 -3.73250000
-3.07439000 3.37036000 -3.92635000
-3.04569000 3.45233000 -3.79950000
-2.50655000 3.51235000 -4.00318000
-2.59138000 3.48009000 -4.00738000
-2.68025000 3.54437000 -3.85829000
-2.31222000 3.67312000 -3.93404000
-2.24778000 3.71534000 -3.94957000
-2.24769000 3.66298000 -4.01131000
-2.19441000 3.74257000 -3.98125000
0.39436300 4.02600000 -4.18754000
0.31893700 4.05988000 -4.21540000
0.32277900 4.08159000 -4.15547000
0.22028700 4.11349000 -4.24358000
0.25548800 4.11599000 -4.15836000
0.32277900 4.08159000 -4.15547000
0.19470000 4.14394000 -4.18939000
-1.52533000 4.29611000 -4.32165000
-1.50005000 4.28708000 -4.22116000
-1.44159000 4.29956000 -4.28316000
-1.44159000 4.29956000 -4.28316000
-1.39759000 4.29348000 -4.23339000
-0.31039000 4.31717000 -4.25823000
-0.23995500 4.30956000 -4.25669000
-0.17272800 4.31592000 -4.32918000
-0.17410200 4.29893000 -4.25421000
-0.11211200 4.28415000 -4.24715000
-0.11004100 4.29644000 -4.31896000
-2.89447000 9.86010000 -1.27602000
-2.96928000 9.88495000 -1.27568000
-3.44187000 9.84493000 -1.12723000
-3.39902000 9.87440000 -1.09350000
-3.44187000 9.84493000 -1.12723000
3.83997000 9.58608000 -0.97069500
3.80431000 9.61167000 -0.95899200
3.84815000 9.59743000 -0.89153800
3.83997000 9.58608000 -0.97069500
-1.98682000 -6.49052000 0.81479600
-2.04688000 -6.46204000 0.84358200
-1.98682000 -6.49052000 0.81479600
-1.97572000 -6.48406000 0.77000800
-1.99493000 -6.45978000 0.72294300
2.04995000 7.40784000 0.03541990
2.07278000 7.48785000 0.04333040
2.03926000 7.40334000 -0.05039250
-2.54554000 5.57958000 0.84300400
-2.51253000 5.65142000 0.90874400
-2.51667000 5.69203000 0.84056500
7.82661000 -1.95931000 -1.29143000
7.81953000 -1.77849000 -1.45300000
7.83624000 -1.75508000 -1.36234000
7.83624000 -1.75508000 -1.36234000
7.83633000 -1.65199000 -1.42703000
7.83799000 -1.54044000 -1.48266000
7.83633000 -1.65199000 -1.42703000
7.83789000 -1.47157000 -1.51437000
-7.64446000 -0.36186600 -2.00095000
-7.62247000 -0.39651300 -2.07997000
-7.64446000 -0.36186600 -2.00095000
-7.61606000 -0.28402500 -2.04054000
-7.60542000 -0.34886400 -2.10939000
-7.48971000 -0.04962620 -2.25675000
-2.13134000 3.79451000 1.69845000
-2.13134000 3.79451000 1.69845000
-2.08976000 3.95737000 1.62856000
-2.15494000 3.68524000 1.76157000
-2.12612000 3.64682000 1.84307000
-2.19336000 3.57584000 1.80233000
-2.15494000 3.68524000 1.76157000
-2.20335000 3.50654000 1.85278000
-2.18862000 3.42809000 1.94957000
-2.19336000 3.57584000 1.80233000
-2.31026000 3.27538000 1.90822000
-2.28642000 3.20998000 2.00877000
5.08654000 2.52905000 -3.43445000
5.23234000 2.46016000 -3.33223000
5.00848000 2.58045000 -3.45936000
5.05781000 2.61035000 -3.33498000
4.94386000 2.63029000 -3.46211000
4.94054000 2.65847000 -3.40703000
4.84900000 2.67125000 -3.51667000
4.94054000 2.65847000 -3.40703000
-2.98313000 3.42485000 -3.88645000
-2.93510000 3.49628000 -3.79014000
-2.83253000 3.49553000 -3.85127000
-2.37641000 3.59699000 -3.97438000
-2.38526000 3.68712000 -3.84798000
-2.27148000 3.74448000 -3.88144000
-1.95669000 4.00892000 -4.11834000
-1.91140000 4.08781000 -4.08895000
-1.90033000 4.07596000 -4.14970000
0.44703100 4.05403000 -4.05256000
0.49435500 4.01978000 -4.08801000
0.38295000 4.05970000 -4.12616000
0.13971100 4.17358000 -4.12829000
0.20806600 4.14493000 -4.10822000
0.19470000 4.14394000 -4.18939000
-0.05342710 4.24715000 -4.16350000
0.01077310 4.22507000 -4.15233000
0.00624030 4.24205000 -4.23342000
