4.04188156 -5.22390175 -0.68570358
4.13042021 -5.17580175 -0.70123917
4.16411829 -4.99659109 -0.70678431
4.19178200 -4.99797106 -0.52275085
4.21149254 -4.99936533 -0.33767277
4.00736380 -5.22245216 -0.86313975
4.09514284 -5.17435074 -0.88253140
3.96524477 -5.22102118 -1.03888166
4.05209970 -5.17291832 -1.06209254
4.08515215 -4.99388695 -1.07031167
4.12855101 -4.99522877 -0.88941932
3.91560102 -5.21961498 -1.21259356
4.00136375 -5.17151260 -1.23958004
3.85853100 -5.21823454 -1.38394511
3.94303799 -5.17013264 -1.41465569
3.97519398 -4.99127531 -1.42548764
4.03399944 -4.99256897 -1.24911427
3.79413223 -5.21688557 -1.55260658
3.87722468 -5.16878128 -1.58698344
3.72254157 -5.21556664 -1.71826351
3.80405903 -5.16746426 -1.75623953
3.83507133 -4.98877525 -1.76960361
3.90883923 -4.99001169 -1.59909308
3.64388704 -5.21428347 -1.88059700
3.72367525 -5.16617966 -1.92210102
3.55832505 -5.21303654 -2.03930235
3.63623261 -5.16493130 -2.08425570
3.66586494 -4.98640871 -2.10005069
3.75402761 -4.98757458 -1.93669510
3.46600747 -5.21182919 -2.19406962
3.54188561 -5.16372395 -2.24238849
3.36711812 -5.21066046 -2.34461117
3.44082189 -5.16255903 -2.39620042
3.46884775 -4.98419142 -2.41430759
3.57074165 -4.98527908 -2.25935388
3.26184011 -5.20953894 -2.49063611
3.33323002 -5.16143656 -2.54539990
3.15038204 -5.20845938 -2.63186860
3.21932006 -5.16036081 -2.68970108
3.24552393 -4.98213863 -2.70998383
3.36037111 -4.98314190 -2.56461120
3.03294826 -5.20743036 -2.76803255
3.09930420 -5.15933180 -2.82882500
2.90976858 -5.20645142 -2.89887881
2.97341681 -5.15835428 -2.96251535
2.99759746 -4.98026752 -2.98482013
3.12452102 -4.98117971 -2.85013986
2.78107452 -5.20552206 -3.02415299
2.84189177 -5.15742636 -3.09051299
2.64711308 -5.20464849 -3.14362526
2.70498466 -5.15655279 -3.21258020
2.72695851 -4.97859478 -3.23673868
2.86499071 -4.97940636 -3.11376619
2.50813556 -5.20382977 -3.25706077
2.56295180 -5.15573597 -3.32848167
2.36440802 -5.20306396 -3.36424875
2.41606474 -5.15497351 -3.43799758
2.43566203 -4.97712755 -3.46382618
2.58375645 -4.97783470 -3.35349846
2.21620083 -5.20236254 -3.46497297
2.26459908 -5.15427208 -3.54091072
2.06380033 -5.20171690 -3.55905032
2.10884881 -5.15362978 -3.63703251
2.12591934 -4.97588539 -3.66433644
2.28295088 -4.97647715 -3.56750250
1.90749669 -5.20113230 -3.64629388
1.94910824 -5.15304756 -3.72617364
1.74758887 -5.20060921 -3.72655058
1.78568494 -5.15252733 -3.80817389
1.80009758 -4.97486830 -3.83674765
1.96486545 -4.97534704 -3.75413799
1.58437610 -5.20015049 -3.79966211
1.61888349 -5.15207052 -3.88287568
1.41817188 -5.19975376 -3.86549449
1.44902515 -5.15167665 -3.95013809
1.46066976 -4.97408962 -3.97976327
1.63192427 -4.97444916 -3.91200256
1.24929106 -5.19942188 -3.92390943
1.27643144 -5.15134811 -4.00982094
1.07805729 -5.19915342 -3.97480202
1.10143340 -5.15108252 -4.06182003
1.11021936 -4.97355509 -4.09227371
1.28665674 -4.97379065 -4.03988743
0.90479660 -5.19895363 -4.01807165
0.92436284 -5.15088511 -4.10603237
0.72983837 -5.19881868 -4.05364704
0.74555844 -5.15075302 -4.14238024
0.75141722 -4.97326612 -4.17343330
0.93169248 -4.97337914 -4.13681412
0.55351400 -5.19874907 -4.08145189
0.56535751 -5.15068722 -4.17079258
0.37616110 -5.19874573 -4.10144424
0.38410497 -5.15068817 -4.19121695
0.38699165 -4.97322607 -4.22263145
0.56973433 -4.97321606 -4.20205450
0.19811609 -5.19881058 -4.11357164
0.20214564 -5.15075493 -4.20360756
0.01971829 -5.19893980 -4.11781788
0.01982541 -5.15088749 -4.20794630
0.01971645 -4.97343922 -4.23948431
0.20353562 -4.97330093 -4.23511362
-0.15869267 -5.19913483 -4.11417007
-0.16250792 -5.15108681 -4.20421886
-0.33677721 -5.19939518 -4.10263920
-0.34450778 -5.15135145 -4.19243813
-0.34761262 -4.97389650 -4.22386312
-0.16411649 -4.97363615 -4.23573017
-0.51419550 -5.19972277 -4.08324242
-0.52582663 -5.15168285 -4.17262220
-0.69061106 -5.20011425 -4.05602837
-0.70612097 -5.15207672 -4.14481449
-0.71219987 -4.97459984 -4.17588615
-0.53042281 -4.97421980 -4.20389938
-0.86568791 -5.20056963 -4.02104044
-0.88504714 -5.15253592 -4.10906553
-1.03909314 -5.20108461 -3.97835112
-1.06226492 -5.15305567 -4.06544781
-1.07127178 -4.97554445 -4.09593105
-0.89259720 -4.97504282 -4.13987303
-1.21049547 -5.20166540 -3.92803335
-1.23743498 -5.15364075 -4.01403570
-1.37956929 -5.20230532 -3.87018466
-1.41022658 -5.15428495 -3.95493102
-1.42209542 -4.97671938 -3.98459625
-1.24788272 -4.97610235 -4.04413748
-1.54599071 -5.20300579 -3.80490923
-1.58030641 -5.15498877 -3.88823795
-1.70944595 -5.20376205 -3.73234415
-1.74735570 -5.15574980 -3.81409621
-1.76199663 -4.97811842 -3.84271955
-1.59357440 -4.97739124 -3.91740942
-1.86962295 -5.20457792 -3.65262461
-1.91105342 -5.15656757 -3.73264456
-2.02621913 -5.20544720 -3.56590676
-2.07109261 -5.15744209 -3.64404058
-2.08839583 -4.97972870 -3.67140174
-1.92704129 -4.97889662 -3.76066327
-2.17893124 -5.20637131 -3.47233963
-2.22716284 -5.15836906 -3.54844022
-2.32747412 -5.20734596 -3.37211156
-2.37897205 -5.15934658 -3.44603539
-2.39880657 -4.98153734 -3.47193003
-2.24574900 -4.98060751 -3.57509470
-2.47156096 -5.20837164 -3.26540852
-2.52622628 -5.16037750 -3.33701229
-2.61091900 -5.20944643 -3.15244031
-2.66864872 -5.16145420 -3.22158837
-2.69086432 -4.98353624 -3.24581909
-2.54727173 -4.98251438 -3.36209798
-2.74527764 -5.21056271 -3.03341794
-2.80596042 -5.16257763 -3.09998059
-2.87438655 -5.21172714 -2.90857673
-2.93790889 -5.16374683 -2.97242618
-2.96234012 -4.98570347 -2.99481225
-2.82930613 -4.98460007 -3.12331104
-2.99799991 -5.21293116 -2.77814388
-3.06423998 -5.16495371 -2.83915877
-3.11588740 -5.21417618 -2.64237356
-3.18471932 -5.16620016 -2.70043755
-3.21117806 -4.98802805 -2.72080874
-3.08971119 -4.98684788 -2.86055851
-3.22781777 -5.21545792 -2.50151610
-3.29911089 -5.16748571 -2.55651903
-3.33358574 -5.21677208 -2.35584521
-3.40720272 -5.16880560 -2.40768099
-3.43549252 -4.99048853 -2.42588210
-3.32651258 -4.98924112 -2.57582235
-3.43297601 -5.21812201 -2.20563579
-3.50877833 -5.17015409 -2.25420833
-3.52580786 -5.21949673 -2.05117893
-3.60365248 -5.17153549 -2.09639287
-3.63355589 -4.99306631 -2.11228800
-3.53790355 -4.99176311 -2.27127147
-3.61189675 -5.22090101 -1.89276206
-3.69163370 -5.17294264 -1.93453360
-3.69109249 -5.22232914 -1.73069310
-3.77256942 -5.17437410 -1.76894271
-3.80386400 -4.99574280 -1.78241110
-3.72226262 -4.99439430 -1.94922936
-3.76323915 -5.22377872 -1.56527722
-3.84630275 -5.17582607 -1.59993267
-3.76323915 -5.22377872 -1.56527722
-3.82820225 -5.22524548 -1.39683294
-3.91269326 -5.17729807 -1.42782652
-3.84630275 -5.17582607 -1.59993267
-3.94513869 -4.99849939 -1.43876684
-3.87820387 -4.99711418 -1.61214876
-3.87820387 -4.99711418 -1.61214876
-3.88584542 -5.22673082 -1.22567308
-3.97160530 -5.17878342 -1.25294757
-3.93606901 -5.22822857 -1.05212903
-4.02293205 -5.18028355 -1.07563198
-4.05628347 -5.00131273 -1.08396149
-4.00453520 -4.99990034 -1.26259124
-3.97877002 -5.22973537 -0.87652963
-4.06657267 -5.18179512 -0.89621609
-4.01387978 -5.23124933 -0.69921064
-4.10245275 -5.18331146 -0.71504354
-4.13645983 -5.00416231 -0.72070187
-4.10028315 -5.00273466 -0.90321690
-4.04132175 -5.23276854 -0.52050799
-4.13049936 -5.18483257 -0.53245705
-4.06105328 -5.23428822 -0.34076318
-4.15066481 -5.18635511 -0.34880555
-4.18506622 -5.00702381 -0.35175055
-4.16473627 -5.00559330 -0.53676307
-4.07302475 -5.23580933 -0.16031769
-4.16289854 -5.18787527 -0.16443855
-4.07722187 -5.23647165 0.02015022
-4.16718960 -5.18853903 0.01994345
-4.20172596 -5.00907469 0.01971103
-4.19740105 -5.00845528 -0.16601707
-4.07362890 -5.23542738 0.19996279
-4.16351604 -5.18748713 0.20363981
-4.06226110 -5.23352861 0.37911257
-4.15189886 -5.18557930 0.38665119
-4.18630886 -5.00625277 0.38899302
-4.19802284 -5.00806952 0.20470765
-4.04312992 -5.23162508 0.55759293
-4.13234711 -5.18367052 0.56897831
-4.01628447 -5.22973204 0.73506373
-4.10491085 -5.18176556 0.75027502
-4.13893509 -5.00262594 0.75514972
-4.16659737 -5.00443792 0.57259029
-3.98176932 -5.22784233 0.91118610
-4.06963587 -5.17986679 0.93019354
-3.93965459 -5.22596550 1.08562744
-4.02659464 -5.17797947 1.10839450
-4.05997276 -4.99902201 1.11576402
-4.10336828 -5.00081730 0.93632150
-3.89001155 -5.22410345 1.25805342
-3.97586036 -5.17610884 1.28453767
-3.83294106 -5.22225714 1.42813802
-3.91753531 -5.17425537 1.45828807
-3.95001459 -4.99547148 1.46809471
-4.00882101 -4.99723816 1.29313409
-3.76854086 -5.22043467 1.59555316
-3.85171986 -5.17242050 1.62931132
-3.69694805 -5.21863556 1.75998425
-3.77855206 -5.17061472 1.79728758
-3.80988932 -4.99200344 1.80945539
-3.88365865 -4.99372578 1.64031005
-3.61829448 -5.21686411 1.92111671
-3.69817042 -5.16883373 1.96189320
-3.53273582 -5.21512651 2.07864642
-3.61072803 -5.16708708 2.12281895
-3.64068389 -4.98864079 2.13725519
-3.72884488 -4.99030590 1.97520792
-3.44041944 -5.21342325 2.23227096
-3.51638341 -5.16537523 2.27975440
-3.34153175 -5.21176004 2.38170028
-3.41532087 -5.16370010 2.43240452
-3.44366908 -4.98540974 2.44899678
-3.54556155 -4.98700523 2.29528356
-3.23625231 -5.21013594 2.52664566
-3.30772781 -5.16206980 2.58047414
-3.12479305 -5.20855761 2.66683412
-3.19381666 -5.16048288 2.72368431
-3.22034240 -4.98233700 2.74230528
-3.33519077 -4.98385286 2.59809756
-3.00736046 -5.20702791 2.80199265
-3.07380247 -5.15894270 2.86175656
-2.88418341 -5.20554638 2.93187094
-2.94791746 -5.15745401 2.99443579
-2.97242022 -4.97944450 3.01494360
-3.09934115 -4.98086834 2.88133955
-2.75549197 -5.20412064 3.05622125
-2.81639576 -5.15601873 3.12146544
-2.62153268 -5.20274830 3.17481112
-2.67949128 -5.15463972 3.24261165
-2.70178628 -4.97675419 3.26484919
-2.83981705 -4.97807312 3.14285898
-2.48255324 -5.20143652 3.28740907
-2.53745627 -5.15331936 3.35763621
-2.33882427 -5.20018768 3.39380455
-2.39056754 -5.15206194 3.46632624
-2.41048527 -4.97428656 3.49012160
-2.55858231 -4.97549152 3.38067555
-2.19061732 -5.19900036 3.49378633
-2.23910117 -5.15086508 3.56846237
-2.03821778 -5.19787788 3.58717036
-2.08335137 -5.14973688 3.66385961
-2.10074210 -4.97206020 3.68903112
-2.25777388 -4.97314310 3.59296989
-1.88191247 -5.19682407 3.67377114
-1.92361009 -5.14867544 3.75232697
-1.72200322 -5.19584179 3.75343537
-1.76018500 -5.14768600 3.83370829
-1.77491808 -4.97009230 3.86006403
-1.93968761 -4.97104406 3.77811575
-1.55879128 -5.19493008 3.82600856
-1.59338439 -5.14676619 3.90784621
-1.39258993 -5.19409132 3.89135599
-1.42352879 -5.14592314 3.97460246
-1.43549299 -4.96840096 4.00193930
-1.60674632 -4.96921253 3.93471956
-1.22371030 -5.19332933 3.94934011
-1.25093579 -5.14515352 4.03383636
-1.05247736 -5.19264126 3.99985933
-1.07593894 -5.14446259 4.08544350
-1.08504391 -4.96699142 4.11355543
-1.26148081 -4.96766090 4.06158733
-0.87921619 -5.19203377 4.04281139
-0.89886808 -5.14384937 4.12932301
-0.70425731 -5.19150639 4.07812548
-0.72006267 -5.14331436 4.16539764
-0.72624183 -4.96588373 4.19406748
-0.90651715 -4.96639824 4.15774012
-0.52793354 -5.19105768 4.10572863
-0.53986198 -5.14286089 4.19359684
-0.35058090 -5.19068861 4.12557411
-0.35861018 -5.14248753 4.21387005
-0.36181632 -4.96507883 4.24287748
-0.54455876 -4.96544075 4.22246265
-0.17253610 -5.19040298 4.13761282
-0.17665114 -5.14219809 4.22616863
0.00586134 -5.19019842 4.14183092
0.00566838 -5.14199018 4.23047686
0.00545776 -4.96458673 4.25960016
-0.17836104 -4.96479225 4.25526142
0.18427214 -5.19007730 4.13821125
0.18800190 -5.14186525 4.22677946
0.36235636 -5.19003820 4.12676954
0.37000111 -5.14182329 4.21509123
0.37278685 -4.96440792 4.24410915
0.18929070 -4.96445656 4.25587797
0.53977525 -5.19008350 4.10751915
0.55132055 -5.14186668 4.19542599
0.71619129 -5.19021082 4.08050680
0.73161566 -5.14199018 4.16783142
0.73737472 -4.96454859 4.19652081
0.55559731 -4.96443748 4.22430706
0.89126712 -5.19041872 4.04577971
0.91054058 -5.14219904 4.13235617
1.06467175 -5.19071102 4.00340843
1.08775795 -5.14248896 4.08907127
1.09644544 -4.96500349 4.11721277
0.91777110 -4.96473455 4.16079903
1.23607457 -5.19108582 3.95346403
1.26292896 -5.14286089 4.03805065
1.40515018 -5.19153929 3.89604688
1.43572152 -5.14331484 3.97939587
1.44726992 -4.96577120 4.00677252
1.27305686 -4.96534872 4.06583595
1.57157159 -5.19207382 3.83125710
1.60580170 -5.14384842 3.91321015
1.73502767 -5.19268847 3.75923061
1.77285159 -5.14446354 3.83963108
1.78717172 -4.96684313 3.86603618
1.61874878 -4.96627045 3.94012737
1.89520407 -5.19337893 3.68010330
1.93654943 -5.14515495 3.75879812
2.05179954 -5.19414759 3.59402704
2.09658813 -5.14592457 3.67086649
2.11357045 -4.96821642 3.69609594
1.95221591 -4.96749449 3.78464031
2.20451283 -5.19499159 3.50115490
2.25265884 -5.14676809 3.57599211
2.35305619 -5.19590807 3.40167093
2.40446639 -5.14768839 3.47436547
2.42398047 -4.96987677 3.49822617
2.27092409 -4.96901274 3.60056210
2.49714065 -5.19689703 3.29575777
2.55171943 -5.14867783 3.36616850
2.63649750 -5.19795275 3.18362594
2.69413972 -5.14973879 3.25161982
2.71603513 -4.97181225 3.27393270
2.57244301 -4.97081089 3.38927817
2.77085614 -5.19907999 3.06548595
2.83145332 -5.15086794 3.13093424
2.89996767 -5.20027065 2.94156885
2.96340322 -5.15206099 3.00434613
2.98751283 -4.97400951 3.02493596
2.85447741 -4.97287941 3.15240574
3.02358150 -5.20152664 2.81210399
3.08973575 -5.15332079 2.87209034
3.14146972 -5.20284319 2.67734003
3.21021533 -5.15464067 2.73442125
3.23635411 -4.97644854 2.75313044
3.11488390 -4.97520065 2.89175820
3.25340223 -5.20421696 2.53752542
3.32460928 -5.15602064 2.59159327
3.35916972 -5.20564747 2.39293361
3.43270040 -5.15745497 2.44388509
3.46066713 -4.97911167 2.46057129
3.35168839 -4.97775412 2.60930753
3.45856047 -5.20713043 2.24383736
3.53427649 -5.15894413 2.29157495
3.55139375 -5.20866537 2.09052348
3.62915015 -5.16048527 2.13495731
3.65873170 -4.98198318 2.14949274
3.56307912 -4.98052168 2.30720091
3.63748431 -5.21024847 1.93328094
3.71713352 -5.16207075 1.97432506
3.71667933 -5.21187401 1.77241218
3.79806995 -5.16370344 1.80998898
3.82903957 -4.98503637 1.82226133
3.74743891 -4.98348618 1.98774195
3.78882694 -5.21354151 1.60822225
3.87180328 -5.16537619 1.64225960
3.85379052 -5.21524620 1.44102418
3.93819451 -5.16708994 1.47145808
3.97031641 -4.98824692 1.48137295
3.90337896 -4.98662329 1.65336394
3.91143441 -5.21698809 1.27113247
3.99710655 -5.16883659 1.29790425
3.96165872 -5.21875858 1.09887409
4.04843426 -5.17061472 1.12193274
4.08146048 -4.99159670 1.12941349
4.02971029 -4.98990631 1.30661094
4.00436068 -5.22055721 0.92457557
4.09207535 -5.17242241 0.94387740
4.03946877 -5.22238445 0.74856991
4.12795687 -5.17425632 0.76407820
4.16163778 -4.99505424 0.76906639
4.12546110 -4.99331188 0.95011789
4.06691313 -5.22422981 0.57119012
4.15600300 -5.17611074 0.58287472
4.08664465 -5.22609520 0.39277512
4.17616892 -5.17798376 0.40061462
4.21024418 -4.99859428 0.40307122
4.18991423 -4.99681520 0.58660138
4.09861755 -5.22797346 0.21366484
4.18840408 -5.17986965 0.21764337
4.10281563 -5.22901058 0.03386550
4.19269514 -5.18091536 0.03396009
4.22690487 -5.00138474 0.03384292
4.22257996 -5.00039005 0.21882558
4.09922647 -5.22835493 -0.14661580
4.18902540 -5.18025780 -0.15043543
4.22320557 -5.00077486 -0.15189879
3.97694397 -3.78034329 -2.04434490
4.52163982 -3.40321231 -2.32517028
4.62059021 -3.40379071 -2.12513471
4.06315470 -3.78099990 -1.86817801
3.88320494 -3.77971077 -2.21657228
4.41416407 -3.40265799 -2.52073288
5.01523209 -2.97003055 -2.86404276
5.13817406 -2.97049308 -2.64213991
5.25141525 -2.97097898 -2.41516185
4.14161777 -3.78167701 -1.68840444
4.71064043 -3.40438986 -1.92100286
4.79162502 -3.40501046 -1.71316648
4.21219444 -3.78237653 -1.50536954
5.35445690 -2.97148466 -2.18353724
5.44711399 -2.97201133 -1.94771004
4.27473783 -3.78309512 -1.31941581
4.86338472 -3.40565014 -1.50201786
4.92579269 -3.40630746 -1.28796220
4.32914114 -3.78383017 -1.13090217
5.52920532 -2.97255802 -1.70812261
5.60058689 -2.97312236 -1.46523857
4.37529373 -3.78458381 -0.94018501
4.97872400 -3.40698338 -1.07140505
5.02208900 -3.40767431 -0.85276115
4.41311646 -3.78535318 -0.74763018
5.66111565 -2.97370505 -1.21951604
5.71069050 -2.97430205 -0.97142488
4.44252205 -3.78613591 -0.55360210
5.05579376 -3.40837955 -0.63244396
5.07978821 -3.40909743 -0.41087475
4.46347094 -3.78693032 -0.35847101
5.74920893 -2.97491622 -0.72143596
5.77661276 -2.97554278 -0.47002691
4.47591019 -3.78773713 -0.16260748
5.09401894 -3.40982842 -0.18847437
5.09835863 -3.41009259 0.03377940
4.47980309 -3.78804898 0.03312280
5.79284143 -2.97618246 -0.21767436
5.79765606 -2.97639108 0.03452368
4.47510481 -3.78736234 0.22785453
5.09267998 -3.40941334 0.25490859
5.07713509 -3.40826964 0.47504839
4.46186638 -3.78618264 0.42171058
5.79081249 -2.97572351 0.28546941
5.77259827 -2.97462559 0.53530347
4.44013596 -3.78501534 0.61481363
5.05187559 -3.40713882 0.69433177
5.01697731 -3.40602398 0.91234308
4.40996647 -3.78386307 0.80679643
5.74329615 -2.97354221 0.78416586
5.70300579 -2.97247601 1.03158498
4.37141037 -3.78272724 0.99729228
4.97251558 -3.40492558 1.12866652
4.91860437 -3.40384722 1.34289181
4.32455730 -3.78161001 1.18594050
5.65182924 -2.97142649 1.27708781
5.58990717 -2.97039843 1.52020943
4.26949453 -3.78051329 1.37238014
4.85535383 -3.40279078 1.55460846
4.78291035 -3.40175867 1.76341546
4.20633507 -3.77944040 1.55625701
5.51738024 -2.96939278 1.76048398
5.43442297 -2.96841097 1.99745774
4.13519335 -3.77839279 1.73721933
4.70141220 -3.40075135 1.96891308
4.61104250 -3.39977121 2.17071366
4.05621910 -3.77737212 1.91492677
5.34120703 -2.96745682 2.23067498
5.23795080 -2.96652746 2.45969653
3.96955991 -3.77638054 2.08903790
4.51198053 -3.39882064 2.36843133
4.40448523 -3.39790106 2.56169152
3.87540412 -3.77541757 2.25922513
5.12486553 -2.96563005 2.68408298
5.00227499 -2.96476293 2.90341258
3.77393627 -3.77449131 2.42515850
4.28881502 -3.39701390 2.75012231
4.16518831 -3.39616108 2.93337035
3.66535330 -3.77359629 2.58652711
4.87050343 -2.96392822 3.11726117
4.72979498 -2.96312833 3.32522726
3.54985356 -3.77273965 2.74301982
4.03381920 -3.39534593 3.11108017
3.89488196 -3.39456773 3.28292084
3.42764211 -3.77191997 2.89434290
4.58039284 -2.96236324 3.52690959
4.42247152 -2.96163702 3.72192931
3.29892802 -3.77113962 3.04020357
3.74855137 -3.39382839 3.44855833
3.59510946 -3.39312983 3.60768366
3.16395903 -3.77040005 3.18033051
4.25620222 -2.96094942 3.90990973
4.08188868 -2.96030951 4.09049559
3.02298498 -3.76970267 3.31444907
3.43484044 -3.39247394 3.75998664
3.26805925 -3.39186072 3.90518522
2.87628126 -3.76905036 3.44231176
3.89983058 -2.95972872 4.26332760
3.71038008 -2.95921826 4.42807865
2.72412467 -3.76844120 3.56367087
3.09507585 -3.39129186 4.04299831
2.91622519 -3.39083576 4.17311621
2.56680679 -3.76789522 3.67828679
3.51388311 -2.95878816 4.58441687
3.31072187 -2.95851970 4.73198271
2.40462089 -3.76742911 3.78591871
2.73184180 -3.39055991 4.29522753
2.54227996 -3.39043665 4.40911722
2.23788071 -3.76703930 3.88637185
3.10127616 -2.95849133 4.87041712
2.88594842 -2.95866036 4.99948215
2.06690025 -3.76671576 3.97945023
2.34789872 -3.39043641 4.51457548
2.14907074 -3.39050388 4.61145067
1.89200938 -3.76644778 4.06499767
2.66514564 -2.95898008 5.11893988
2.43929362 -2.95937157 5.22863960
1.71353924 -3.76622081 4.14285517
1.94617391 -3.39058590 4.69959354
1.73959529 -3.39068198 4.77884722
1.53183031 -3.76603532 4.21288013
2.20881772 -2.95975089 5.32842588
1.97415984 -2.96011686 5.41812420
1.34722531 -3.76589227 4.27493143
1.52972329 -3.39078951 4.84905338
1.31696200 -3.39091253 4.91009140
1.16007793 -3.76579142 4.32890129
1.73576224 -2.96046972 5.49755812
1.49408150 -2.96080685 5.56659555
0.97074300 -3.76573515 4.37468195
1.10171318 -3.39104843 4.96184492
0.88438946 -3.39119625 5.00422621
0.77958322 -3.76572108 4.41219282
1.24957490 -2.96113038 5.62510252
1.00271189 -2.96143603 5.67298651
0.58696049 -3.76574945 4.44135714
0.66540247 -3.39135814 5.03714705
0.44517115 -3.39153123 5.06056070
0.39324319 -3.76582074 4.46212626
0.75395966 -2.96172690 5.71015072
0.50379330 -2.96200228 5.73654318
0.19879901 -3.76593423 4.47445393
0.22411330 -3.39171553 5.07441664
0.00265020 -3.39191222 5.07887650
0.00399792 -3.76609039 4.47837210
0.25268781 -2.96225834 5.75211239
0.00112164 -2.96249628 5.75719357
-0.19078892 -3.76628947 4.47390747
-0.21879815 -3.39211917 5.07410145
-0.43980885 -3.39233780 5.05991554
-0.38519084 -3.76653075 4.46103001
-0.25042772 -2.96271682 5.75212288
-0.50148118 -2.96291685 5.73653460
-0.57883781 -3.76681256 4.43970680
-0.65996128 -3.39256549 5.03614283
-0.87883639 -3.39280319 5.00281858
-0.77136087 -3.76713538 4.40998030
-0.75155956 -2.96309829 5.71006680
-1.00018644 -2.96326041 5.67274666
-0.96239322 -3.76749778 4.37189388
-1.09601629 -3.39305162 4.95997477
-1.31109011 -3.39330816 4.90768766
-1.15157270 -3.76789927 4.32552576
-1.24688756 -2.96340418 5.62459373
-1.49119699 -2.96352625 5.56568098
-1.33853757 -3.76834130 4.27095222
-1.52364600 -3.39357281 4.84602880
-1.73328197 -3.39384794 4.77510738
-1.52293444 -3.76882124 4.20827913
-1.73264587 -2.96362948 5.49607897
-1.97077775 -2.96371102 5.41589880
-1.70440793 -3.76933789 4.13761234
-1.93959558 -3.39412880 4.69502974
-2.14219618 -3.39441681 4.60594463
-1.88261628 -3.76989007 4.05909109
-2.20513511 -2.96377325 5.32524633
-2.43527603 -2.96381450 5.22428274
-2.05721760 -3.77047729 3.97285748
-2.34069562 -3.39471149 4.50800180
-2.53472018 -3.39506674 4.40143728
-2.22788286 -3.77111244 3.87909269
-2.66075778 -2.96383500 5.11316776
-2.88115621 -2.96391845 4.99218082
-2.39428425 -3.77180576 3.77797508
-2.72389746 -3.39553666 4.28648710
-2.90787053 -3.39614773 4.16345358
-2.55610824 -3.77256775 3.66972351
-3.09604788 -2.96414256 4.86160326
-3.30502796 -2.96455288 4.72180223
-2.71304107 -3.77340055 3.55455518
-3.08628392 -3.39692974 4.03263521
-3.25880432 -3.39781356 3.89424229
-2.86479115 -3.77428675 3.43268633
-3.50769281 -2.96519208 4.57314062
-3.70366216 -2.96597981 4.41590118
-3.01106071 -3.77520657 3.30433249
-3.42509532 -3.39873075 3.74848533
-3.58484888 -3.39967847 3.59564567
-3.15158176 -3.77616024 3.16974187
-3.89255857 -2.96683574 4.25036621
-4.07406521 -2.96774840 4.07684612
-3.28607798 -3.77714586 3.02916312
-3.73775530 -3.40065670 3.43600702
-3.88353014 -3.40166235 3.26987982
-3.41430140 -3.77816057 2.88287210
-4.24786997 -2.96870565 3.89565206
-4.41370106 -2.96969533 3.70711541
-3.53600287 -3.77920246 2.73114085
-4.02188730 -3.40269351 3.09757590
-4.15279722 -3.40374780 2.91942596
-3.65100956 -3.78026938 2.57426214
-4.57128382 -2.97071052 3.51156688
-4.72056389 -2.97174788 3.30938435
-3.75915360 -3.78136230 2.41252971
-4.27622604 -3.40482664 2.73576379
-4.39185476 -3.40592384 2.54694462
-3.86021209 -3.78247309 2.24625564
-4.86148739 -2.97280502 3.10094500
-4.99365425 -2.97388005 2.88665414
-3.95396113 -3.78360748 2.07575369
-4.49936056 -3.40703964 2.35332322
-4.59837198 -3.40817070 2.15527320
-4.04018831 -3.78475690 1.90135241
-5.11666822 -2.97497129 2.66691279
-5.23003006 -2.97607517 2.44214606
-4.11867619 -3.78592110 1.72338116
-4.68851089 -3.40931559 1.95317018
-4.76960945 -3.41047168 1.74739981
-4.18928099 -3.78709793 1.54218090
-5.33324814 -2.97719264 2.21277809
-5.42613029 -2.97831655 1.97924912
-4.25185966 -3.78828573 1.35809338
-4.84150028 -3.41163492 1.53835094
-4.90405607 -3.41280603 1.32642317
-4.30629921 -3.78948259 1.17147040
-5.50847864 -2.97944927 1.74199808
-5.58015013 -2.98058677 1.50148177
-4.35249233 -3.79068422 0.98266584
-4.95714903 -3.41398239 1.11201870
-5.00068378 -3.41516089 0.89554751
-4.39035511 -3.79188967 0.79204184
-5.64099312 -2.98172665 1.25815439
-5.69089794 -2.98286819 1.01248205
-4.41980886 -3.79309678 0.59995884
-5.03456306 -3.41633844 0.67742056
-5.05872917 -3.41751409 0.45805398
-4.44080114 -3.79430270 0.40678442
-5.72975206 -2.98400736 0.76493025
-5.75748968 -2.98514199 0.51597202
-4.45328522 -3.79550600 0.21288508
-5.07312584 -3.41868520 0.23786448
-5.07761240 -3.41937399 0.01671793
-4.45721626 -3.79620051 0.01813853
-5.77404165 -2.98627186 0.26607952
-5.77914333 -2.98694992 0.01511358
-4.45254850 -3.79588056 -0.17757721
-5.07205105 -3.41910076 -0.20551960
-5.05659533 -3.41834259 -0.42787006
-4.43933105 -3.79505110 -0.37339842
-5.77253819 -2.98673081 -0.23706549
-5.75450516 -2.98605967 -0.48936111
-4.41761446 -3.79421735 -0.56845796
-5.03139639 -3.41758013 -0.64935708
-4.99652624 -3.41681194 -0.86955982
-4.38744879 -3.79337955 -0.76238626
-5.72534084 -2.98538208 -0.74067581
-5.68512869 -2.98469615 -0.99053341
-4.34889126 -3.79254127 -0.95481330
-4.95205688 -3.41604090 -1.08805645
-4.89809704 -3.41526747 -1.30443370
-4.30202579 -3.79170251 -1.14537370
-5.63396358 -2.98400736 -1.23845470
-5.57198000 -2.98331285 -1.48397148
-4.24693871 -3.79086757 -1.33370316
-4.83475399 -3.41449571 -1.51827836
-4.76216888 -3.41372395 -1.72918427
-4.18374348 -3.79003477 -1.51944613
-5.49931002 -2.98261762 -1.72661364
-5.41612148 -2.98191977 -1.96592331
-4.11255264 -3.78920555 -1.70224333
-4.68047810 -3.41295576 -1.93674767
-4.58986044 -3.41219139 -2.14057684
-4.03351450 -3.78838420 -1.88175249
-4.68047810 -3.41295576 -1.93674767
-4.11255264 -3.78920555 -1.70224333
-5.32258320 -2.98122287 -2.20143819
-5.32258320 -2.98122287 -2.20143819
-5.21890402 -2.98052883 -2.43271613
-3.94677973 -3.78757048 -2.05762959
-4.49049330 -3.41143227 -2.34028006
-4.38268566 -3.41068149 -2.53548169
-3.85254383 -3.78676653 -2.22954059
-5.10529232 -2.97983599 -2.65931392
-4.98214817 -2.97914910 -2.88080406
-3.75100756 -3.78597331 -2.39715791
-4.26675034 -3.40993905 -2.72580719
-4.14294004 -3.40920591 -2.91089749
-3.64237809 -3.78519344 -2.56016445
-4.84987164 -2.97846794 -3.09676003
-4.70876265 -2.97779346 -3.30677462
-3.52686310 -3.78442717 -2.71824336
-4.01150799 -3.40848637 -3.09039307
-3.87257004 -3.40777850 -3.26396132
-3.40464926 -3.78367782 -2.87110233
-4.55912209 -2.97712803 -3.51044416
-4.40106773 -2.97647214 -3.70738745
-3.27593493 -3.78294349 -3.01844215
-3.72623682 -3.40708518 -3.43126369
-3.57279348 -3.40640688 -3.59199023
-3.14096546 -3.78222966 -3.15999079
-4.23471928 -2.97582817 -3.89722109
-4.06036425 -2.97520328 -4.07963228
-2.99999166 -3.78153491 -3.29546976
-3.41252446 -3.40574694 -3.74582481
-3.24574351 -3.40510297 -3.89248538
-2.85328794 -3.78086162 -3.42462993
-3.87829256 -2.97460890 -4.25431156
-3.68883967 -2.97405434 -4.42098141
-2.70113039 -3.78021026 -3.54722095
-3.07275724 -3.40447903 -4.03168392
-2.89390373 -3.40394044 -4.16336679
-2.54380822 -3.77959919 -3.66306305
-3.49234056 -2.97355318 -4.57937336
-3.28917408 -2.97318077 -4.72938585
-2.38161993 -3.77904439 -3.77198148
-2.70951653 -3.40355301 -4.28748178
-2.51995111 -3.40328741 -4.40370131
-2.21487856 -3.77854037 -3.87375021
-3.07972193 -2.97301340 -4.87092447
-2.86438894 -2.97301030 -5.00358582
-2.04389668 -3.77808261 -3.96814704
-2.32556558 -3.40311909 -4.51170778
-2.12673473 -3.40299344 -4.61113787
-1.86900496 -3.77765727 -4.05495882
-2.64358091 -2.97312617 -5.12696838
-2.41772151 -2.97328568 -5.24060297
-1.69053221 -3.77725220 -4.13397360
-1.92383277 -3.40285945 -4.70163155
-1.71724832 -3.40271568 -4.78302193
-1.50882089 -3.77686954 -4.20504618
-2.18723822 -2.97340798 -5.34401417
-1.95257223 -2.97349310 -5.43701792
-1.32421327 -3.77650666 -4.26803160
-1.50737250 -3.40256572 -4.85514307
-1.29460788 -3.40240574 -4.91787148
-1.13706505 -3.77616811 -4.32281876
-1.71416783 -2.97354054 -5.51942301
-1.47248185 -2.97355247 -5.59108782
-0.94772959 -3.77585244 -4.36929989
-1.07935715 -3.40223980 -4.97107983
-0.86203218 -3.40206647 -5.01468182
-0.75656962 -3.77556109 -4.40739250
-1.22797191 -2.97352481 -5.65187025
-0.98110622 -2.97346091 -5.70166826
-0.56394696 -3.77529383 -4.43701410
-0.64304435 -3.40188622 -5.04858017
-0.42281133 -3.40169859 -5.07272339
-0.37022868 -3.77505207 -4.45811987
-0.73235178 -2.97336006 -5.74037695
-0.48218277 -2.97322178 -5.76793528
-0.17578343 -3.77483511 -4.47065973
-0.20175225 -3.40150523 -5.08705759
0.01971199 -3.40130615 -5.09166718
0.01901760 -3.77464437 -4.47464848
-0.23107557 -2.97304749 -5.78428221
0.02049177 -2.97283578 -5.78960419
0.21380484 -3.77447987 -4.47008896
0.24115916 -3.40110135 -5.08663893
0.46216998 -3.40089202 -5.07187605
0.40820634 -3.77434206 -4.45697403
0.27204034 -2.97258902 -5.78408670
0.52309227 -2.97230625 -5.76752186
0.60185295 -3.77423000 -4.43529224
0.68232125 -3.40067816 -5.04728174
0.90119541 -3.40045905 -5.01289749
0.79437619 -3.77414680 -4.40508604
0.77316839 -2.97198844 -5.73970318
1.02179301 -2.97163630 -5.70067215
0.98540825 -3.77408957 -4.36640215
1.11837351 -3.40023637 -4.96877193
1.33344483 -3.40001035 -4.91497993
1.17458689 -3.77406001 -4.31932306
1.26849127 -2.97125030 -5.65047264
1.51279593 -2.97083235 -5.58918381
1.36155105 -3.77405715 -4.26392508
1.54599798 -3.39978194 -4.85161114
1.75562966 -3.39954948 -4.77877617
1.54594588 -3.77408361 -4.20031977
1.75424039 -2.97037983 -5.51689386
1.99236643 -2.96989846 -5.43372679
1.72741723 -3.77413511 -4.12861300
1.96193910 -3.39931631 -4.69659281
2.16453600 -3.39908075 -4.60522366
1.90562427 -3.77421498 -4.04895067
2.22671700 -2.96938491 -5.33981085
2.45685124 -2.96884227 -5.23532104
2.08022451 -3.77432156 -3.96147633
2.36303210 -3.39884353 -4.50482368
2.55705404 -3.39865732 -4.39582014
2.25088906 -3.77446747 -3.86642122
2.68232608 -2.96827054 -5.12043190
2.90271878 -2.96775150 -4.99571133
2.41728854 -3.77466726 -3.76401353
2.74622583 -3.39857721 -4.27864456
2.93019533 -3.39862823 -4.15368080
2.57910895 -3.77492666 -3.65449476
3.11760306 -2.96736217 -4.86173058
3.32657671 -2.96714711 -4.71898699
2.73604059 -3.77525115 -3.53810573
3.10860538 -3.39884114 -4.02132225
3.28112388 -3.39915013 -3.88154244
2.88778734 -3.77562499 -3.41500473
3.52923870 -2.96714926 -4.56797791
3.72520614 -2.96729231 -4.40874386
3.03405905 -3.77603126 -3.28535295
3.44741607 -3.39949036 -3.73432326
3.60716987 -3.39985824 -3.57995200
3.17457986 -3.77646947 -3.14940214
3.91410089 -2.96750140 -4.24132538
4.09560966 -2.96776414 -4.06597900
3.30907655 -3.77693725 -3.00740170
3.76007557 -3.40025687 -3.41871214
3.90584803 -3.40068388 -3.25091958
3.43729901 -3.77743769 -2.85963130
4.26942205 -2.96807170 -3.88296318
4.43526363 -2.96841264 -3.69257236
3.55899811 -3.77796412 -2.70636320
4.04420424 -3.40113831 -3.07688689
4.17511272 -3.40161943 -2.89695144
3.67400384 -3.77851987 -2.54789782
4.59286404 -2.96878052 -3.49510026
4.74215889 -2.96917343 -3.29092908
3.78214836 -3.77910233 -2.38452864
4.29854488 -3.40212655 -2.71144676
4.88308764 -2.96959066 -3.08044124
4.59910870 -2.60842967 4.22167873
4.41065836 -2.60787463 4.41675568
4.77895546 -2.60905671 4.01859665
5.03902197 -2.27916694 4.23532677
4.84919930 -2.27862787 4.44942856
4.65040350 -2.27819562 4.65505791
4.21387053 -2.60742736 4.60342932
4.00910664 -2.60712790 4.78131247
4.44286060 -2.27792716 4.85177088
4.22692728 -2.27787304 5.03915787
3.79672933 -2.60702443 4.95002031
3.57714629 -2.60709238 5.10923004
4.00296545 -2.27808118 5.21680784
3.77140522 -2.27843690 5.38444710
3.35077071 -2.60731292 5.25861979
3.11803937 -2.60765529 5.39793158
3.53268242 -2.27882433 5.54179668
3.28725624 -2.27923751 5.68858004
2.87938833 -2.60809183 5.52689981
2.63528061 -2.60856533 5.64533901
3.03558731 -2.27966714 5.82450867
2.77816439 -2.28009653 5.94935513
2.38617611 -2.60902166 5.75305843
2.13255095 -2.60945940 5.84987116
2.51547217 -2.28051567 6.06288958
2.24801350 -2.28091955 6.16491461
1.87488472 -2.60987663 5.93558693
1.61366856 -2.61027312 6.01006508
1.97629178 -2.28130960 6.25523043
1.70082688 -2.28168607 6.33368921
1.34939921 -2.61064982 6.07316160
1.08258247 -2.61100459 6.12477827
1.42214286 -2.28204584 6.40013981
1.14077222 -2.28238940 6.45447779
0.81372350 -2.61133647 6.16481352
0.54333633 -2.61164570 6.19321108
0.85724783 -2.28271532 6.49659824
0.57211196 -2.28302431 6.52644300
0.27193427 -2.61193037 6.20991707
0.00003401 -2.61219001 6.21543789
0.28590569 -2.28331423 6.54395533
-0.00082630 -2.28358507 6.54981184
-0.27184913 -2.61242509 6.21028042
-0.54319537 -2.61263466 6.19390297
-0.28754023 -2.28383589 6.54468727
-0.57368910 -2.28406668 6.52786684
-0.81348825 -2.61281729 6.16576099
-1.08221304 -2.61297512 6.12587833
-0.85872591 -2.28427625 6.49863386
-1.14210939 -2.28446651 6.45700741
-1.34885621 -2.61310601 6.07427216
-1.61291349 -2.61321068 6.01101398
-1.42329824 -2.28463459 6.40300274
-1.70175922 -2.28478169 6.33669186
-1.87387919 -2.61329007 5.93617010
-2.13126040 -2.61334229 5.84985638
-1.97696126 -2.28490710 6.25814390
-2.24838185 -2.28501225 6.16747475
-2.38456082 -2.61336684 5.75218725
-2.63330412 -2.61336517 5.64332628
-2.51549983 -2.28509545 6.06480360
-2.77781200 -2.28515530 5.95030069
-2.87701225 -2.61333704 5.52344179
-3.11522603 -2.61333609 5.39279890
-3.03481364 -2.28519559 5.82414055
-3.28602195 -2.28522539 5.68655825
-3.34748745 -2.61341882 5.25166225
-3.57335830 -2.61361170 5.10037661
-3.53095245 -2.28526044 5.53778601
-3.76914477 -2.28530908 5.37811661
-3.79240489 -2.61394429 4.93928003
-4.00421429 -2.61443591 4.76889038
-4.00013876 -2.28537679 5.20784235
-4.22354984 -2.28557801 5.02765369
-4.20837927 -2.61510825 4.58972120
-4.40466928 -2.61591506 4.40207863
-4.43899107 -2.28602719 4.83824253
-4.64634991 -2.28667450 4.64000130
-4.59285784 -2.61681437 4.20626783
-4.77279615 -2.61776853 4.00258207
-4.84550762 -2.28747034 4.43332720
-5.03628302 -2.28835654 4.21847343
-4.94433641 -2.61874652 3.79132199
-5.10698891 -2.61974454 3.57289457
-5.21849442 -2.28927517 3.99569583
-5.39126348 -2.29021621 3.76539826
-5.26026058 -2.62075806 3.34770942
-5.40377522 -2.62179017 3.11620092
-5.55371380 -2.29117441 3.52797365
-5.70552015 -2.29214406 3.28388476
-5.53715849 -2.62283421 2.87880659
-5.65998316 -2.62389088 2.63598132
-5.84635496 -2.29312468 3.03358817
-5.97591686 -2.29411530 2.77756858
-5.77182436 -2.62495494 2.38818669
-5.87247419 -2.62602854 2.13589644
-6.09389830 -2.29511333 2.51630759
-6.20007992 -2.29611707 2.25030708
-5.96172190 -2.62710619 1.87958527
-6.03940582 -2.62818742 1.61974597
-6.29424429 -2.29712272 1.98006749
-6.37621689 -2.29813147 1.70610809
-6.10536671 -2.62926984 1.35687053
-6.15948105 -2.63035226 1.09146142
-6.44582844 -2.29913926 1.42894661
-6.50295019 -2.30014610 1.14911461
-6.20163059 -2.63143086 0.82402205
-6.23173666 -2.63250470 0.55506295
-6.54745388 -2.30114722 0.86714184
-6.57926130 -2.30214357 0.58356667
-6.24972630 -2.63357115 0.28509474
-6.25521946 -2.63422394 0.01398974
-6.59829140 -2.30313110 0.29892826
-6.60404444 -2.30374861 0.01312428
-6.24782944 -2.63405681 -0.25838083
-6.22797108 -2.63347435 -0.53085554
-6.59602213 -2.30363083 -0.27394617
-6.57475281 -2.30314183 -0.56109345
-6.19606066 -2.63288474 -0.80227166
-6.15219784 -2.63228607 -1.07211280
-6.54077959 -2.30264306 -0.84712344
-6.49421167 -2.30213642 -1.13149488
-6.09648848 -2.63168049 -1.33986425
-6.02908373 -2.63106990 -1.60501790
-6.43516064 -2.30162072 -1.41366339
-6.36378622 -2.30109835 -1.69309497
-5.95013046 -2.63045573 -1.86706686
-5.85981226 -2.62983871 -2.12551546
-6.28024673 -2.30057073 -1.96925437
-6.18474245 -2.30003786 -2.24161983
-5.75831890 -2.62921953 -2.37986803
-5.64587831 -2.62859941 -2.62964511
-5.75831890 -2.62921953 -2.37986803
-6.07746983 -2.29950142 -2.50966835
-6.07746983 -2.29950142 -2.50966835
-5.95867395 -2.29896283 -2.77289486
-5.52272081 -2.62798047 -2.87436628
-5.38921452 -2.62736392 -3.11357069
-5.82859802 -2.29842257 -3.03079391
-5.68754673 -2.29788136 -3.28287983
-5.24572897 -2.62674880 -3.34679866
-5.09257936 -2.62613940 -3.57361126
-5.53582430 -2.29734063 -3.52866459
-5.37374926 -2.29680061 -3.76769066
-4.93007994 -2.62553573 -3.79356885
-4.75858021 -2.62493849 -4.00626278
-5.20164251 -2.29626513 -3.99949145
-5.02006340 -2.29573917 -4.22369051
-4.57841921 -2.62435007 -4.21127987
-4.38981152 -2.62380195 -4.40840387
-4.82957029 -2.29523158 -4.43990707
-4.63035917 -2.29480028 -4.64803696
-4.19296885 -2.62333035 -4.59741545
-3.98820043 -2.62297606 -4.77817535
-4.42262650 -2.29450083 -4.84797621
-4.20663452 -2.29438090 -5.03954506
-3.77581692 -2.62278128 -4.95053577
-3.55622578 -2.62272644 -5.11394453
-3.98264408 -2.29448795 -5.22256327
-3.75107312 -2.29470992 -5.39607620
-3.32984352 -2.62278986 -5.26784134
-3.09710312 -2.62294221 -5.41185045
-3.51233935 -2.29493022 -5.55913877
-3.26690388 -2.29514527 -5.71142960
-2.85844469 -2.62315845 -5.54559898
-2.61433005 -2.62337971 -5.66867495
-3.01522827 -2.29534388 -5.85262299
-2.75779676 -2.29551601 -5.98242950
-2.36521602 -2.62355828 -5.78067970
-2.11158204 -2.62369275 -5.88140297
-2.49509406 -2.29564762 -6.10054922
-2.22762537 -2.29573750 -6.20677090
-1.85390615 -2.62378097 -5.97064734
-1.59268475 -2.62382436 -6.04825068
-1.95589447 -2.29578543 -6.30087757
-1.68042350 -2.29579210 -6.38270855
-1.32841110 -2.62382340 -6.11406517
-1.06159079 -2.62377596 -6.16798115
-1.40173471 -2.29575658 -6.45210409
-1.12035966 -2.29567909 -6.50894356
-0.79272854 -2.62368393 -6.20988035
-0.52233863 -2.62354684 -6.23969936
-0.83683246 -2.29556084 -6.55310917
-0.55169356 -2.29540086 -6.58453131
-0.25093466 -2.62336516 -6.25737238
0.02096705 -2.62313938 -6.26318932
-0.26548481 -2.29519963 -6.60314274
0.02124809 -2.29495859 -6.60932350
0.29284874 -2.62287045 -6.25743008
0.56419373 -2.62255740 -6.23978376
0.30796081 -2.29467773 -6.60346603
0.59410751 -2.29435778 -6.58514500
0.83448386 -2.62220192 -6.20993710
1.10320508 -2.62180448 -6.16793585
0.87914091 -2.29399872 -6.55395699
1.16252136 -2.29360104 -6.50993299
1.36984420 -2.62136602 -6.11381340
1.63389659 -2.62088537 -6.04766083
1.44370568 -2.29316616 -6.45311975
1.72216165 -2.29269409 -6.38360453
1.89485657 -2.62036610 -5.96956730
2.15222979 -2.61980820 -5.87966204
1.99735701 -2.29218578 -6.30147982
2.26876926 -2.29164290 -6.20688391
2.40552258 -2.61921144 -5.77808189
2.65425730 -2.61857891 -5.66501284
2.53587818 -2.29106569 -6.09995508
2.79818082 -2.29045510 -5.98089170
2.89795804 -2.61791205 -5.54064131
3.13616467 -2.61726046 -5.40543222
3.05517554 -2.28981328 -5.84988451
3.30637598 -2.28915524 -5.70723200
3.36841679 -2.61668324 -5.25984764
3.59428048 -2.61620688 -5.10433149
3.55129695 -2.28849244 -5.55323362
3.78947878 -2.28783631 -5.38821936
3.81331968 -2.61586070 -4.93931675
4.02512550 -2.61566782 -4.76550627
4.02046251 -2.28719139 -5.21251774
4.24387169 -2.28667498 -5.02739286
4.22928619 -2.61564875 -4.58360910
4.42558575 -2.61576152 -4.39370203
4.45932388 -2.28640056 -4.83411837
4.66672564 -2.28632069 -4.63285255
4.61380529 -2.61596608 -4.19586897
4.79379654 -2.61622572 -3.99024725
4.86597681 -2.28638840 -4.42376757
5.05687666 -2.28654838 -4.20682430
4.96541119 -2.61651015 -3.77697825
5.12812042 -2.61681747 -3.55647540
5.23922396 -2.28674197 -3.98198628
5.41208696 -2.28696299 -3.74960732
5.28140020 -2.61714745 -3.32914901
5.42486286 -2.61750054 -3.09543991
5.57453632 -2.28720665 -3.51003695
5.72624588 -2.28747082 -3.26374316
5.55811977 -2.61787367 -2.85578847
5.68074703 -2.61826873 -2.61065507
5.86689329 -2.28775573 -3.01118541
5.99617767 -2.28805900 -2.75285149
5.79232311 -2.61868429 -2.36050224
5.89264679 -2.61911941 -2.10581136
6.11380243 -2.28838181 -2.48922873
6.21955919 -2.28872418 -2.22082281
5.98151970 -2.61957312 -1.84706187
6.05878639 -2.62004471 -1.58474982
6.31323624 -2.28908443 -1.94814014
6.39467382 -2.28946185 -1.67170346
6.12429810 -2.62053418 -1.31937325
6.17794323 -2.62103987 -1.05143869
6.46371078 -2.28985596 -1.39203644
6.52023077 -2.29026580 -1.10967302
6.21960974 -2.62156081 -0.78145379
6.24924040 -2.62209415 -0.50993532
6.56412268 -2.29069018 -0.82515079
6.59531450 -2.29112935 -0.53901136
6.26676416 -2.62264276 -0.23739828
6.27182817 -2.62279820 0.03499319
6.61374331 -2.29158258 -0.25179824
6.61893606 -2.29168797 0.03529418
6.26408243 -2.62215734 0.30607641
6.24392939 -2.62112594 0.57597977
6.61043167 -2.29108357 0.32107463
6.58875227 -2.29013300 0.60564476
6.21178293 -2.62010860 0.84483480
6.16775894 -2.61910892 1.11212921
6.55443430 -2.28919697 0.88910854
6.50759745 -2.28827929 1.17092800
6.11196518 -2.61812639 1.37735379
6.04456758 -2.61716580 1.64000583
6.44836473 -2.28737855 1.45056462
6.37690830 -2.28649926 1.72748923
5.96572161 -2.61622739 1.89958239
5.87561893 -2.61531305 2.15559316
6.29339790 -2.28564167 2.00117159
6.19803905 -2.28480864 2.27109361
5.77445650 -2.61442375 2.40754485
5.66246748 -2.61356378 2.65496445
6.09104156 -2.28399968 2.53673601
5.97265434 -2.28321743 2.79760051
5.53989077 -2.61273098 2.89737773
5.40704536 -2.61192989 3.13432670
5.84312963 -2.28246355 3.05318689
5.70276546 -2.28173876 3.30301166
5.26425219 -2.61115885 3.36535382
5.11178923 -2.61042404 3.59002566
5.55185318 -2.28104520 3.54659271
5.39070845 -2.28038216 3.78347373
4.94993687 -2.60972214 3.80790997
5.21964455 -2.27975464 4.01319647
7.21328497 0.57797605 3.77137017
7.39844942 1.28256440 3.87103748
7.21910286 1.28278732 4.18858147
7.03863478 0.57823044 4.08064222
7.37470102 0.57770032 3.45496655
7.56424713 1.28232002 3.54617047
7.75562000 2.02704239 3.63816929
7.58539534 2.02728105 3.97157288
7.40132999 2.02752852 4.29743290
6.85111284 0.57846230 4.38218594
7.02658224 1.28298879 4.49819040
6.82163906 1.28336024 4.79885769
6.65133619 0.57874918 4.67520761
7.20383739 2.02781463 4.61509752
6.99375820 2.02844119 4.92338753
6.43991137 0.57916695 4.95891380
6.60503387 1.28409338 5.08957434
6.37669039 1.28501713 5.36990547
6.21700716 0.57966012 5.23266745
6.77191019 2.02970862 5.22112703
6.53803635 2.03128457 5.50808287
5.98280191 0.58017552 5.49583483
6.13653946 1.28595829 5.63941574
5.88488626 1.28687847 5.89768648
5.73748779 0.58068073 5.74802828
6.29186773 2.03283358 5.78401661
6.03381062 2.03432679 6.04845810
5.48126125 0.58114392 5.98886490
5.62204027 1.28773916 6.14429855
5.34851217 1.28853846 6.37890148
5.21462202 0.58156526 6.21806097
5.76427412 2.03573537 6.30093670
5.48378420 2.03705668 6.54103374
4.93806458 0.58194327 6.43534327
5.06481123 1.28927457 6.60114288
4.77148581 1.28994691 6.81093836
4.65212679 0.58227789 6.64047337
5.19286346 2.03828740 6.76833153
4.89207411 2.03942680 6.98286486
4.35734272 0.58256859 6.83321905
4.46908617 1.29055429 7.00820303
4.15819502 1.29109561 7.19236803
4.05428219 0.58281505 7.01309919
4.58197832 2.04047227 7.18467045
4.26317406 2.04142189 7.37312651
3.74351430 0.58301556 7.17963552
3.83939815 1.29156983 7.36285973
3.51331019 1.29197490 7.51938248
3.42563677 0.58317083 7.33253288
3.93626428 2.04227352 7.54761791
3.60187626 2.04302549 7.70781517
3.10125160 0.58327979 7.47150183
3.18054271 1.29231143 7.66163111
2.84173751 1.29257774 7.78936672
2.77097940 0.58334291 7.59630346
3.26063991 2.04367709 7.85339880
2.91321445 2.04422569 7.98411274
2.43544579 0.58335990 7.70669603
2.49753499 1.29277480 7.90234184
2.14859343 1.29290020 8.00037479
2.09529352 0.58333075 7.80249739
2.56025076 2.04467177 8.09971237
2.20242810 2.04501414 8.20000648
1.75116313 0.58325577 7.88353348
1.79557228 1.29295516 8.08327961
1.43914711 1.29293931 8.15092945
1.40371442 0.58313453 7.94967222
1.84042227 2.04525089 8.28480816
1.47492599 2.04538321 8.35398674
1.05360711 0.58296722 8.00079727
1.07999468 1.29285216 8.20319653
0.71879983 1.29269469 8.24001884
0.70150977 0.58275449 8.03683662
1.10663247 2.04540968 8.40741825
0.73624486 2.04533100 8.44502926
0.34808990 0.58249694 8.05772877
0.35624936 1.29246724 8.26132679
-0.00696899 1.29217088 8.26890469
-0.00597980 0.58219647 8.06510639
0.36446750 2.04514694 8.46675682
-0.00799522 2.04485989 8.47454548
-0.36003008 0.58185422 8.06060028
-0.37016743 1.29180849 8.26454544
-0.73265147 1.29137826 8.24639130
-0.71338415 0.58147073 8.04251385
-0.38043797 2.04447174 8.47033596
-0.75214851 2.04398179 8.45211315
-1.06536543 0.58104461 8.00915051
-1.09372771 1.29088068 8.21258545
-1.45270920 1.29031610 8.16312790
-1.41530490 0.58057648 7.96051073
-1.12241483 2.04338861 8.41786575
-1.49053383 2.04269409 8.36758232
-1.76253438 0.58006698 7.89660025
-1.80891085 1.28968513 8.09802055
-2.16165709 1.28898931 8.01732922
-2.10639572 0.57951725 7.81748247
-1.85580158 2.04189897 8.30126476
-2.21752691 2.04100513 8.21897697
-2.44623184 0.57892853 7.72322702
-2.51027393 1.28823030 7.92111683
-2.85410118 1.28740776 7.80951071
-2.78139806 0.57830191 7.61396217
-2.57501650 2.04001331 8.12078285
-2.92759442 2.03892589 8.00681400
-3.11125135 0.57763773 7.48981333
-3.19247746 1.28652561 7.68265104
-3.52476573 1.28558350 7.54072571
-3.43517041 0.57693839 7.35097980
-3.27458334 2.03774571 7.87719727
-3.61532974 2.03647375 7.73213720
-3.75253153 0.57620436 7.19765854
-3.85032773 1.28458476 7.38393736
-4.16854858 1.28352988 7.21255350
-4.06273794 0.57543755 7.03010798
-3.94917750 2.03511310 7.57183409
-4.27553272 2.03366566 7.39652967
-4.36519146 0.57463831 6.84858990
-4.47881794 1.28242147 7.02683640
-4.78135824 1.28126085 6.82677221
-4.65988970 0.57380855 6.65321350
-4.59379911 2.03213453 7.20645761
-4.90429783 2.03052139 7.00155354
-4.94682503 0.57294881 6.44409704
-5.07638979 1.28004885 6.61234570
-5.36307764 1.27878845 6.38447762
-5.22563505 0.57206088 6.22189283
-5.20735455 2.02882743 6.78174305
-5.50181627 2.02705836 6.54816055
-5.49595547 0.57114595 5.98725224
-5.64058971 1.27748251 6.14408112
-5.90811586 1.27613401 5.89179039
-5.75675821 0.57020724 5.74089241
-5.78652811 2.02521753 6.30193567
-6.06084776 2.02330852 6.04362059
-6.00701427 0.56924635 5.48353338
-6.16485167 1.27474642 5.62823296
-6.41017294 1.27335918 5.35406685
-6.24602127 0.56829631 5.21599007
-6.32413387 2.02133608 5.77376938
-6.57582235 2.01932955 5.49295187
-6.47308445 0.56739074 4.93907785
-6.64345407 1.27201176 5.06995487
-6.86380959 1.27087843 4.77656174
-6.68755198 0.56658351 4.65329838
-6.81536102 2.01731873 5.20173740
-7.04166794 2.01564026 4.90083838
-6.88876820 0.56593031 4.35915089
-7.07035398 1.27013111 4.47455788
-7.26300335 1.26957846 4.16430283
-7.07654381 0.56535619 4.05697775
-7.25366640 2.01462817 4.59096718
-7.45131779 2.01398158 4.27255964
-7.25068951 0.56478363 3.74712133
-7.44167328 1.26902878 3.84615827
-7.60602951 1.26848340 3.52073789
-7.41088152 0.56421459 3.43017864
-7.63458776 2.01339912 3.94605613
-7.80315590 2.01285148 3.61208463
-7.55679464 0.56364983 3.10674644
-7.75574636 1.26794350 3.18865442
-7.89053631 1.26740968 2.85054755
-7.68815851 0.56309032 2.77744675
-7.95671225 2.01231003 3.27127457
-8.09497070 2.01177526 2.92428231
-7.80470133 0.56253755 2.44289994
-8.01012802 1.26688337 2.50705218
-8.11429596 1.26636517 2.15882874
-7.90620804 0.56199241 2.10374761
-8.21763897 2.01124787 2.57176065
-8.32449913 2.01072907 2.21438575
-7.99246120 0.56145561 1.76063180
-8.20281887 1.26585579 1.80653512
-8.27553654 1.26535714 1.45084679
-8.06330681 0.56092811 1.41420937
-8.41531658 2.01022005 1.85283458
-8.48992920 2.00972199 1.48779929
-8.11857986 0.56041133 1.06513715
-8.33228302 1.26486981 1.09243751
-8.37295055 1.26439428 0.73199254
-8.15818024 0.55990636 0.71408147
-8.54816151 2.00923514 1.11997139
-8.58991146 2.00876069 0.75005388
-8.18201256 0.55941397 0.36170921
-8.39744568 1.26393211 0.37019449
-8.40448570 1.26366103 0.00751904
-8.18890285 0.55908948 0.00838204
-8.61507607 2.00830007 0.37874848
-8.62226391 2.00808740 0.00663287
-8.17768764 0.55908787 -0.34553644
-8.39279842 1.26375973 -0.35555786
-8.36371326 1.26404929 -0.71813142
-8.14959145 0.55925435 -0.69906455
-8.61009598 2.00835657 -0.36571491
-8.58001041 2.00887370 -0.73745745
-8.10582733 0.55943465 -1.05121779
-8.31856537 1.26435292 -1.07929659
-8.25751209 1.26466930 -1.43836665
-8.04655457 0.55962878 -1.40132928
-8.53346062 2.00940418 -1.10775506
-8.47060585 2.00994611 -1.47590411
-7.97192097 0.55983531 -1.74872756
-8.18071365 1.26499820 -1.79465401
-8.08838558 1.26533854 -2.14748621
-7.88214111 0.56005430 -2.09275603
-8.39161205 2.01049972 -1.84120238
-8.29669952 2.01106262 -2.20295691
-7.77741861 0.56028539 -2.43275619
-7.98073626 1.26569033 -2.49618626
-7.85803843 1.26605213 -2.84009624
-7.65801334 0.56052804 -2.76808500
-8.18609142 2.01163459 -2.56047487
-8.06006622 2.01221418 -2.91308093
-7.52418327 0.56078184 -3.09810019
-7.72056103 1.26642334 -3.17855573
-7.56861782 1.26680374 -3.51092553
-7.37623787 0.56104642 -3.42217851
-7.72056103 1.26642334 -3.17855573
-7.52418327 0.56078184 -3.09810019
-7.91889524 2.01280022 -3.26009965
-7.91889524 2.01280022 -3.26009965
-7.76290703 2.01339197 -3.60087466
-7.21448469 0.56132042 -3.73969579
