3.58228397 -4.45194674 -3.78360677
3.58523846 -4.40389919 -3.99722767
3.45726037 -4.44786215 -3.90253735
3.45304513 -4.40140390 -4.11527824
3.32775903 -4.44880772 -4.01567745
3.31834388 -4.40009022 -4.22714424
3.19398999 -4.44711399 -4.12432575
3.18014956 -4.39907932 -4.33643675
3.05903912 -4.44641876 -4.23075533
2.93703580 -4.47927284 -4.12009764
2.92031956 -4.44707489 -4.33239222
2.80099511 -4.47945642 -4.21862221
2.77653146 -4.44674635 -4.43037796
2.66012192 -4.47902346 -4.31350899
2.62863302 -4.44741631 -4.52533102
2.51530957 -4.47789431 -4.40426016
2.47934294 -4.44739056 -4.61532021
2.36742425 -4.47729015 -4.49204302
2.32726884 -4.44498682 -4.70365477
2.21781921 -4.47622633 -4.57848692
2.17298865 -4.44224262 -4.78942871
2.06570530 -4.47432184 -4.66134501
2.01599026 -4.43922234 -4.87109232
1.91074240 -4.47203779 -4.74163055
1.85691714 -4.43781662 -4.95140362
1.75353384 -4.46975231 -4.81939459
1.69681954 -4.43692398 -5.02858973
1.59481537 -4.46808529 -4.89370441
1.53392529 -4.43524313 -5.10253239
1.43385136 -4.46606255 -4.96519184
1.36791885 -4.42928219 -5.17266703
1.27085197 -4.46230698 -5.03410482
1.17575467 -4.48582506 -4.89278555
1.10594845 -4.45836735 -5.10026026
1.01300478 -4.48472214 -4.95741749
0.92115104 -4.50722933 -4.81373453
0.84814078 -4.48136091 -5.01914835
0.75795472 -4.50683546 -4.87427044
0.68087375 -4.47639656 -5.07823944
0.59311694 -4.49866772 -4.93103695
0.51301575 -4.47029161 -5.13473082
0.42717612 -4.49032927 -4.98589993
0.34263650 -4.51575184 -4.83685875
0.26035553 -4.48482704 -5.03898954
0.17807451 -4.50615215 -4.88800573
0.09641065 -4.52613831 -4.73639107
0.01171348 -4.49991512 -4.93816710
-0.06779685 -4.52070236 -4.78547621
-0.14626977 -4.53421402 -4.63195705
-0.23354068 -4.51404476 -4.83236790
-0.31020147 -4.52968359 -4.67777252
-0.38536522 -4.54001856 -4.52231073
-0.47556445 -4.51959896 -4.72047615
-0.54911321 -4.53217936 -4.56392431
-0.62182140 -4.54443073 -4.40751648
-0.71418738 -4.52787209 -4.60435534
-0.78524101 -4.53907299 -4.44642448
-0.85424626 -4.54246092 -4.28720713
-0.94901514 -4.53111506 -4.48338938
-1.01694357 -4.53806210 -4.32348919
-1.08344078 -4.54734612 -4.16364098
-1.17998242 -4.52862072 -4.35832644
-1.24524522 -4.53653812 -4.19713926
-1.30932617 -4.54183102 -4.03586006
-1.40838897 -4.52762270 -4.22975779
-1.47116995 -4.53129959 -4.06758547
-1.53249347 -4.53559351 -3.90513754
-1.63403821 -4.52120113 -4.09790564
-1.69423211 -4.52512741 -3.93444657
-1.75257492 -4.52817392 -3.77086926
-1.85633862 -4.50955343 -3.96211433
-1.91398513 -4.51391363 -3.79797244
-1.97037137 -4.52126694 -3.63389659
-2.07662988 -4.50353956 -3.82453728
-2.13203144 -4.51103735 -3.65956807
-2.18614554 -4.51953411 -3.49470401
-2.29503059 -4.50100470 -3.68441272
-2.34794998 -4.50775433 -3.51868176
-2.39947748 -4.51442575 -3.35266232
-2.51091003 -4.49664593 -3.54191136
-2.56163621 -4.50208187 -3.37518239
-2.61047196 -4.50801802 -3.20867705
-2.72493792 -4.48976517 -3.39687562
-2.77337933 -4.49601555 -3.22952962
-2.81965423 -4.49808931 -3.06182933
-2.93648386 -4.47956133 -3.24987030
-2.98267984 -4.48516893 -3.08167076
-3.02715588 -4.49633026 -2.91379952
-3.14686108 -4.47377062 -3.10134149
-3.19077206 -4.48153114 -2.93239355
-3.23243809 -4.48308086 -2.76302552
-3.35513735 -4.46489334 -2.95062017
-3.39640903 -4.46691608 -2.78029346
-3.43580317 -4.47010708 -2.61008501
-3.56099749 -4.44997692 -2.79708815
-3.60052252 -4.45512438 -2.62626266
-3.63814425 -4.45947075 -2.45496416
-3.76591229 -4.43717337 -2.64188886
-3.80311322 -4.44215059 -2.47001290
-3.83875155 -4.44795418 -2.29821539
-3.96923757 -4.42354345 -2.48464108
-4.00478458 -4.43080473 -2.31191111
-3.87223673 -4.45186758 -2.12608933
-4.03771782 -4.43378639 -2.13907647
-3.90302944 -4.45106697 -1.95380640
-4.06866837 -4.43436337 -1.96583462
-3.93197107 -4.45096207 -1.78143120
-4.09758377 -4.43663549 -1.79256654
-3.95900822 -4.45192051 -1.60944998
-4.12418747 -4.43726587 -1.61925900
-3.98408937 -4.45319414 -1.43708789
-4.14899254 -4.43940544 -1.44597781
-4.00650454 -4.45842075 -1.26517224
-4.17159176 -4.44497395 -1.27306426
-4.19155121 -4.44430351 -1.10042644
-4.33740139 -4.42809963 -1.28061473
-4.35709810 -4.42611742 -1.10674262
-4.20938349 -4.44506598 -0.92784119
-4.37485170 -4.42693186 -0.93306744
-4.22575855 -4.44808578 -0.75561041
-4.39102983 -4.42803478 -0.76000941
-4.23984861 -4.44980574 -0.58370799
-4.40542173 -4.43240690 -0.58727968
-4.25165367 -4.45333815 -0.41164795
-4.41649151 -4.43709517 -0.41433987
-4.26045179 -4.45243263 -0.23973238
-4.42473841 -4.43760729 -0.24130815
-4.26728010 -4.45290565 -0.06775108
-4.43083096 -4.43583393 -0.06815820
-4.27078629 -4.44732428 0.10388865
-4.43465185 -4.43354988 0.10442702
-4.27233553 -4.44605064 0.27502948
-4.43555784 -4.43132973 0.27702552
-4.43341780 -4.43062162 0.44894102
-4.27049685 -4.44351625 0.44606534
-4.42896652 -4.42915058 0.62041020
-4.26642656 -4.44117880 0.61677277
-4.42230892 -4.42497492 0.79207623
-4.26025486 -4.43804026 0.78744096
-4.41389179 -4.42241430 0.96321714
-4.25200796 -4.43621492 0.95775437
-4.40385914 -4.42247963 1.13443673
-4.24196243 -4.43575573 1.12802875
-4.39062309 -4.41739798 1.30535424
-4.22939587 -4.43194771 1.29772496
-4.37424803 -4.41205359 1.47591746
-4.21367788 -4.42519760 1.46750021
-4.35649395 -4.41091108 1.64606023
-4.19638395 -4.42472553 1.63701260
-4.33694172 -4.41030693 1.81608486
-4.17680550 -4.42120600 1.80605245
-4.31493378 -4.40257311 1.98545313
-4.15528250 -4.42029953 1.97440958
-4.29121876 -4.39541578 2.15359974
-4.13200092 -4.41548061 2.14197874
-4.26534939 -4.38450384 2.32102466
-4.10726118 -4.40874434 2.30906177
-4.23839092 -4.37549591 2.48796344
-4.08097267 -4.40191555 2.47573805
-4.21018505 -4.36714363 2.65404844
-4.05331755 -4.39469337 2.64146876
-4.18092823 -4.35955477 2.81933284
-4.02361441 -4.38304615 2.80620146
-4.15035868 -4.34908867 2.98352718
-3.99292660 -4.37068939 2.97004128
-4.11838388 -4.33685017 3.14643455
-3.96150327 -4.36149740 3.13283062
-4.08538485 -4.32458544 3.30819964
-3.92868805 -4.35045385 3.29443836
-4.05108547 -4.30972099 3.46857309
-3.89500618 -4.33956814 3.45502114
-4.01601171 -4.29322767 3.62700224
-3.85984039 -4.32383728 3.61373997
-3.97990060 -4.27438402 3.78360677
-3.82345343 -4.30410099 3.77025223
-3.94398618 -4.25990057 3.93909526
-3.78722453 -4.28856611 3.92608213
-3.90790129 -4.24663830 4.09365129
-3.75070572 -4.27420092 4.08062506
-3.87091041 -4.22984314 4.24565935
-3.71329498 -4.25712967 4.23331642
-3.83314443 -4.21076345 4.39596081
-3.67525363 -4.23756456 4.38418198
-3.79501128 -4.19082975 4.54488373
-3.63704133 -4.21732807 4.53453588
-3.75641823 -4.16901827 4.69246674
-3.59859252 -4.19613409 4.68348503
-3.71714211 -4.14341259 4.83811998
-3.55986834 -4.17291880 4.83164597
-3.67730188 -4.11393213 4.98227549
-3.52095985 -4.14718151 4.97886181
-3.63727713 -4.07858324 5.12526274
-3.48178911 -4.11531162 5.12521029
-3.59843469 -4.03837538 5.26642466
-3.44361639 -4.07766342 5.26970720
-3.56152296 -3.99140382 5.40468454
-3.40808296 -4.03452730 5.41287851
-3.52847123 -3.93664622 5.54012156
-3.37549090 -3.98108292 5.55178213
-3.50077724 -3.87618899 5.67125130
-3.34686470 -3.92175484 5.68727112
-3.47735095 -3.81051922 5.79875612
-3.32211185 -3.85663700 5.81780958
-3.45632744 -3.74066091 5.92311049
-3.29971004 -3.78742170 5.94465876
-3.32211185 -3.85663700 5.81780958
-3.47735095 -3.81051922 5.79875612
-3.43831134 -3.66625905 6.04352474
-3.27968454 -3.71351790 6.06727934
-3.42345977 -3.58854699 6.15821362
-3.26242995 -3.63689709 6.18579006
-3.41241622 -3.50811815 6.26858282
-3.24950862 -3.55636287 6.30008507
-3.08488131 -3.60116625 6.32873774
-3.23997545 -3.46987891 6.40902233
-3.07428432 -3.51519513 6.44147015
-2.90636039 -3.55824041 6.47151470
-3.06591940 -3.42371011 6.55000067
-2.89656448 -3.46788311 6.58365631
-2.72506905 -3.50936556 6.61434460
-2.88813424 -3.37155199 6.68965244
-2.71441960 -3.41369057 6.72384691
-2.53882718 -3.45435834 6.75462627
-2.70457125 -3.31222391 6.82554865
-2.52819085 -3.35492754 6.86142349
-2.34919739 -3.39451838 6.89219046
-2.51705527 -3.24656725 6.95929146
-2.33732653 -3.28801036 6.99399757
-2.15491915 -3.32655025 7.02310991
-2.32435298 -3.17269039 7.08607483
-2.14126253 -3.21262288 7.11928368
-1.95612371 -3.25020504 7.14750338
-2.12666059 -3.09065962 7.20424366
-1.94111454 -3.12930465 7.23715115
-1.75341511 -3.16552114 7.26483202
-1.92576408 -3.00047278 7.31559753
-1.73727679 -3.03655815 7.34516954
-1.54709554 -3.07087016 7.37082815
-1.72145343 -2.90126634 7.41711617
-1.53111470 -2.93519783 7.44524384
-1.33947575 -2.96654129 7.46890640
-1.51522565 -2.79361534 7.50923252
-1.32340300 -2.82415843 7.53558683
-1.13016212 -2.85177326 7.55697823
-1.30691004 -2.67829537 7.59417868
-1.11313069 -2.70518875 7.61756563
-0.91792011 -2.72933722 7.63583136
-1.09527206 -2.55669975 7.67191648
-0.89893222 -2.58013892 7.69040537
-0.70067513 -2.60131979 7.70387840
-0.87935346 -2.43004775 7.73910999
-0.68000638 -2.45111060 7.75354052
-0.47867668 -2.47066259 7.76332378
-0.65921956 -2.30034947 7.79939604
-0.45679983 -2.31961274 7.80919218
-0.25244984 -2.33762884 7.81445789
-0.43510681 -2.16839266 7.85295868
-0.22986393 -2.18586993 7.85718727
-0.02292703 -2.20254660 7.85769939
-0.20754063 -2.03390145 7.89752626
0.00024983 -2.05011821 7.89739513
0.20953721 -2.06541634 7.89186716
0.02308520 -1.89737439 7.93396521
0.23301603 -1.91239703 7.92818785
0.44433880 -1.92665720 7.91749907
0.25615349 -1.75940371 7.96299887
0.46806711 -1.77338839 7.95204782
0.68099189 -1.78646743 7.93564653
0.49148032 -1.61997426 7.98480988
0.70494348 -1.63280392 7.96759510
0.91932583 -1.64481902 7.94462824
0.72847486 -1.47910130 7.99815130
0.94340873 -1.49090695 7.97480440
1.15894651 -1.50184512 7.94462824
0.96697950 -1.33702099 8.00301075
1.18304265 -1.34792006 7.97258520
1.39949977 -1.35822797 7.93604040
1.20675790 -1.19383621 7.99912310
1.42359567 -1.20397389 7.96169949
1.61628509 -1.36820734 7.89404583
1.64094591 -1.21403241 7.91962624
1.83342505 -1.37805641 7.84661579
1.85836148 -1.22373617 7.87109280
2.05044675 -1.38764203 7.79251528
2.07589531 -1.23336184 7.81686020
2.26731110 -1.39701736 7.73217630
2.29290414 -1.24268448 7.75539303
2.48363686 -1.40626228 7.66503572
2.50926900 -1.25183737 7.68699121
2.69880700 -1.41526985 7.59006882
2.72458386 -1.26079285 7.61131525
2.91292667 -1.42408109 7.50845814
2.93874288 -1.26959097 7.52883768
3.12487984 -1.43286622 7.41840219
3.15085340 -1.27829707 7.43823099
3.33437729 -1.44150710 7.32036400
3.36042976 -1.28681970 7.33971977
3.54115677 -1.44981837 7.21447325
3.56676269 -1.29488254 7.23244953
3.74331379 -1.45729017 7.09814262
3.76901174 -1.30238032 7.11585665
3.94394755 -1.46549726 6.97804308
3.96866083 -1.31008852 6.99369574
4.13932896 -1.47287786 6.84835815
4.16321468 -1.31711340 6.86247396
4.32960224 -1.47949600 6.71051836
4.35334349 -1.32357430 6.72405672
4.51698637 -1.48621941 6.56796455
4.53854799 -1.32965350 6.57832527
4.69973516 -1.49269223 6.41887093
4.72121811 -1.33593094 6.42879820
4.88047504 -1.49923229 6.26656055
4.90042162 -1.34201014 6.27442646
5.05656624 -1.50535154 6.10801268
5.07651329 -1.34806430 6.11572123
5.22979498 -1.51149678 5.94559097
5.24933434 -1.35399926 5.95264244
5.40035820 -1.51776040 5.77972937
5.41935921 -1.36011851 5.78601885
5.56698179 -1.52391863 5.60902166
5.58490610 -1.36606741 5.61411667
5.72952127 -1.53007805 5.43356085
5.74672365 -1.37208152 5.43784142
5.88877869 -1.53655088 5.25442266
5.90558672 -1.37837100 5.25821781
6.04171944 -1.54286754 5.06930971
6.05855370 -1.38462150 5.07307863
6.18943405 -1.54909194 4.87937832
6.20600557 -1.39077985 4.88296318
6.33263159 -1.55523729 4.68546772
6.35013485 -1.39692616 4.68981409
6.46892166 -1.56104088 4.48621273
6.48601866 -1.40266371 4.49033594
6.59838343 -1.56659615 4.28205967
6.61461401 -1.40802157 4.28570986
6.72285557 -1.57222950 4.07458448
6.73810101 -1.41337943 4.07776213
6.84064341 -1.57770455 3.86306477
6.85562658 -1.41872418 3.86619020
6.96675682 -1.42383158 3.65095377
6.95233870 -1.58298326 3.64793372
7.07187366 -1.42878270 3.43240905
7.05763912 -1.58803952 3.42925763
7.17041111 -1.43348336 3.21059465
7.15684652 -1.59288454 3.20752144
7.26279020 -1.43786943 2.98604822
7.24952745 -1.59741485 2.98283124
7.34747410 -1.44180870 2.75837708
7.33580065 -1.60160446 2.75551462
7.42804813 -1.44555151 2.52910376
7.41588831 -1.60537243 2.52579474
7.49971914 -1.44866323 2.29677105
7.48851776 -1.60860336 2.29347491
7.56344557 -1.45122397 2.06195617
7.55442381 -1.61130834 2.05892301
7.62312746 -1.45344305 1.82582831
7.61351538 -1.61351442 1.82230914
7.67347288 -1.45500600 1.58731043
7.66432047 -1.61510336 1.58352876
7.71580839 -1.45601678 1.34703314
7.70690536 -1.61611414 1.34289682
7.75131559 -1.45658183 1.10548198
7.74216318 -1.61666524 1.10092556
7.77935123 -1.45673919 0.86284107
7.76987028 -1.61681044 0.85786432
7.80105686 -1.45656788 0.61951727
7.79148436 -1.61666524 0.61419898
7.78124189 -1.77674961 0.60877579
7.80616522 -1.61614025 0.37007424
7.79522657 -1.77623761 0.36429638
7.78241062 -1.93619072 0.35838726
7.80032158 -1.77516067 0.11958063
7.78745317 -1.93519294 0.11344836
7.77162981 -2.09500074 0.10725033
7.78519440 -1.93370914 -0.13139874
7.77029037 -2.09364820 -0.13774115
7.75134182 -2.25315547 -0.14404424
7.76056004 -2.09161353 -0.38245696
7.74214983 -2.25118494 -0.38886505
7.72012854 -2.41032457 -0.39515498
7.72493458 -2.24857211 -0.63329190
7.70173120 -2.40737009 -0.63948995
7.67259312 -2.56519532 -0.64535964
7.67596817 -2.40395594 -0.88326025
7.64694786 -2.56161070 -0.88903803
7.61061335 -2.71762371 -0.89393604
7.61344957 -2.55811739 -1.13154769
7.57632732 -2.71423650 -1.13568401
7.52707195 -2.86704540 -1.13718104
7.53481913 -2.71095347 -1.37577760
7.48520851 -2.86385465 -1.37640798
7.42154837 -3.01117539 -1.37376857
7.43730545 -2.86061168 -1.61409855
7.37368441 -3.00781322 -1.61036909
7.29656363 -3.14799094 -1.60230649
7.31958342 -3.00416350 -1.84510505
7.24205542 -3.14439249 -1.83521712
7.14674854 -3.27262020 -1.81948578
7.18058825 -3.13996720 -2.06571174
7.08601570 -3.26877308 -2.04765606
6.97678947 -3.38489366 -2.02380967
7.01827097 -3.26359868 -2.27330518
6.91033173 -3.38033628 -2.24693751
6.79292440 -3.48677897 -2.21599984
6.83786011 -3.37521577 -2.46780682
6.72193623 -3.48255110 -2.43397999
6.59901381 -3.58044529 -2.39815807
6.64511776 -3.47802091 -2.65068674
6.52391577 -3.57600713 -2.61131907
6.39672518 -3.66754532 -2.57111073
6.44214678 -3.57185745 -2.82304907
6.31686020 -3.66280460 -2.77898002
6.18668938 -3.74957728 -2.73495078
6.22970772 -3.65814304 -2.98472214
6.10190010 -3.74529624 -2.93608332
5.97092819 -3.82962537 -2.88743186
6.01061106 -3.74169874 -3.13395977
5.88087368 -3.82562113 -3.08101439
5.74935007 -3.90779710 -3.02821302
5.78635406 -3.82274485 -3.27189136
5.65594673 -3.90429068 -3.21575499
5.52328062 -3.98347235 -3.15992045
5.55680466 -3.90007496 -3.39994836
5.42553091 -3.97961211 -3.34062099
5.29308844 -4.05622005 -3.28116202
5.32244968 -3.97538352 -3.51663327
5.19113636 -4.05320072 -3.45311713
5.05890369 -4.12691927 -3.38894439
5.08407640 -4.05024529 -3.62090945
4.95277596 -4.12425423 -3.55315185
4.81996584 -4.19320583 -3.48359513
4.84106779 -4.12186384 -3.71301270
4.70966244 -4.19121027 -3.63997626
4.57679987 -4.25408268 -3.56561351
4.59474993 -4.19001484 -3.79273295
4.46297693 -4.25259924 -3.71478558
4.33091497 -4.30891991 -3.63544583
4.19687033 -4.36122179 -3.55618501
4.34576702 -4.25220537 -3.86106873
4.21493959 -4.30792189 -3.77864313
4.08257484 -4.35954094 -3.69606018
4.22327757 -4.25027466 -4.00355673
4.09459019 -4.30607033 -3.91807175
3.96393323 -4.35782051 -3.83271813
4.09611368 -4.24885750 -4.14200068
3.96957994 -4.30488825 -4.05357409
3.84192991 -4.35621881 -3.96399212
3.96395969 -4.24603415 -4.27591419
3.83884430 -4.30252504 -4.18421793
3.71294093 -4.35405254 -4.09132671
3.71294093 -4.35405254 -4.09132671
3.70293474 -4.29660320 -4.30834866
3.57822633 -4.34982395 -4.21199083
3.57822633 -4.34982395 -4.21199083
3.56300712 -4.29117918 -4.42745018
3.44158149 -4.34647560 -4.32759905
3.44158149 -4.34647560 -4.32759905
3.42011189 -4.28867149 -4.54273033
3.30017018 -4.34493876 -4.43966198
3.30017018 -4.34493876 -4.43966198
3.27393389 -4.28776503 -4.65414953
3.15609288 -4.34451914 -4.54829741
3.15609288 -4.34451914 -4.54829741
3.03806829 -4.39964437 -4.44241953
3.00815535 -4.34529352 -4.65279675
2.89273071 -4.40142965 -4.54316282
2.85701346 -4.34630442 -4.75309372
2.74288917 -4.40190268 -4.64100504
2.70357370 -4.34564829 -4.85021353
2.59152389 -4.40137768 -4.73494673
2.54840040 -4.34447908 -4.94323587
2.43791342 -4.39896107 -4.82468605
2.39014149 -4.34402037 -5.03384209
2.28099370 -4.39771414 -4.91292906
2.23051691 -4.34377098 -5.12150717
2.12290549 -4.39692640 -4.99809837
2.06843686 -4.34451914 -5.20615196
1.96225667 -4.39579630 -5.08009100
1.90361214 -4.34537268 -5.28868246
1.79994011 -4.39454937 -5.15995598
1.73585916 -4.34295607 -5.36687946
1.63474786 -4.39158154 -5.23588133
1.56580818 -4.33815050 -5.44115019
1.46698177 -4.38659143 -5.30810356
1.39377451 -4.33137417 -5.51213837
1.29725909 -4.38002634 -5.37742376
1.20079625 -4.42328119 -5.24037218
1.12544858 -4.37208176 -5.44339561
1.03128374 -4.41723967 -5.30482054
0.93910164 -4.45345640 -5.16315985
0.86032671 -4.41028118 -5.36677456
0.76949722 -4.44754744 -5.22374773
0.68881822 -4.40190268 -5.42636442
0.60027355 -4.44086313 -5.28151274
0.51686323 -4.39206743 -5.48344660
0.42974988 -4.43165827 -5.33745241
0.34409410 -4.46396160 -5.18952751
0.25855651 -4.42093086 -5.39067316
0.17490982 -4.45529509 -5.24167252
0.09256314 -4.47734261 -5.08996534
0.00414982 -4.44406700 -5.29151917
-0.07612210 -4.47001505 -5.13933897
-0.15540914 -4.49223375 -4.98608351
-0.24613366 -4.45940542 -5.18568039
-0.32349038 -4.47823524 -5.03075647
-0.40054515 -4.49925852 -4.87575388
-0.49287167 -4.47000170 -5.07420826
-0.56768084 -4.48883247 -4.91778755
-0.64138710 -4.51144409 -4.76143217
-0.73578835 -4.47753954 -4.95806122
-0.80828655 -4.50050592 -4.80070829
-0.87953728 -4.52202845 -4.64306641
-0.97555357 -4.48736191 -4.83827686
-1.04546487 -4.51115561 -4.67963743
-1.11330152 -4.51962519 -4.51908064
-1.21203601 -4.49587059 -4.71408129
-1.27892709 -4.51001358 -4.55318213
-1.34429502 -4.52150345 -4.39162731
-1.44557714 -4.49957418 -4.58549881
-1.50968421 -4.51002645 -4.42341852
-1.57249153 -4.51614571 -4.26097059
-1.67571700 -4.49783993 -4.45406723
-1.73757875 -4.50636292 -4.29075289
-1.79748392 -4.50726843 -4.12642670
-1.90249527 -4.49060488 -4.31869602
-1.96174395 -4.49366426 -4.15409470
-2.01981068 -4.49714470 -3.98928332
-2.12718558 -4.48171568 -4.18104029
-2.18442512 -4.48678398 -4.01561117
-2.24046993 -4.49396706 -3.85003853
-2.34974885 -4.47823524 -4.04096794
-2.40503192 -4.48427629 -3.87471199
-2.45856857 -4.48980427 -3.70835114
-2.57031631 -4.47341633 -3.89866352
-2.62327480 -4.47832727 -3.73148847
-2.67485476 -4.48489332 -3.56447101
-2.78855896 -4.46755934 -3.75412703
-2.83920670 -4.47197151 -3.58633447
-2.88837051 -4.47489977 -3.41808271
-3.00438595 -4.45525599 -3.60738420
-3.05323458 -4.45771122 -3.43883038
-3.10113764 -4.46587944 -3.27010560
-3.21896529 -4.44373941 -3.45913148
-3.26621199 -4.45266914 -3.29006529
-3.31139684 -4.45662117 -3.12019825
-3.43213940 -4.43311596 -3.30906630
-3.47677302 -4.43726587 -3.13846397
-3.52000165 -4.44559097 -2.96807170
-3.64281893 -4.42010307 -3.15641451
-3.68546939 -4.42501402 -2.98507643
-3.72663593 -4.43075275 -2.81363368
-3.85267067 -4.40694475 -3.00192380
-3.89315462 -4.41144943 -2.82977200
-3.93198419 -4.41717482 -2.65722609
-4.06025076 -4.38890266 -2.84554291
-4.09872627 -4.39529753 -2.67228770
-4.13605833 -4.40154791 -2.49892807
-4.26601934 -4.36797142 -2.68700814
-4.30269527 -4.37461567 -2.51267624
-4.17171001 -4.41042519 -2.32521343
-4.33832073 -4.38525200 -2.33829212
-4.20444679 -4.41549349 -2.15149856
-4.37167406 -4.39338112 -2.16369796
-4.23495054 -4.41703033 -1.97736394
-4.40191555 -4.39433861 -1.98839426
-4.26378727 -4.41930151 -1.80311108
-4.43058157 -4.39855433 -1.81307757
-4.29015493 -4.42037868 -1.62888432
-4.45689678 -4.40173244 -1.63753784
-4.31503868 -4.42404222 -1.45426369
-4.48154402 -4.40665627 -1.46257591
-4.50367022 -4.40648603 -1.28756130
-4.64883757 -4.38129997 -1.47006059
-4.67050409 -4.38148403 -1.29377234
-4.52327538 -4.40458155 -1.11254656
-4.69004345 -4.38043308 -1.11789107
-4.54138374 -4.40728664 -0.93795234
-4.70820427 -4.38430738 -0.94254827
-4.55762720 -4.40934849 -0.76388317
-4.72413254 -4.38567305 -0.76698220
-4.57157278 -4.41479731 -0.58985341
-4.73730326 -4.38665771 -0.59112722
-4.58165789 -4.41645241 -0.41570553
-4.74775600 -4.39257956 -0.41612574
-4.58945751 -4.41721392 -0.24185967
-4.75568724 -4.39649296 -0.24142630
-4.59558964 -4.41885567 -0.06771176
-4.76097965 -4.39747763 -0.06641174
-4.59876776 -4.41755533 0.10576648
-4.76414394 -4.39726734 0.10806446
-4.59960842 -4.41604567 0.27948102
-4.76462984 -4.39498281 0.28234369
-4.59712601 -4.41130495 0.45242092
-4.76208258 -4.39099073 0.45642591
-4.75626516 -4.38550138 0.62935263
-4.59218931 -4.41084528 0.62461215
-4.74825525 -4.38165426 0.80221361
-4.58521605 -4.40796995 0.79694808
-4.73882675 -4.37930393 0.97535044
-4.57645750 -4.40498829 0.96887684
-4.72686434 -4.37523365 1.14827716
-4.56541395 -4.40350485 1.14112055
-4.71333885 -4.37587690 1.32134819
-4.55213833 -4.40244150 1.31336451
-4.69744968 -4.37342119 1.49419630
-4.53589439 -4.39771414 1.48496485
-4.67839622 -4.36679029 1.66567838
-4.51740599 -4.39248753 1.65552795
-4.65709686 -4.36076212 1.83674037
-4.49722290 -4.38990068 1.82616973
-4.63403845 -4.35329008 2.00730348
-4.47461081 -4.38128662 1.99627328
-4.60937786 -4.34346819 2.17752528
-4.45051479 -4.37272501 2.16560173
-4.58322001 -4.33383036 2.34677505
-4.42388439 -4.35956764 2.33353853
-4.55588102 -4.32509756 2.51507950
-4.39657116 -4.34889126 2.50097656
-4.52691317 -4.31555080 2.68220234
-4.36861467 -4.34353447 2.66778398
-4.49618578 -4.30344343 2.84823489
-4.33904266 -4.33501148 2.83343577
-4.46427631 -4.28907824 3.01291513
-4.30758047 -4.32184124 2.99784040
-4.43176317 -4.27647209 3.17663670
-4.27498817 -4.30727863 3.16082668
-4.39823914 -4.26271057 3.33887458
-4.24154282 -4.29310942 3.32255244
-4.36407089 -4.24875212 3.49969411
-4.20742702 -4.27878332 3.48313522
-4.32932568 -4.23395300 3.65853071
-4.17240620 -4.26351118 3.64177537
-4.29397631 -4.21882582 3.81593633
-4.13689899 -4.24770117 3.79889178
-4.25846910 -4.20406580 3.97064972
-4.10116863 -4.23258734 3.95402575
-4.22234440 -4.18819094 4.12403727
-4.06516266 -4.21814299 4.10817480
-4.18541908 -4.16995096 4.27461433
-4.02832890 -4.20103216 4.25965786
-4.14788961 -4.14930820 4.42322206
-3.99081278 -4.18195343 4.40906572
-4.10891581 -4.12470007 4.56979370
-3.95242977 -4.16026020 4.55681992
-4.06901026 -4.09644222 4.71312237
-3.91335082 -4.13590145 4.70223665
-4.02810574 -4.06440115 4.85361481
-3.87362838 -4.10819340 4.84565735
-3.98659754 -4.02898598 4.99117851
-3.83293438 -4.07604837 4.98693752
-3.94456434 -3.98888230 5.12615585
-3.79163647 -4.03756094 5.12569618
-3.90312147 -3.94344878 5.25894022
-3.75142813 -3.99338651 5.26219654
-3.86447597 -3.89281368 5.38896656
-3.71359706 -3.94410491 5.39675331
-3.83279014 -3.83824015 5.51391125
-3.68092585 -3.88936019 5.52784348
-3.80487275 -3.77761269 5.63713598
-3.65359974 -3.82869363 5.65361595
-3.77979183 -3.71224451 5.75786543
-3.63069868 -3.76289272 5.77821875
-3.76021314 -3.64262247 5.87707186
-3.61043692 -3.69206142 5.90036631
-3.63069868 -3.76289272 5.77821875
-3.77979183 -3.71224451 5.75786543
-3.74624157 -3.56695938 5.99019814
-3.59398365 -3.61718678 6.01696014
-3.73610401 -3.48763251 6.09695625
-3.58153462 -3.53884578 6.12860250
-3.73006320 -3.40586424 6.19731903
-3.57244802 -3.45789075 6.23459911
-3.72542834 -3.31825209 6.28964520
-3.56606627 -3.37109232 6.33334684
-3.40406466 -3.42173934 6.37388325
-3.56175876 -3.27826643 6.42586994
-3.39865470 -3.32877040 6.47067404
-3.23355412 -3.37776256 6.51269436
-3.39450502 -3.23057389 6.56298733
-3.22811794 -3.27979040 6.60963011
-3.05906487 -3.32712841 6.65197849
-3.22201180 -3.17538238 6.69880533
-3.05217075 -3.22350883 6.74619627
-2.87972999 -3.26906157 6.78824282
-3.04389811 -3.11264110 6.83061743
-2.87056446 -3.15903425 6.87792969
-2.69524765 -3.20421934 6.92139435
-2.86044025 -3.04250693 6.95797825
-2.68387604 -3.08733749 7.00480509
-2.50484347 -3.13049984 7.04717970
-2.67144084 -2.96453261 7.07940388
-2.49202704 -3.00795841 7.12624359
-2.31031537 -3.04989958 7.16725254
-2.47885633 -2.88018966 7.19632483
-2.29638314 -2.92182922 7.24105120
-2.11201906 -2.96207714 7.28073406
-2.28218818 -2.78836274 7.30496073
-2.09712815 -2.82777023 7.34750700
-1.91054487 -2.86589026 7.38565302
-2.08264422 -2.69006085 7.40581036
-1.89508915 -2.72640872 7.44504642
-1.70598471 -2.76112771 7.47958183
-1.88031650 -2.58402610 7.49954176
-1.69045043 -2.61724806 7.53532457
-1.49933672 -2.64890718 7.56676102
-1.67487645 -2.47215939 7.58574915
-1.48308003 -2.50241399 7.61873484
-1.28997064 -2.53071189 7.64780712
-1.46665287 -2.35517216 7.66709757
-1.27250588 -2.38219690 7.69617033
-1.07680941 -2.40719891 7.72024059
-1.25489676 -2.23320889 7.74073792
-1.05817604 -2.25731826 7.76520205
-0.85960388 -2.27958822 7.78453064
-1.03938508 -2.10702991 7.80711699
-0.83976239 -2.12876177 7.82699776
-0.63840628 -2.14918137 7.84203339
-0.82003915 -1.97779119 7.86627388
-0.61772448 -1.99778998 7.88195276
-0.41355833 -2.01648831 7.89241791
-0.59722644 -1.84618831 7.91973114
-0.39224613 -1.86445379 7.92984295
-0.18540117 -1.88147211 7.93464851
-0.37127534 -1.71247244 7.96611166
-0.16362938 -1.72900474 7.97008991
0.04555295 -1.74457836 7.96881628
-0.14226466 -1.57644427 8.00303650
0.06766611 -1.59178150 8.00234127
0.27892321 -1.60627913 7.99612951
0.08939851 -1.43885422 8.03382969
0.30128592 -1.45314157 8.02764511
0.51443392 -1.46654820 8.01582718
0.32328090 -1.29972744 8.05665207
0.53694105 -1.31297684 8.04470158
0.75152040 -1.32534659 8.02686977
0.55905426 -1.15920901 8.07163429
0.77413255 -1.17146063 8.05339527
0.99013001 -1.18293715 8.02927303
0.79619324 -1.01737726 8.07739925
1.01255834 -1.02872264 8.05258179
1.22956705 -1.03950346 8.02206421
1.03459275 -0.87444240 8.07490444
1.25199544 -0.88517118 8.04434776
1.44689083 -1.04970670 7.98487616
1.46976554 -0.89538693 8.00719929
1.66455603 -1.05955529 7.94169950
1.68771958 -0.90518296 7.96348476
1.88237870 -1.06931174 7.89308834
1.90563428 -0.91472948 7.91325712
2.09992576 -1.07876611 7.83734560
2.12350965 -0.92413181 7.85710812
2.31710505 -1.08798456 7.77501106
2.34092546 -0.93332368 7.79423571
2.53391695 -1.09720254 7.70678043
2.55792093 -0.94255465 7.72551918
2.74957299 -1.10618460 7.63097334
2.77335358 -0.95135283 7.64842415
2.96407342 -1.11507440 7.54866600
2.98759151 -0.96008539 7.56501389
3.17564559 -1.12342620 7.45615578
3.19947886 -0.96847636 7.47275352
3.38515615 -1.13181722 7.35694838
3.40877962 -0.97667038 7.37273264
3.59137082 -1.13984048 7.24910021
3.61486268 -0.98454887 7.26431990
3.79291081 -1.14706266 7.13099670
3.81568050 -0.99157429 7.14483738
3.99194264 -1.15440273 7.00747013
4.01398993 -0.99862576 7.02003717
4.18577433 -1.16111302 6.87500191
4.20713902 -1.00507307 6.88641262
4.37501001 -1.16729796 6.73520517
4.39560032 -1.01096952 6.74543428
4.55954504 -1.17310214 6.58839655
4.57976723 -1.01658928 6.59803486
4.74086237 -1.17894530 6.43703175
4.76021814 -1.02217007 6.44543600
4.91946173 -1.18486774 6.28174019
4.93813467 -1.02786899 6.28909397
5.09508085 -1.19075060 6.12228680
5.11297894 -1.03352892 6.12860250
5.26783657 -1.19662035 5.95903730
5.28528786 -1.03918839 5.96469736
5.43715239 -1.20247662 5.79146814
5.45444632 -1.04496646 5.79685211
5.60230494 -1.20838594 5.61911917
5.61832523 -1.05062592 5.62320328
5.76328230 -1.21425581 5.44199085
5.77934217 -1.05649567 5.44614029
5.92098999 -1.22024322 5.26126432
5.93666887 -1.06236541 5.26508522
6.07362843 -1.22633648 5.07586241
6.08890009 -1.06826127 5.07928991
6.22147465 -1.23242915 4.88614130
6.23589230 -1.07414412 4.88891172
6.36552525 -1.23852241 4.69305754
6.37935257 -1.08001387 4.69552660
6.50094891 -1.24407709 4.49336958
6.51471090 -1.08543694 4.49595594
6.62921572 -1.24934280 4.28873062
6.64318752 -1.09064996 4.29160643
6.75159979 -1.25451624 4.08028316
6.76429796 -1.09558761 4.08256865
6.88195515 -1.10069597 3.87140322
6.86895466 -1.25968981 3.86875081
6.99265194 -1.10558045 3.65631175
6.98021650 -1.26470602 3.65377760
7.09616613 -1.11018991 3.43749094
7.08493900 -1.26951182 3.43525863
7.19377184 -1.11458850 3.21580768
7.18232107 -1.27401614 3.21322036
7.28516579 -1.11872506 2.99139309
7.27392578 -1.27825797 2.98860884
7.36973190 -1.12245440 2.76422048
7.35870171 -1.28211808 2.76123977
7.44883490 -1.12589478 2.53498650
7.43865824 -1.28571665 2.53207135
7.51925850 -1.12882316 2.30285072
7.50934410 -1.28869712 2.29973841
7.58231544 -1.13127863 2.06846929
7.57271624 -1.29119170 2.06513381
7.63914776 -1.13328791 1.83232832
7.63065147 -1.29327953 1.82894051
7.68976879 -1.13483727 1.59462464
7.68182421 -1.29489553 1.59098721
7.73371983 -1.13594031 1.35538483
7.72463226 -1.29593241 1.35115647
7.76941013 -1.13654435 1.11458218
7.76059961 -1.29654956 1.11005187
7.79734087 -1.13667560 0.87263709
7.78862143 -1.29669380 0.86776537
7.81895494 -1.13647878 0.62996978
7.81006527 -1.29649746 0.62476981
7.83456802 -1.13592720 0.38682979
7.82617712 -1.29598558 0.38136712
7.81649923 -1.45606887 0.37576008
7.83242750 -1.29496062 0.13751812
7.82221174 -1.45500600 0.13160901
7.81196928 -1.61509037 0.12563413
7.82043934 -1.45353520 -0.11254219
7.81059074 -1.61365867 -0.11877953
7.79866695 -1.77371705 -0.12504318
7.79952049 -1.61163592 -0.36286497
7.78734779 -1.77165520 -0.36935192
7.77510977 -1.93168652 -0.37593070
7.77182674 -1.76934397 -0.61338484
7.75898409 -1.92931008 -0.62013429
7.74313450 -2.08906579 -0.62673938
7.73557091 -1.92642081 -0.86376017
7.71897316 -2.08603239 -0.87048346
7.69974852 -2.24532914 -0.87704909
7.68659115 -2.08259201 -1.11319005
7.66707802 -2.24186182 -1.11982131
7.64300823 -2.40047550 -1.12601936
7.62764454 -2.23823810 -1.36120188
7.60293102 -2.39691687 -1.36717653
7.57263756 -2.55470300 -1.37224531
7.55546141 -2.39304376 -1.60640347
7.52472067 -2.55090809 -1.61106503
7.48628569 -2.70719743 -1.61394083
7.46886015 -2.54643083 -1.84749496
7.43098974 -2.70294261 -1.85001612
7.38164186 -2.85608125 -1.84951711
7.36908817 -2.69812369 -2.08405614
7.32008219 -2.85132742 -2.08297944
7.25773430 -2.99944878 -2.07722783
7.25132656 -2.84612703 -2.31393337
7.18887377 -2.99414420 -2.30701303
7.11279106 -3.13492489 -2.29397392
7.11319780 -2.98807693 -2.53421187
7.03820467 -3.12922645 -2.51981997
6.94452572 -3.25814962 -2.49686623
6.95630455 -3.12281775 -2.74279022
6.86435843 -3.25243711 -2.71816897
6.75888777 -3.36987090 -2.68683743
6.77845383 -3.24631786 -2.93709469
6.67465019 -3.36463141 -2.90359664
6.56177330 -3.47339845 -2.86527920
6.58546209 -3.35973334 -3.11801839
6.47383261 -3.46839523 -3.07781029
6.35440302 -3.56706452 -3.03273010
6.37869596 -3.46265769 -3.28630948
6.26061916 -3.56160164 -3.23757935
6.13718462 -3.65352154 -3.18635368
6.16122770 -3.55646706 -3.43926358
6.03904057 -3.64880681 -3.38379693
5.91395140 -3.73740387 -3.32781792
5.93570995 -3.64439487 -3.57787800
5.81232786 -3.73278236 -3.51885271
5.68571520 -3.81797791 -3.45944643
5.70471621 -3.72796249 -3.70617127
5.58024454 -3.81266022 -3.64303589
5.45238495 -3.89509869 -3.57982159
5.46802425 -3.80763102 -3.82197666
5.34242249 -3.89102840 -3.75474429
5.21419525 -3.97175980 -3.68772173
5.22630215 -3.88728547 -3.92492628
5.10001802 -3.96809602 -3.85434532
4.97146177 -4.04693604 -3.78427649
4.97980070 -3.96553540 -4.01649141
4.85262346 -4.04483509 -3.94317889
4.72392321 -4.11942148 -3.86867166
4.72937250 -4.04226160 -4.09780073
4.60282564 -4.11733341 -4.02079821
4.47468996 -4.18853140 -3.94137979
4.47752619 -4.11554813 -4.16893291
4.35108471 -4.18667984 -4.08691454
4.34697485 -4.11340714 -4.31301022
4.22256851 -4.18463135 -4.22861481
4.21202421 -4.11108303 -4.45304298
4.08898306 -4.18222857 -4.36545658
4.07212257 -4.10833883 -4.58833504
3.95056581 -4.17840767 -4.49721622
3.82651401 -4.24005890 -4.40376043
3.80747342 -4.17332554 -4.62396049
3.68554902 -4.23449183 -4.52691984
3.66029716 -4.16995096 -4.74617434
3.54021120 -4.23077488 -4.64506245
3.51019287 -4.16694355 -4.86345005
3.39184022 -4.22884464 -4.75944948
3.35622787 -4.16636562 -4.97664213
3.24051428 -4.22889757 -4.86947680
3.12399983 -4.28802824 -4.76140642
3.00815535 -4.34529352 -4.65279675
3.08544660 -4.22846365 -4.97498751
2.97136116 -4.28742409 -4.86475039
2.85701346 -4.34630442 -4.75309372
2.92843485 -4.22707224 -5.07703161
2.81580734 -4.28643942 -4.96383905
2.70357370 -4.34564829 -4.85021353
2.76881027 -4.22653437 -5.17570019
2.65875649 -4.28646564 -5.06026268
2.54840040 -4.34447908 -4.94323587
2.60711098 -4.22691488 -5.27109957
2.49897408 -4.28659678 -5.15335083
2.39014149 -4.34402037 -5.03384209
2.44285083 -4.22778130 -5.36384583
2.33731437 -4.28713465 -5.24372053
2.23051691 -4.34377098 -5.12150717
2.27587271 -4.22982931 -5.45374346
2.17306733 -4.28961706 -5.33103085
2.06843686 -4.34451914 -5.20615196
2.10716105 -4.23321772 -5.54058075
2.00607610 -4.29170513 -5.41537380
1.90361214 -4.34537268 -5.28868246
1.93481219 -4.23231173 -5.62274361
1.83611703 -4.29108810 -5.49615765
1.73585916 -4.34295607 -5.36687946
1.76041484 -4.23005247 -5.70170259
1.66351867 -4.28708267 -5.57268715
1.56580818 -4.33815050 -5.44115019
1.58377194 -4.22396040 -5.77636766
1.48906863 -4.27993965 -5.64521122
1.39377451 -4.33137417 -5.51213837
1.40561891 -4.21556902 -5.84772301
1.31292486 -4.27139091 -5.71459723
1.21956086 -4.32299662 -5.57958126
1.21956086 -4.32299662 -5.57958126
1.13534963 -4.26163387 -5.78110790
1.04420495 -4.31391001 -5.64454174
1.04420495 -4.31391001 -5.64454174
0.95249563 -4.36374331 -5.50670195
0.86836314 -4.30427122 -5.70712566
0.77874166 -4.35477400 -5.56790733
0.69099796 -4.29356956 -5.76714897
0.60398966 -4.34387589 -5.62613201
0.51291072 -4.28168583 -5.82421780
0.42808220 -4.33209610 -5.68175602
0.34327996 -4.37888336 -5.53745556
0.25145248 -4.31809855 -5.73428106
0.16856740 -4.36518717 -5.58853674
0.08583990 -4.40824556 -5.44112396
-0.00709060 -4.35109711 -5.63784504
-0.08774334 -4.39502192 -5.48957872
-0.16758190 -4.43243265 -5.33902788
-0.26224577 -4.38140488 -5.53576183
-0.34025910 -4.41868448 -5.38401604
-0.41715631 -4.44842720 -5.22976208
-0.51323837 -4.40215206 -5.42650890
-0.58836275 -4.43318224 -5.27154636
-0.66263372 -4.45809221 -5.11524391
-0.76001579 -4.41703033 -5.31153059
-0.83311790 -4.44561720 -5.15486050
-0.90501201 -4.46767759 -4.99710083
-1.00393057 -4.43516493 -5.19319105
-1.07430124 -4.45488834 -5.03365850
-1.14371371 -4.47697449 -4.87427044
-1.24436533 -4.44117880 -5.06812811
-1.31230688 -4.46041632 -4.90736103
-1.37957883 -4.48216105 -4.74694872
-1.48157001 -4.44752169 -4.94003153
-1.54767334 -4.46850538 -4.77888441
-1.61243689 -4.48702002 -4.61685658
-1.71610904 -4.45134258 -4.80921698
-1.77978289 -4.46853113 -4.64634991
-1.84201229 -4.48368502 -4.48310041
-1.94723380 -4.44673300 -4.67424059
-2.00883317 -4.46401405 -4.51038790
-2.06854105 -4.47461128 -4.34586525
-2.17616582 -4.44641876 -4.53696537
-2.23554564 -4.45966768 -4.37236404
-2.29323173 -4.46910906 -4.20684338
-2.40260267 -4.44421244 -4.39781284
-2.45985532 -4.45801306 -4.23193693
-2.51580811 -4.46758556 -4.06556320
-2.62674165 -4.43982649 -4.25561333
-2.68199849 -4.45174932 -4.08889723
-2.73596811 -4.46192598 -3.92173553
-2.84887147 -4.43112040 -4.11115503
-2.90265727 -4.44465828 -3.94383574
-2.95459199 -4.45413971 -3.77596450
-3.06942558 -4.42254543 -3.96514750
-3.12124181 -4.43365383 -3.79693532
-3.17074704 -4.43835592 -3.62815785
-3.28806233 -4.41252613 -3.81764340
-3.33710790 -4.41638613 -3.64817023
-3.38524747 -4.42419958 -3.47864461
-3.50440145 -4.39511442 -3.66782784
-3.55242276 -4.40510654 -3.49793458
-3.59886813 -4.41538858 -3.32759452
-3.71947980 -4.37929106 -3.51625276
-3.76546550 -4.38856125 -3.34512496
-3.80971837 -4.39777994 -3.17370820
-3.93229914 -4.35939646 -3.36241913
-3.97655201 -4.36957312 -3.19045091
-4.01975393 -4.38223267 -3.01846957
-4.14435768 -4.34402037 -3.20758700
-4.18671894 -4.35313320 -3.03454232
-4.22758436 -4.36168194 -2.86112976
-4.35481358 -4.32518959 -3.05078578
-4.39536333 -4.33417130 -2.87658548
-4.43312931 -4.33834696 -2.70149207
-4.56375933 -4.30578184 -2.89185691
-4.60224771 -4.31562996 -2.71618605
-4.46981812 -4.34623957 -2.52620173
-4.63827991 -4.32000303 -2.53976631
-4.50507545 -4.35556269 -2.35100317
-4.67273664 -4.32564926 -2.36334682
-4.53858662 -4.36571312 -2.17538452
-4.70539427 -4.33325243 -2.18657255
-4.56882811 -4.36864138 -1.99914885
-4.73584557 -4.33879375 -2.00947022
-4.59727097 -4.37242365 -1.82241404
-4.76415682 -4.34109163 -1.83173740
-4.62380934 -4.37525988 -1.64599442
-4.79089260 -4.34471560 -1.65456915
-4.81584167 -4.35138702 -1.47730923
-4.95843506 -4.31410646 -1.66290760
-4.98288584 -4.31836128 -1.48421633
-4.83775806 -4.35268641 -1.29974711
-5.00553751 -4.32218218 -1.30580068
-4.85736322 -4.35134792 -1.12290728
-5.02502441 -4.32009411 -1.12733257
-4.87506437 -4.35462999 -0.94636947
-5.04180622 -4.31955624 -0.94894320
-4.89067745 -4.35763741 -0.76934582
-5.05730152 -4.32478285 -0.77086908
-4.90350723 -4.35952759 -0.59253222
-5.07043266 -4.32937813 -0.59307057
-4.91406441 -4.36478043 -0.41606012
-5.08118725 -4.33312130 -0.41502270
-4.92204809 -4.36953402 -0.24021821
-5.08818626 -4.33443356 -0.23815660
-4.92691994 -4.36906147 -0.06436323
-5.09296608 -4.33526134 -0.06144812
-4.92942810 -4.36865473 0.11080888
-5.09547424 -4.33573389 0.11470892
-4.92991400 -4.36953402 0.28596795
-5.09525061 -4.33522224 0.29062954
-4.92745876 -4.36692142 0.46091691
-5.09253263 -4.33663988 0.46643203
-4.92101049 -4.35871410 0.63503844
-5.08608532 -4.33130884 0.64152539
-5.07735252 -4.32760620 0.81638241
-4.91243601 -4.35476112 0.80870056
-5.06638813 -4.32392931 0.99075353
-4.90182590 -4.35079575 0.98258579
-5.05340099 -4.32113218 1.16516399
-4.88923311 -4.34668493 1.15631342
-5.03870726 -4.31970072 1.33965337
-4.87461805 -4.34365273 1.33000183
-5.02128220 -4.31481552 1.51370943
-4.85865021 -4.34274578 1.50342751
-5.00134850 -4.30855227 1.68813312
-4.83936024 -4.33643007 1.67660367
-4.97905159 -4.30100203 1.86125672
-4.81807423 -4.33212328 1.84857190
-4.95492887 -4.29355669 2.03380251
-4.79497623 -4.32827520 2.02023768
-4.92900801 -4.28465319 2.20545554
-4.76944923 -4.31799316 2.19085360
-4.90172052 -4.27376699 2.37638617
-4.74268723 -4.30593920 2.36093068
-4.87288475 -4.26313066 2.54639769
-4.71438932 -4.29480362 2.52993107
-4.84289265 -4.25271749 2.71534562
-4.68462038 -4.28274870 2.69769716
-4.81153488 -4.24106979 2.88280964
-4.65359116 -4.27099705 2.86462283
-4.77915287 -4.22925234 3.04901290
-4.62162924 -4.25864029 3.02998590
-4.74604893 -4.21673822 3.21368027
-4.58882761 -4.24632263 3.19427204
-4.71220922 -4.20335674 3.37706065
-4.55515862 -4.23306036 3.35711408
-4.67776585 -4.18858433 3.53803778
-4.52099085 -4.21895742 3.51785469
-4.64281034 -4.17366695 3.69745231
-4.48625851 -4.20442057 3.67703271
-4.60753918 -4.15773869 3.85500193
-4.45098734 -4.18938494 3.83464861
-4.57176971 -4.13959122 4.00945282
-4.41550684 -4.17337847 3.98928285
-4.53450298 -4.11795044 4.16178989
-4.37936926 -4.15601873 4.14188242
-4.49567366 -4.09251499 4.31114578
-4.34186649 -4.13498163 4.29202604
-4.45538664 -4.06310081 4.45763874
-4.30328655 -4.10992765 4.43939972
-4.41400957 -4.02994490 4.60090208
-4.26343250 -4.08216763 4.58467197
-4.37201595 -3.99366212 4.73967361
-4.22227907 -4.04945755 4.72564936
-4.32906294 -3.95492482 4.87434912
-4.18050814 -4.01354361 4.86308241
-4.28613663 -3.91511059 5.00599098
-4.13754225 -3.97472715 4.99674654
-4.24247503 -3.87109470 5.13312817
-4.09458971 -3.93304849 5.12767887
-4.20023155 -3.82457018 5.25745583
-4.05249071 -3.88723326 5.25740385
-4.16264915 -3.77604985 5.37729263
-4.01522350 -3.83762312 5.38161325
-4.12831116 -3.72159362 5.49301958
-3.98265839 -3.78253675 5.50179100
-4.09774160 -3.66414404 5.60702562
-3.95283699 -3.72302532 5.62048531
-4.07114983 -3.60110116 5.72114992
-3.92813659 -3.65882635 5.73875952
-4.05151892 -3.53159642 5.83142710
-3.90843987 -3.58932257 5.85289669
-3.92813659 -3.65882635 5.73875952
-4.07114983 -3.60110116 5.72114992
-4.04256344 -3.45636702 5.93255186
-3.89595175 -3.51401401 5.96213675
-3.88901854 -3.43361020 6.06242037
-4.03935909 -3.37673855 6.02638817
-3.88585377 -3.35109353 6.15579796
-4.03812456 -3.29407668 6.11222792
-3.88330603 -3.26375675 6.24224138
-4.03744221 -3.20685816 6.19003105
-3.88103437 -3.17133784 6.32064819
-4.03742886 -3.11665940 6.26195145
-3.72277546 -3.22591233 6.37662745
-3.72007036 -3.12746620 6.45495605
-3.87997103 -3.07444167 6.39446020
-3.55814767 -3.17951894 6.51160431
-3.55465484 -3.07537436 6.58984137
-3.71729994 -3.02404404 6.52833366
-3.38946271 -3.12578511 6.64685774
-3.38330388 -3.01507568 6.72241497
-3.54975677 -2.96533418 6.66110468
-3.21497345 -3.06464577 6.77911615
-3.20674014 -2.94901109 6.85178566
-3.37626576 -2.90058303 6.79135466
-3.03446984 -2.99611378 6.90643787
-3.02483153 -2.87510824 6.97617865
-3.19766641 -2.82878113 6.91707468
-2.84973812 -2.92096257 7.03112030
-2.83791995 -2.79408836 7.09434748
-3.01449704 -2.74972963 7.03740978
-2.65929413 -2.83756518 7.14731932
-2.64744949 -2.70673752 7.20755291
-2.82678461 -2.66433668 7.15223026
-2.46575117 -2.74791837 7.25842333
-2.45332885 -2.61315060 7.31504631
-2.63582850 -2.57304788 7.26202202
-2.26867604 -2.65209818 7.36229229
-2.25564957 -2.51312971 7.41502810
-2.44090676 -2.47592831 7.36606121
-2.06854105 -2.54903054 7.45886087
-2.05464840 -2.40677905 7.50815535
-2.24257088 -2.37236166 7.46325970
-1.86550426 -2.44026375 7.54954576
-2.04051876 -2.26345062 7.55370808
-1.85039020 -2.29529405 7.59482288
-1.65923727 -2.32602048 7.63282490
-1.83547306 -2.15004802 7.63848400
-1.64342690 -2.17934394 7.67707682
-1.44998920 -2.20723510 7.71187496
-1.62752497 -2.03214121 7.71903229
-1.43312848 -2.05873203 7.75326490
-1.23711693 -2.08369493 7.78278446
-1.41630733 -1.90978324 7.79251528
-1.21925831 -1.93378735 7.82170582
-1.02068603 -1.95668840 7.84698343
-1.20167542 -1.78403795 7.85894632
-1.00198710 -1.80598032 7.88384342
-0.80042082 -1.82655716 7.90369797
-0.98357683 -1.65540349 7.91969204
-0.78114408 -1.67542827 7.93973017
-0.57709605 -1.69453442 7.95543575
-0.76216924 -1.52433944 7.97454214
-0.55722839 -1.54276228 7.98939323
-0.35063288 -1.56022739 7.99934673
-0.53763634 -1.39096415 8.02176189
-0.33022678 -1.40798247 8.03175545
-0.12112322 -1.42388475 8.03570747
-0.31010953 -1.25552714 8.06210136
-0.10032316 -1.27096951 8.06488514
0.11082885 -1.28576875 8.06362438
-0.07987769 -1.11812103 8.09295940
0.13183905 -1.13243437 8.09024143
0.34486887 -1.14612997 8.08334827
0.15248151 -0.97911239 8.11588669
0.36598405 -0.99255913 8.10849476
0.58057648 -1.00530958 8.09559917
0.38671845 -0.83890909 8.13214397
0.60175741 -0.85125279 8.11801529
0.81778109 -0.86317569 8.09944630
0.62246555 -0.69743192 8.13998318
0.83888322 -0.70918453 8.12125778
1.05608881 -0.72034609 8.09641457
0.85951257 -0.55515379 8.14176941
1.07713842 -0.56621063 8.11675453
1.27379334 -0.73087746 8.06479263
1.29522359 -0.57664984 8.08504200
1.49197066 -0.74102807 8.02761841
1.51357174 -0.58661669 8.04652786
1.71026623 -0.75085014 7.98393011
1.73219550 -0.59646529 8.00290489
1.92844355 -0.76029199 7.93308592
1.95055664 -0.60589361 7.95161390
2.14639759 -0.76961517 7.87595177
2.16877341 -0.61515111 7.89409924
2.36395788 -0.77876747 7.81242180
2.38647795 -0.62425089 7.83009624
2.58105826 -0.78785467 7.74308825
2.60349989 -0.63316727 7.75984430
2.79651713 -0.79650813 7.66531134
2.81891942 -0.64165038 7.68126583
3.01075530 -0.80514848 7.58141518
3.03303909 -0.65014601 7.59651709
3.22216988 -0.81334257 7.48781490
3.24433565 -0.65822184 7.50237799
3.43145728 -0.82144445 7.38753080
3.45339990 -0.66619247 7.40138531
3.63688421 -0.82908702 7.27760839
3.65817022 -0.67358559 7.29014874
3.83792496 -0.83612543 7.15838909
3.85935521 -0.68055838 7.17113972
4.03534174 -0.84280926 7.03205252
4.05568218 -0.68690056 7.04305601
4.22728252 -0.84884983 6.89662886
4.24717665 -0.69274431 6.90691090
4.41527081 -0.85454881 6.75490236
4.43360233 -0.69808865 6.76305676
4.59838724 -0.85990620 6.60603189
4.61629820 -0.70331472 6.61356926
4.77833939 -0.86534268 6.45265818
4.79681540 -0.70876426 6.46065474
4.95549440 -0.87084478 6.29530525
4.97264433 -0.71396434 6.30171299
5.13014126 -0.87638599 6.13447237
5.14692307 -0.71932220 6.14034224
5.30245113 -0.88196677 5.97047520
5.31879902 -0.72471911 5.97578001
5.47037458 -0.88739020 5.80125141
5.48579073 -0.72999781 5.80551910
5.63425350 -0.89301056 5.62753677
5.64967012 -0.73549992 5.63169956
5.79494238 -0.89880121 5.45017195
5.81006956 -0.74118590 5.45412397
5.95169115 -0.90456581 5.26870966
5.96659470 -0.74681926 5.27251768
6.10341024 -0.91027778 5.08249426
6.11756611 -0.75232089 5.08576345
6.25017929 -0.91597730 4.89202404
6.26420355 -0.75788862 4.89528036
6.39254951 -0.92155808 4.69791651
6.40586472 -0.76333815 4.70075274
6.52803850 -0.92692840 4.49858236
6.53997517 -0.76840693 4.50060463
6.65563583 -0.93193161 4.29385138
6.66788769 -0.77329195 4.29622841
6.78895855 -0.77803212 4.08751869
6.77673340 -0.93677706 4.08499765
6.90567017 -0.78281194 3.87616992
6.89417982 -0.94174069 3.87389827
7.01626253 -0.78747350 3.66140652
7.00428629 -0.94644183 3.65867543
7.11917257 -0.79183352 3.44275641
7.10751152 -0.95094562 3.43994641
7.21567440 -0.79594356 3.22109938
7.20465803 -0.95521343 3.21834183
7.30562449 -0.79979116 2.99663210
7.29555321 -0.95921880 2.99399281
7.39040041 -0.80338877 2.77009034
7.38068342 -0.96292162 2.76729321
7.46761274 -0.80654055 2.54072523
7.45819759 -0.96619111 2.53778362
7.53934908 -0.80941635 2.30952144
7.52909374 -0.96906692 2.30608106
7.60127687 -0.81170106 2.07537651
7.59201908 -0.97144377 2.07193613
7.65768909 -0.81361806 1.83970809
7.64839220 -0.97340035 1.83599198
7.70722055 -0.81504971 1.60238540
7.69855404 -0.97491068 1.59848523
7.75034380 -0.81610012 1.36361814
7.74226809 -0.97598714 1.35953414
7.78574610 -0.81667769 1.12344575
7.77742052 -0.97653866 1.11900735
7.81443834 -0.81682247 0.88226229
7.80594206 -0.97672248 0.87746936
7.83627510 -0.81659907 0.64025164
7.82752991 -0.97649956 0.63513035
7.85182285 -0.81604755 0.39768940
7.84302473 -0.97592151 0.39227933
7.85851955 -0.81499714 0.15469383
7.84981346 -0.97489762 0.14902115
7.84152794 -1.13490283 0.14329587
7.84806728 -0.97342694 -0.09432895
7.83908558 -1.13340604 -0.10031684
7.83007717 -1.29345083 -0.10635732
7.83052349 -1.13156772 -0.34375891
7.82092524 -1.29155946 -0.35004878
7.81107664 -1.45163071 -0.35647005
7.80504894 -1.28928828 -0.59334636
7.79585695 -1.44941163 -0.60006964
7.78378916 -1.60933876 -0.60667467
7.77341557 -1.44666767 -0.84309143
7.76191235 -1.60664678 -0.85001171
7.74972677 -1.76662600 -0.85693187
7.73160553 -1.60341585 -1.09235060
7.71899891 -1.76335597 -1.09946787
7.70356989 -1.92303360 -1.10634875
7.67982864 -1.75961304 -1.34054625
7.66525269 -1.91940892 -1.34774220
7.64807653 -2.07899427 -1.35466242
7.62017298 -1.91550875 -1.58759940
7.60210419 -2.07508111 -1.59441459
7.58114672 -2.23431182 -1.60079646
7.54880428 -2.07072115 -1.83210516
7.52637529 -2.22988677 -1.83809292
7.50059843 -2.38863158 -1.84345043
7.46629953 -2.22515917 -2.07362986
7.43901300 -2.38375974 -2.07831788
7.40716934 -2.54162502 -2.08195519
7.37175417 -2.37859917 -2.31114984
7.33960867 -2.53645039 -2.31439328
7.30037165 -2.69267488 -2.31570601
7.26608610 -2.53075194 -2.54461193
7.22638988 -2.68689609 -2.54526854
7.17653036 -2.84040236 -2.54257655
7.14586878 -2.68079090 -2.77208638
7.09478807 -2.83394146 -2.76818609
7.03204584 -2.98180032 -2.75909948
7.00751686 -2.82694268 -2.99134016
6.94548416 -2.97544479 -2.98120284
6.86891556 -3.11598921 -2.96301579
6.85193682 -2.96836662 -3.20007634
6.77694321 -3.10945010 -3.18110132
6.68701982 -3.24027777 -3.15322351
6.67764425 -3.10162377 -3.39572001
6.58945417 -3.23312163 -3.36687040
6.48945856 -3.35343075 -3.32995844
6.48734474 -3.22616172 -3.57743168
6.38829517 -3.34733748 -3.53755164
6.27867460 -3.45783782 -3.49109292
6.27994823 -3.33964252 -3.74068069
6.17169333 -3.44985414 -3.69139838
6.05605888 -3.55032182 -3.63660145
