4.21215200 7.45873260 -2.19271183
4.25967407 7.37871885 -2.45932889
4.11249924 7.45873213 -2.37435770
4.14834499 7.37871933 -2.64279032
4.00501585 7.45873356 -2.55147982
4.02912045 7.37871885 -2.82122302
3.88991165 7.45873213 -2.72374845
3.90222502 7.37871885 -2.99428535
3.76739955 7.45873260 -2.89083052
3.76790309 7.37871885 -3.16164875
3.63771963 7.45873213 -3.05241251
3.62640643 7.37871790 -3.32299447
3.50111175 7.45873117 -3.20818353
3.47800899 7.37871933 -3.47801137
3.35784245 7.45873213 -3.35784554
3.32299113 7.37871933 -3.62640882
3.20817995 7.45873213 -3.50111413
3.16164780 7.37871790 -3.76790547
3.05240917 7.45873213 -3.63772035
2.99428391 7.37871885 -3.90222669
2.89082980 7.45873213 -3.76740313
2.82122278 7.37871790 -4.02912474
2.72374701 7.45873213 -3.88991499
2.64278769 7.37871885 -4.14835072
2.55147696 7.45873213 -4.00502157
2.45932436 7.37871885 -4.25967693
2.37435269 7.45873213 -4.11250305
2.27117872 7.37871790 -4.36289978
2.19270754 7.45873213 -4.21215820
2.07871175 7.37871790 -4.45781088
2.00689030 7.45873213 -4.30379009
1.88228655 7.37871790 -4.54424191
1.81725204 7.45873213 -4.38723469
1.68227768 7.37871933 -4.62202024
1.62415504 7.45873117 -4.46232986
1.47906828 7.37871933 -4.69099951
1.42796576 7.45873213 -4.52892303
1.27304173 7.37871933 -4.75105095
1.22905815 7.45873117 -4.58690166
1.06459236 7.37871885 -4.80205584
1.02781081 7.45873070 -4.63614464
0.85411626 7.37871933 -4.84391975
0.82460642 7.45873213 -4.67656231
0.64201462 7.37871885 -4.87657261
0.61983311 7.45873070 -4.70808697
0.42869121 7.37871885 -4.89993095
0.41387993 7.45873117 -4.73063612
0.21455123 7.37871885 -4.91397047
0.20713857 7.45873117 -4.74418974
0.00000310 7.37871885 -4.91864872
0.00000326 7.45873117 -4.74870729
-0.21454516 7.37871885 -4.91396236
-0.20713222 7.45873213 -4.74418259
-0.42868504 7.37871790 -4.89993668
-0.41387340 7.45873070 -4.73064184
-0.64200890 7.37871885 -4.87656736
-0.61982679 7.45873213 -4.70807934
-0.85411072 7.37871742 -4.84392977
-0.82460004 7.45873213 -4.67656708
-1.06458592 7.37871790 -4.80205822
-1.02780330 7.45873213 -4.63614511
-1.27303469 7.37871885 -4.75105095
-1.22905028 7.45873117 -4.58690023
-1.47906113 7.37871885 -4.69100094
-1.42795825 7.45873117 -4.52892590
-1.68227232 7.37871933 -4.62201929
-1.62414861 7.45873213 -4.46232748
-1.88228035 7.37871885 -4.54424095
-1.81724620 7.45873117 -4.38723564
-2.07870626 7.37871885 -4.45781183
-2.00688505 7.45873117 -4.30379248
-2.27117515 7.37871885 -4.36289787
-2.19270372 7.45873213 -4.21215677
-2.45931959 7.37871790 -4.25967789
-2.37434769 7.45873213 -4.11250305
-2.64278388 7.37871790 -4.14834738
-2.55147290 7.45873117 -4.00502014
-2.82121611 7.37871790 -4.02912521
-2.72374105 7.45873070 -3.88991737
-2.99427676 7.37871885 -3.90222979
-2.89082217 7.45873213 -3.76740551
-3.16164017 7.37871790 -3.76790667
-3.05240297 7.45873117 -3.63772345
-3.32298493 7.37871790 -3.62641263
-3.20817375 7.45873070 -3.50111866
-3.47800255 7.37871885 -3.47801304
-3.35783386 7.45873213 -3.35784578
-3.62640214 7.37871885 -3.32299590
-3.50110674 7.45873213 -3.20818400
-3.76789713 7.37871790 -3.16165113
-3.63771152 7.45873260 -3.05241251
-3.90221834 7.37871790 -2.99428797
-3.76739359 7.45873117 -2.89083362
-4.02911425 7.37871885 -2.82122588
-3.88990307 7.45873260 -2.72374988
-4.14834118 7.37871742 -2.64279318
-4.00501108 7.45873117 -2.55148244
-4.25966740 7.37871790 -2.45932913
-4.11248970 7.45873260 -2.37435627
-4.36288643 7.37871885 -2.27118373
-4.21214533 7.45873213 -2.19271302
-4.45780373 7.37871933 -2.07871509
-4.30378151 7.45873260 -2.00689411
-4.54423141 7.37871790 -1.88229048
-4.38722324 7.45873117 -1.81725645
-4.62200975 7.37871790 -1.68228364
-4.46231556 7.45873117 -1.62416017
-4.69099426 7.37871790 -1.47907341
-4.52891397 7.45873260 -1.42797005
-4.75104284 7.37871790 -1.27304709
-4.58688736 7.45873260 -1.22906256
-4.80205631 7.37871742 -1.06459761
-4.63613844 7.45873213 -1.02781498
-4.84391594 7.37871885 -0.85412139
-4.67655420 7.45873213 -0.82461172
-4.87656212 7.37871790 -0.64201999
-4.70807362 7.45873117 -0.61983848
-4.89992809 7.37871742 -0.42869598
-4.73062706 7.45873260 -0.41388455
-4.91396379 7.37871885 -0.21455632
-4.74418068 7.45873260 -0.20714384
-4.91864729 7.37871790 -0.00000804
-4.74870205 7.45873213 -0.00000848
-4.91396379 7.37871742 0.21454024
-4.74418020 7.45873213 0.20712692
-4.89992571 7.37871790 0.42868027
-4.73062849 7.45873213 0.41386825
-4.87656498 7.37871742 0.64200401
-4.70807171 7.45873260 0.61982095
-4.84392118 7.37871742 0.85410583
-4.67655706 7.45873213 0.82459462
-4.80205393 7.37871790 1.06458116
-4.63613844 7.45873117 1.02779830
-4.75104475 7.37871790 1.27303028
-4.58689117 7.45873213 1.22904503
-4.69099569 7.37871790 1.47905719
-4.52891588 7.45873213 1.42795348
-4.62201214 7.37871790 1.68226719
-4.46231651 7.45873213 1.62414241
-4.54423571 7.37871742 1.88227630
-4.38722706 7.45873117 1.81724060
-4.45780563 7.37871790 2.07870126
-4.30378294 7.45873213 2.00687933
-4.36288881 7.37871790 2.27117014
-4.21214676 7.45873213 2.19269824
-4.25967026 7.37871885 2.45931482
-4.11249399 7.45873213 2.37434292
-4.14834118 7.37871790 2.64277911
-4.00501108 7.45873213 2.55146694
-4.02911711 7.37871790 2.82121205
-3.88990569 7.45873213 2.72373486
-3.90222311 7.37871742 2.99427414
-3.76739454 7.45873356 2.89081597
-3.76790023 7.37871695 3.16163707
-3.63771343 7.45873260 3.05239654
-3.62640381 7.37871885 3.32297945
-3.50110745 7.45873213 3.20816660
-3.47800756 7.37871742 3.47799945
-3.35783696 7.45873260 3.35782838
-3.32298875 7.37871742 3.62640023
-3.20817471 7.45873213 3.50110221
-3.16164255 7.37871790 3.76789427
-3.05240297 7.45873260 3.63770700
-2.99427962 7.37871885 3.90221620
-2.89082336 7.45873213 3.76738954
-2.82121611 7.37871885 4.02911377
-2.72373867 7.45873356 3.88990092
-2.64278245 7.37871742 4.14834023
-2.55147004 7.45873260 4.00500774
-2.45931888 7.37871742 4.25966740
-2.37434459 7.45873356 4.11248684
-2.27117300 7.37871885 4.36288643
-2.19270134 7.45873260 4.21214294
-2.07870245 7.37871933 4.45779991
-2.00688076 7.45873260 4.30377722
-1.88227558 7.37871885 4.54422998
-1.81724048 7.45873260 4.38722038
-1.68226683 7.37871790 4.62201071
-1.62414157 7.45873260 4.46231222
-1.47905469 7.37871790 4.69099045
-1.42795098 7.45873260 4.52890921
-1.27302694 7.37871885 4.75104332
-1.22904146 7.45873356 4.58688593
-1.06457686 7.37871790 4.80205059
-1.02779388 7.45873260 4.63613224
-0.85409975 7.37871790 4.84391403
-0.82458925 7.45873213 4.67654991
-0.64199668 7.37871742 4.87656450
-0.61981452 7.45873260 4.70807123
-0.42867169 7.37871790 4.89992094
-0.41386002 7.45873356 4.73061800
-0.21453083 7.37871885 4.91396046
-0.20711829 7.45873260 4.74417639
0.00001862 7.37871790 4.91864014
0.00001825 7.45873260 4.74869347
0.21456800 7.37871742 4.91395426
0.20715457 7.45873260 4.74416828
0.42870909 7.37871742 4.89992094
0.41389686 7.45873260 4.73062038
0.64203387 7.37871790 4.87655497
0.61985070 7.45873356 4.70806026
0.85413653 7.37871790 4.84391165
0.82462513 7.45873260 4.67654610
1.06461370 7.37871790 4.80204201
1.02783000 7.45873260 4.63612318
1.27306402 7.37871790 4.75103235
1.22907805 7.45873260 4.58687639
1.47909069 7.37871790 4.69098282
1.42798674 7.45873213 4.52890301
1.68230188 7.37871790 4.62199831
1.62417591 7.45873356 4.46229935
1.88231039 7.37871885 4.54421711
1.81727433 7.45873260 4.38720846
2.07873654 7.37871790 4.45779037
2.00691342 7.45873260 4.30376625
2.27120376 7.37871885 4.36286974
2.19273138 7.45873260 4.21212721
2.45934987 7.37871885 4.25964832
2.37437677 7.45873260 4.11247253
2.64281464 7.37871885 4.14831829
2.55150318 7.45873260 4.00498819
2.82124782 7.37871790 4.02909470
2.72376966 7.45873260 3.88988304
2.99431086 7.37871742 3.90219712
2.89085293 7.45873260 3.76736927
3.16167331 7.37871790 3.76787305
3.05243349 7.45873260 3.63768673
3.32301688 7.37871885 3.62637544
3.20820332 7.45873260 3.50107980
3.47803545 7.37871885 3.47797418
3.35786629 7.45873260 3.35780525
3.62643361 7.37871885 3.32295394
3.50113535 7.45873356 3.20814061
3.76792717 7.37871933 3.16160679
3.63774323 7.45873213 3.05237055
3.90224957 7.37871885 2.99424410
3.76742411 7.45873213 2.89078975
4.02914524 7.37871885 2.82117915
3.88993263 7.45873260 2.72370315
4.14836740 7.37871885 2.64274311
4.00503683 7.45873260 2.55143261
4.25969553 7.37871933 2.45927787
4.11251783 7.45873356 2.37430644
4.36291456 7.37871885 2.27113271
4.21217299 7.45873213 2.19266224
4.45782804 7.37871885 2.07866168
4.30380535 7.45873213 2.00684094
4.54425573 7.37871885 1.88223433
4.38724756 7.45873260 1.81720030
4.62203503 7.37871790 1.68222463
4.46233797 7.45873213 1.62410069
4.69101048 7.37871885 1.47901130
4.52893114 7.45873213 1.42790914
4.75106049 7.37871885 1.27298439
4.58690739 7.45873213 1.22900069
4.80206490 7.37871933 1.06453264
4.63615036 7.45873213 1.02775156
4.84392691 7.37872028 0.85405457
4.67656851 7.45873117 0.82454610
4.87657452 7.37871885 0.64195246
4.70808458 7.45873213 0.61977172
4.89993525 7.37871885 0.42862761
4.73063707 7.45873260 0.41381735
4.91396618 7.37871933 0.21448611
4.74418640 7.45873213 0.20707485
4.54993010 7.53756094 -0.00000717
4.54560375 7.53755999 -0.19847238
4.34397840 7.60755920 -0.18966976
4.34811497 7.60755920 -0.00000767
4.53261709 7.53755999 -0.39655945
4.33156967 7.60755825 -0.37897062
4.51100969 7.53756094 -0.59389198
4.31092119 7.60755920 -0.56755030
4.48080778 7.53756094 -0.79009420
4.28205824 7.60755920 -0.75504988
4.44207954 7.53755999 -0.98479283
4.24504757 7.60755920 -0.94111222
4.39489841 7.53755999 -1.17761576
4.19995975 7.60755920 -1.12538230
4.33934593 7.53755999 -1.36819804
4.14686918 7.60755968 -1.30751097
4.27553988 7.53756094 -1.55617440
4.08589602 7.60755920 -1.48715019
4.20359278 7.53755999 -1.74118972
4.01713848 7.60755920 -1.66395795
4.12364054 7.53755999 -1.92289078
3.94073319 7.60755920 -1.83760011
4.03584099 7.53756094 -2.10093093
3.85682893 7.60755920 -2.00774384
3.94035912 7.53755999 -2.27497315
3.76558113 7.60755920 -2.17406583
3.83737540 7.53756094 -2.44468141
3.66716719 7.60755968 -2.33624744
3.72708917 7.53755999 -2.60973930
3.56177020 7.60755920 -2.49398232
3.60970521 7.53756094 -2.76982737
3.44959426 7.60755920 -2.64697099
3.48545313 7.53755999 -2.92464590
3.33085275 7.60755920 -2.79492092
3.35456419 7.53755951 -3.07389665
3.20576882 7.60755825 -2.93755150
3.21729064 7.53755999 -3.21729398
3.07458520 7.60755920 -3.07458854
3.07389259 7.53756094 -3.35456610
2.93754816 7.60755920 -3.20577288
2.92464209 7.53756094 -3.48545456
2.79491806 7.60755920 -3.33085513
2.76982641 7.53755999 -3.60970902
2.64696908 7.60755920 -3.44959831
2.60973716 7.53756094 -3.72709274
2.49398017 7.60755920 -3.56177497
2.44467831 7.53756094 -3.83738112
2.33624291 7.60755968 -3.66717148
2.27496815 7.53755999 -3.94036341
2.17406034 7.60755920 -3.76558638
2.10092592 7.53755999 -4.03584719
2.00773787 7.60755920 -3.85683513
1.92288685 7.53755999 -4.12364388
1.83759582 7.60755920 -3.94073749
1.74118626 7.53755999 -4.20359564
1.66395473 7.60755920 -4.01714230
1.55617177 7.53755951 -4.27554750
1.48714614 7.60755920 -4.08590078
1.36819458 7.53755999 -4.33935356
1.30750740 7.60755968 -4.14687777
1.17761266 7.53755999 -4.39490557
1.12537897 7.60755920 -4.19996595
0.98478913 7.53755903 -4.44208717
0.94110769 7.60755825 -4.24505234
0.79009056 7.53756094 -4.48081255
0.75504571 7.60755968 -4.28206253
0.59388858 7.53755951 -4.51101780
0.56754619 7.60755920 -4.31092644
0.39655617 7.53755999 -4.53262377
0.37896687 7.60755920 -4.33157587
0.19846855 7.53755951 -4.54560995
0.18966560 7.60755920 -4.34398508
0.00000345 7.53755999 -4.54993773
0.00000363 7.60755920 -4.34812164
-0.19846179 7.53755999 -4.54560232
-0.18965849 7.60755920 -4.34397936
-0.39654928 7.53755951 -4.53262901
-0.37895948 7.60755920 -4.33157825
-0.59388191 7.53755999 -4.51101112
-0.56753933 7.60755920 -4.31092119
-0.79008383 7.53755999 -4.48081779
-0.75503862 7.60755920 -4.28206730
-0.98478156 7.53755999 -4.44208765
-0.94110018 7.60755920 -4.24505472
-1.17760468 7.53755951 -4.39490414
-1.12537026 7.60755920 -4.19996357
-1.36818695 7.53755951 -4.33935595
-1.30749905 7.60755920 -4.14687920
-1.55616486 7.53755999 -4.27554512
-1.48713911 7.60755968 -4.08589888
-1.74118018 7.53755951 -4.20359707
-1.66394758 7.60755920 -4.01714230
-1.92288125 7.53755999 -4.12364674
-1.83758938 7.60755920 -3.94073844
-2.10092187 7.53755999 -4.03584623
-2.00773287 7.60755920 -3.85683370
-2.27496243 7.53755999 -3.94036388
-2.17405391 7.60755920 -3.76558638
-2.44467378 7.53755951 -3.83738017
-2.33623719 7.60755920 -3.66716862
-2.60973120 7.53755951 -3.72709513
-2.49397254 7.60755920 -3.56177568
-2.76981878 7.53755999 -3.60971141
-2.64696026 7.60755920 -3.44959974
-2.92463613 7.53755951 -3.48545718
-2.79491019 7.60755920 -3.33085680
-3.07388687 7.53755951 -3.35457039
-2.93754005 7.60755920 -3.20577502
-3.21728253 7.53755999 -3.21729445
-3.07457662 7.60755920 -3.07458854
-3.35455775 7.53755999 -3.07389736
-3.20576262 7.60755920 -2.93755221
-3.48544455 7.53756094 -2.92464590
-3.33084536 7.60755920 -2.79492211
-3.60969830 7.53755951 -2.76983094
-3.44958568 7.60755825 -2.64697289
-3.72708035 7.53756094 -2.60974050
-3.56176305 7.60755920 -2.49398494
-3.83737063 7.53755951 -2.44468355
-3.66715956 7.60755920 -2.33624744
-3.94035053 7.53756094 -2.27497172
-3.76557326 7.60755920 -2.17406511
-4.03583384 7.53755999 -2.10093188
-3.85681987 7.60755920 -2.00774360
-4.12363529 7.53756094 -1.92289102
-3.94072795 7.60755968 -1.83760059
-4.20358419 7.53755951 -1.74119103
-4.01712894 7.60755825 -1.66395950
-4.27553320 7.53755999 -1.55617750
-4.08588648 7.60755968 -1.48715246
-4.33934355 7.53756094 -1.36819935
-4.14686918 7.60755968 -1.30751276
-4.39489079 7.53756094 -1.17761767
-4.19995165 7.60755968 -1.12538433
-4.44208050 7.53755999 -0.98479372
-4.24504805 7.60755825 -0.94111323
-4.48080492 7.53755999 -0.79009610
-4.28205299 7.60755920 -0.75505114
-4.51100397 7.53755951 -0.59389424
-4.31091356 7.60755825 -0.56755221
-4.53261423 7.53756094 -0.39656121
-4.33156586 7.60755920 -0.37897217
-4.54560041 7.53756094 -0.19847412
-4.34397602 7.60755920 -0.18967146
-4.54993296 7.53755951 -0.00000894
-4.34811449 7.60755920 -0.00000937
-4.54559994 7.53755999 0.19845627
-4.34397411 7.60755920 0.18965270
-4.53261471 7.53755999 0.39654374
-4.33156490 7.60755968 0.37895375
-4.51100302 7.53756094 0.59387589
-4.31091404 7.60755920 0.56753325
-4.48080683 7.53755999 0.79007828
-4.28205442 7.60755920 0.75503254
-4.44208050 7.53755951 0.98477620
-4.24504614 7.60755920 0.94109440
-4.39489460 7.53755951 1.17759931
-4.19995308 7.60755920 1.12536466
-4.33934593 7.53755999 1.36818194
-4.14686918 7.60755920 1.30749369
-4.27553463 7.53755999 1.55615866
-4.08588743 7.60755920 1.48713255
-4.20358801 7.53755951 1.74117470
-4.01713228 7.60755825 1.66394162
-4.12363672 7.53755999 1.92287529
-3.94072795 7.60755968 1.83758295
-4.03583574 7.53755999 2.10091615
-3.85682082 7.60755968 2.00772643
-3.94035506 7.53755999 2.27495766
-3.76557493 7.60755968 2.17404795
-3.83737063 7.53755999 2.44466805
-3.66715956 7.60755920 2.33623147
-3.72708392 7.53755999 2.60972524
-3.56176400 7.60755968 2.49396706
-3.60969973 7.53756094 2.76981282
-3.44958949 7.60755920 2.64695549
-3.48544741 7.53755999 2.92462993
-3.33084631 7.60755920 2.79490471
-3.35455942 7.53755999 3.07387996
-3.20576310 7.60755968 2.93753290
-3.21728563 7.53755999 3.21727729
-3.07457948 7.60755968 3.07457089
-3.07388854 7.53755999 3.35455322
-2.93754244 7.60755920 3.20575833
-2.92463636 7.53756094 3.48544073
-2.79491162 7.60755920 3.33084011
-2.76982021 7.53755999 3.60969496
-2.64696193 7.60755920 3.44958210
-2.60972881 7.53756094 3.72707844
-2.49397206 7.60755968 3.56176066
-2.44467139 7.53755999 3.83736682
-2.33623481 7.60755968 3.66715574
-2.27496004 7.53756094 3.94034743
-2.17405272 7.60755968 3.76557016
-2.10091996 7.53756094 4.03583241
-2.00773120 7.60755968 3.85681820
-1.92287755 7.53756094 4.12363052
-1.83758616 7.60755968 3.94072247
-1.74117470 7.53756094 4.20358133
-1.66394317 7.60755920 4.01712704
-1.55615866 7.53756094 4.27552986
-1.48713350 7.60755968 4.08588457
-1.36817992 7.53756094 4.33933878
-1.30749285 7.60755920 4.14686346
-1.17759645 7.53756142 4.39488840
-1.12536311 7.60755968 4.19995070
-0.98477250 7.53756094 4.44207335
-0.94109178 7.60755968 4.24504089
-0.79007369 7.53755999 4.48079967
-0.75502896 7.60755825 4.28204918
-0.59387028 7.53756094 4.51100111
-0.56752837 7.60755968 4.31091118
-0.39653653 7.53756142 4.53260469
-0.37894768 7.60755920 4.33155918
-0.19844848 7.53756094 4.54559612
-0.18964575 7.60755968 4.34397030
0.00001780 7.53756094 4.54992342
0.00001735 7.60755968 4.34810686
0.19848391 7.53756094 4.54558802
0.18968032 7.60755920 4.34396410
0.39657238 7.53756094 4.53260708
0.37898248 7.60755920 4.33155870
0.59390551 7.53756142 4.51099062
0.56756294 7.60755968 4.31090260
0.79010862 7.53756094 4.48079586
0.75506300 7.60755968 4.28204536
0.98480785 7.53756094 4.44206524
0.94112605 7.60755968 4.24503279
1.17763221 7.53756094 4.39487982
1.12539780 7.60755968 4.19993973
1.36821496 7.53755999 4.33933306
1.30752647 7.60755920 4.14685631
1.55619216 7.53756094 4.27551699
1.48716676 7.60755920 4.08587360
1.74120820 7.53756094 4.20356941
1.66397583 7.60755920 4.01711607
1.92290938 7.53756094 4.12362003
1.83761716 7.60755920 3.94071198
2.10094905 7.53756094 4.03581667
2.00776029 7.60755920 3.85680437
2.27499151 7.53756094 3.94033289
2.17408252 7.60755920 3.76555538
2.44470358 7.53756094 3.83734775
2.33626676 7.60755968 3.66713834
2.60975981 7.53756094 3.72706079
2.49400210 7.60755920 3.56174350
2.76984882 7.53756094 3.60967565
2.64699101 7.60755920 3.44956493
2.92466640 7.53756094 3.48542118
2.79494071 7.60755920 3.33082175
3.07391572 7.53756094 3.35453224
2.93756938 7.60755920 3.20573759
3.21731424 7.53756094 3.21725488
3.07460737 7.60755920 3.07454967
3.35458636 7.53756094 3.07385516
3.20579195 7.60755920 2.93751168
3.48547626 7.53756094 2.92460513
3.33087492 7.60755920 2.79488039
3.60972929 7.53755999 2.76978755
3.44961572 7.60755920 2.64692998
3.72710991 7.53756094 2.60969448
3.56179094 7.60755920 2.49393916
3.83739543 7.53756094 2.44463515
3.66718531 7.60755920 2.33620048
3.94037771 7.53756142 2.27492261
3.76559997 7.60755968 2.17401624
4.03586102 7.53755999 2.10088205
3.85684538 7.60755968 2.00769353
4.12365818 7.53756094 1.92283845
3.94075012 7.60755920 1.83754802
4.20360708 7.53756094 1.74113572
4.01715279 7.60755968 1.66390538
4.27555513 7.53756094 1.55611885
4.08591032 7.60755920 1.48709512
4.33936119 7.53756094 1.36813939
4.14688492 7.60755920 1.30745351
4.39490986 7.53756094 1.17755663
4.19997072 7.60755920 1.12532437
4.44209194 7.53755999 0.98473144
4.24505854 7.60755968 0.94105178
4.48081827 7.53755951 0.79003185
4.28206778 7.60755920 0.75498843
4.51101542 7.53755999 0.59382880
4.31092501 7.60755920 0.56748796
4.53262424 7.53756094 0.39649498
4.33157682 7.60755920 0.37890738
4.54560614 7.53755999 0.19840635
4.34397984 7.60755920 0.18960498
3.85231352 7.72973537 -0.00000876
3.84864902 7.72973537 -0.16804422
3.40110660 7.79538298 -0.14850493
3.40434432 7.79538298 -0.00000961
3.83765507 7.72973490 -0.33575976
3.39138985 7.79538298 -0.29671749
3.81936026 7.72973537 -0.50283629
3.37522340 7.79538298 -0.44436538
3.79378963 7.72973537 -0.66895562
3.35262561 7.79538298 -0.59116727
3.76099777 7.72973537 -0.83380187
3.32364750 7.79538298 -0.73684418
3.72105169 7.72973537 -0.99706024
3.28834724 7.79538298 -0.88111800
3.67401505 7.72973537 -1.15842152
3.24678016 7.79538298 -1.02371526
3.61999393 7.72973537 -1.31757700
3.19904089 7.79538298 -1.16436338
3.55907726 7.72973537 -1.47422445
3.14520717 7.79538298 -1.30279469
3.49138355 7.72973537 -1.62806618
3.08538580 7.79538298 -1.43874705
3.41704750 7.72973537 -1.77880895
3.01969409 7.79538298 -1.57196045
3.33620477 7.72973537 -1.92616570
2.94825125 7.79538298 -1.70218182
3.24901152 7.72973537 -2.06985402
2.87119818 7.79538393 -1.82916093
3.15563345 7.72973537 -2.20960283
2.78867888 7.79538298 -1.95265889
3.05624819 7.72973537 -2.34514642
2.70085025 7.79538298 -2.07244110
2.95104647 7.72973537 -2.47622585
2.60788226 7.79538298 -2.18827748
2.84022546 7.72973490 -2.60259295
2.50994778 7.79538298 -2.29995036
2.72400022 7.72973537 -2.72400403
2.40723825 7.79538298 -2.40724301
2.60258865 7.72973537 -2.84022975
2.29994535 7.79538298 -2.50995350
2.47622275 7.72973537 -2.95104957
2.18827367 7.79538298 -2.60788608
2.34514380 7.72973537 -3.05625296
2.07243752 7.79538298 -2.70085597
2.20959973 7.72973537 -3.15563822
1.95265532 7.79538298 -2.78868413
2.06984878 7.72973537 -3.24901652
1.82915568 7.79538298 -2.87120414
1.92615974 7.72973537 -3.33620954
1.70217550 7.79538298 -2.94825721
1.77880251 7.72973537 -3.41705346
1.57195389 7.79538298 -3.01970029
1.62806082 7.72973537 -3.49138880
1.43874192 7.79538298 -3.08539128
1.47422016 7.72973537 -3.55908036
1.30278993 7.79538298 -3.14521194
1.31757212 7.72973537 -3.61999941
1.16435802 7.79538298 -3.19904661
1.15841699 7.72973537 -3.67402387
1.02371061 7.79538298 -3.24678898
0.99705625 7.72973537 -3.72105765
0.88111365 7.79538298 -3.28835297
0.83379686 7.72973490 -3.76100254
0.73683882 7.79538298 -3.32365370
0.66895080 7.72973537 -3.79379368
0.59116220 7.79538393 -3.35263038
0.50283152 7.72973537 -3.81936622
0.44436014 7.79538298 -3.37523007
0.33575523 7.72973537 -3.83766079
0.29671258 7.79538298 -3.39139771
0.16803947 7.72973537 -3.84865546
0.14849976 7.79538298 -3.40111303
0.00000409 7.72973537 -3.85231996
0.00000452 7.79538298 -3.40435171
-0.16803141 7.72973537 -3.84864998
-0.14849083 7.79538298 -3.40110779
-0.33574697 7.72973537 -3.83766294
-0.29670343 7.79538298 -3.39139867
-0.50282365 7.72973537 -3.81936145
-0.44435146 7.79538298 -3.37522602
-0.66894293 7.72973537 -3.79379749
-0.59115332 7.79538298 -3.35263515
-0.83378851 7.72973537 -3.76100588
-0.73682982 7.79538298 -3.32365537
-0.99704671 7.72973537 -3.72105670
-0.88110322 7.79538298 -3.28835249
-1.15840805 7.72973537 -3.67402458
-1.02370059 7.79538298 -3.24678993
-1.31756437 7.72973537 -3.61999846
-1.16434932 7.79538298 -3.19904566
-1.47421169 7.72973537 -3.55908108
-1.30278063 7.79538298 -3.14521217
-1.62805367 7.72973537 -3.49139023
-1.43873286 7.79538298 -3.08539271
-1.77879632 7.72973537 -3.41705298
-1.57194626 7.79538298 -3.01969957
-1.92615199 7.72973537 -3.33620954
-1.70216668 7.79538298 -2.94825768
-2.06984210 7.72973537 -3.24901485
-1.82914770 7.79538298 -2.87120223
-2.20959187 7.72973537 -3.15563893
-1.95264661 7.79538298 -2.78868461
-2.34513450 7.72973537 -3.05625391
-2.07242751 7.79538298 -2.70085669
-2.47621465 7.72973537 -2.95105124
-2.18826461 7.79538298 -2.60788727
-2.60258055 7.72973537 -2.84023166
-2.29993653 7.79538298 -2.50995445
-2.72399116 7.72973537 -2.72400475
-2.40722823 7.79538298 -2.40724349
-2.84021878 7.72973537 -2.60259414
-2.50994062 7.79538298 -2.29995131
-2.95103860 7.72973537 -2.47622752
-2.60787344 7.79538298 -2.18827891
-3.05624008 7.72973490 -2.34514856
-2.70084190 7.79538298 -2.07244253
-3.15562487 7.72973537 -2.20960546
-2.78866935 7.79538298 -1.95266140
-3.24900365 7.72973537 -2.06985450
-2.87118983 7.79538298 -1.82916129
-3.33619595 7.72973537 -1.92616475
-2.94824266 7.79538298 -1.70218086
-3.41703820 7.72973537 -1.77880895
-3.01968360 7.79538298 -1.57196033
-3.49137878 7.72973537 -1.62806678
-3.08537960 7.79538298 -1.43874753
-3.55906773 7.72973490 -1.47422564
-3.14519739 7.79538250 -1.30279565
-3.61998487 7.72973537 -1.31757903
-3.19903088 7.79538298 -1.16436517
-3.67401385 7.72973537 -1.15842319
-3.24677634 7.79538298 -1.02371657
-3.72104383 7.72973537 -0.99706256
-3.28833771 7.79538298 -0.88111997
-3.76099849 7.72973490 -0.83380306
-3.32364559 7.79538250 -0.73684520
-3.79378390 7.72973537 -0.66895711
-3.35261869 7.79538298 -0.59116852
-3.81935287 7.72973490 -0.50283808
-3.37521458 7.79538298 -0.44436687
-3.83765078 7.72973537 -0.33576119
-3.39138484 7.79538298 -0.29671875
-3.84864712 7.72973537 -0.16804585
-3.40110183 7.79538298 -0.14850634
-3.85231256 7.72973537 -0.00001026
-3.40434194 7.79538298 -0.00001094
-3.84864497 7.72973537 0.16802521
-3.40110016 7.79538298 0.14848435
-3.83765006 7.72973537 0.33574089
-3.39138436 7.79538298 0.29669705
-3.81935430 7.72973537 0.50281727
-3.37521577 7.79538298 0.44434470
-3.79378557 7.72973537 0.66893679
-3.35262036 7.79538298 0.59114695
-3.76099706 7.72973537 0.83378273
-3.32364416 7.79538298 0.73682362
-3.72104621 7.72973537 0.99704105
-3.28833938 7.79538298 0.88109726
-3.67401481 7.72973537 1.15840244
-3.24677634 7.79538298 1.02369463
-3.61998653 7.72973537 1.31755757
-3.19903135 7.79538298 1.16434193
-3.55907083 7.72973490 1.47420621
-3.14519978 7.79538250 1.30277467
-3.49137878 7.72973537 1.62804723
-3.08537936 7.79538298 1.43872607
-3.41703987 7.72973537 1.77879024
-3.01968527 7.79538298 1.57193971
-3.33619833 7.72973537 1.92614675
-2.94824409 7.79538298 1.70216107
-3.24900532 7.72973537 2.06983685
-2.87119031 7.79538298 1.82914162
-3.15562725 7.72973537 2.20958638
-2.78867126 7.79538298 1.95264053
-3.05624390 7.72973537 2.34512997
-2.70084381 7.79538298 2.07242179
-2.95104027 7.72973490 2.47620940
-2.60787463 7.79538298 2.18825841
-2.84021997 7.72973537 2.60257435
-2.50994062 7.79538298 2.29992890
-2.72399497 7.72973537 2.72398639
-2.40723133 7.79538298 2.40722227
-2.60258365 7.72973490 2.84021449
-2.29993844 7.79538298 2.50993538
-2.47621655 7.72973490 2.95103455
-2.18826652 7.79538298 2.60786796
-2.34513664 7.72973537 3.05623674
-2.07242918 7.79538298 2.70083690
-2.20959234 7.72973537 3.15562296
-1.95264661 7.79538298 2.78866553
-2.06984138 7.72973537 3.24900055
-1.82914650 7.79538298 2.87118530
-1.92615199 7.72973537 3.33619308
-1.70216632 7.79538298 2.94823790
-1.77879548 7.72973537 3.41703653
-1.57194519 7.79538298 3.01968050
-1.62805128 7.72973537 3.49137378
-1.43873048 7.79538298 3.08537316
-1.47420824 7.72973537 3.55906606
-1.30277741 7.79538298 3.14519429
-1.31755984 7.72973537 3.61998272
-1.16434503 7.79538298 3.19902730
-1.15840292 7.72973537 3.67400861
-1.02369583 7.79538298 3.24677038
-0.99704105 7.72973537 3.72104239
-0.88109809 7.79538298 3.28833508
-0.83378148 7.72973537 3.76099133
-0.73682344 7.79538298 3.32363772
-0.66893470 7.72973490 3.79378009
-0.59114605 7.79538298 3.35261393
-0.50281423 7.72973537 3.81935048
-0.44434300 7.79538298 3.37521076
-0.33573666 7.72973537 3.83764386
-0.29669422 7.79538298 3.39137793
-0.16802023 7.72973537 3.84863997
-0.14848092 7.79538298 3.40109491
0.00001624 7.72973537 3.85230470
0.00001526 7.79538298 3.40433311
0.16805257 7.72973537 3.84863472
0.14851132 7.79538298 3.40109015
0.33576924 7.72973537 3.83764362
0.29672489 7.79538298 3.39137697
0.50284642 7.72973537 3.81934357
0.44437316 7.79538298 3.37520504
0.66896647 7.72973537 3.79377627
0.59117597 7.79538298 3.35261130
0.83381361 7.72973537 3.76098371
0.73685348 7.79538298 3.32363153
0.99707317 7.72973537 3.72103286
0.88112849 7.79538298 3.28832698
1.15843463 7.72973537 3.67400217
1.02372587 7.79538298 3.24676490
1.31759083 7.72973537 3.61997318
1.16437423 7.79538298 3.19901896
1.47423923 7.72973537 3.55905628
1.30280662 7.79538298 3.14518547
1.62808073 7.72973537 3.49136400
1.43875897 7.79538298 3.08536506
1.77882326 7.72973537 3.41702318
1.57197189 7.79538298 3.01967001
1.92617977 7.72973537 3.33617949
1.70219290 7.79538298 2.94822669
2.06987047 7.72973537 3.24898434
1.82917464 7.79538298 2.87117076
2.20962000 7.72973537 3.15560794
1.95267284 7.79538298 2.78865266
2.34516406 7.72973490 3.05622101
2.07245493 7.79538298 2.70082283
2.47624350 7.72973537 2.95101738
2.18829155 7.79538298 2.60785341
2.60260868 7.72973537 2.84019613
2.29996252 7.79538298 2.50991917
2.72402048 7.72973537 2.72396708
2.40725589 7.79538298 2.40720558
2.84024668 7.72973537 2.60255504
2.50996661 7.79538298 2.29991198
2.95106649 7.72973537 2.47618723
2.60789967 7.79538298 2.18823981
3.05626798 7.72973537 2.34510756
2.70086789 7.79538298 2.07240224
3.15565252 7.72973537 2.20956159
2.78869462 7.79538298 1.95261824
3.24902844 7.72973537 2.06980896
2.87121248 7.79538298 1.82911730
3.33622098 7.72973537 1.92611814
2.94826651 7.79538298 1.70213568
3.41706276 7.72973537 1.77876115
3.01970625 7.79538298 1.57191408
3.49139977 7.72973537 1.62801659
3.08539939 7.79538298 1.43869901
3.55909061 7.72973537 1.47417343
3.14521933 7.79538393 1.30274582
3.62000751 7.72973537 1.31752419
3.19905233 7.79538298 1.16431272
3.67402935 7.72973537 1.15836668
3.24679279 7.79538298 1.02366304
3.72106147 7.72973537 0.99700511
3.28835511 7.79538298 0.88106561
3.76100826 7.72973537 0.83374465
3.32365751 7.79538298 0.73679018
3.79379749 7.72973537 0.66889751
3.35263300 7.79538298 0.59111232
3.81936407 7.72973537 0.50277710
3.37522674 7.79538298 0.44430935
3.83766150 7.72973537 0.33569974
3.39139605 7.79538298 0.29666069
3.84864998 7.72973537 0.16798295
3.40110755 7.79538298 0.14844701
3.09673309 7.82522488 -0.13521615
3.09968019 7.82522488 -0.00001010
3.08788538 7.82522488 -0.27016479
3.07316589 7.82522488 -0.40459925
3.05259013 7.82522488 -0.53826350
3.02620530 7.82522488 -0.67090327
2.99406385 7.82522488 -0.80226570
2.95621729 7.82522488 -0.93210149
2.91274977 7.82522488 -1.06016243
2.86373448 7.82522488 -1.18620527
2.80926681 7.82522488 -1.30999076
2.74945378 7.82522488 -1.43128264
2.68440461 7.82522488 -1.54985011
2.61424732 7.82522488 -1.66546547
2.53911281 7.82522488 -1.77791142
2.45914364 7.82522440 -1.88697386
2.37449622 7.82522488 -1.99244392
2.28532648 7.82522440 -2.09412289
2.19180846 7.82522488 -2.19181323
2.09411740 7.82522488 -2.28533244
1.99243975 7.82522488 -2.37450075
1.88697004 7.82522488 -2.45915008
1.77790749 7.82522488 -2.53911877
1.66545987 7.82522488 -2.61425328
1.54984379 7.82522488 -2.68441057
1.43127596 7.82522488 -2.74945974
1.30998564 7.82522488 -2.80927253
1.18620050 7.82522488 -2.86373925
1.06015718 7.82522488 -2.91275620
0.93209660 7.82522488 -2.95622611
0.80226111 7.82522488 -2.99407029
0.67089778 7.82522488 -3.02621198
0.53825825 7.82522488 -3.05259514
0.40459386 7.82522488 -3.07317233
0.27015963 7.82522488 -3.08789277
0.13521081 7.82522488 -3.09673953
0.00000482 7.82522488 -3.09968758
-0.13520128 7.82522488 -3.09673405
-0.27014995 7.82522488 -3.08789372
-0.40458450 7.82522488 -3.07316804
-0.53824860 7.82522488 -3.05259991
-0.67088819 7.82522488 -3.02621341
-0.80225003 7.82522488 -2.99406958
-0.93208593 7.82522488 -2.95622683
-1.06014752 7.82522488 -2.91275454
-1.18619061 7.82522488 -2.86373973
-1.30997586 7.82522488 -2.80927324
-1.43126762 7.82522488 -2.74945951
-1.54983449 7.82522488 -2.68441105
-1.66545141 7.82522488 -2.61425161
-1.77789795 7.82522488 -2.53911877
-1.88695967 7.82522488 -2.45915055
-1.99243021 7.82522488 -2.37450147
-2.09410787 7.82522488 -2.28533292
-2.19179821 7.82522488 -2.19181347
-2.28531837 7.82522488 -2.09412313
-2.37448645 7.82522488 -1.99244499
-2.45913553 7.82522440 -1.88697529
-2.53910327 7.82522488 -1.77791345
-2.61423826 7.82522488 -1.66546607
-2.68439579 7.82522488 -1.54984939
-2.74944282 7.82522488 -1.43128228
-2.80925965 7.82522488 -1.30999136
-2.86372375 7.82522440 -1.18620610
-2.91273975 7.82522488 -1.06016409
-2.95621228 7.82522488 -0.93210256
-2.99405432 7.82522488 -0.80226755
-3.02620292 7.82522440 -0.67090422
-3.05258274 7.82522488 -0.53826451
-3.07315636 7.82522488 -0.40460056
-3.08787990 7.82522488 -0.27016595
-3.09672618 7.82522488 -0.13521744
-3.09967661 7.82522488 -0.00001130
-3.09672546 7.82522488 0.13519470
-3.08787847 7.82522488 0.27014345
-3.07315707 7.82522488 0.40457767
-3.05258441 7.82522488 0.53824216
-3.02620077 7.82522488 0.67088181
-2.99405599 7.82522488 0.80224401
-2.95621300 7.82522488 0.93207997
-2.91274023 7.82522488 1.06014037
-2.86372614 7.82522440 1.18618441
-2.80925941 7.82522488 1.30996907
-2.74944425 7.82522488 1.43126118
-2.68439627 7.82522488 1.54982829
-2.61423898 7.82522488 1.66544533
-2.53910470 7.82522488 1.77789152
-2.45913696 7.82522488 1.88695359
-2.37448835 7.82522440 1.99242365
-2.28531837 7.82522488 2.09410071
-2.19180059 7.82522488 2.19179153
-2.09410977 7.82522488 2.28531313
-1.99243152 7.82522488 2.37448144
-1.88696110 7.82522488 2.45913029
-1.77789795 7.82522488 2.53909850
-1.66545022 7.82522488 2.61423326
-1.54983377 7.82522488 2.68439007
-1.43126678 7.82522488 2.74943924
-1.30997372 7.82522488 2.80925322
-1.18618751 7.82522488 2.86372042
-1.06014383 7.82522488 2.91273642
-0.93208164 7.82522488 2.95620680
-0.80224532 7.82522488 2.99405146
-0.67088228 7.82522488 3.02619553
-0.53824192 7.82522440 3.05257797
-0.40457678 7.82522488 3.07315302
-0.27014151 7.82522488 3.08787298
-0.13519223 7.82522488 3.09672046
0.00001460 7.82522488 3.09966898
0.13522135 7.82522488 3.09671593
0.27017081 7.82522488 3.08787203
0.40460569 7.82522488 3.07314754
0.53827065 7.82522488 3.05257559
0.67091101 7.82522488 3.02618885
0.80227464 7.82522488 2.99404430
0.93211043 7.82522488 2.95620227
1.06017172 7.82522488 2.91272902
1.18621552 7.82522488 2.86371255
1.31000078 7.82522488 2.80924559
1.43129230 7.82522488 2.74942994
1.54985964 7.82522488 2.68438005
1.66547728 7.82522488 2.61422038
1.77792335 7.82522488 2.53908682
1.88698554 7.82522488 2.45911670
1.99245584 7.82522488 2.37446809
2.09413290 7.82522488 2.28529811
2.19182444 7.82522488 2.19177651
2.28534317 7.82522488 2.09408522
2.37451148 7.82522488 1.99240613
2.45916009 7.82522488 1.88693571
2.53912711 7.82522488 1.77787161
2.61426044 7.82522488 1.66542315
2.68441844 7.82522488 1.54980528
2.74946475 7.82522488 1.43123770
2.80927920 7.82522488 1.30994439
2.86374521 7.82522488 1.18615806
2.91276050 7.82522488 1.06011367
2.95622826 7.82522488 0.93205118
2.99407196 7.82522488 0.80221534
3.02621412 7.82522488 0.67085135
3.05259657 7.82522488 0.53821057
3.07316899 7.82522488 0.40454549
3.08789134 7.82522488 0.27011028
3.09673309 7.82522488 0.13516073
2.98861861 7.85245466 -0.00001033
2.98577666 7.85245562 -0.13037194
2.91151142 7.89185572 -0.12712969
2.91428328 7.89185524 -0.00001057
2.97724652 7.85245466 -0.26048535
2.90319371 7.89185524 -0.25400683
2.96305394 7.85245466 -0.39010298
2.88935447 7.89185572 -0.38040045
2.94321537 7.85245562 -0.51897806
2.87000942 7.89185572 -0.50607002
2.91777635 7.85245562 -0.64686525
2.84520316 7.89185572 -0.63077635
2.88678622 7.85245562 -0.77352077
2.81498384 7.89185572 -0.75428152
2.85029554 7.85245562 -0.89870465
2.77940083 7.89185572 -0.87635165
2.80838609 7.85245562 -1.02217710
2.73853374 7.89185572 -0.99675316
2.76112676 7.85245562 -1.14370382
2.69244981 7.89185572 -1.11525702
2.70861006 7.85245466 -1.26305413
2.64123917 7.89185524 -1.23163879
2.65094066 7.85245562 -1.38000023
2.58500385 7.89185572 -1.34567606
2.58822203 7.85245562 -1.49431908
2.52384543 7.89185572 -1.45715165
2.52057838 7.85245562 -1.60579240
2.45788431 7.89185572 -1.56585193
2.44813657 7.85245466 -1.71420920
2.38724399 7.89185572 -1.67157209
2.37103248 7.85245466 -1.81936371
2.31205797 7.89185524 -1.77411091
2.28941798 7.85245562 -1.92105496
2.23247361 7.89185572 -1.87327302
2.20344257 7.85245466 -2.01909065
2.14863634 7.89185524 -1.96887016
2.11327577 7.85245562 -2.11328077
2.06071258 7.89185572 -2.06071782
2.01908517 7.85245562 -2.20344853
1.96886480 7.89185572 -2.14864302
1.92105043 7.85245466 -2.28942251
1.87326849 7.89185524 -2.23247838
1.81935978 7.85245562 -2.37103891
1.77410698 7.89185572 -2.31206441
1.71420503 7.85245562 -2.44814181
1.67156792 7.89185572 -2.38725042
1.60578656 7.85245562 -2.52058458
1.56584609 7.89185572 -2.45789075
1.49431288 7.85245466 -2.58822823
1.45714509 7.89185572 -2.52385187
1.37999332 7.85245466 -2.65094686
1.34566903 7.89185524 -2.58501053
1.26304889 7.85245562 -2.70861602
1.23163331 7.89185572 -2.64124560
1.14369893 7.85245562 -2.76113129
1.11525190 7.89185572 -2.69245434
1.02217174 7.85245562 -2.80839205
0.99674767 7.89185572 -2.73854017
0.89869964 7.85245562 -2.85030460
0.87634659 7.89185572 -2.77940965
0.77351618 7.85245562 -2.88679266
0.75427675 7.89185572 -2.81499028
0.64685965 7.85245466 -2.91778278
0.63077050 7.89185524 -2.84520960
0.51897258 7.85245562 -2.94322038
0.50606447 7.89185572 -2.87001443
0.39009741 7.85245562 -2.96306038
0.38039473 7.89185572 -2.88936090
0.26048005 7.85245466 -2.97725368
0.25400135 7.89185524 -2.90320134
0.13036646 7.85245562 -2.98578334
0.12712406 7.89185572 -2.91151857
0.00000493 7.85245562 -2.98862576
0.00000499 7.89185572 -2.91429043
-0.13035670 7.85245562 -2.98577762
-0.12711416 7.89185572 -2.91151357
-0.26047015 7.85245562 -2.97725463
-0.25399131 7.89185572 -2.90320253
-0.39008787 7.85245562 -2.96305633
-0.38038507 7.89185572 -2.88935685
-0.51896286 7.85245466 -2.94322515
-0.50605458 7.89185524 -2.87001967
-0.64684981 7.85245562 -2.91778445
-0.63076061 7.89185572 -2.84521103
-0.77350503 7.85245466 -2.88679194
-0.75426555 7.89185524 -2.81499004
-0.89868885 7.85245466 -2.85030508
-0.87633568 7.89185524 -2.77941060
-1.02216196 7.85245562 -2.80839062
-0.99673760 7.89185572 -2.73853827
-1.14368880 7.85245466 -2.76113248
-1.11524177 7.89185572 -2.69245505
-1.26303911 7.85245466 -2.70861697
-1.23162317 7.89185524 -2.64124680
-1.37998474 7.85245562 -2.65094662
-1.34566033 7.89185572 -2.58501053
-1.49430311 7.85245562 -2.58822894
-1.45713532 7.89185572 -2.52385306
-1.60577750 7.85245466 -2.52058268
-1.56583691 7.89185524 -2.45788932
-1.71419525 7.85245466 -2.44814253
-1.67155814 7.89185572 -2.38725066
-1.81934941 7.85245562 -2.37103915
-1.77409637 7.89185572 -2.31206465
-1.92104065 7.85245466 -2.28942323
-1.87325847 7.89185524 -2.23247886
-2.01907563 7.85245562 -2.20344949
-1.96885455 7.89185572 -2.14864349
-2.11326528 7.85245562 -2.11328101
-2.06070185 7.89185572 -2.06071782
-2.20343471 7.85245466 -2.01909089
-2.14862847 7.89185572 -1.96887040
-2.28940797 7.85245562 -1.92105603
-2.23246336 7.89185572 -1.87327409
-2.37102389 7.85245466 -1.81936538
-2.31204915 7.89185524 -1.77411270
-2.44812655 7.85245562 -1.71421123
-2.38723373 7.89185572 -1.67157412
-2.52056932 7.85245562 -1.60579288
-2.45787477 7.89185572 -1.56585264
-2.58821297 7.85245562 -1.49431849
-2.52383614 7.89185572 -1.45715070
-2.65092969 7.85245562 -1.37999988
-2.58499265 7.89185572 -1.34567547
-2.70860338 7.85245466 -1.26305485
-2.64123154 7.89185572 -1.23163927
-2.76111579 7.85245419 -1.14370453
-2.69243836 7.89185524 -1.11525762
-2.80837584 7.85245562 -1.02217889
-2.73852229 7.89185572 -0.99675465
-2.85029054 7.85245466 -0.89870578
-2.77939439 7.89185572 -0.87635273
-2.88677669 7.85245466 -0.77352273
-2.81497359 7.89185524 -0.75428343
-2.91777349 7.85245419 -0.64686614
-2.84519887 7.89185429 -0.63077718
-2.94320774 7.85245562 -0.51897913
-2.87000084 7.89185572 -0.50607097
-2.96304440 7.85245466 -0.39010435
-2.88934422 7.89185572 -0.38040173
-2.97724032 7.85245562 -0.26048645
-2.90318727 7.89185572 -0.25400788
-2.98577023 7.85245466 -0.13037318
-2.91150475 7.89185524 -0.12713090
-2.98861480 7.85245562 -0.00001150
-2.91427779 7.89185572 -0.00001170
-2.98576951 7.85245562 0.13035008
-2.91150331 7.89185572 0.12710738
-2.97723937 7.85245562 0.26046357
-2.90318584 7.89185572 0.25398454
-2.96304584 7.85245562 0.39008105
-2.88934541 7.89185572 0.38037801
-2.94320965 7.85245562 0.51895630
-2.87000251 7.89185572 0.50604773
-2.91777182 7.85245466 0.64684355
-2.84519720 7.89185572 0.63075399
-2.88677835 7.85245562 0.77349901
-2.81497502 7.89185572 0.75425917
-2.85029125 7.85245466 0.89868289
-2.77939558 7.89185572 0.87632930
-2.80837607 7.85245562 1.02215481
-2.73852277 7.89185572 0.99673009
-2.76111865 7.85245419 1.14368272
-2.69244051 7.89185429 1.11523533
-2.70860291 7.85245466 1.26303208
-2.64123154 7.89185572 1.23161602
-2.65093160 7.85245466 1.37997830
-2.58499432 7.89185572 1.34565341
-2.58821368 7.85245466 1.49429739
-2.52383637 7.89185572 1.45712888
-2.52057028 7.85245466 1.60577154
-2.45787477 7.89185572 1.56583035
-2.44812822 7.85245562 1.71418929
-2.38723516 7.89185572 1.67155147
-2.37102580 7.85245562 1.81934309
-2.31205082 7.89185572 1.77408981
-2.28940988 7.85245419 1.92103434
-2.23246527 7.89185524 1.87325168
-2.20343471 7.85245562 2.01906824
-2.14862823 7.89185572 1.96884727
-2.11326814 7.85245466 2.11325884
-2.06070423 7.89185572 2.06069517
-2.01907754 7.85245466 2.20342946
-1.96885657 7.89185572 2.14862299
-1.92104232 7.85245466 2.28940272
-1.87325978 7.89185572 2.23245788
-1.81935072 7.85245466 2.37101865
-1.77409756 7.89185524 2.31204391
-1.71419561 7.85245466 2.44812179
-1.67155814 7.89185572 2.38722873
-1.60577667 7.85245466 2.52056432
-1.56583560 7.89185572 2.45786977
-1.49430263 7.85245466 2.58820772
-1.45713449 7.89185572 2.52382994
-1.37998414 7.85245562 2.65092587
-1.34565938 7.89185572 2.58498859
-1.26303709 7.85245466 2.70859694
-1.23162138 7.89185572 2.64122486
-1.14368606 7.85245466 2.76111245
-1.11523867 7.89185572 2.69243407
-1.02215838 7.85245466 2.80837250
-0.99673396 7.89185572 2.73851848
-0.89868474 7.85245466 2.85028529
-0.87633145 7.89185524 2.77938890
-0.77350062 7.85245466 2.88677406
-0.75426096 7.89185572 2.81497002
-0.64684427 7.85245466 2.91776586
-0.63075513 7.89185572 2.84519124
-0.51895642 7.85245419 2.94320297
-0.50604814 7.89185524 2.86999583
-0.39008045 7.85245466 2.96304059
-0.38037774 7.89185572 2.88934064
-0.26046208 7.85245466 2.97723389
-0.25398335 7.89185572 2.90317941
-0.13034800 7.85245466 2.98576427
-0.12710564 7.89185572 2.91149902
0.00001436 7.85245466 2.98860741
0.00001419 7.89185572 2.91427064
0.13037662 7.85245466 2.98575997
0.12713394 7.89185572 2.91149378
0.26049083 7.85245466 2.97723293
0.25401184 7.89185572 2.90317917
0.39010891 7.85245466 2.96303582
0.38040590 7.89185524 2.88933539
0.51898468 7.85245562 2.94320059
0.50607610 7.89185572 2.86999416
0.64687252 7.85245466 2.91775990
0.63078290 7.89185572 2.84518528
0.77352917 7.85245562 2.88676691
0.75428939 7.89185572 2.81496382
0.89871317 7.85245562 2.85028052
0.87635952 7.89185572 2.77938414
1.02218604 7.85245466 2.80836463
0.99676126 7.89185524 2.73851132
1.14371347 7.85245466 2.76110506
1.11526620 7.89185572 2.69242692
1.26306367 7.85245466 2.70858955
1.23164725 7.89185572 2.64121747
1.38000929 7.85245466 2.65091729
1.34568441 7.89185524 2.58498001
1.49432838 7.85245466 2.58819771
1.45715988 7.89185572 2.52382088
1.60580361 7.85245562 2.52055216
1.56586230 7.89185572 2.45785713
1.71422064 7.85245466 2.44811058
1.67158258 7.89185572 2.38721800
1.81937516 7.85245466 2.37100601
1.77412188 7.89185572 2.31203127
1.92106616 7.85245466 2.28939009
1.87328351 7.89185572 2.23244548
2.01909995 7.85245466 2.20341516
1.96887910 7.89185572 2.14860892
2.11329150 7.85245466 2.11324453
2.06072760 7.89185572 2.06068087
2.20345926 7.85245562 2.01905346
2.14865255 7.89185572 1.96883297
2.28943253 7.85245466 1.92101765
2.23248768 7.89185572 1.87323582
2.37104845 7.85245562 1.81932604
2.31207347 7.89185572 1.77407336
2.44814992 7.85245562 1.71416962
2.38725734 7.89185572 1.67153239
2.52059102 7.85245466 1.60575020
2.45789647 7.89185572 1.56580973
2.58823586 7.85245562 1.49427509
2.52385902 7.89185572 1.45710742
2.65095139 7.85245562 1.37995565
2.58501410 7.89185572 1.34563148
2.70862269 7.85245466 1.26300836
2.64125133 7.89185572 1.23159289
2.76113772 7.85245562 1.14365721
2.69246006 7.89185572 1.11521053
2.80839634 7.85245466 1.02212918
2.73854351 7.89185572 0.99670529
2.85030651 7.85245466 0.89865506
2.77941132 7.89185572 0.87630242
2.88679409 7.85245562 0.77347124
2.81499124 7.89185572 0.75423229
2.91778517 7.85245562 0.64681405
2.84521151 7.89185572 0.63072532
2.94322205 7.85245562 0.51892579
2.87001562 7.89185572 0.50601798
2.96305656 7.85245466 0.39004993
2.88935685 7.89185524 0.38034770
2.97725224 7.85245562 0.26043162
2.90319943 7.89185572 0.25395343
2.98577666 7.85245562 0.13031730
2.91151190 7.89185572 0.12707543
2.76720667 7.96414566 -0.00001101
2.76457477 7.96414661 -0.12071472
2.62713766 8.02662277 -0.11471448
2.62963915 8.02662277 -0.00001139
2.75667667 7.96414566 -0.24118868
2.61963177 8.02662182 -0.22919917
2.74353623 7.96414661 -0.36120352
2.60714459 8.02662277 -0.34324762
2.72516727 7.96414661 -0.48053083
2.58968925 8.02662277 -0.45664278
2.70161271 7.96414661 -0.59894359
2.56730556 8.02662277 -0.56916863
2.67291832 7.96414661 -0.71621573
2.54003787 8.02662277 -0.68061084
2.63913131 7.96414661 -0.83212543
2.50793028 8.02662277 -0.79075813
2.60032701 7.96414661 -0.94645041
2.47105479 8.02662277 -0.89939958
2.55656886 7.96414709 -1.05897355
2.42947268 8.02662373 -1.00632906
2.50794268 7.96414661 -1.16948175
2.38326406 8.02662277 -1.11134326
2.45454526 7.96414709 -1.27776396
2.33252120 8.02662277 -1.21424258
2.39647317 7.96414661 -1.38361371
2.27733564 8.02662373 -1.31482995
2.33384109 7.96414709 -1.48682821
2.21781731 8.02662373 -1.41291332
2.26676559 7.96414661 -1.58721268
2.15407634 8.02662277 -1.50830746
2.19537401 7.96414661 -1.68457699
2.08623409 8.02662277 -1.60083103
2.11980605 7.96414661 -1.77873445
2.01442266 8.02662277 -1.69030774
2.04020023 7.96414566 -1.86950696
1.93877459 8.02662182 -1.77656794
1.95671344 7.96414709 -1.95671928
1.85943842 8.02662277 -1.85944438
1.86950147 7.96414661 -2.04020691
1.77656186 8.02662277 -1.93878174
1.77872944 7.96414661 -2.11981153
1.69030261 8.02662277 -2.01442862
1.68457270 7.96414709 -2.19538069
1.60082662 8.02662373 -2.08624101
1.58720815 7.96414661 -2.26677251
1.50830269 8.02662277 -2.15408397
1.48682189 7.96414709 -2.33384776
1.41290712 8.02662277 -2.21782446
1.38360667 7.96414661 -2.39648008
1.31482291 8.02662277 -2.27734327
1.27775669 7.96414661 -2.45455194
1.21423507 8.02662277 -2.33252764
1.16947591 7.96414709 -2.50794911
1.11133766 8.02662277 -2.38327074
1.05896819 7.96414661 -2.55657315
1.00632322 8.02662277 -2.42947745
0.94644445 7.96414661 -2.60033345
0.89939344 8.02662277 -2.47106194
0.83211976 7.96414709 -2.63914061
0.79075229 8.02662373 -2.50794005
0.71621054 7.96414709 -2.67292547
0.68060529 8.02662277 -2.54004526
0.59893733 7.96414661 -2.70161939
0.56916225 8.02662277 -2.56731272
0.48052487 7.96414709 -2.72517252
0.45663658 8.02662373 -2.58969474
0.36119747 7.96414661 -2.74354267
0.34324139 8.02662277 -2.60715222
0.24118289 7.96414661 -2.75668454
0.22919311 8.02662277 -2.61963987
0.12070876 7.96414709 -2.76458216
0.11470824 8.02662277 -2.62714553
0.00000511 7.96414661 -2.76721382
0.00000522 8.02662277 -2.62964606
-0.12069862 7.96414661 -2.76457715
-0.11469788 8.02662277 -2.62714076
-0.24117260 7.96414661 -2.75668526
-0.22918265 8.02662277 -2.61964107
-0.36118752 7.96414661 -2.74353862
-0.34323111 8.02662277 -2.60714817
-0.48051473 7.96414661 -2.72517705
-0.45662618 8.02662277 -2.58969951
-0.59892732 7.96414661 -2.70162058
-0.56915200 8.02662277 -2.56731391
-0.71619916 7.96414661 -2.67292523
-0.68059385 8.02662277 -2.54004455
-0.83210874 7.96414661 -2.63914108
-0.79074103 8.02662277 -2.50794005
-0.94643432 7.96414709 -2.60033154
-0.89938307 8.02662373 -2.47106004
-1.05895782 7.96414661 -2.55657434
-1.00631261 8.02662277 -2.42947841
-1.16946554 7.96414661 -2.50795007
-1.11132658 8.02662277 -2.38327122
-1.27774763 7.96414661 -2.45455241
-1.21422541 8.02662277 -2.33252835
-1.38359654 7.96414709 -2.39648151
-1.31481230 8.02662373 -2.27734399
-1.48681235 7.96414661 -2.33384633
-1.41289687 8.02662277 -2.21782303
-1.58719814 7.96414661 -2.26677275
-1.50829184 8.02662277 -2.15408397
-1.68456149 7.96414709 -2.19538116
-1.60081530 8.02662373 -2.08624125
-1.77871907 7.96414661 -2.11981225
-1.69029188 8.02662277 -2.01442957
-1.86949098 7.96414661 -2.04020739
-1.77655125 8.02662277 -1.93878174
-1.95670271 7.96414709 -1.95671964
-1.85942721 8.02662373 -1.85944474
-2.04019213 7.96414661 -1.86950707
-1.93876600 8.02662277 -1.77656794
-2.11979604 7.96414661 -1.77873528
-2.01441264 8.02662277 -1.69030857
-2.19536519 7.96414661 -1.68457878
-2.08622479 8.02662277 -1.60083282
-2.26675558 7.96414661 -1.58721471
-2.15406609 8.02662277 -1.50830913
-2.33383179 7.96414661 -1.48682892
-2.21780729 8.02662277 -1.41291380
-2.39646363 7.96414661 -1.38361287
-2.27732658 8.02662277 -1.31482911
-2.45453382 7.96414661 -1.27776349
-2.33250904 8.02662373 -1.21424198
-2.50793481 7.96414661 -1.16948259
-2.38325500 8.02662277 -1.11134410
-2.55655694 7.96414566 -1.05897439
-2.42946029 8.02662182 -1.00632966
-2.60031533 7.96414661 -0.94645184
-2.47104359 8.02662373 -0.89940095
-2.63912511 7.96414661 -0.83212632
-2.50792336 8.02662277 -0.79075903
-2.67290878 7.96414566 -0.71621764
-2.54002762 8.02662277 -0.68061262
-2.70160842 7.96414566 -0.59894437
-2.56730056 8.02662182 -0.56916940
