-0.57062107 -2.22892952 -0.55684930
-1.10209167 -2.21554852 -0.67979151
-0.89777756 -2.22197366 -0.52219927
-0.69285095 -2.22724819 -0.36772141
-0.36750403 -2.23290014 -0.40637943
-0.48690864 -2.23106885 -0.21625324
-1.02014959 -2.21934319 -0.33149180
-0.81292796 -2.22444248 -0.17624888
-0.60424739 -2.22800875 -0.02434552
-0.27947539 -2.23315430 -0.06799769
-0.39352971 -2.22959423 0.12362976
-0.93095112 -2.22026491 0.01717131
-0.71959931 -2.22336674 0.16882871
-0.50575852 -2.22415113 0.31568441
-0.18021031 -2.22861886 0.26628584
-0.28904685 -2.22200680 0.45623714
-0.83292294 -2.21673942 0.36266816
-0.61618495 -2.21648240 0.50770551
-0.39654663 -2.21319342 0.64594567
-0.06948359 -2.21665525 0.58918279
-0.17435771 -2.20706272 0.77703947
-0.72505665 -2.20670819 0.69986796
-0.50308496 -2.20261598 0.83617002
-0.27890044 -2.19621992 0.96615547
0.04987630 -2.19874501 0.90160751
-0.05282256 -2.18799353 1.09031308
-0.60920244 -2.19095969 1.02795076
-0.38340643 -2.18450642 1.15708971
-0.15568113 -2.17631578 1.28067243
0.17496103 -2.17838812 1.20926809
0.07381376 -2.16675353 1.39917946
-0.48778784 -2.17173624 1.34949255
-0.25865391 -2.16359901 1.47243083
-0.02770164 -2.15412021 1.59045386
0.30488560 -2.15640640 1.51359630
0.20486288 -2.14389706 1.70455122
-0.36172569 -2.14978600 1.66544545
-0.12957400 -2.14047337 1.78300834
0.10420114 -2.13046765 1.89681673
0.43861145 -2.13401604 1.81666195
0.33918190 -2.12075853 2.00861740
-0.23184325 -2.12588000 1.97691250
0.00246454 -2.11683226 2.09154415
0.23879825 -2.10682702 2.20212793
0.47702754 -2.09621263 2.30929875
0.57646751 -2.10968661 2.11564541
-0.09965777 -2.10193753 2.28694010
0.13714629 -2.09278607 2.39811873
0.37638092 -2.08217835 2.50447416
0.61778384 -2.07028127 2.60622907
0.71749371 -2.08425331 2.41175556
0.27479687 -2.06712914 2.70031881
0.03478921 -2.07765770 2.59486651
0.51682907 -2.05564475 2.80179358
0.76068282 -2.04367447 2.90027046
0.86109537 -2.05758119 2.70433569
0.41442090 -2.04109979 2.99986768
0.17193530 -2.05197001 2.89849591
0.65890062 -2.02922463 3.09723210
0.90510285 -2.01712608 3.19235349
1.00643694 -2.03088260 2.99526072
0.55579370 -2.01428008 3.29525590
0.31060004 -2.02661324 3.20041180
0.80246228 -2.00159621 3.38747072
1.05054998 -1.98803127 3.47597313
1.15304601 -2.00319457 3.28190923
0.69865024 -1.98531175 3.58257055
0.45184749 -1.99760032 3.49168205
0.94678664 -1.97266817 3.67102909
1.19623017 -1.95975006 3.75748277
1.30001509 -1.97434163 3.56279182
0.84184939 -1.95694780 3.86665606
0.59376019 -1.96904767 3.77944112
1.09121716 -1.94500506 3.95301127
1.34142101 -1.93181944 4.03477240
1.44687390 -1.94618583 3.84111881
0.98451185 -1.92831695 4.14426374
0.73582220 -1.94028282 4.06124449
1.23403370 -1.91589594 4.22469950
1.48414803 -1.90260136 4.30145025
1.59237456 -1.91790617 4.11336803
1.12539685 -1.89939559 4.41383505
0.87672383 -1.91101229 4.33485842
1.37416005 -1.88603711 4.48633528
1.62206876 -1.87002766 4.55004644
1.73401809 -1.88734865 4.37137032
1.26242471 -1.86730862 4.66549301
1.01530337 -1.88116193 4.59867954
1.50828362 -1.85056365 4.72325611
1.75217569 -1.83129179 4.77432728
1.86793327 -1.85090816 4.60472107
1.39321280 -1.82879543 4.89103651
1.14945006 -1.84596515 4.83797884
1.63517940 -1.80979836 4.93952322
1.87468910 -1.78881264 4.98380470
1.99343002 -1.80972409 4.82040310
1.51777279 -1.78676510 5.10117245
1.27776182 -1.80512917 5.05474949
1.75539219 -1.76645088 5.14352608
1.99007058 -1.74400854 5.18234587
2.11123180 -1.76570737 5.02444077
1.63606501 -1.74261713 5.29981327
1.40053630 -1.76217210 5.25946283
1.86877251 -1.72089398 5.33688211
2.09813714 -1.69664478 5.37176037
2.22126865 -1.71922517 5.21859264
1.74799836 -1.69614768 5.48841286
1.51736164 -1.71719193 5.45298767
1.97569013 -1.67219830 5.52251291
2.20023489 -1.64430404 5.55764818
2.32375264 -1.66926324 5.40614700
1.85468042 -1.64519882 5.67208290
1.62845886 -1.66935492 5.63755751
2.07931137 -1.61555314 5.71022797
2.30265570 -1.57809103 5.75539541
2.42115474 -1.61093557 5.59651423
1.96081221 -1.58171356 5.86569071
1.73539484 -1.61470485 5.82164669
1.51071203 -1.63979375 5.78534555
1.39991820 -1.68987632 5.60327339
1.28436184 -1.66010690 5.75145340
1.16886616 -1.70784616 5.56677771
1.05570781 -1.67746031 5.71641111
0.93553734 -1.72391295 5.52668190
0.82482505 -1.69280648 5.67806721
0.70025694 -1.73839927 5.48228025
0.59193707 -1.70656633 5.63556719
0.46331877 -1.75151658 5.43321133
0.35729071 -1.71898508 5.58833933
0.22508308 -1.76340866 5.37909651
0.12122232 -1.73022354 5.53605938
-0.01414379 -1.77418959 5.31982231
-0.11593949 -1.74037719 5.47840261
-0.25397196 -1.78391278 5.25506067
-0.35383835 -1.74952948 5.41530895
-0.49413237 -1.79264569 5.18478251
-0.59218043 -1.75779128 5.34673500
-0.73427838 -1.80047715 5.10891342
-0.83068305 -1.76519537 5.27259874
-0.97412974 -1.80745649 5.02753735
-1.06903231 -1.77183783 5.19290400
-1.21343958 -1.81355143 4.94044924
-1.30694640 -1.77773356 5.10769176
-1.45184708 -1.81877887 4.84772587
-1.54407537 -1.78284991 5.01687384
-1.68892896 -1.82301712 4.74915457
-1.78012061 -1.78710616 4.92030191
-1.92380774 -1.82590914 4.64364815
-2.01459050 -1.79040051 4.81782246
-2.15588117 -1.82734060 4.53116226
-2.24681020 -1.79249334 4.70898819
-2.38393378 -1.82696331 4.41084957
-2.47603583 -1.79317117 4.59327030
-2.70139027 -1.79222810 4.47040224
-2.60726547 -1.82474053 4.28291893
-2.92216992 -1.78957653 4.34050226
-2.82597828 -1.82093656 4.14856195
-3.13829279 -1.78536892 4.20441294
-3.04056096 -1.81588256 4.00916147
-3.35003519 -1.77986288 4.06327248
-3.25231934 -1.81018758 3.86680937
-3.55828238 -1.77351832 3.91871190
-3.46017909 -1.80346215 3.72061372
-3.76207066 -1.76601362 3.77013540
-3.66476035 -1.79603159 3.57168245
-3.96252275 -1.75790989 3.61912298
-3.86625600 -1.78806174 3.42050600
-4.15839529 -1.74883509 3.46465015
-4.06426764 -1.77949512 3.26697326
-4.34953260 -1.73886633 3.30699706
-4.25878716 -1.77043557 3.11143613
-4.53470707 -1.72757196 3.14573240
-4.44738674 -1.75998211 2.95211625
-4.71210480 -1.71420288 2.97988057
-4.62886333 -1.74769270 2.78852558
-4.88244390 -1.69905639 2.81049299
-4.80238962 -1.73329163 2.62050724
-5.04660559 -1.68238902 2.63836551
-4.96807098 -1.71685731 2.44851637
-5.20569801 -1.66438270 2.46462226
-5.12768698 -1.69899857 2.27407765
-5.36077023 -1.64517355 2.28981471
-5.28270531 -1.68016946 2.09826565
-5.51220560 -1.62464356 2.11345172
-5.43375969 -1.66035807 1.92123246
-5.66069221 -1.60243022 1.93512738
-5.58144999 -1.63927674 1.74297202
-5.80723953 -1.57777345 1.75424767
-5.72680950 -1.61606753 1.56383252
-5.95570517 -1.54751241 1.57635713
-5.87215471 -1.58884358 1.38651049
-6.02060890 -1.55504346 1.21461117
-6.11238241 -1.50698495 1.40724564
-5.79618406 -1.62282002 1.18935537
-5.94069767 -1.59266067 1.01550376
-5.72419786 -1.65174687 0.98735869
-5.86811161 -1.62303841 0.81156731
-5.65329456 -1.67739892 0.78231466
-5.79823923 -1.64896142 0.60488719
-5.58166838 -1.70084643 0.57534945
-5.72815704 -1.67209601 0.39677441
-5.50801897 -1.72260344 0.36713129
-5.65607548 -1.69341898 0.18815133
-5.43176317 -1.74294293 0.15803626
-5.58123589 -1.71323276 -0.02083747
-5.35220432 -1.76192141 -0.05168322
-5.50324154 -1.73170137 -0.23028225
-5.26925182 -1.77974510 -0.26182994
-5.42146492 -1.74894166 -0.44011599
-5.18259335 -1.79646933 -0.47216031
-5.33561993 -1.76505256 -0.65002459
-5.09188414 -1.81205106 -0.68241477
-5.24544430 -1.78009522 -0.85983437
-4.99673080 -1.82644892 -0.89227480
-5.15089607 -1.79409158 -1.06935501
-4.89720154 -1.83971739 -1.10157430
-5.05177689 -1.80702579 -1.27830064
-4.79320192 -1.85183907 -1.31001365
-4.94822454 -1.81893861 -1.48652279
-4.68515635 -1.86292887 -1.51746285
-4.83982229 -1.82963085 -1.69358790
-4.57226276 -1.87265539 -1.72343695
-4.72664595 -1.83908725 -1.89924264
-4.45492554 -1.88110876 -1.92769051
-4.60882854 -1.84728372 -2.10321760
-4.33334684 -1.88831937 -2.12995386
-4.48698378 -1.85439432 -2.30538511
-4.20843124 -1.89458251 -2.33022237
-4.36067820 -1.86023295 -2.50524163
-4.07934904 -1.89955771 -2.52772260
-4.23064423 -1.86504269 -2.70263457
-3.94689918 -1.90352893 -2.72231174
-4.09759808 -1.86906254 -2.89744902
-3.81125593 -1.90657866 -2.91349363
-3.96081996 -1.87205803 -3.08872080
-3.67238212 -1.90877712 -3.10047650
-3.82062674 -1.87424171 -3.27581334
-3.53003430 -1.91022003 -3.28216338
-3.67669964 -1.87571645 -3.45753336
-3.38448429 -1.91129684 -3.45770741
-3.52843690 -1.87665212 -3.63234305
-3.23348689 -1.91175222 -3.62436724
-3.37554336 -1.87741303 -3.79895973
-3.07674170 -1.91208518 -3.78086638
-3.21588445 -1.87803721 -3.95484567
-2.91426730 -1.91275704 -3.92650819
-3.04971719 -1.87908804 -4.09939861
-2.87535381 -1.88066316 -4.23084974
-2.74361777 -1.91372383 -4.05882072
-2.69322729 -1.88297057 -4.34912205
-2.56548524 -1.91530418 -4.17812300
-2.50468230 -1.88605416 -4.45487928
-2.38109183 -1.91759634 -4.28532076
-2.31035495 -1.88960063 -4.54857063
-2.19010615 -1.92022872 -4.38039017
-2.11291337 -1.89327753 -4.63267136
-1.99516642 -1.92295301 -4.46607208
-1.91456127 -1.89648604 -4.71097898
-1.79843378 -1.92537868 -4.54542255
-1.71581697 -1.89801455 -4.79063177
-1.59926343 -1.92618632 -4.62244987
-1.51282227 -1.89567244 -4.88916540
-1.40049374 -1.92644954 -4.69747543
-1.47253680 -1.95037770 -4.46247053
-1.66811144 -1.95031917 -4.38242340
-1.52709162 -1.97343671 -4.22461987
-1.71878529 -1.97399235 -4.13474846
-1.86237967 -1.94921994 -4.29897261
-1.56557643 -1.99829984 -3.97549129
-1.75229585 -1.99988723 -3.87382746
-1.90786850 -1.97382128 -4.04000521
-1.58895171 -2.02509761 -3.71231675
-1.76987195 -2.02772021 -3.59834719
-1.93297112 -2.00051785 -3.76562023
-1.59921384 -2.05281067 -3.43459558
-1.77447009 -2.05648279 -3.30893016
-1.94361746 -2.02906203 -3.47723365
-1.59859490 -2.08064222 -3.14341259
-1.76849687 -2.08529711 -3.00719762
-1.94414210 -2.05916715 -3.17704415
-1.59017980 -2.10874939 -2.84087157
-1.75261199 -2.11305857 -2.69460988
-1.93256867 -2.08893061 -2.86501503
-1.56943738 -2.13390779 -2.52707815
-1.91148996 -2.11746693 -2.54334545
-1.72789752 -2.13918996 -2.37277985
-1.53993249 -2.15705490 -2.20433927
-1.88054597 -2.14342117 -2.21308017
-1.69116890 -2.16134214 -2.04173923
-1.49773276 -2.17577457 -1.87274361
-1.83649695 -2.16434836 -1.87356055
-1.64109492 -2.17835832 -1.70204139
-1.44303906 -2.18990541 -1.53361356
-1.77937555 -2.17965770 -1.52592027
-1.57957816 -2.19083285 -1.35567904
-1.37876034 -2.20064378 -1.18905509
-1.71228015 -2.19060135 -1.17289078
-1.50983572 -2.20012641 -1.00502193
-1.30588901 -2.20810366 -0.84065062
-1.63683295 -2.19770837 -0.81667089
-1.43163002 -2.20563078 -0.65160495
-1.22602320 -2.21281171 -0.48993936
-1.55499792 -2.20185685 -0.45933795
-1.34797835 -2.20899200 -0.29720506
-1.13998783 -2.21514034 -0.13839979
-1.46741402 -2.20347738 -0.10210391
-1.25786078 -2.20953727 0.05677161
-1.04633582 -2.21394038 0.21172386
-1.37313211 -2.20183873 0.25329655
-1.15985179 -2.20590758 0.40750617
-0.94358826 -2.20733213 0.55623525
-1.27101946 -2.19558501 0.60377961
-1.05304360 -2.19647980 0.75100261
-0.83197105 -2.19443631 0.89179486
-1.16103446 -2.18379807 0.94639999
-0.93882561 -2.18167496 1.08607268
-0.71415639 -2.17732382 1.21999907
-1.04498386 -2.16757703 1.28143191
-0.81932282 -2.16325045 1.41440475
-0.59134275 -2.15699911 1.54195380
-0.92405158 -2.14784861 1.60976541
-0.69525540 -2.14176250 1.73660290
-0.46434706 -2.13417101 1.85858035
-0.79903954 -2.12531662 1.93226385
-0.56756020 -2.11812139 2.05391073
-0.33427140 -2.11005378 2.17168951
-0.67110395 -2.10118890 2.25066423
-0.43797964 -2.09437633 2.36946893
-0.20261055 -2.08642507 2.48403835
-0.54208392 -2.07763886 2.56831861
-0.30651686 -2.07041645 2.68303084
-0.06852214 -2.06192017 2.79321074
-0.17318463 -2.04615259 2.99417806
-0.41154990 -2.05413055 2.88431764
0.06790206 -2.03639126 3.09842992
-0.03731145 -2.02027488 3.29988360
-0.27929813 -2.03051138 3.19816136
0.20645760 -2.00933361 3.39769626
0.10117143 -1.99200678 3.59719133
-0.14315662 -2.00276685 3.50143981
0.34690395 -1.98058033 3.68932581
0.24105416 -1.96333277 3.88834214
-0.00509378 -1.97452080 3.79858375
0.48801565 -1.95184958 3.97566223
0.38160270 -1.93277168 4.16838360
0.13519943 -1.94329453 4.08182764
0.62876719 -1.92208970 4.25294065
0.52096957 -1.90355814 4.44507027
0.27458847 -1.91337717 4.36169291
0.76794958 -1.89286911 4.52416515
0.65838397 -1.87317359 4.71001816
0.41257301 -1.88342142 4.63372087
0.90433788 -1.86121881 4.77933693
0.79262173 -1.83679664 4.94834375
0.54845577 -1.85007501 4.88682604
1.03587890 -1.82175267 5.00394917
0.92282599 -1.79578805 5.16655111
0.68153566 -1.81028140 5.11328173
1.16262949 -1.77982140 5.21519899
1.04835868 -1.75281155 5.37246990
0.81076890 -1.76806593 5.32599640
1.28406072 -1.73595011 5.41462660
0.57160348 -1.78189039 5.27489138
0.43919203 -1.82339764 5.05497789
0.33122191 -1.79445887 5.21885300
0.19625688 -1.83494270 4.99056530
0.09005875 -1.80581033 5.15753937
-0.04690607 -1.84526610 4.92055988
-0.15155181 -1.81594241 5.09051275
-0.29001233 -1.85448778 4.84498835
-0.39328852 -1.82501268 5.01789284
-0.53236872 -1.86198330 4.76165295
-0.63497019 -1.83324194 4.94011307
-0.77468836 -1.86946428 4.67589617
-0.87600255 -1.84025359 4.85594702
-1.01642191 -1.87624359 4.58558273
-1.11670685 -1.84673977 4.76744747
-1.25747907 -1.88242435 4.49107361
-1.35648620 -1.85231042 4.67346191
-1.49492598 -1.88569570 4.38508892
-1.59406638 -1.85618353 4.57164574
-1.72954428 -1.88762867 4.27271414
-1.82914793 -1.85860944 4.46291780
-1.95959246 -1.88751364 4.15178061
-2.05991888 -1.85889375 4.34524345
-2.28601670 -1.85731220 4.21967363
-2.18461323 -1.88546252 4.02290344
-2.50747490 -1.85410762 4.08736420
-2.40546608 -1.88200355 3.88832092
-2.72499084 -1.84968174 3.95002723
-2.62308955 -1.87757206 3.74983668
-2.93991828 -1.84463239 3.80981278
-2.83813548 -1.87244761 3.60855341
-3.15142107 -1.83864141 3.66598272
-3.05035996 -1.86654544 3.46435666
-3.35993242 -1.83193064 3.51934123
-3.25980878 -1.85991836 3.31750703
-3.56559348 -1.82461667 3.37031674
-3.46656084 -1.85265994 3.16833138
-3.76841140 -1.81679285 3.21922088
-3.67057776 -1.84484327 3.01707721
-3.96817636 -1.80846357 3.06611228
-3.87170529 -1.83650315 2.86386418
-4.16450596 -1.79957402 2.91095400
-4.06966639 -1.82762444 2.70870590
-4.35676003 -1.78994596 2.75350165
-4.26371956 -1.81799781 2.55124068
-4.54211187 -1.77851093 2.59169531
-4.45219088 -1.80702460 2.39037442
-4.71938992 -1.76484609 2.42509055
-4.63388538 -1.79427445 2.22550726
-4.88812542 -1.74882042 2.25384474
-4.80539465 -1.77840424 2.05450177
-5.04939795 -1.73087442 2.07905889
-4.96917486 -1.76041698 1.87969100
-5.20557213 -1.71185482 1.90253603
-5.12748766 -1.74114943 1.70279121
-5.35772181 -1.69200361 1.72490799
-5.28159761 -1.72094476 1.52465141
-5.50626993 -1.67102909 1.54626834
-5.43203640 -1.69966531 1.34562278
-5.65197754 -1.64836538 1.36721098
-5.57930279 -1.67686141 1.16614294
-5.35703611 -1.72599518 1.14172876
-5.50664663 -1.70278323 0.96186244
-5.28034067 -1.75040388 0.93541992
-5.43269968 -1.72669876 0.75532681
-5.20050144 -1.77269781 0.72711551
-5.35667467 -1.74900866 0.54724836
-5.11745882 -1.79327297 0.51751417
-5.27731228 -1.76949477 0.33800241
-5.03109264 -1.81232584 0.30706564
-5.19507742 -1.78876328 0.12804896
-4.94272709 -1.83057296 0.09645975
-5.10988426 -1.80694318 -0.08230299
-4.85223484 -1.84805667 -0.11411975
-5.02171040 -1.82415879 -0.29282102
-4.75953579 -1.86481273 -0.32449487
-4.93033504 -1.84041166 -0.50329912
-4.66417265 -1.88071597 -0.53453851
-4.83518505 -1.85555625 -0.71348810
-4.56542253 -1.89552987 -0.74409348
-4.73573780 -1.86943793 -0.92311257
-4.46252108 -1.90899909 -0.95291466
-4.63164043 -1.88196290 -1.13183546
-4.35599947 -1.92130446 -1.16078627
-4.52379179 -1.89344203 -1.33955622
-4.24382591 -1.93171322 -1.36722362
-4.41098166 -1.90340042 -1.54577076
-4.12730932 -1.94066942 -1.57196009
-4.29391336 -1.91204834 -1.75026357
-4.00683594 -1.94830394 -1.77470982
-4.17280626 -1.91942501 -1.95274830
-3.88273740 -1.95469725 -1.97518039
-4.04799414 -1.92561781 -2.15296650
-3.75526714 -1.95987606 -2.17304945
-3.92040777 -1.93094563 -2.35090113
-3.62467146 -1.96392035 -2.36794376
-3.78890324 -1.93496644 -2.54560447
-3.49111319 -1.96694613 -2.55936670
-3.65428615 -1.93800735 -2.73684239
-3.35461140 -1.96906281 -2.74657440
-3.51659226 -1.94016314 -2.92388439
-3.21498060 -1.97039509 -2.92848396
-3.37561417 -1.94153905 -3.10565186
-3.07180047 -1.97111750 -3.10368991
-3.23098254 -1.94231319 -3.28080440
-2.92435932 -1.97142839 -3.27054286
-3.08187509 -1.94265258 -3.44761539
-2.77297902 -1.97154021 -3.42867517
-2.92743778 -1.94280577 -3.60442257
-2.61480618 -1.97153544 -3.57473063
-2.76801372 -1.94321942 -3.75097799
-2.60090256 -1.94378614 -3.88447380
-2.44980192 -1.97169876 -3.70863533
-2.42623472 -1.94478238 -4.00498867
-2.27365494 -1.97248983 -3.82765198
-2.24554038 -1.94634676 -4.11404848
-2.09219241 -1.97326756 -3.93775034
-2.05525851 -1.94777763 -4.21008921
-2.11073470 -2.00089431 -3.65032005
-2.28357244 -2.00105047 -3.52676630
-2.11443686 -2.03040767 -3.34942913
-2.28004265 -2.03147268 -3.21357250
-2.45008445 -2.00093579 -3.39338064
-2.10671020 -2.06090331 -3.03706264
-2.43936777 -2.03202963 -3.06848001
-2.26604390 -2.06292462 -2.89046097
-2.09110403 -2.09202576 -2.71610141
-2.41901827 -2.06424761 -2.73503184
-2.24434662 -2.09468365 -2.56004810
-2.06389880 -2.12074327 -2.38535142
-2.39162707 -2.09646559 -2.39577341
-2.21117210 -2.12347078 -2.22047973
-2.02622223 -2.14605188 -2.04637814
-2.35272241 -2.12504721 -2.04776192
-2.16717172 -2.14791441 -1.87306297
-1.97538793 -2.16554499 -1.69857097
-2.30307531 -2.14829493 -1.69260013
-2.11032915 -2.16574597 -1.51754189
-1.91253126 -2.17922020 -1.34380054
-2.24114132 -2.16425300 -1.33054125
-2.04265881 -2.17768836 -1.15662730
-1.84101200 -2.18868279 -0.98515862
-2.16818047 -2.17352080 -0.96456712
-1.96621251 -2.18483400 -0.79319340
-1.76086354 -2.19364810 -0.62468410
-2.08811188 -2.17881513 -0.59804434
-1.88218391 -2.18784380 -0.42972916
-1.67508686 -2.19592953 -0.26442441
-1.99953139 -2.17924142 -0.23256370
-1.79225624 -2.18790412 -0.06742673
-1.58333540 -2.19535065 0.09453046
-1.90556479 -2.17696548 0.13073289
-1.69646001 -2.18498302 0.29240578
-1.48483694 -2.19112349 0.45012021
-1.80629563 -2.17184091 0.49063325
-1.59450555 -2.17847538 0.64781189
-1.37913167 -2.18224072 0.79959697
-1.70189822 -2.16351676 0.84560651
-1.48640215 -2.16774583 0.99677199
-1.26688373 -2.16858673 1.14148998
-1.59227848 -2.15141892 1.19424486
-1.37269282 -2.15276814 1.33847737
-1.14940834 -2.15101647 1.47628224
-1.47753501 -2.13529062 1.53582335
-1.25406444 -2.13394713 1.67311954
-1.02748585 -2.13015914 1.80464756
-1.35794199 -2.11519909 1.87020099
-1.13134515 -2.11199641 2.00154972
-0.90213764 -2.10700631 2.12792635
-1.23511159 -2.09266305 2.19936252
-1.00612772 -2.08855033 2.32608676
-0.77555722 -2.08401179 2.44981623
-1.11180127 -2.07062793 2.52771449
-0.88108778 -2.06662130 2.65137553
-0.64756894 -2.06101418 2.77012014
-0.98803329 -2.04929352 2.85578775
-0.75418073 -2.04404902 2.97418070
-0.51779908 -2.03759623 3.08801436
-0.62535238 -2.02066994 3.29395533
-0.86218679 -2.02694321 3.18088245
-0.38555613 -2.01266861 3.40104818
-0.49172390 -1.99260688 3.60216498
-0.73038542 -1.99882448 3.49304700
-0.25041521 -1.98532569 3.70613551
-0.35545066 -1.96349919 3.90157723
-0.59944171 -1.97265339 3.80637455
-0.11046540 -1.95352638 3.99284577
-0.21620035 -1.93221629 4.18761349
-0.46066815 -1.94129860 4.09713840
0.02891505 -1.92278254 4.27541304
-0.07765999 -1.90158165 4.46845865
-0.32206550 -1.91028476 4.38194656
0.16719988 -1.89271224 4.55265093
0.05967935 -1.87081778 4.74146843
-0.18417515 -1.87917149 4.65940809
0.30395129 -1.86142433 4.81814528
-0.42762557 -1.88710916 4.57397890
-0.56598705 -1.91873062 4.29287386
-0.67081249 -1.89496899 4.48628473
-0.80939591 -1.92683995 4.20108223
-0.91353619 -1.90245259 4.39542532
-1.04978871 -1.93244231 4.09898090
-1.15531206 -1.90904188 4.29975796
-1.28707111 -1.93635070 3.98943090
-1.39183748 -1.91180289 4.18929577
-1.52086461 -1.93864214 3.87300277
-1.62620175 -1.91386104 4.07485342
-1.75072587 -1.93921006 3.74969172
-1.85616219 -1.91402435 3.95256376
-2.08055997 -1.91192865 3.82162023
-1.97644913 -1.93803132 3.61988044
-2.30192709 -1.90881467 3.68667388
-2.19907475 -1.93562841 3.48566556
-2.52055597 -1.90481102 3.54838610
-2.41882181 -1.93211854 3.34767962
-2.73645973 -1.89992797 3.40696931
-2.63527703 -1.92733431 3.20571828
-2.94962335 -1.89418197 3.26261449
-2.84936476 -1.92171216 3.06111217
-3.16011405 -1.88763821 3.11560607
-3.05708170 -1.91367817 2.91065168
-3.36799860 -1.88038611 2.96623731
-3.26313210 -1.90529215 2.75884318
-3.56856179 -1.87076867 2.81110072
-3.46550250 -1.89583182 2.60420156
-3.76826406 -1.86131871 2.65570045
-3.66528153 -1.88578427 2.44780874
-3.96548915 -1.85148954 2.49885631
-3.86228418 -1.87514198 2.28965425
-4.15948629 -1.84105241 2.34008622
-4.05666351 -1.86400974 2.12984681
-4.34981298 -1.82988262 2.17912078
-4.24740648 -1.85206223 1.96782017
-4.53535509 -1.81761134 2.01534534
-4.43453693 -1.83934319 1.80360234
-4.71442413 -1.80363655 1.84781587
-4.61604929 -1.82514656 1.63611770
-4.88477993 -1.78710902 1.67554212
-4.79173851 -1.80939698 1.46542346
-5.04694319 -1.76810372 1.49924457
-4.96106291 -1.79183805 1.29150486
-5.20397711 -1.74767530 1.32104254
-5.12416983 -1.77240908 1.11479592
-4.87037325 -1.81292713 1.08105624
-5.03845453 -1.79388666 0.90530401
-4.77784872 -1.83282423 0.86994404
-4.95044804 -1.81403816 0.69489944
-4.68416309 -1.85193908 0.65881675
-4.85971403 -1.83286333 0.48386630
-4.58898544 -1.87025762 0.44781876
-4.76786757 -1.85111952 0.27303365
-4.49379301 -1.88838995 0.23758982
-4.67485142 -1.86885655 0.06254676
-4.39792871 -1.90613389 0.02798932
-4.58048820 -1.88605618 -0.14750411
-4.30089521 -1.92332280 -0.18101305
-4.48434639 -1.90258622 -0.35706869
-4.20326138 -1.94010401 -0.38924640
-4.38593006 -1.91826868 -0.56607342
-4.10243034 -1.95558274 -0.59700859
-4.28533602 -1.93310428 -0.77439785
-3.99825978 -1.96967924 -0.80404341
-4.17968655 -1.94612193 -0.98195082
-3.89001250 -1.98220587 -1.01013660
-4.06921339 -1.95740628 -1.18832755
-3.77728510 -1.99327087 -1.21502006
-3.95408678 -1.96708667 -1.39316225
-3.66112137 -2.00299096 -1.41845965
-3.83498168 -1.97541726 -1.59615779
-3.53995490 -2.01123476 -1.61980951
-3.71210337 -1.98241651 -1.79694963
-3.41334176 -2.01817131 -1.81809366
-3.58575392 -1.98795176 -1.99515629
-3.28482318 -2.02313995 -2.01370096
-3.45620441 -1.99217808 -2.19037414
-3.15328479 -2.02690673 -2.20565677
-3.32379079 -1.99527299 -2.38212442
-3.01957583 -2.02917075 -2.39361882
-3.18857622 -1.99741769 -2.56964183
-2.88369298 -2.02984476 -2.57694864
-3.05033231 -1.99878526 -2.75179601
-2.73991799 -2.03170967 -2.74914169
-2.90859032 -1.99961698 -2.92711687
-2.59155631 -2.03217840 -2.91277552
-2.76258016 -2.00012159 -3.09393883
-2.61156154 -2.00023842 -3.25094390
-2.56618619 -2.06472278 -2.57067895
-2.70923686 -2.06486201 -2.39857483
-2.53302479 -2.09710622 -2.22275305
-2.84591436 -2.06384706 -2.21703124
-2.67023635 -2.09697628 -2.04235411
-2.48897648 -2.12499690 -1.86721110
-2.80399728 -2.09548306 -1.85572958
-2.62164593 -2.12357092 -1.68042612
-2.43411422 -2.14641452 -1.50533199
-2.75128865 -2.12062836 -1.48860228
-2.56193638 -2.14276361 -1.31314635
-2.36672187 -2.15956593 -1.13801551
-2.68597746 -2.13656950 -1.11704624
-2.49058151 -2.15381074 -0.94234252
-2.29065704 -2.16732740 -0.76909465
-2.60863495 -2.14382029 -0.74358964
-2.40938926 -2.15846872 -0.57092863
-2.20493627 -2.16922307 -0.40053478
-2.52230406 -2.14542818 -0.37101862
-2.31805706 -2.15692496 -0.20138098
-2.11222816 -2.16723800 -0.03416614
-2.42743254 -2.14187479 -0.00127689
-2.22184968 -2.15285683 0.16521128
-2.01467180 -2.16272783 0.32917041
-2.32902026 -2.13647103 0.36517081
-2.12193918 -2.14679575 0.52835453
-1.91283083 -2.15574503 0.68851101
-2.22736359 -2.12908506 0.72785497
-2.01839399 -2.13842225 0.88723516
-1.80662632 -2.14580512 1.04271209
-2.12260127 -2.11944771 1.08610785
-1.91097176 -2.12717366 1.24088049
-1.69581413 -2.13234186 1.39072752
-2.01409292 -2.10677624 1.43893945
-1.79898727 -2.11219883 1.58808064
-1.58004224 -2.11479735 1.73163188
-1.90176523 -2.09081578 1.78591347
-1.68283105 -2.09367609 1.92888916
-1.46041155 -2.09408975 2.06648302
-1.78661454 -2.07244444 2.12820172
-1.56436253 -2.07336116 2.26569772
-1.33926213 -2.07258320 2.39866590
-1.67080820 -2.05385733 2.46902704
-1.44592333 -2.05376482 2.60229063
-1.21832275 -2.05222178 2.73128104
-1.55305433 -2.03403425 2.80699134
-1.32694459 -2.03449869 2.93854594
-1.09608090 -2.03157592 3.06236959
-1.43102002 -2.01037145 3.13772678
-1.20059168 -2.00814795 3.26161933
-0.96656740 -2.00391483 3.37930965
-1.30695832 -1.98530412 3.46437955
-1.07322073 -1.98186958 3.58212423
-0.83699316 -1.97738695 3.69533825
-0.94435084 -1.95572138 3.89884567
-1.18157017 -1.96026313 3.78826618
-0.70424157 -1.94965351 4.00287724
-1.41543150 -1.96316421 3.67110491
-1.64364064 -1.96319222 3.54451990
-1.53665757 -1.98664725 3.33982587
-1.86985576 -1.96252346 3.41482973
-1.76330233 -1.98651397 3.21042395
-2.09289122 -1.96043706 3.28060269
-1.98701882 -1.98498952 3.07664394
-2.31300306 -1.95713234 3.14251256
-2.20715642 -1.98170114 2.93806672
-2.52985764 -1.95243835 3.00041151
-2.42432880 -1.97707462 2.79568362
-2.74583054 -1.94761205 2.85685945
-2.63864398 -1.97123325 2.64994836
-2.95404148 -1.93939447 2.70592475
-2.84832835 -1.96336055 2.49963164
-3.15989065 -1.93045974 2.55298710
-3.05577731 -1.95475221 2.34699774
-3.36313248 -1.92076778 2.39795256
-3.26150084 -1.94565678 2.19257641
-3.56316924 -1.91014099 2.24064302
-3.46172404 -1.93438387 2.03425431
-3.76017141 -1.89872169 2.08131623
-3.65882611 -1.92218351 1.87378716
-3.95425749 -1.88660920 1.92009699
-3.85294533 -1.90917349 1.71133733
-4.14562988 -1.87392271 1.75710487
-4.04465437 -1.89561415 1.54722023
-4.33328199 -1.86033010 1.59182906
-4.23287916 -1.88114142 1.38092363
-4.51724625 -1.84586549 1.42429793
-4.41845369 -1.86608720 1.21285999
-4.69648075 -1.83015430 1.25407815
-4.59965944 -1.84982467 1.04230714
-4.31959677 -1.88587666 1.00198257
-4.50298500 -1.86916280 0.83115345
-4.22157001 -1.90563405 0.79213214
-4.40644598 -1.88824594 0.62074089
-4.12377644 -1.92519808 0.58310503
-4.30985785 -1.90706456 0.41106611
-4.02582407 -1.94446850 0.37480778
-4.21283340 -1.92551589 0.20206933
-3.92728257 -1.96332240 0.16715015
-4.11494970 -1.94346666 -0.00629820
-3.82535648 -1.98073244 -0.04047871
-4.01575565 -1.96075416 -0.21405163
-3.72321343 -1.99800313 -0.24715729
-3.91508579 -1.97729385 -0.42110798
-3.61924171 -2.01475334 -0.45314437
-3.80973959 -1.99228787 -0.62781924
-3.51475525 -2.03160620 -0.65824336
-3.70260072 -2.00674081 -0.83350998
-3.40737820 -2.04791713 -0.86261731
-3.59321117 -2.02055788 -1.03813946
-3.29663563 -2.06326175 -1.06600749
-3.47931027 -2.03307462 -1.24154723
-3.18199825 -2.07693124 -1.26814795
-3.36067200 -2.04361773 -1.44310534
-3.06104064 -2.08666348 -1.46788692
-3.23797941 -2.05208921 -1.64233267
-2.93619728 -2.09366012 -1.66485834
-3.11095572 -2.05798864 -1.83836889
-2.98121309 -2.06234145 -2.03097868
-2.87988138 -2.11763692 -1.29347169
-2.99766421 -2.10569191 -1.09304333
-2.80495000 -2.12652802 -0.91773993
-3.11062765 -2.09075165 -0.89101470
-2.92122269 -2.11471510 -0.71648264
-2.72235799 -2.13075399 -0.54300559
-3.02648878 -2.09532356 -0.51401180
-2.83236909 -2.11517930 -0.34099221
-2.63195848 -2.13008428 -0.16988519
-2.93667388 -2.09590840 -0.13864176
-2.73990130 -2.11355996 0.03239415
-2.53399420 -2.12472534 0.19937901
-2.84198451 -2.09313703 0.23412569
-2.63914537 -2.10647821 0.40098837
-2.43369412 -2.11801791 0.56530845
-2.74249339 -2.08679557 0.60277820
-2.53781271 -2.09884214 0.76633400
-2.33084035 -2.10945225 0.92725945
-2.64213419 -2.07936502 0.96843851
-2.43480182 -2.08964252 1.12804234
-2.22528267 -2.09862494 1.28475940
-2.53927803 -2.06959581 1.33012128
-2.32904911 -2.07796311 1.48529947
-2.11663866 -2.08509183 1.63735378
-2.43368220 -2.05722857 1.68749726
-2.22133780 -2.06436729 1.83886409
-2.00516844 -2.06903720 1.98528779
-2.32930326 -2.04541135 2.04455328
-2.11127543 -2.04865384 2.18855643
-1.89244521 -2.05201054 2.33084702
-2.21703029 -2.02696276 2.39214873
-2.00030041 -2.03221107 2.53662801
-1.77917993 -2.03490710 2.67557001
-2.10242820 -2.00637603 2.73552561
-1.88205683 -2.00954843 2.87448502
-1.65789950 -2.01063466 3.00820994
-2.31980991 -2.00175953 2.59265852
-2.53402042 -1.99564624 2.44600964
-2.43085933 -2.02032709 2.24417019
-2.74403787 -1.98754573 2.29511642
-2.64133263 -2.01209068 2.09259343
-2.95143533 -1.97842538 2.14154959
-2.84823704 -2.00218511 1.93763566
-3.15626335 -1.96834886 1.98558950
-3.05274701 -1.99136996 1.78037167
-3.35787511 -1.95707321 1.82704067
-3.25443840 -1.97946036 1.62073588
-3.55803847 -1.94550300 1.66706645
-3.45421338 -1.96695983 1.45937288
-3.75234818 -1.93162417 1.50345469
-3.65014172 -1.95293593 1.29538417
-3.94446731 -1.91720212 1.33825052
-3.84443259 -1.93848979 1.12997401
-4.13325071 -1.90182805 1.17094946
-4.03421545 -1.92238522 0.96187913
-3.74492121 -1.95967174 0.92258716
-3.93548012 -1.94275844 0.75362825
-3.64299893 -1.97941601 0.71492398
-3.83688521 -1.96295059 0.54616392
-3.54136562 -1.99908483 0.50826609
-3.73483348 -1.98142159 0.33834499
-3.43956304 -2.01858020 0.30244917
-3.63275313 -1.99982786 0.13152106
-3.33715987 -2.03779149 0.09729185
-3.53024769 -2.01807117 -0.07447716
-3.23487568 -2.05725360 -0.10705495
-3.42727757 -2.03635693 -0.27967522
-3.13072658 -2.07604122 -0.31095299
-3.32306886 -2.05444932 -0.48419374
-3.21824718 -2.07298183 -0.68794394
-3.03860068 -2.07547736 0.06397218
-3.14140010 -2.05581212 0.26757792
-2.94420910 -2.07281089 0.43659031
-3.24364948 -2.03586054 0.47175384
-3.04647994 -2.05239511 0.63980716
-2.84739709 -2.06787586 0.80629212
-3.14731884 -2.03092194 0.84308624
-2.94794226 -2.04571128 1.00826955
-2.74773431 -2.06030798 1.17235577
-3.04979634 -2.02392268 1.21153760
-2.84800005 -2.03702569 1.37353384
-2.64492536 -2.04979300 1.53411281
-2.95000076 -2.01425982 1.57637227
-2.74546409 -2.02560115 1.73478293
-2.53911543 -2.03634214 1.89129233
-3.15165520 -2.00167346 1.41551232
-3.35120940 -1.98831022 1.25281560
-3.24896431 -2.00963020 1.04742110
-3.54839301 -1.97402346 1.08822012
-3.44649243 -1.99469721 0.88178426
-3.34459853 -2.01509976 0.67618454
2.54503942 -1.63761854 5.44254160
2.63641477 -1.57024968 5.64142466
2.76104593 -1.59954226 5.48441887
2.44856286 -1.69175208 5.25350285
2.67161417 -1.66067338 5.28917980
2.89049459 -1.62393248 5.32904530
2.79807019 -1.68168783 5.13376617
3.01862288 -1.64606702 5.17206812
2.96997547 -1.55128396 5.53736210
3.10666823 -1.57728052 5.37849140
3.23557401 -1.60235107 5.21740055
3.14544821 -1.66626978 5.01208973
3.36364746 -1.62455928 5.05417252
3.44936442 -1.54554224 5.27554178
3.32684469 -1.51305759 5.44479561
3.57877636 -1.57126975 5.10649347
3.49032044 -1.64451993 4.88713217
3.70927262 -1.59378743 4.93318319
3.78999376 -1.50039887 5.17585039
3.65376520 -1.47242355 5.34987450
3.93511987 -1.52510488 4.99096966
4.04425478 -1.55558181 4.80633259
3.82931447 -1.61577046 4.75691843
3.99109364 -1.40547884 5.27241707
4.19395685 -1.42517185 5.06144381
3.79856372 -1.39773273 5.43331766
3.57761216 -1.41720283 5.53328657
3.02137303 -1.45843923 5.76485777
3.15024590 -1.38878214 5.85370731
3.35566616 -1.39649463 5.71836662
3.16901517 -1.48667538 5.61081553
2.84122467 -1.52022541 5.69480896
3.73154902 -1.67955685 4.54080009
3.61248159 -1.66298246 4.71608543
3.94726562 -1.63473248 4.57757092
3.51155901 -1.71758878 4.50625896
3.39252639 -1.70194483 4.67951918
3.27045226 -1.68482459 4.84809351
3.16819835 -1.73604429 4.64388847
3.04701209 -1.71925628 4.81169271
2.92343998 -1.70115530 4.97486401
2.81924200 -1.75020814 4.77531099
2.69707751 -1.73201787 4.93883753
2.57331705 -1.71256673 5.09805107
2.46641612 -1.76018178 4.90187788
2.34426594 -1.74036360 5.06217337
2.23171711 -1.78604329 4.86270523
2.35088134 -1.80498862 4.69691896
2.58709669 -1.77869689 4.73740005
2.11103392 -1.82911253 4.65307426
2.22673655 -1.84685802 4.48140001
2.46818161 -1.82249641 4.52687740
1.98181510 -1.86861062 4.43039799
2.09357905 -1.88468945 4.25181103
2.34015107 -1.86300552 4.30546045
1.84355342 -1.90260029 4.18691397
1.95119774 -1.91695035 3.99994159
2.20257306 -1.89903069 4.06813288
1.69892645 -1.93248296 3.92360830
1.80310428 -1.94558644 3.72989297
2.05678725 -1.93051326 3.81066871
1.55085289 -1.96015167 3.64723754
1.65327072 -1.97381425 3.45341110
1.90559220 -1.95843685 3.53598213
1.40246165 -1.98881209 3.36900091
1.50334704 -2.00284481 3.17537069
1.75410414 -1.98728812 3.26001740
1.25402558 -2.01714778 3.08663440
1.35336888 -2.03049946 2.89164591
1.60233009 -2.01568627 2.98032689
1.10626912 -2.04441905 2.79961348
1.20447612 -2.05767632 2.60530281
1.45092261 -2.04307222 2.69665504
0.96002901 -2.07116532 2.50991392
1.05743587 -2.08415151 2.31650567
1.30099642 -2.06993079 2.41092753
0.81596982 -2.09721947 2.21775651
0.91301012 -2.10973001 2.02534413
1.15331674 -2.09618783 2.12349844
0.67472959 -2.12253857 1.92346287
0.77186811 -2.13450956 1.73233211
1.00874722 -2.12116265 1.83340275
0.53729278 -2.14609027 1.62539148
0.86795020 -2.14544845 1.54205918
0.63507020 -2.15732551 1.43549132
0.40445495 -2.16767883 1.32345498
0.73210734 -2.16745424 1.24654698
0.50335509 -2.17815733 1.13496983
0.27602825 -2.18858528 1.02001560
0.60173053 -2.18775082 0.94807619
0.37650952 -2.19837093 0.83328485
0.15277399 -2.20810843 0.71383631
0.47683668 -2.20716596 0.64814806
0.25558448 -2.21668005 0.52806628
0.03640469 -2.22405791 0.40102512
0.35890377 -2.22362280 0.34282008
0.14290707 -2.23002672 0.21371703
-0.06971837 -2.23295426 0.07592573
0.25061443 -2.23398113 0.02608397
0.04217983 -2.23576617 -0.11388498
-0.16341592 -2.23519897 -0.25862613
0.15586041 -2.23718619 -0.30313274
-0.04514926 -2.23609567 -0.44780284
-0.24547856 -2.23348594 -0.59451550
0.07646895 -2.23550868 -0.63568419
-0.12064457 -2.23308396 -0.78063935
-0.31816056 -2.22907233 -0.92760605
0.00819416 -2.23106432 -0.96496159
-0.18638633 -2.22705960 -1.10962451
-0.38116008 -2.22142553 -1.25685227
-0.24211824 -2.21796227 -1.43467510
-0.05013064 -2.22353244 -1.29007220
-0.43346059 -2.21057534 -1.58217597
-0.28539589 -2.20460939 -1.75599015
-0.09756076 -2.21244955 -1.61135507
-0.47359511 -2.19573879 -1.90297914
-0.31642050 -2.18660116 -2.07231426
-0.13154244 -2.19594264 -1.92884755
-0.50158209 -2.17626238 -2.21783137
-0.33924320 -2.16623092 -2.38168597
-0.15594625 -2.17591977 -2.24039626
-0.52265674 -2.15540576 -2.52475262
-0.35600483 -2.14507008 -2.68274093
-0.17395605 -2.15457964 -2.54451776
-0.53683263 -2.13330650 -2.82257366
-0.36507082 -2.12143540 -2.97460771
-0.18601900 -2.13224387 -2.84018421
-0.54375851 -2.10965061 -3.11011672
-0.36833769 -2.09721112 -3.25584865
-0.19182928 -2.10841155 -3.12637043
-0.54377764 -2.08481932 -3.38609529
-0.36533436 -2.07191014 -3.52548528
-0.19142760 -2.08276200 -3.40226126
-0.53659630 -2.05865216 -3.64984441
-0.35652712 -2.04611087 -3.78267431
-0.18607970 -2.05695629 -3.66669393
-0.52379781 -2.03321648 -3.89986372
-0.34262428 -2.02066255 -4.02711296
-0.17646192 -2.03171849 -3.91852593
-0.50549579 -2.00877166 -4.13569546
-0.32423598 -1.99580038 -4.26037073
-0.16234587 -2.00610089 -4.15972424
-0.48166215 -1.98474121 -4.36162615
-0.30340728 -1.97197783 -4.48496246
-0.14542770 -1.98089743 -4.39295816
-0.45595509 -1.96168494 -4.57948112
-0.28338113 -1.94736040 -4.70598507
-0.12861733 -1.95572734 -4.62203741
-0.43210867 -1.93751740 -4.79098797
-0.26714334 -1.92000961 -4.92330027
-0.11529505 -1.92846096 -4.84822035
-0.41113782 -1.91025448 -4.99904633
-0.25856605 -1.88878131 -5.13882542
-0.10859758 -1.89699638 -5.07338190
-0.40104809 -1.87944937 -5.20319700
0.04712608 -1.90428567 -5.00574112
0.04190992 -1.93573940 -4.77199984
0.20714197 -1.91070879 -4.93485975
0.20306456 -1.94233000 -4.69295216
0.37055629 -1.91650558 -4.86004972
0.36718321 -1.94801199 -4.61111498
0.53653419 -1.92164612 -4.78105879
0.53381747 -1.95337427 -4.52566624
0.70474637 -1.92644429 -4.69776297
0.70238996 -1.95843041 -4.43662786
0.87467802 -1.93097615 -4.61014700
0.87222725 -1.96307635 -4.34385490
1.04573309 -1.93521678 -4.51804495
1.04319048 -1.96781981 -4.24702072
1.21776247 -1.93952346 -4.42171717
1.21460652 -1.97233605 -4.14591408
1.39005768 -1.94366527 -4.32068253
1.38630283 -1.97688866 -4.04073191
1.56252062 -1.94787061 -4.21542168
1.55757284 -1.98107743 -3.93089223
1.73461390 -1.95200038 -4.10575485
1.72818148 -1.98518205 -3.81707096
1.90560174 -1.95581806 -3.99101710
1.89753890 -1.98903298 -3.69905281
2.07545352 -1.95949125 -3.87220168
2.06493425 -1.99240696 -3.57608986
2.24322486 -1.96271336 -3.74827099
2.23026037 -1.99566901 -3.44979215
2.40889144 -1.96567774 -3.62048626
2.39263439 -1.99831533 -3.31870532
2.57157111 -1.96815789 -3.48779845
2.55204582 -2.00067139 -3.18483019
2.73132038 -1.97030091 -3.35173512
2.70765781 -2.00202990 -3.04646921
2.88733721 -1.97182775 -3.21119857
2.85961938 -2.00296021 -2.90592194
3.03973317 -1.97290909 -3.06785083
3.00738645 -2.00271416 -2.76123476
3.18782091 -1.97323084 -2.92032123
3.15117478 -2.00153899 -2.61355257
3.33158088 -1.97282755 -2.76927376
3.29099441 -1.99936867 -2.46326160
3.47086954 -1.97192669 -2.61583662
3.42687702 -1.99568772 -2.31014442
3.60534406 -1.96958506 -2.45755506
3.55739117 -1.99145103 -2.15624380
3.73435521 -1.96651340 -2.29709291
3.68148303 -1.98668361 -2.00178432
3.85695553 -1.96235657 -2.13404322
3.79807186 -1.98122907 -1.84698212
3.97176862 -1.95797563 -1.96989322
3.90540075 -1.97600007 -1.69259763
4.07765055 -1.95342910 -1.80465484
4.00215387 -1.97104836 -1.53850389
4.17342901 -1.94899142 -1.63842845
4.08680677 -1.96692824 -1.38425362
4.25802183 -1.94491243 -1.47102761
4.15825987 -1.96324456 -1.22909057
4.33066130 -1.94173741 -1.30184925
4.39080858 -1.93911660 -1.13015211
4.21555090 -1.96066797 -1.07143199
4.43874407 -1.93740880 -0.95480084
4.25883102 -1.95885718 -0.90974796
4.47517395 -1.93646133 -0.77503902
4.28921795 -1.95815563 -0.74225521
4.50113010 -1.93596792 -0.59065932
4.30844688 -1.95817840 -0.56844431
4.51785994 -1.93620110 -0.40105942
4.31821823 -1.95878184 -0.38817796
4.52647161 -1.93689430 -0.20650928
4.31995583 -1.95977831 -0.20178343
4.52784824 -1.93782210 -0.00742815
4.31468201 -1.96071982 -0.01020392
4.52287626 -1.93894994 0.19595879
4.30342579 -1.96197236 0.18676344
4.51220942 -1.94016457 0.40327704
4.28684807 -1.96327364 0.38837123
4.49605751 -1.94111145 0.61367762
4.26533794 -1.96441913 0.59394538
4.47519636 -1.94211793 0.82760388
4.23933220 -1.96539259 0.80318248
4.44973993 -1.94294560 1.04447281
4.20902872 -1.96608126 1.01563382
4.41945887 -1.94326782 1.26350343
4.17453289 -1.96638680 1.23093045
4.38441515 -1.94291842 1.48425734
4.13573265 -1.96607494 1.44845343
4.34150553 -1.94047964 1.70307481
4.09148121 -1.96446264 1.66648829
4.28893661 -1.93581700 1.91834497
4.04015207 -1.96085882 1.88286686
4.22309923 -1.92830575 2.12737226
3.97995877 -1.95494592 2.09545779
4.14922619 -1.91915798 2.33342290
3.90771341 -1.94653273 2.30083895
4.06903267 -1.90879703 2.53682613
3.82845187 -1.93682873 2.50314784
3.98338890 -1.89749837 2.73760724
3.74365687 -1.92613006 2.70291567
3.89314628 -1.88558269 2.93583703
3.65398383 -1.91463935 2.90005636
3.79897928 -1.87334573 3.13168097
3.56017327 -1.90265369 3.09479570
4.03246355 -1.84164977 3.16374445
3.93460083 -1.82917523 3.35853291
3.70137000 -1.86096418 3.32526898
4.16179562 -1.79498756 3.38753271
4.06068277 -1.78260875 3.58142138
3.83367610 -1.81677318 3.55099869
3.95665979 -1.77031147 3.77268982
3.72994876 -1.80441093 3.74106598
3.84980679 -1.75796735 3.96120286
3.62347770 -1.79198778 3.92860436
3.74018788 -1.74528635 4.14660692
3.51418304 -1.77924800 4.11316729
3.62747192 -1.73193443 4.32846117
3.40194392 -1.76587176 4.29427099
3.84758878 -1.69445670 4.36121893
3.28657508 -1.75153983 4.47130203
3.17113853 -1.79724145 4.25761127
3.05658746 -1.78275526 4.43457794
2.93923450 -1.76712549 4.60722923
2.82203794 -1.81176269 4.39526987
2.70575953 -1.79588032 4.56848669
2.58313513 -1.83858705 4.35265303
2.69551802 -1.85342252 4.17453337
2.93558669 -1.82644856 4.21797991
2.45122766 -1.87790012 4.12591648
2.55994749 -1.89181745 3.94338822
2.80534720 -1.86725783 3.99314833
2.30950737 -1.91262126 3.88207173
2.41438794 -1.92573524 3.69433856
2.66618156 -1.90492690 3.75804281
2.15947580 -1.94264340 3.61690736
2.26039934 -1.95481694 3.42338371
2.51547432 -1.93727636 3.50073266
2.00647759 -1.97133100 3.34274721
2.10561180 -1.98421168 3.15009737
2.35956717 -1.96708667 3.23040485
1.85325968 -2.00062990 3.06727839
1.94998157 -2.01278567 2.87274265
2.20261860 -1.99676096 2.95724964
1.69938242 -2.02805209 2.78559232
1.79436314 -2.04006577 2.59150457
2.04432917 -2.02426362 2.67779231
1.54662371 -2.05534530 2.50274920
1.64027894 -2.06705236 2.30944562
1.88701713 -2.05132532 2.39729691
1.39571452 -2.08174372 2.21770287
1.48851776 -2.09285069 2.02518678
1.73169756 -2.07774591 2.11592317
1.24756134 -2.10748625 1.93139648
1.34012008 -2.11793685 1.74007487
1.57933581 -2.10283971 1.83266413
1.10300136 -2.13227558 1.64351058
1.19596744 -2.14191127 1.45347881
1.43104196 -2.12722611 1.54902971
0.96291107 -2.15559745 1.35319149
1.28755760 -2.15104461 1.26536095
1.05693603 -2.16444421 1.16479099
0.82829237 -2.17682385 1.05928922
1.14995003 -2.17243218 0.97780317
0.92360938 -2.18570685 0.87434721
0.69939053 -2.19697142 0.76381379
1.01861501 -2.19295692 0.68947721
0.79686928 -2.20493412 0.58056802
0.57728601 -2.21460533 0.46392798
0.89457232 -2.21105099 0.39703870
0.67739433 -2.22157240 0.28227451
0.46305203 -2.22863078 0.15734869
0.77906632 -2.22531390 0.09748350
0.56753886 -2.23255038 -0.02694801
0.35963365 -2.23621225 -0.16170320
0.67583078 -2.23260617 -0.21593542
0.47277442 -2.23564720 -0.35146043
0.27368847 -2.23643255 -0.49237734
0.59036791 -2.23326921 -0.54124236
0.39567003 -2.23410416 -0.68069547
0.20196971 -2.23346853 -0.82214898
0.52203643 -2.23030686 -0.86797559
0.33188152 -2.22985268 -1.00734973
0.14119896 -2.22765613 -1.14784336
0.46648180 -2.22460055 -1.19145155
0.27902201 -2.22250628 -1.32962298
0.09079102 -2.21844602 -1.46933234
0.23714444 -2.21114588 -1.64791620
0.42183626 -2.21556711 -1.51064467
0.05275109 -2.20438743 -1.78732777
0.20819366 -2.19352150 -1.96254337
0.38827619 -2.20192790 -1.82589877
0.02662959 -2.18496728 -2.10070610
0.18794793 -2.17199254 -2.27151036
0.36747548 -2.17988729 -2.13658834
0.00727583 -2.16373539 -2.40746903
0.17279695 -2.15013862 -2.57383966
0.35164252 -2.15746903 -2.44144821
-0.00623172 -2.14126968 -2.70668983
0.16303861 -2.12711287 -2.86865473
0.34060094 -2.13464022 -2.73987985
-0.01430270 -2.11791921 -2.99742723
0.15891010 -2.10193110 -3.15515995
0.33459261 -2.11031103 -3.03096509
-0.01673111 -2.09305620 -3.27880001
0.15873042 -2.07708907 -3.43225980
0.33304739 -2.08481383 -3.31390452
-0.01408230 -2.06711626 -3.54994488
0.16324224 -2.05054736 -3.69963408
0.33542150 -2.05838060 -3.58810329
-0.00722991 -2.04103661 -3.81007409
0.17110881 -2.02393389 -3.95694089
0.34112000 -2.03139400 -3.85321999
0.00329344 -2.01504302 -4.05955553
0.18171600 -1.99706841 -4.20595264
0.34921092 -2.00452137 -4.10947275
0.01664846 -1.98902190 -4.30084181
0.19335811 -1.97003496 -4.45042038
0.35888383 -1.97649324 -4.36113596
0.03061118 -1.96328521 -4.53690243
0.52659297 -1.98262978 -4.26908779
0.51864260 -2.01103520 -4.01090097
0.69590807 -1.98817945 -4.17424679
0.68916267 -2.01772547 -3.90874362
0.86639535 -1.99384952 -4.07544804
0.86057788 -2.02343726 -3.80342221
1.03757977 -1.99892783 -3.97287393
1.03219438 -2.02915478 -3.69468451
1.20902228 -2.00401831 -3.86641192
1.20366549 -2.03381228 -3.58220196
1.38019395 -2.00837874 -3.75564957
1.37437403 -2.03867769 -3.46658707
1.55065250 -2.01278877 -3.64125180
1.54390800 -2.04338622 -3.34783268
1.71991169 -2.01700068 -3.52314568
1.71175194 -2.04715538 -3.22518253
1.88735569 -2.02052641 -3.40056252
1.87751591 -2.05111980 -3.10017300
2.05269790 -2.02409983 -3.27507234
2.04055285 -2.05388117 -2.97139192
2.21519566 -2.02678108 -3.14530969
2.20064688 -2.05660462 -2.84078860
2.37470126 -2.02925372 -3.01314282
2.35728097 -2.05755734 -2.70657539
2.53057265 -2.03038812 -2.87699413
2.51050973 -2.05729461 -2.56992030
2.68280673 -2.03112221 -2.73899436
2.66046238 -2.05591321 -2.43142962
2.83127141 -2.03030872 -2.59748411
2.80676699 -2.05409837 -2.29241347
2.97620988 -2.02831697 -2.45362139
2.95106649 -2.04945946 -2.15110040
3.11805701 -2.02471209 -2.30756116
3.09210420 -2.04358792 -2.01002955
3.25583339 -2.02023768 -2.16083717
3.22823596 -2.03735995 -1.87049794
3.38897634 -2.01471257 -2.01397491
3.35898232 -2.03027320 -1.73287284
3.51564097 -2.00900078 -1.86805272
3.48211479 -2.02329111 -1.59800982
3.63474202 -2.00299525 -1.72332931
3.59616566 -2.01644015 -1.46640885
3.74485612 -1.99679625 -1.58028102
3.69918203 -2.00990152 -1.33849812
3.84369326 -1.99137068 -1.43897617
3.78858018 -2.00400734 -1.21434212
3.92972612 -1.98647249 -1.29912055
3.86076951 -1.99959934 -1.09273827
4.00061083 -1.98276281 -1.15943909
4.05503225 -1.97987914 -1.01803756
3.91240573 -1.99671626 -0.97077990
4.09227514 -1.97846460 -0.87130874
3.94112325 -1.99584579 -0.84162569
4.11481047 -1.97825456 -0.71686280
3.95302343 -1.99612975 -0.70147550
4.12559128 -1.97856796 -0.55431789
3.95275664 -1.99744380 -0.54964077
4.12686062 -1.97962654 -0.38336030
3.94365001 -1.99925482 -0.38733867
4.12044334 -1.98106623 -0.20481315
3.92770290 -2.00133824 -0.21590747
4.10761070 -1.98260152 -0.01964683
3.90624404 -2.00315857 -0.03713357
4.08931446 -1.98418891 0.17148551
3.88007379 -2.00510311 0.14861651
4.06609535 -1.98541307 0.36734208
3.84975743 -2.00681281 0.34002915
4.03852415 -1.98663127 0.56803071
3.81568956 -2.00824976 0.53639358
4.00687933 -1.98760557 0.77274084
3.77806187 -2.00930262 0.73697680
3.97128654 -1.98818934 0.98087120
3.73695517 -2.00985146 0.94110161
3.93180752 -1.98826039 1.19190359
3.69199824 -2.00935626 1.14728677
3.88839316 -1.98772490 1.40543056
3.64352584 -2.00836682 1.35631144
3.84063959 -1.98632669 1.62069595
3.59117961 -2.00662541 1.56732619
3.78750372 -1.98346579 1.83603072
3.53438020 -2.00383019 1.77930796
3.72810578 -1.97877717 2.05014491
3.47284675 -1.99996758 1.99186146
3.65998602 -1.97147632 2.25941157
3.40374207 -1.99349010 2.19998789
3.58157301 -1.96209300 2.46105266
3.32850862 -1.98568583 2.40595818
3.49771047 -1.95189142 2.66040397
3.24484515 -1.97541678 2.60444832
3.40902948 -1.94096601 2.85730171
3.15644598 -1.96441746 2.80056691
3.31613183 -1.92946804 3.05178809
3.06416345 -1.95296788 2.99488544
3.21958041 -1.91756761 3.24404979
2.96840882 -1.94114840 3.18734097
3.46296382 -1.89045465 3.28744793
3.36277485 -1.87813532 3.47804618
3.12001419 -1.90544641 3.43441749
3.60078168 -1.84856498 3.51666784
3.49748993 -1.83619058 3.70587492
3.25992107 -1.86575174 3.66667342
3.39146376 -1.82366359 3.89269757
3.15445209 -1.85317469 3.85316539
3.28272223 -1.81079257 4.07681417
3.04636288 -1.84015369 4.03709936
2.91267347 -1.88038492 3.80901957
3.01757169 -1.89305115 3.62267494
2.77006292 -1.91756082 3.57071757
2.86985779 -1.92912424 3.37845898
2.61507487 -1.94925547 3.30837059
2.71250081 -1.96118510 3.11564922
2.45669937 -1.97933972 3.03766966
2.55145240 -1.99146616 2.84492397
2.80745053 -1.97301519 2.92255902
2.29673052 -2.00820708 2.76248074
2.38812971 -2.01923275 2.56756711
2.64311528 -2.00302887 2.65106225
2.13622117 -2.03537345 2.48320389
2.22524309 -2.04577374 2.28832698
2.47606826 -2.02921104 2.37116289
1.97718823 -2.06190014 2.20323491
2.06466436 -2.07161593 2.00910783
2.31105733 -2.05504942 2.09244752
1.82082736 -2.08762789 1.92275310
1.90755677 -2.09655476 1.72981513
2.14926147 -2.08006215 1.81427979
1.66819561 -2.11238599 1.64167237
1.75500417 -2.12048244 1.45031166
1.99187768 -2.10417199 1.53659296
1.52028191 -2.13600969 1.35973406
1.60800385 -2.14333129 1.17037451
1.83999252 -2.12794280 1.26044738
1.37807608 -2.15812087 1.07608998
1.69428039 -2.14977193 0.98230857
1.46734178 -2.16496325 0.88950783
1.24222696 -2.17922664 0.79161942
1.55580318 -2.17042661 0.70336807
1.33386505 -2.18497634 0.60657853
1.11347198 -2.19861674 0.50465429
1.42537367 -2.18915558 0.42160782
1.20812380 -2.20327902 0.32105950
0.99291593 -2.21506643 0.21243858
