0.07201350 -2.53005147 1.22108591
0.18122318 -2.53039098 1.20264101
0.28937778 -2.53062010 1.17433190
0.21354941 -2.52479315 1.37198174
0.32175142 -2.52504539 1.34417975
0.42896882 -2.52521658 1.30273736
0.35652462 -2.51841497 1.51438713
0.46419168 -2.51876330 1.46956635
0.57312328 -2.51904130 1.41703749
0.50295734 -2.51169610 1.62951231
0.61152738 -2.51208639 1.57881832
0.72311705 -2.51274872 1.51354063
0.65437984 -2.50423074 1.73409486
0.76570106 -2.50493097 1.66783643
0.87784421 -2.50581598 1.59775352
0.81100863 -2.49591017 1.82142997
0.92282957 -2.49678206 1.74915779
1.03415310 -2.49732828 1.67726946
0.96964920 -2.48720551 1.90037107
1.08058310 -2.48772216 1.82891846
1.19019151 -2.48757052 1.75821769
1.12827218 -2.47752571 1.97907770
1.23803830 -2.47776842 1.90909600
1.34646511 -2.47713065 1.83957970
1.28672278 -2.46646357 2.05873132
1.39510894 -2.46613216 1.98992574
1.50232220 -2.46530962 1.92161536
1.44566512 -2.45366931 2.13908958
1.55250931 -2.45127845 2.07104421
1.65820551 -2.44784331 2.00364375
1.60485089 -2.44081831 2.22004819
1.71007311 -2.43777561 2.15380192
1.81438720 -2.43258715 2.08803225
1.76358688 -2.42720294 2.30245900
1.86824179 -2.42569137 2.23810649
1.97019756 -2.42201090 2.17474580
1.92299187 -2.41273427 2.38543272
2.02673316 -2.41155386 2.32257056
2.12751007 -2.40733600 2.26154423
2.08341765 -2.39200926 2.46740079
2.18519926 -2.38915277 2.40628624
2.28516936 -2.38566446 2.34676003
2.24363875 -2.37111855 2.54909563
2.34438252 -2.36847615 2.49019432
2.44368935 -2.36527467 2.43173957
2.40537047 -2.35106039 2.62896252
2.50524187 -2.34596825 2.56992984
2.60213542 -2.34154987 2.51395869
2.56708741 -2.32546687 2.70620298
2.66610694 -2.32158852 2.64847016
2.76239753 -2.31773806 2.59337187
2.73034739 -2.30223989 2.77940369
2.82782412 -2.29935241 2.72292399
2.92386651 -2.29396367 2.66660118
2.89353085 -2.27839684 2.84743428
2.98987556 -2.27289486 2.79096246
3.08381438 -2.26769590 2.73516035
3.05654955 -2.25140381 2.91051078
3.15159082 -2.24609804 2.85338163
3.24334049 -2.24076462 2.79818487
3.22010946 -2.22361708 2.96570802
3.31253910 -2.21831369 2.90934944
3.40264750 -2.21380997 2.85205626
3.38343072 -2.19651461 3.01384497
3.47380900 -2.19212818 2.95534110
3.56146169 -2.18742299 2.89906907
3.54737568 -2.17027950 3.05678797
3.63657665 -2.16839051 2.99483681
3.62299323 -2.14749885 3.15134811
3.71459556 -2.14307642 3.08551741
3.80097079 -2.13822579 3.01960063
3.79384446 -2.11837840 3.17563796
3.88296366 -2.11406088 3.10392475
3.97194004 -2.10547471 3.02757263
3.96701455 -2.08398366 3.18510962
4.05731869 -2.07887578 3.10830069
4.15035486 -2.07638407 3.02564859
4.14819288 -2.05472159 3.18326712
4.24318457 -2.05021024 3.09681487
4.33976030 -2.04380894 3.00593829
4.33528996 -2.01994872 3.16948080
4.43458319 -2.01709342 3.07482505
4.53117323 -2.01345634 2.96851254
4.53054190 -1.99208367 3.14121366
4.63215065 -1.98826754 3.03026414
4.72316885 -1.98529387 2.91105509
4.72976255 -1.96346831 3.09058833
4.82445574 -1.96076715 2.96681046
4.90907478 -1.96181309 2.83345151
4.92601061 -1.93497574 3.02164912
5.01026487 -1.93635178 2.88519740
5.07885456 -1.94101775 2.74067020
5.11230040 -1.90977955 2.93783116
5.18432045 -1.91373146 2.79047465
5.24367571 -1.91834176 2.64108372
5.28926563 -1.88425529 2.84244585
5.35286236 -1.88756096 2.68949747
5.40595627 -1.89301670 2.53485203
5.46076584 -1.85494053 2.74002075
5.51567173 -1.86144400 2.58270359
5.56290293 -1.86796105 2.42676973
5.62613726 -1.82811594 2.62963963
5.67826271 -1.83779669 2.47059321
5.72211647 -1.84278250 2.31380844
5.79047108 -1.79841363 2.51507854
5.83825350 -1.80467880 2.35452867
5.88050699 -1.81077814 2.19613457
5.95190144 -1.76566362 2.39758492
5.99782133 -1.76971149 2.23390889
6.03818798 -1.77440882 2.07240868
6.11363506 -1.72931647 2.27365327
6.15576553 -1.73224735 2.10777879
6.19417667 -1.73646843 1.94335961
6.27225351 -1.68968070 2.14415979
6.31277943 -1.69069040 1.97518063
6.34864378 -1.69346881 1.80792391
6.42783260 -1.63938832 2.00745106
6.46511269 -1.64049411 1.83660853
6.49876261 -1.64685202 1.66605389
6.58025646 -1.58516669 1.86526203
6.61542368 -1.59130728 1.69234633
6.64747381 -1.59900129 1.51970041
6.73281860 -1.53710091 1.71842480
6.76552725 -1.54465711 1.54349446
6.79493141 -1.55126023 1.36784208
6.87966633 -1.48072481 1.56429815
6.91068697 -1.48771298 1.38626564
6.93484688 -1.48976445 1.20928597
7.02159739 -1.41725254 1.40572870
7.04857969 -1.42135715 1.22469389
7.07018995 -1.42647338 1.04355514
7.15501738 -1.34430301 1.23956716
7.17668295 -1.34787703 1.05554497
7.19600725 -1.35538530 0.87146169
7.28268480 -1.26896131 1.06708801
7.30142832 -1.27486157 0.88043863
7.31813335 -1.28136969 0.69342452
7.40188885 -1.18898571 0.88944805
7.41955519 -1.19506133 0.70072895
7.43288422 -1.20143962 0.51239145
7.51766205 -1.10564661 0.70855772
7.53055096 -1.11054087 0.51644272
7.54153824 -1.11783004 0.32685518
7.62772608 -1.01976991 0.52144432
7.63585472 -1.02355850 0.32829764
7.64146614 -1.02892911 0.13492461
7.72906351 -0.92839187 0.32991517
7.73250198 -0.93205273 0.13465597
7.73072720 -0.93350792 -0.06170852
7.82117796 -0.83331704 0.13301823
7.81996727 -0.83545536 -0.06452392
7.81378937 -0.83671498 -0.26278600
7.90622616 -0.73463106 -0.06832184
7.90227604 -0.73802847 -0.26843295
7.89286613 -0.73971957 -0.46766603
7.98458958 -0.63450652 -0.27322948
7.97422409 -0.63476574 -0.47529626
7.95900917 -0.63429236 -0.67555797
8.05599689 -0.53081238 -0.48188728
8.03714466 -0.52714884 -0.68397808
8.02142906 -0.52951437 -0.88659829
8.11399651 -0.41987014 -0.69270545
8.09721851 -0.42126602 -0.89691252
8.07173729 -0.42026824 -1.10054290
8.16870785 -0.31068394 -0.90669262
8.14389038 -0.31028083 -1.11241996
8.11704445 -0.31068528 -1.31798255
8.21480560 -0.19962081 -1.12430382
8.18614197 -0.19938169 -1.33141577
8.15160847 -0.19821946 -1.53758001
8.25084686 -0.08541727 -1.34399569
8.22074699 -0.08724830 -1.55348432
8.17727757 -0.08352410 -1.75955606
8.28106308 0.02854303 -1.56734157
8.23777580 0.03192950 -1.77559459
8.19545937 0.03206234 -1.98480427
8.29956627 0.14646220 -1.79159153
8.25249863 0.14875627 -2.00153732
8.20462990 0.14836261 -2.21194649
8.31123447 0.26456979 -2.01873255
8.26293659 0.26420352 -2.23022246
8.20450592 0.26710635 -2.43942118
8.31634712 0.38220608 -2.24772286
8.25914288 0.38383415 -2.45890784
8.19770432 0.38547486 -2.66938996
8.31453800 0.50061214 -2.47818661
8.25074863 0.50260633 -2.68952012
8.17788982 0.50648242 -2.89804959
8.29879665 0.62215823 -2.70867348
8.23129940 0.62310779 -2.92077446
8.15062141 0.62808305 -3.12757325
8.27897072 0.74264795 -2.94052267
8.19968319 0.74627453 -3.14984965
8.11671352 0.74899268 -3.35799170
8.25039768 0.86389422 -3.17224526
8.16376877 0.86817032 -3.38038373
8.07513523 0.87142003 -3.58703494
8.20658302 0.98914409 -3.40067482
8.11742878 0.99259770 -3.60852599
8.02547836 0.99468160 -3.81559491
8.16176033 1.11292028 -3.63106489
8.06864357 1.11484754 -3.83912635
7.96667385 1.11863446 -4.04335165
8.10889530 1.23647511 -3.86117005
8.00903606 1.23901987 -4.06769133
7.90471220 1.24067783 -4.27286768
8.05240345 1.35871589 -4.09283400
7.94599962 1.36081958 -4.29824018
7.83471346 1.36219180 -4.50130844
7.98192072 1.48346102 -4.32071829
7.86510229 1.48683298 -4.52168226
7.75105906 1.48732257 -4.72411013
7.90367889 1.60833132 -4.54667282
7.78666925 1.60996318 -4.74817371
7.66473198 1.61149085 -4.94725418
7.82338858 1.73193908 -4.77311468
7.69945669 1.73371017 -4.97236013
7.56879187 1.73604250 -5.16716623
7.73313618 1.85676765 -4.99659204
7.60276699 1.85882032 -5.19297934
7.46869659 1.86020601 -5.38634491
7.63462687 1.98242068 -5.21712255
7.49963093 1.98436296 -5.41089821
7.35629225 1.98660326 -5.59937286
7.52820349 2.10908365 -5.43444967
7.38311720 2.11165285 -5.62223005
7.23500538 2.11297011 -5.80777979
7.41132212 2.23601222 -5.64676666
7.26541424 2.23662615 -5.83469439
7.11262417 2.23910069 -6.01585627
7.29119396 2.36265111 -5.85732365
7.13910103 2.36427832 -6.04002428
6.98547935 2.36429501 -6.22189331
7.16440010 2.49002123 -6.06363010
7.01269197 2.48915577 -6.24780178
6.85174465 2.49023438 -6.42320585
7.03714418 2.61529803 -6.27135468
6.87686539 2.61581016 -6.44849825
6.71315432 2.61552048 -6.62283850
6.90199232 2.74127102 -6.47382832
6.73600769 2.74163604 -6.64667702
6.56280279 2.74306846 -6.81312418
6.75965071 2.86799121 -6.67133760
6.58732128 2.86903834 -6.83970976
6.41320801 2.86832023 -7.00627041
6.61234570 2.99453688 -6.86681414
6.43581486 2.99403906 -7.03189325
6.25627422 2.99296355 -7.19344139
6.45435047 3.12026811 -7.05289555
6.27560711 3.11804867 -7.21610641
6.08924103 3.11795902 -7.37039614
6.30016804 3.23749971 -7.24547005
6.11189175 3.23786259 -7.39890957
5.92218447 3.23430848 -7.54978514
6.13444710 3.34794331 -7.42806768
5.94392109 3.34613371 -7.57912302
5.75085545 3.34196496 -7.72550440
5.95714998 3.43375087 -7.59743881
5.76414585 3.43104601 -7.74503899
5.56886816 3.43329263 -7.88767624
5.56886816 3.43329263 -7.88767624
5.76414585 3.43104601 -7.74503899
5.77686214 3.51254106 -7.76415062
5.58151960 3.52129912 -7.90785885
5.38529634 3.52799821 -8.04591084
5.37168598 3.43774271 -8.02312660
5.59609222 3.59408116 -7.93089962
5.39991999 3.60473490 -8.07043457
5.19909000 3.60882044 -8.19736481
5.40868759 3.66163993 -8.08503151
5.20944595 3.66886592 -8.21495628
5.01013851 3.67724991 -8.34047890
5.21874142 3.72672129 -8.23066330
5.01799345 3.72561479 -8.35407734
4.81096554 3.71636558 -8.46661091
5.02516222 3.77231812 -8.36647797
4.81885624 3.76340151 -8.48055267
4.60975361 3.75531745 -8.59269238
4.82674694 3.81043720 -8.49449348
4.61742258 3.80261374 -8.60636234
4.40287304 3.79885578 -8.71346951
4.62304115 3.84820271 -8.61643028
4.40976906 3.84339309 -8.72629929
4.19078112 3.84748292 -8.82797718
4.41375828 3.88813901 -8.73349667
4.19504309 3.88943195 -8.83760929
3.97595310 3.89077687 -8.93647099
4.19939709 3.93116951 -8.84760189
3.97991347 3.93224001 -8.94602108
3.75911856 3.93378448 -9.03429222
3.98392105 3.97337890 -8.95571518
3.76376486 3.97153735 -9.04654884
3.54228568 3.96837282 -9.13587952
3.76843119 4.00926208 -9.05885220
3.54622436 4.00770807 -9.14634228
3.32205486 4.00800991 -9.22900009
3.55132246 4.04461670 -9.16027260
3.32674980 4.04639912 -9.24234009
3.09977531 4.05297947 -9.31904984
3.33193207 4.08264399 -9.25769806
3.10480785 4.09033012 -9.33504391
2.87720346 4.09793043 -9.40697765
3.11043572 4.12440443 -9.35294247
2.88369846 4.12771893 -9.42922497
2.65621161 4.13361216 -9.49251556
2.89126158 4.15145588 -9.45538044
2.66399837 4.15078688 -9.52263355
2.43823481 4.15341949 -9.58324051
2.67263913 4.15389538 -9.55502415
2.44623852 4.15846443 -9.61555672
2.21784925 4.15189409 -9.67316723
2.45397210 4.14975786 -9.64677238
2.22488260 4.14744091 -9.70409870
1.98952174 4.14013290 -9.75633049
2.23003006 4.12623072 -9.72794247
1.99560034 4.12631369 -9.78628731
1.75707662 4.12584400 -9.83011627
1.99755573 4.09683847 -9.79543304
1.75861096 4.09259462 -9.83757877
1.51744378 4.08793497 -9.87777901
1.75961494 4.05850935 -9.84204197
1.51818120 4.05297804 -9.88006878
1.27555883 4.04957771 -9.90840626
1.51776588 4.01713037 -9.87407017
1.27544141 4.01320887 -9.90046787
1.03485310 4.01219463 -9.92576408
1.27516043 3.97626424 -9.89097691
1.03525901 3.97485971 -9.91703701
0.79680508 3.97587347 -9.93477917
0.55994785 3.97735429 -9.94202423
1.03576887 3.93566084 -9.90983391
0.79745632 3.93479180 -9.92701912
0.56079596 3.93839622 -9.93593502
0.56079596 3.93839622 -9.93593502
0.79778552 3.89338064 -9.91480255
0.56120509 3.89580369 -9.92677784
0.56120509 3.89580369 -9.92677784
0.32707039 3.89642239 -9.93102455
0.56163961 3.85234189 -9.91568279
0.32755381 3.85282636 -9.91951656
0.09459461 3.85415030 -9.92218494
0.32803723 3.80923009 -9.90800953
0.09517106 3.81003094 -9.90932941
-0.13901086 3.80908418 -9.90235424
0.09574752 3.76591182 -9.89647484
-0.13836159 3.76515317 -9.89043236
-0.37350070 3.76149964 -9.87861633
-0.13759893 3.72039485 -9.87833500
-0.37241042 3.71792340 -9.86636162
-0.60848737 3.71283054 -9.84924412
-0.37149382 3.67199779 -9.85454845
-0.60725760 3.66365767 -9.83641338
-0.84396672 3.65700126 -9.81365204
-0.60603768 3.61452627 -9.82358265
-0.84215587 3.60504389 -9.80027008
-1.07757020 3.60506558 -9.77312946
-0.84034514 3.55308676 -9.78688908
-1.07526886 3.55325150 -9.75960159
-1.31019306 3.56176066 -9.72831917
-1.07296741 3.50143743 -9.74607658
-1.30696702 3.50794530 -9.71405315
-1.53976667 3.50748944 -9.67478752
-1.30321181 3.43663383 -9.69640350
-1.53566301 3.43954873 -9.65807819
-1.76608360 3.44149113 -9.61385441
-1.53117287 3.35942221 -9.63860893
-1.76098704 3.36219358 -9.59469604
-1.98966861 3.36077547 -9.54570961
-1.75594962 3.27644658 -9.57568645
-1.98366010 3.27387023 -9.52489567
-2.21127343 3.27662802 -9.47191238
-1.97790265 3.18665743 -9.50399303
-2.20458221 3.18618250 -9.44934177
-2.43015695 3.18723416 -9.39037323
-2.19771218 3.09351516 -9.42633152
-2.42300844 3.09462881 -9.36783600
-2.64638424 3.09619761 -9.30241108
-2.41561246 2.99625611 -9.34348392
-2.63811779 2.99735880 -9.27743530
-2.85952377 2.99954176 -9.20673943
-2.63007569 2.89541268 -9.25143051
-2.85078621 2.89702678 -9.18136215
-3.07003999 2.89813757 -9.10511303
-2.84220338 2.78915858 -9.15466118
-3.06047249 2.78962731 -9.07849979
-3.27783632 2.78852534 -8.99756718
-3.05092359 2.67614770 -9.05014133
-3.26746845 2.67971778 -8.97141552
-3.48229051 2.67902374 -8.88496971
-3.25658321 2.56066942 -8.94117165
-3.47041154 2.56264067 -8.85672855
-3.68219256 2.56409407 -8.76519871
-3.45861101 2.44116092 -8.82658195
-3.66929889 2.44279695 -8.73589993
-3.87854052 2.44398141 -8.63894367
-3.65627241 2.31976843 -8.70454788
-3.86477613 2.32222438 -8.60804749
-4.07394934 2.32369065 -8.51019669
-3.85047817 2.20077562 -8.57344723
-4.06048632 2.20141602 -8.47996521
-4.26327229 2.20674014 -8.37010574
-4.04656553 2.07930660 -8.44725895
-4.24903011 2.08448410 -8.33986473
-4.45136356 2.08864284 -8.23029041
-4.23441553 1.96225107 -8.30809879
-4.43510914 1.96720028 -8.19853687
-4.63478136 1.97144175 -8.08381462
-4.41950274 1.84512997 -8.16624451
-4.61769962 1.85000718 -8.05226135
-4.81444359 1.85495257 -7.93271303
-4.60027170 1.72879410 -8.01840210
-4.79648829 1.73366117 -7.90084600
-4.99177122 1.73804426 -7.77874804
-4.77883196 1.61215365 -7.86835337
-4.97250891 1.61715209 -7.74671459
-5.16277599 1.62306201 -7.61757421
-4.95359564 1.49591649 -7.71400356
-5.14209509 1.50216377 -7.58598471
-5.32757282 1.50635386 -7.45259809
-5.12094402 1.38104308 -7.55250216
-5.30505323 1.38490081 -7.42214203
-5.48674059 1.38704610 -7.28686857
-5.28178120 1.26301634 -7.39064598
-5.46289015 1.26451468 -7.25941658
-5.63866234 1.26525617 -7.12068558
-5.43690205 1.14285719 -7.22830915
-5.61087751 1.14361382 -7.09075403
-5.77916718 1.14370668 -6.94649935
-5.58201694 1.02250779 -7.05931902
-5.74931192 1.02210808 -6.91691446
-5.91463327 1.02043414 -6.77105856
-5.71873236 0.90087682 -6.88671494
-5.88296461 0.89895153 -6.74205589
-6.04684353 0.89466143 -6.59662628
-5.85008907 0.77768373 -6.71258354
-6.01260424 0.77390569 -6.56738520
-6.16905355 0.76990831 -6.41666412
-5.97668219 0.65370262 -6.53722954
-6.13224697 0.64932346 -6.38753176
-6.28433800 0.64606118 -6.23498535
-6.09522676 0.52827746 -6.35965729
-6.24548149 0.52482492 -6.20753813
-6.39306307 0.52143514 -6.05354929
-6.20675039 0.40345675 -6.18100357
-6.35207033 0.40088779 -6.02606916
-6.49367809 0.39809394 -5.86878157
-6.30927849 0.28078642 -5.99833965
-6.45076084 0.27791443 -5.84148550
-6.58973503 0.27471659 -5.68248415
-6.40688562 0.15844452 -5.81394148
-6.54628754 0.15458234 -5.65658379
-6.67931509 0.15172960 -5.49418211
-6.50032711 0.03607672 -5.62872553
-6.63249159 0.03318487 -5.46685743
-6.76043224 0.03017287 -5.30258274
-6.58313513 -0.08391776 -5.43843603
-6.71107817 -0.08737642 -5.27510738
-6.83647060 -0.09212483 -5.11074018
-6.65964699 -0.20389321 -5.24687958
-6.78396368 -0.20798597 -5.08307838
-6.90544653 -0.21298634 -4.91668844
-6.73018980 -0.32279101 -5.05364609
-6.85104179 -0.32795388 -4.88844299
-6.96738338 -0.33232105 -4.71972895
-6.79450512 -0.44100937 -4.85881281
-6.91023684 -0.44523394 -4.69080257
-7.02239799 -0.44948447 -4.52080965
-6.85199022 -0.55743378 -4.66142130
-6.96280146 -0.56084931 -4.49235821
-7.06841516 -0.56378794 -4.31918383
-6.90068769 -0.67035139 -4.46141624
-7.00706768 -0.67415780 -4.29057407
-7.10743427 -0.67734945 -4.11630440
-6.94112873 -0.78085124 -4.25966120
-7.04163647 -0.78506976 -4.08711815
-7.13857889 -0.78977257 -3.91212440
-6.97369242 -0.89020014 -4.05599546
-7.07020283 -0.89533675 -3.88283992
-7.16050196 -0.89958256 -3.70651555
-6.99837875 -0.99750173 -3.85088491
-7.08829784 -1.00160968 -3.67615151
-7.17687416 -1.00912023 -3.50061321
-7.01347351 -1.10130346 -3.64455652
-7.10080671 -1.10805809 -3.47000217
-7.18421078 -1.11442900 -3.29410887
-7.02147722 -1.20307541 -3.43791413
-7.10365248 -1.20871413 -3.26278234
-7.18187380 -1.21376693 -3.08559489
-7.02153492 -1.30100989 -3.23148060
-7.09858656 -1.30579996 -3.05548358
-7.17055798 -1.31010139 -2.87838006
-7.01285458 -1.39521825 -3.02596521
-7.08363390 -1.39921570 -2.84965324
-7.15181732 -1.40498173 -2.67293072
-6.99500895 -1.48659241 -2.82137442
-7.06501532 -1.49452198 -2.64675879
-7.12425184 -1.49523342 -2.46916485
-6.96930933 -1.57419026 -2.61781669
-7.03064632 -1.57803261 -2.44404721
-7.08728361 -1.58353388 -2.26818609
-6.93437338 -1.65828454 -2.41778612
-6.99071550 -1.66290009 -2.24421906
-7.04265308 -1.66804385 -2.06948328
-6.89258146 -1.74065864 -2.22037983
-6.94349146 -1.74541116 -2.04713273
-6.99031973 -1.75096405 -1.87338591
-6.84280348 -1.82021201 -2.02444363
-6.88797951 -1.82427263 -1.85309172
-6.92961216 -1.82791495 -1.67929661
-6.78354454 -1.89470148 -1.83112013
-6.82421494 -1.89876354 -1.66117716
-6.86060667 -1.90466774 -1.48998439
-6.71739340 -1.96726143 -1.64174640
-6.75217009 -1.97218466 -1.47380435
-6.78362846 -1.97694218 -1.30418932
-6.64336920 -2.03773332 -1.45588231
-6.67458820 -2.04290342 -1.28877163
-6.69992876 -2.04607511 -1.12115335
-6.56457758 -2.10763550 -1.27413774
-6.58917284 -2.10999870 -1.10859668
-6.61122847 -2.11264229 -0.94301891
-6.47697401 -2.17053628 -1.09700036
-6.49749899 -2.17230320 -0.93286383
-6.51852274 -2.17743564 -0.76830345
-6.38536024 -2.23133969 -0.92323297
-6.40548992 -2.23710132 -0.76154304
-6.42042065 -2.23987556 -0.59799027
-6.29061413 -2.28833795 -0.75273615
-6.30499792 -2.29206657 -0.59432250
-6.31403589 -2.29375625 -0.43356961
-6.18908024 -2.34039044 -0.58956593
-6.19952965 -2.34317780 -0.43095267
-6.20663929 -2.34442472 -0.27235228
-6.08902645 -2.38318992 -0.42996174
-6.09664965 -2.38861609 -0.27307472
-6.10026646 -2.39156008 -0.11696979
-5.99069977 -2.42708230 -0.27442271
-5.99476671 -2.43033886 -0.11899624
-5.99408150 -2.43269515 0.03516608
-5.89587927 -2.46275282 -0.12148986
-5.89766550 -2.46140647 0.03129735
-5.89113092 -2.46238923 0.18377699
-5.80679989 -2.48751903 0.02836642
-5.79734612 -2.48568702 0.17834528
-5.79982901 -2.48564625 0.32909882
-5.72531271 -2.50586796 0.17426500
-5.72394180 -2.50609350 0.32257247
-5.72013044 -2.50743079 0.47074312
-5.64970303 -2.52558017 0.31646979
-5.64595652 -2.52695656 0.46297064
-5.63813114 -2.52777839 0.60989684
-5.57262945 -2.54582548 0.45461994
-5.56336927 -2.54733753 0.59856439
-5.55175924 -2.54740858 0.74409217
-5.49145555 -2.56514215 0.58925503
-5.47739983 -2.56675100 0.73197824
-5.46126032 -2.56761885 0.87397361
-5.40934658 -2.58358026 0.71959317
-5.39063358 -2.58560133 0.86047697
-5.36731100 -2.58693910 0.99991709
-5.32309008 -2.60158730 0.84786099
-5.29859161 -2.60275507 0.98467743
-5.27166176 -2.60405993 1.12108493
-5.23434019 -2.62279797 0.97050095
-5.20799494 -2.62776399 1.10525990
-5.17767715 -2.62994432 1.23992980
-5.16313601 -2.67322993 1.09273005
-5.13102245 -2.67544174 1.22523403
-5.09877157 -2.67645478 1.35863018
-5.13102245 -2.67544174 1.22523403
-5.10494375 -2.73744297 1.21588778
-5.07264566 -2.73879337 1.34815872
-5.09877157 -2.67645478 1.35863018
-5.03780174 -2.73948359 1.48034370
-5.06579638 -2.67712379 1.49133909
-5.04256296 -2.80441737 1.33658814
-5.01707125 -2.80975938 1.47079277
-4.97596645 -2.80687118 1.60202754
-4.99175072 -2.88100886 1.46015477
-4.95602465 -2.88124561 1.59154677
-4.91666079 -2.88052058 1.72156346
-4.93750238 -2.96027040 1.58133173
-4.89940548 -2.96059036 1.71098125
-4.86170864 -2.96091986 1.84120333
-4.88616943 -3.04638648 1.70180511
-4.84957695 -3.04830194 1.83200824
-4.81279945 -3.05060744 1.96251464
-4.84287548 -3.14123440 1.82423842
-4.80389309 -3.14185381 1.95403934
-4.75447893 -3.14184785 2.08042574
-4.79875851 -3.23810720 1.94635630
-4.74834251 -3.23846579 2.07226491
-4.68977880 -3.23800588 2.19433379
-4.74455547 -3.33421803 2.06501603
-4.68946695 -3.33485746 2.18861532
-4.63007545 -3.33349061 2.31038952
-4.69002485 -3.42799139 2.18348455
-4.63098860 -3.42815256 2.30525398
-4.56933022 -3.42687368 2.42603707
-4.62510729 -3.51925659 2.29699755
-4.56491232 -3.51791692 2.41840196
-4.49706078 -3.51721072 2.53573060
-4.55885029 -3.60569739 2.41007233
-4.49486351 -3.60484600 2.52950144
-4.42889166 -3.60390067 2.64761019
-4.49093771 -3.68111873 2.52295136
-4.42215729 -3.68223810 2.63922620
-4.35382032 -3.67440462 2.75641894
-4.41769981 -3.74276114 2.63316655
-4.34795046 -3.74305439 2.74878716
-4.27633619 -3.74364257 2.86329961
-4.34210539 -3.81152844 2.74118733
-4.27285242 -3.80555940 2.85747790
-4.19602585 -3.80594563 2.96851730
-4.26812077 -3.86211991 2.85108089
-4.19196701 -3.86132884 2.96247792
-4.11375141 -3.85901022 3.07226729
-4.18850708 -3.91640449 2.95680642
-4.11030102 -3.91471601 3.06646943
-4.02973652 -3.91337752 3.17439079
-4.10660267 -3.97105503 3.06033039
-4.02601576 -3.97024751 3.16812229
-3.94301367 -3.97121859 3.27386427
-4.02231693 -4.02709436 3.16180778
-3.93949485 -4.02795982 3.26749992
-3.85475636 -4.02925682 3.37189412
-3.93515205 -4.08321095 3.26065063
-3.85087109 -4.08477974 3.36528039
-3.76309133 -4.08742666 3.46753502
-3.84370351 -4.13877201 3.35607958
-3.75395536 -4.14008999 3.45629930
-3.66393805 -4.14198303 3.55631781
-3.74049067 -4.18779707 3.44126916
-3.65061355 -4.18879080 3.54071856
-3.55773139 -4.19106388 3.63773036
-3.63096881 -4.22583866 3.51887393
-3.53867078 -4.22889328 3.61580968
-3.44307899 -4.23032331 3.70896840
-3.51423478 -4.25859976 3.58862257
-3.42033195 -4.26048851 3.68222380
-3.32228422 -4.25993919 3.77203655
-3.39387441 -4.28207111 3.65197849
-3.29816175 -4.28194714 3.74220514
-3.19821978 -4.28019047 3.82867646
-3.27044320 -4.29052162 3.70855832
-3.17209506 -4.28917980 3.79536295
-3.07130337 -4.29030418 3.87909198
-3.14588380 -4.29095840 3.76152658
-3.04603386 -4.29081869 3.84529281
-2.94386601 -4.29063845 3.92567468
-3.02261353 -4.27882290 3.81289244
-2.92051125 -4.27872229 3.89165902
-2.81799889 -4.27800798 3.97013640
-2.90179276 -4.25183296 3.86376524
-2.79906917 -4.25238180 3.94060826
-2.69517994 -4.25188875 4.01493931
-2.78671336 -4.21544981 3.91997147
-2.68236589 -4.21582413 3.99218869
-2.57771921 -4.21588850 4.06319284
-2.67337608 -4.17504454 3.97453332
-2.56809950 -4.17554617 4.04417133
-2.46156764 -4.17482758 4.11261511
-2.56341457 -4.12946272 4.03278971
-2.45590377 -4.12988186 4.09937716
-2.34734893 -4.13020515 4.16500187
-2.45231557 -4.08254480 4.08951521
-2.34337854 -4.08254099 4.15421581
-2.23090506 -4.08317280 4.21275997
-2.33879542 -4.03448915 4.14215708
-2.22482085 -4.03403473 4.19683027
-2.11069298 -4.03177643 4.25099945
-2.21922922 -3.98330855 4.18224907
-2.10737944 -3.97882485 4.23979712
-1.99729955 -3.97191834 4.30055809
-2.10564375 -3.92386794 4.23158836
-1.99538684 -3.91688156 4.29167700
-1.88845301 -3.90928698 4.35879469
-1.99611557 -3.86064982 4.28750896
-1.88854194 -3.85408974 4.35359526
-1.77365136 -3.84550619 4.40547705
-1.88839352 -3.79806280 4.34747362
-1.77283335 -3.78877449 4.39744186
-1.65599608 -3.77616858 4.44372320
-1.77260625 -3.72931266 4.39002609
-1.65600026 -3.71563792 4.43655014
-1.53780770 -3.71037555 4.48043346
-1.65604138 -3.65410376 4.42938375
-1.53820682 -3.64499426 4.47347498
-1.41854978 -3.63872409 4.51257515
-1.53854728 -3.57581353 4.46614265
-1.41912961 -3.56992602 4.50548315
-1.29790199 -3.56853557 4.53997087
-1.41945839 -3.50028181 4.49781179
-1.29840350 -3.49568295 4.53207541
-1.17758918 -3.49772286 4.56776857
-1.29890490 -3.42283058 4.52417946
-1.17821538 -3.42269349 4.55945921
-1.05629563 -3.42086911 4.59126568
-1.17869866 -3.34069967 4.54967213
-1.05642784 -3.34308076 4.57962179
-0.93330890 -3.34181023 4.60744476
-1.05629587 -3.25678277 4.56677723
-0.93363696 -3.25717068 4.59535694
-0.81059104 -3.25837040 4.62362003
-0.93320543 -3.16907430 4.58069897
-0.80967939 -3.17121029 4.60629082
-0.68520075 -3.17485666 4.62813807
-0.80866802 -3.08478713 4.58857584
-0.68460029 -3.08888769 4.61158991
-0.56040353 -3.09346676 4.63480186
-0.68359101 -3.00632286 4.59371042
-0.56001061 -3.00948334 4.61645651
-0.43552303 -3.01420593 4.63155603
-0.55835569 -2.93257046 4.58727646
-0.43413427 -2.93860030 4.59778261
-0.31067494 -2.93863940 4.61488628
-0.43276826 -2.86609030 4.56127739
-0.30985224 -2.86552644 4.57580566
-0.18656999 -2.86549640 4.58980560
-0.30886975 -2.80096936 4.53318214
-0.18607742 -2.80146885 4.54314947
-0.06281651 -2.80446815 4.54775286
-0.18529473 -2.74091053 4.49724913
-0.06328834 -2.74418902 4.50110149
0.05861211 -2.74422503 4.50489140
-0.06319579 -2.71019125 4.43531609
0.05667774 -2.70717835 4.43851471
0.17690331 -2.70653248 4.43824291
0.29680291 -2.70831013 4.43488789
0.05667774 -2.70717835 4.43851471
0.05560880 -2.70655847 4.35967731
0.17237864 -2.70528722 4.35878229
0.17690331 -2.70653248 4.43824291
0.29043606 -2.70860291 4.35500050
0.29680291 -2.70831013 4.43488789
0.16810764 -2.71322536 4.27760077
0.28487062 -2.71667576 4.27353621
0.39994538 -2.71941638 4.26770496
0.27706593 -2.72548890 4.19100285
0.39176202 -2.72755599 4.18493462
0.50509530 -2.72595167 4.17712259
0.38317704 -2.73728704 4.10060930
0.49504372 -2.73603201 4.09235239
0.60516351 -2.73325825 4.07879353
0.48372722 -2.74743581 4.00433779
0.59132117 -2.74522996 3.99299264
0.69979769 -2.74290729 3.97615504
0.57833451 -2.75881886 3.90235496
0.68367094 -2.75643182 3.88711286
0.78961664 -2.75378203 3.86929941
0.66788167 -2.77258754 3.79677200
0.77119529 -2.77190375 3.77885461
0.87401056 -2.76820660 3.75804210
0.75314659 -2.78464079 3.68496943
0.85248756 -2.78247857 3.66592765
0.95227450 -2.78053856 3.64415884
0.83156753 -2.79515433 3.56649947
0.93009466 -2.79390311 3.54882860
1.02557302 -2.79299927 3.52531290
0.90333295 -2.80498528 3.43833542
0.99607676 -2.80490446 3.41581964
1.08983064 -2.80414987 3.39067554
0.96556616 -2.81446624 3.30006146
1.05575573 -2.81374598 3.27613902
1.14625680 -2.81351089 3.24835253
1.02155006 -2.82400203 3.15618181
1.10963821 -2.82349825 3.13045645
1.19626403 -2.82278037 3.10172582
1.07201326 -2.83330750 3.01024270
1.15599465 -2.83105040 2.98338103
1.23858261 -2.83054900 2.95567989
1.11642766 -2.84460402 2.86319208
1.19619012 -2.84354591 2.83568048
1.27438009 -2.84156394 2.80600905
1.15325630 -2.84734702 2.71331620
1.22809935 -2.85229301 2.68580198
1.30395520 -2.85677242 2.65561557
1.18531752 -2.87128472 2.56348300
1.25453222 -2.87132549 2.53551865
1.32487357 -2.87051606 2.50274777
1.20531940 -2.88696671 2.41238880
1.27244973 -2.88636875 2.38300610
1.33840477 -2.88400126 2.34939408
1.21886599 -2.89982367 2.25900626
1.28090572 -2.90027761 2.22838569
1.34141064 -2.89922380 2.19539714
1.22248673 -2.91554475 2.10618186
1.28051436 -2.91363931 2.07377577
1.33840048 -2.91168571 2.04140306
1.21664524 -2.92203617 1.94918132
1.27014875 -2.92232442 1.91941476
1.32004774 -2.92160940 1.88578784
1.19833624 -2.93057966 1.79138029
1.24564445 -2.92989588 1.76027715
1.29448080 -2.92919326 1.72768557
1.16937292 -2.94556022 1.62718761
1.20856726 -2.94493675 1.59523368
1.24850798 -2.94475198 1.56164789
1.13168418 -2.95865202 1.45847380
1.16314340 -2.95907831 1.42662764
1.19603729 -2.95922303 1.39160895
1.07712305 -2.96918678 1.28655994
1.10774493 -2.96961021 1.25449896
1.13731062 -2.96975708 1.21770620
1.03921115 -2.97946596 1.11611617
1.06224990 -2.97993898 1.07770956
1.08528888 -2.98041248 1.03930283
1.00166154 -2.98921967 0.93590796
0.97770411 -2.98877907 0.97710860
0.95151126 -2.99436975 0.87666357
0.95374680 -2.98833823 1.01830935
0.92532945 -2.99431658 0.91347611
0.90807301 -2.99835920 0.83023161
0.90137208 -2.99387574 0.95467681
0.87864345 -2.99887633 0.86052012
0.87007439 -3.00152802 0.78960466
0.84869790 -2.99941611 0.88830781
0.84064496 -3.00204515 0.81989318
0.83207595 -3.00469732 0.74897778
0.81026345 -3.00261140 0.84576309
0.80264640 -3.00521398 0.77926624
0.79569894 -3.00751948 0.71321708
0.77187592 -3.00580025 0.80333072
0.76464808 -3.00838327 0.73863935
0.76189101 -3.00976181 0.68283153
0.73348844 -3.00898910 0.76089835
0.72874069 -3.01079702 0.70122963
0.72779131 -3.01152372 0.65045816
0.69588405 -3.01181602 0.71677756
0.69440246 -3.01263428 0.66609424
0.66478455 -3.01231790 0.73765260
0.66093296 -3.01383281 0.67978376
0.63368511 -3.01282024 0.75852764
0.62746358 -3.01503134 0.69347346
0.60258561 -3.01332283 0.77940273
0.59625751 -3.01556516 0.71402574
0.57124358 -3.01370955 0.79970449
0.56515807 -3.01606750 0.73490089
0.53755331 -3.01298094 0.81445563
0.53309131 -3.01611018 0.75348943
0.50386298 -3.01225162 0.82920671
0.49940097 -3.01538038 0.76824051
0.47017267 -3.01152205 0.84395790
0.46569490 -3.01465940 0.78287631
0.43627048 -3.01089954 0.85716212
0.43130022 -3.01428461 0.79248846
0.40187579 -3.01052475 0.86677438
0.39690554 -3.01390910 0.80210060
0.36707151 -3.01029921 0.87585837
0.36251089 -3.01353407 0.81171274
0.33170143 -3.01028085 0.88421303
0.32811618 -3.01315928 0.82132494
0.29633141 -3.01026320 0.89256769
0.29305691 -3.01302814 0.83007723
0.26096132 -3.01024485 0.90092230
0.25804707 -3.01363611 0.83678895
0.22559126 -3.01022649 0.90927684
0.22303720 -3.01424432 0.84350079
0.19032557 -3.01014805 0.91846257
0.18802735 -3.01485252 0.85021245
0.15405041 -3.00972939 0.92400295
0.15250206 -3.01495051 0.85445261
0.11783451 -3.00921154 0.92553484
0.11645578 -3.01431942 0.85568935
0.08161861 -3.00869393 0.92706680
0.08128274 -3.01299334 0.85743606
0.04540270 -3.00817609 0.92859882
0.04610955 -3.01166725 0.85918266
0.00827070 -3.00794172 0.92732453
0.01098055 -3.01072145 0.85866547
-0.02773046 -3.00776505 0.92222881
-0.02406588 -3.01048756 0.85390979
-0.06381952 -3.00741434 0.91907090
-0.05944732 -3.01021600 0.84966767
-0.09990858 -3.00706315 0.91591299
-0.09487666 -3.00989294 0.84555590
-0.09035518 -3.01257062 0.77609998
-0.12887597 -3.00963211 0.83937645
-0.12378538 -3.01238465 0.76903427
-0.12107746 -3.01433992 0.70823270
-0.15721558 -3.01219916 0.76196837
-0.15476288 -3.01395392 0.70397478
-0.15096334 -3.01643133 0.64772654
-0.18703283 -3.01441669 0.69713151
-0.18323322 -3.01689410 0.64088333
-0.17943367 -3.01937151 0.58463502
-0.21487463 -3.01709318 0.63163221
-0.21151233 -3.01975417 0.57705909
-0.24548647 -3.01686168 0.61843663
-0.24224351 -3.01951432 0.56479824
-0.27609825 -3.01662970 0.60524100
-0.27324632 -3.01925755 0.55466515
-0.30677611 -3.01639342 0.59256279
-0.30424911 -3.01900005 0.54453200
-0.33777890 -3.01613593 0.58242959
-0.33525193 -3.01874280 0.53439879
-0.36878175 -3.01587915 0.57229644
-0.36600518 -3.01845336 0.52361524
-0.39847749 -3.01545238 0.55875671
-0.39428365 -3.01784348 0.50638139
-0.39209023 -3.01973510 0.46093482
-0.42270491 -3.01719809 0.48964208
-0.42241195 -3.01868010 0.45088542
-0.42163703 -3.02051210 0.41083887
-0.45091987 -3.01894283 0.43598074
-0.45089734 -3.02077556 0.39732566
-0.45249662 -3.02260995 0.36167005
-0.48214462 -3.02104115 0.38748720
-0.48374391 -3.02287555 0.35183159
-0.48534319 -3.02471066 0.31617606
-0.51499110 -3.02314067 0.34199324
-0.51659042 -3.02497578 0.30633762
-0.51958179 -3.02586436 0.27177826
-0.54960263 -3.02429628 0.29483932
-0.55558699 -3.02432108 0.26361427
-0.56118631 -3.02412319 0.23175277
-0.59140760 -3.02247477 0.25481778
-0.59719789 -3.02258992 0.22361058
-0.60279077 -3.02238154 0.19172734
-0.63301837 -3.02074432 0.21481408
-0.63880873 -3.02085876 0.18360698
-0.64428854 -3.02059674 0.15220307
-0.68006015 -3.01913309 0.17550351
-0.69400609 -3.01879358 0.14730503
-0.70050830 -3.01839614 0.11672127
-0.74338442 -3.01673532 0.14195690
-0.75172746 -3.01635218 0.11196296
-0.75822979 -3.01595473 0.08137920
-0.80294645 -3.01430821 0.10720469
-0.80944884 -3.01391077 0.07662094
-0.81595111 -3.01351404 0.04603710
-0.86071050 -3.01182723 0.07186049
-0.86782968 -3.01085114 0.04124466
-0.87494868 -3.00987577 0.01062887
-0.93002373 -3.00810099 0.03830056
-0.93866956 -3.00713277 0.00796337
-0.94731539 -3.00616384 -0.02237393
-1.01251674 -3.00383997 0.00726292
-1.02472711 -3.00305843 -0.02196038
-1.02838814 -3.00213075 -0.05499274
-1.11115766 -2.99766779 -0.01970499
-1.11790133 -2.99677467 -0.05345102
-1.12046146 -2.99583530 -0.08622853
-1.20437515 -2.99138474 -0.05120574
-1.20997465 -2.99047899 -0.08468693
-1.21253467 -2.98953962 -0.11746441
-1.30398011 -2.98412371 -0.08100237
-1.30507398 -2.98365021 -0.11906716
-1.30425882 -2.98313832 -0.15524876
-1.40932381 -2.97550893 -0.11369970
-1.40916979 -2.97513056 -0.15203255
-1.40901601 -2.97475219 -0.19036539
-1.51771975 -2.96390915 -0.14847271
-1.51558399 -2.96447539 -0.18984044
-1.51339960 -2.96566391 -0.23108056
-1.63011587 -2.96116900 -0.18959129
-1.62746000 -2.96089220 -0.23178545
-1.62483752 -2.96058917 -0.27385813
-1.51121497 -2.96685243 -0.27232063
-1.62038314 -2.95950937 -0.31851092
-1.50669003 -2.96676016 -0.31138247
-1.61188662 -2.95919704 -0.36248550
-1.50000644 -2.96633697 -0.35103735
-1.60267246 -2.95908594 -0.40617031
-1.49139357 -2.96591353 -0.39212403
-1.59406519 -2.95869446 -0.44755065
-1.48278081 -2.96548963 -0.43321079
-1.58552933 -2.95827055 -0.48866072
-1.47416806 -2.96506643 -0.47429749
-1.57391870 -2.95778060 -0.52994382
-1.46257842 -2.96464181 -0.51340491
-1.56043458 -2.95724988 -0.57133245
-1.44974983 -2.96421742 -0.55168825
-1.54695034 -2.95671964 -0.61272103
-1.43692923 -2.96379232 -0.58999789
-1.53316462 -2.95620704 -0.65325820
-1.42355156 -2.96331692 -0.62922472
-1.51621521 -2.95570874 -0.69183147
-1.40721190 -2.96280622 -0.66712582
-1.49942780 -2.95520592 -0.73069799
-1.39164603 -2.96227789 -0.70497787
-1.48264027 -2.95470333 -0.76956445
-1.61385465 -2.94785094 -0.76138926
-1.59457242 -2.94702983 -0.80341148
-1.57529020 -2.94620895 -0.84543383
-1.71196866 -2.93772173 -0.83733082
-1.69153178 -2.93714499 -0.88098830
-1.67066967 -2.93666029 -0.92515844
-1.80946636 -2.92800665 -0.92264861
-1.78814173 -2.92756438 -0.96703184
-1.76400888 -2.92700648 -1.01339412
-1.90441883 -2.91700482 -1.01336884
-1.88004684 -2.91593599 -1.06130672
-1.85578954 -2.91506696 -1.10864425
-1.73941803 -2.92650223 -1.05654716
-1.83087456 -2.91418672 -1.15180731
-1.71466184 -2.92601681 -1.09852743
-1.80174184 -2.91415191 -1.19736898
-1.68984020 -2.92542815 -1.14066744
-1.77183473 -2.91427636 -1.24348795
-1.66340625 -2.92483950 -1.18428636
-1.74192774 -2.91440034 -1.28960705
-1.63322496 -2.92473507 -1.22553992
-1.71172106 -2.91432428 -1.33107042
-1.60325575 -2.92428279 -1.26368487
-1.68115294 -2.91427469 -1.37096322
-1.57328641 -2.92383122 -1.30182993
-1.64751554 -2.91548920 -1.41330314
-1.54331732 -2.92337942 -1.33997488
-1.61381745 -2.91560078 -1.45220447
-1.51060617 -2.92350411 -1.37885618
-1.57914555 -2.91543007 -1.49082673
-1.47688007 -2.92340970 -1.41605771
-1.54350662 -2.91449785 -1.53025389
-1.44500625 -2.92346501 -1.45047748
-1.50640893 -2.91324210 -1.56900465
-1.41172576 -2.92345810 -1.48490393
-1.46940911 -2.91161537 -1.60657704
-1.37781096 -2.92327094 -1.51961243
-1.43252230 -2.90973091 -1.64350915
-1.34090102 -2.92070246 -1.55504334
-1.39487267 -2.90674925 -1.67759037
-1.30396128 -2.91725755 -1.58854723
-1.35446596 -2.90557075 -1.71391487
-1.26780891 -2.91352320 -1.62138546
-1.31575859 -2.90599060 -1.74746108
-1.23086381 -2.91276789 -1.65353572
-1.14516425 -2.92718053 -1.55153680
-1.19340360 -2.91382480 -1.68530118
-1.10940051 -2.92829704 -1.57912743
-1.15726233 -2.91438103 -1.71448898
-1.07545733 -2.92735243 -1.60523379
-1.11924911 -2.91372609 -1.74104166
-1.04121673 -2.92585564 -1.63143599
-1.07876015 -2.91306782 -1.76814997
-1.00387359 -2.92515969 -1.65881741
-1.03814614 -2.91240239 -1.79529011
-1.14554036 -2.90070152 -1.87615669
-1.10416925 -2.89992118 -1.90436232
-1.05819130 -2.89892626 -1.93330693
-1.16770613 -2.88708138 -2.01031470
-1.11846483 -2.88542342 -2.04051065
-1.06973088 -2.88254094 -2.06875300
-1.17957091 -2.88083959 -2.14675784
-1.12795436 -2.88037896 -2.17883921
-1.07646060 -2.87918162 -2.20754194
-1.18913198 -2.87131619 -2.28510737
-1.13231063 -2.87102151 -2.31582999
-1.07548511 -2.87072754 -2.34655142
-1.18771720 -2.85898519 -2.42516828
-1.13059211 -2.85838294 -2.45632744
-1.07041180 -2.85793257 -2.48673511
-1.18353236 -2.84545112 -2.56693006
-1.11842287 -2.84530544 -2.59741831
-1.05331349 -2.84515882 -2.62790704
-1.16765368 -2.83426213 -2.70712399
-1.09923911 -2.83320355 -2.73897433
-1.03110433 -2.83191657 -2.76917911
-1.14661431 -2.82720017 -2.84952855
-1.07609093 -2.82756162 -2.88165355
-1.00174665 -2.82714176 -2.91006970
-1.11984885 -2.82279038 -2.99155998
-1.04336572 -2.81697536 -3.02161837
-0.96639061 -2.81427908 -3.05063868
-1.08522892 -2.80851603 -3.13120198
-1.00425720 -2.80695128 -3.15951943
-0.92185992 -2.80708432 -3.18745422
-1.03872049 -2.79914021 -3.26078320
-0.95601612 -2.79965854 -3.28895068
-0.86982065 -2.79830241 -3.31689501
-0.98678279 -2.79023790 -3.38504982
-0.89771122 -2.78984165 -3.41409492
-0.80737275 -2.78895903 -3.43894005
-0.92447871 -2.77728963 -3.50310445
-0.83218580 -2.77651548 -3.53074121
-0.73820734 -2.77345657 -3.55365825
-0.85535669 -2.76558876 -3.61498666
-0.75686306 -2.76536489 -3.63909149
-0.65994501 -2.76564002 -3.66209364
-0.77627337 -2.75482059 -3.71889758
-0.67531085 -2.75567198 -3.74109602
-0.57088119 -2.75752115 -3.76067686
-0.69073945 -2.74533224 -3.81652951
-0.58597529 -2.74750495 -3.83799100
-0.47994322 -2.74879956 -3.85706544
-0.60039210 -2.73711896 -3.90968895
-0.48919991 -2.73931050 -3.92585015
-0.37702668 -2.73689747 -3.93723369
-0.49939039 -2.72981310 -3.99419880
-0.38469312 -2.72742414 -4.00676203
-0.27319416 -2.72614837 -4.01736975
-0.39486724 -2.71926761 -4.07435179
-0.27871647 -2.71823263 -4.08597803
-0.16039805 -2.72148824 -4.09109640
-0.28367016 -2.71348739 -4.15107203
-0.16401875 -2.71528602 -4.15629053
-0.04529774 -2.71496058 -4.15927982
-0.16804697 -2.70936751 -4.22135830
-0.04653121 -2.70856881 -4.22499418
0.07611803 -2.71287060 -4.22304153
-0.04702425 -2.71785831 -4.28676558
0.07754364 -2.71653867 -4.28622293
0.20105582 -2.71665859 -4.28066778
0.07929924 -2.73728704 -4.34392691
0.20533980 -2.73697782 -4.33918667
0.33031443 -2.73676634 -4.33027172
0.33031443 -2.73676634 -4.33027172
0.20533980 -2.73697782 -4.33918667
0.20929676 -2.77601886 -4.38784170
0.33631054 -2.77528214 -4.37861013
0.46242890 -2.77245045 -4.36803150
0.45418254 -2.73406529 -4.31958723
0.34126338 -2.82638431 -4.41712570
0.46950364 -2.82477903 -4.40424252
0.59543949 -2.82736731 -4.38458252
0.47487602 -2.88665676 -4.43161869
0.60344476 -2.88421535 -4.41590166
0.73078477 -2.88419652 -4.39694118
0.61067331 -2.94987607 -4.43980789
0.73984134 -2.94688153 -4.42081976
0.86860657 -2.94553900 -4.39979601
0.85829490 -2.88444877 -4.37632036
0.74826568 -3.01625943 -4.43937445
0.87876338 -3.01561117 -4.41848946
0.87876338 -3.01561117 -4.41848946
1.00905859 -3.01476502 -4.40362024
0.86860657 -2.94553900 -4.39979601
0.88865042 -3.09161115 -4.43509817
1.02005863 -3.09233022 -4.41779804
1.14862454 -3.09496880 -4.38613176
1.03052378 -3.17171526 -4.42849064
1.15973377 -3.17512655 -4.39503002
1.28869712 -3.17782187 -4.36356592
1.17058754 -3.25757098 -4.40119314
1.30027235 -3.25988603 -4.37050390
1.42797899 -3.26066995 -4.33901501
1.31252658 -3.34058380 -4.37813282
1.43986130 -3.34091449 -4.34316254
1.56683159 -3.34289193 -4.31253290
1.45238566 -3.42085671 -4.35091496
1.57719707 -3.42236519 -4.31257486
1.69667482 -3.42366123 -4.26231003
1.58851862 -3.49941087 -4.31477070
1.70914161 -3.50240064 -4.26750851
1.82491040 -3.50356555 -4.21140003
1.72086823 -3.57734513 -4.27076769
1.83800542 -3.57914877 -4.21752262
1.95558321 -3.57862568 -4.16794872
1.85033691 -3.64876056 -4.22281599
1.96746707 -3.64751172 -4.17245054
2.08299613 -3.65080380 -4.11992550
1.97892845 -3.71599460 -4.17618132
2.09311008 -3.71712518 -4.12155199
2.20313787 -3.71922708 -4.06131887
2.10311437 -3.77916145 -4.12377596
2.21314788 -3.78124619 -4.06355762
2.32346296 -3.78040123 -4.00472450
2.22446775 -3.83948350 -4.06917953
2.33379722 -3.83904767 -4.00855732
2.44010592 -3.84167099 -3.94368911
2.34413171 -3.89769435 -4.01239014
2.45073295 -3.89873695 -3.94800115
2.55718517 -3.89749289 -3.88486743
2.46265054 -3.95521426 -3.95426512
2.56720781 -3.95433164 -3.88788533
2.66972423 -3.95300913 -3.81868434
2.58010292 -4.00833559 -3.89522552
2.68331432 -4.00772476 -3.82645631
2.78253460 -4.00826740 -3.75298548
2.69490266 -4.06065369 -3.83203650
2.79626155 -4.06078482 -3.76082063
2.89643216 -4.06110001 -3.68817067
2.80653811 -4.11279392 -3.76450539
2.90655708 -4.11358643 -3.69120598
3.00464344 -4.11463594 -3.61580706
2.92059135 -4.16315508 -3.69942403
3.01941156 -4.16473722 -3.62447500
3.11615920 -4.16706753 -3.54635429
3.03909874 -4.20977163 -3.63950276
3.13687277 -4.21100855 -3.56220436
3.23339367 -4.21245527 -3.48304653
3.16452837 -4.24481058 -3.58645821
3.26144934 -4.24508905 -3.50640678
3.35632181 -4.24707985 -3.42448354
3.29575849 -4.26062870 -3.53736520
3.39213681 -4.26044512 -3.45505333
3.48561668 -4.25847054 -3.36899400
3.42905498 -4.25933123 -3.48672223
3.52277780 -4.25793886 -3.39948964
3.61469769 -4.25657415 -3.30980635
3.55927157 -4.24665213 -3.42883444
3.65096688 -4.24512482 -3.33825135
3.74060369 -4.24429941 -3.24437284
3.68148041 -4.21476078 -3.35992479
3.77071977 -4.21259642 -3.26565099
3.85718894 -4.21115112 -3.16728997
3.79781961 -4.17726994 -3.28313303
3.88429499 -4.17529917 -3.18437505
3.96838641 -4.17504644 -3.08409953
3.90266013 -4.12888956 -3.19362068
3.98690844 -4.13044214 -3.09299135
4.06825876 -4.13186979 -2.99003339
3.99941063 -4.07915306 -3.09650874
4.08098412 -4.08131742 -2.99351811
4.15871191 -4.08327770 -2.88753343
4.08764935 -4.02590704 -2.99192762
4.16658831 -4.02924681 -2.88688612
4.24137115 -4.03243208 -2.77880955
4.17499828 -3.97359443 -2.88648200
4.24909973 -3.97793055 -2.77795601
4.32236862 -3.98175764 -2.66887760
4.25815630 -3.92219234 -2.77790236
4.33142233 -3.92677760 -2.66862535
4.40088892 -3.93090105 -2.55662870
4.34015036 -3.87101388 -2.66810369
4.40823269 -3.87558961 -2.55513525
4.47564077 -3.87980533 -2.44169426
4.41886282 -3.82107854 -2.55581808
4.48395300 -3.82380795 -2.44069600
4.54737568 -3.82498217 -2.32417631
4.49228382 -3.76657367 -2.43938541
4.55633116 -3.76689482 -2.32283664
4.61730146 -3.76605344 -2.20442533
4.56538105 -3.70722270 -2.32161260
4.62614155 -3.70783401 -2.20288491
4.68118763 -3.71064663 -2.08207989
4.63701105 -3.64455676 -2.20233464
4.69114542 -3.64456677 -2.08047986
4.74825668 -3.64756775 -1.95969307
4.70432806 -3.56830454 -2.07943153
4.76004648 -3.56930470 -1.95772398
4.81375933 -3.56993008 -1.83482075
4.76674175 -3.48624825 -1.95300400
4.82269287 -3.48987389 -1.83118463
4.87065601 -3.49698901 -1.70651007
4.83099937 -3.40777206 -1.82710660
4.88213778 -3.41599107 -1.70349586
4.92445612 -3.42024207 -1.57614124
4.89264774 -3.33140993 -1.69994175
4.93524170 -3.33782482 -1.57272828
4.97621536 -3.34491038 -1.44510281
4.94772339 -3.24927688 -1.56941319
4.99028492 -3.25319076 -1.44198573
5.02579737 -3.25472569 -1.31202447
5.00169802 -3.15608621 -1.43756807
5.03552628 -3.15659165 -1.30703163
5.06812096 -3.15683556 -1.17616689
5.04769373 -3.05542755 -1.30262959
5.08209705 -3.05620813 -1.17200351
5.11113358 -3.05719280 -1.04005837
5.09512281 -2.95836449 -1.16780484
5.12061787 -2.95917749 -1.03443503
5.14868879 -2.96191049 -0.90190744
5.13347483 -2.86718607 -1.03059387
5.16001034 -2.86834455 -0.89722711
5.19448137 -2.87270117 -0.76510310
5.17461491 -2.78026342 -0.89342499
5.21198606 -2.78505468 -0.76164061
5.23592949 -2.78705907 -0.62673831
5.23592472 -2.70399904 -0.75972784
5.25756121 -2.70427108 -0.62386882
5.27093315 -2.70184088 -0.48684484
5.29303217 -2.63116598 -0.62292874
5.30775261 -2.63021231 -0.48552608
5.32177734 -2.62984467 -0.34791514
5.37710524 -2.59115648 -0.48755938
5.38994408 -2.59214067 -0.34844401
5.39847803 -2.59071374 -0.20910798
5.39847803 -2.59071374 -0.20910798
5.38994408 -2.59214067 -0.34844401
5.46778107 -2.57135272 -0.34925038
5.47800446 -2.57131624 -0.20792390
5.48034716 -2.57051086 -0.06494275
5.40360737 -2.58966613 -0.06829468
5.55827141 -2.54788375 -0.20571929
5.55948544 -2.54825330 -0.06251574
5.55724192 -2.54802084 0.08320723
5.64147758 -2.52486634 -0.05898428
5.63754749 -2.52356339 0.08884595
5.62841654 -2.52269006 0.23481636
5.72278023 -2.49856472 0.09516532
5.71470070 -2.49766254 0.24325858
5.70310163 -2.49643207 0.39348826
5.80431986 -2.47073960 0.25322795
5.79075432 -2.47073317 0.40385121
5.77384281 -2.47079015 0.55407184
5.88639212 -2.44051504 0.41519067
5.87165785 -2.44030905 0.56978083
5.85217524 -2.44048619 0.72191560
5.97266722 -2.40779972 0.58428061
5.95451450 -2.40731907 0.73990476
5.93248940 -2.40865779 0.89426166
6.06210089 -2.36984658 0.75863469
6.03917980 -2.37088394 0.91630501
6.01147318 -2.37304640 1.07390976
6.14808178 -2.33167291 0.93893123
6.11926031 -2.33117223 1.09841919
6.08676958 -2.33182693 1.25791001
6.23042488 -2.28862238 1.12462282
6.19625616 -2.28818369 1.28532887
6.15900469 -2.28726315 1.44674706
6.30758286 -2.23934722 1.31279969
6.26929188 -2.23983979 1.47638166
6.22837019 -2.23973823 1.63982606
6.37962151 -2.18758154 1.50642812
6.33660412 -2.18665290 1.67236257
6.28966331 -2.18620539 1.83621693
6.44623470 -2.13378763 1.70508182
6.39822435 -2.13313770 1.87251890
6.34540606 -2.13186455 2.03876877
6.50627851 -2.07487893 1.90912735
6.45249510 -2.07416105 2.07766676
6.39323664 -2.07454967 2.24558949
6.55755711 -2.01340175 2.11646366
6.49823618 -2.01381707 2.28697419
6.43482304 -2.01499295 2.45647120
6.60127974 -1.94910622 2.32868505
6.53687143 -1.94948816 2.49965215
6.46647978 -1.95138431 2.67010331
6.63792706 -1.88294363 2.54312253
6.56721306 -1.88542843 2.71619940
6.48995256 -1.88561416 2.88769293
6.66359091 -1.81363952 2.76200557
6.58637524 -1.81540346 2.93504953
6.50354862 -1.81638205 3.10700202
6.67979908 -1.74171376 2.98296642
6.59517717 -1.74097157 3.15650272
6.50634098 -1.74188054 3.32866335
6.68474674 -1.66255033 3.20364857
6.59488440 -1.66364610 3.37837029
6.50014782 -1.66154158 3.54986072
6.67992210 -1.58071160 3.42675567
6.58524179 -1.58023667 3.60027623
6.48414040 -1.58109128 3.77248955
6.66810179 -1.49629033 3.65046763
6.56524944 -1.49720216 3.82424569
6.45887661 -1.49821413 3.99555445
6.64352989 -1.40920436 3.87512493
6.53724813 -1.41068780 4.04730988
6.42468786 -1.41029429 4.21650887
6.61229229 -1.32028759 4.09903097
6.49841070 -1.32019985 4.27030516
6.38000059 -1.32170773 4.43853378
6.57009315 -1.22639704 4.32140923
6.45153046 -1.22996080 4.49324226
6.32692099 -1.22987938 4.65939426
6.51936913 -1.13418698 4.54498100
6.39415884 -1.13433039 4.71377897
6.26576614 -1.13341737 4.87877893
6.45699549 -1.03408313 4.76492262
6.32730150 -1.03323793 4.93155813
6.19373035 -1.03256452 5.09536648
6.38767481 -0.93192148 4.98418474
6.25253344 -0.93127424 5.14882469
6.11357689 -0.92960203 5.31031370
6.30794859 -0.82616544 5.19982481
6.16834021 -0.82449710 5.36241674
6.02766466 -0.82608342 5.52464628
6.22412491 -0.72095263 5.41645241
6.08076191 -0.72146451 5.57867050
5.92907572 -0.71741748 5.73437452
6.12847424 -0.61213481 5.62815666
5.97644615 -0.60887676 5.78568172
5.81924820 -0.60399091 5.93810463
6.02104473 -0.49774131 5.83372355
5.86419868 -0.49392590 5.98826981
5.70630026 -0.49216056 6.14167500
5.90836763 -0.38282233 6.03770494
5.74896145 -0.38029552 6.19112587
5.58561945 -0.37679642 6.34002590
5.78887796 -0.26624799 6.23793745
5.62479830 -0.26315567 6.38828182
5.45643091 -0.26038691 6.53356171
5.66459799 -0.14980085 6.43686914
5.49531317 -0.14724037 6.58385086
5.32086563 -0.14275971 6.72357273
5.53159523 -0.03194219 6.63019848
5.35555744 -0.02644159 6.77078438
5.18015194 -0.02362531 6.90789175
5.38863564 0.09114932 6.81569862
