3.11003566 0.55628014 -8.73617935
3.13914704 0.72358644 -8.81096268
2.90094566 0.39191446 -8.72172642
3.07894921 0.39190912 -8.65632057
3.29233074 0.55627710 -8.66869545
3.32308316 0.72359389 -8.74287701
3.47558618 0.55627441 -8.59858418
3.50798988 0.72360563 -8.67214108
3.25949097 0.39189807 -8.58948135
3.44098496 0.39188364 -8.52003860
3.65819931 0.55627155 -8.52465725
3.69224930 0.72361910 -8.59755707
3.83914876 0.55626905 -8.44603825
3.87482977 0.72363114 -8.51823807
3.62184238 0.39186853 -8.44681644
3.80105162 0.39185467 -8.36895084
4.01741314 0.55626655 -8.36185360
4.05470037 0.72363937 -8.43330097
4.19379902 0.55626369 -8.27281475
4.23267603 0.72364539 -8.34346485
3.97760248 0.39184362 -8.28557205
4.15229321 0.39183366 -8.19738674
4.36911440 0.55626100 -8.17963600
4.40957117 0.72365248 -8.24945068
4.54302692 0.55625796 -8.08220959
4.58505106 0.72365922 -8.15115261
4.32592201 0.39182335 -8.10509777
4.49816179 0.39181247 -8.00860405
4.71520424 0.55625474 -7.98043156
4.75878096 0.72366595 -8.04846478
4.88708210 0.55625153 -7.87500238
4.93220901 0.72367448 -7.94209099
4.66868353 0.39180234 -7.90780449
4.83890820 0.39178988 -7.80338430
5.06009531 0.55624831 -7.76661634
5.10678482 0.72368866 -7.83273697
5.23182487 0.55624527 -7.65462303
5.28006649 0.72370499 -7.71974373
5.01025629 0.39177278 -7.69603395
5.18033218 0.39175466 -7.58511305
5.39985180 0.55624223 -7.53837252
5.44961119 0.72371954 -7.60245514
5.56439400 0.55623901 -7.41628313
5.61564016 0.72372979 -7.47927237
5.34674072 0.39173755 -7.46997404
5.50969887 0.39172405 -7.34905529
5.72567034 0.55623597 -7.28677416
5.77837086 0.72373372 -7.34859848
5.88591480 0.55623293 -7.15361023
5.94006109 0.72374046 -7.21424055
5.66942406 0.39171547 -7.22078800
5.82812595 0.39170516 -7.08890200
6.04735851 0.55623007 -7.02056074
6.10296679 0.72375822 -7.08000040
6.20694971 0.55622685 -6.88451767
6.26400328 0.72377914 -6.94274092
5.98801374 0.39168561 -6.95712614
6.14606476 0.39166370 -6.82238436
6.36163187 0.55622399 -6.74237490
6.42008638 0.72379410 -6.79932547
6.50989914 0.55622095 -6.59763718
6.56969500 0.72380543 -6.65328884
6.29925680 0.39164659 -6.68160439
6.44609594 0.39163256 -6.53825521
6.71130896 0.72381610 -6.50816774
6.65024376 0.55621827 -6.45380831
6.84747124 0.72382492 -6.36096621
6.78518534 0.55621535 -6.30791664
6.58508825 0.39161935 -6.39580774
6.71872950 0.39160761 -6.25131655
6.98072529 0.72383165 -6.20868444
6.91724539 0.55621290 -6.15699291
7.04853201 0.55621034 -5.99890041
7.11319923 0.72383767 -6.04917097
6.84951687 0.39159745 -6.10184145
6.97953939 0.39158818 -5.94526672
7.24702263 0.72384405 -5.88027000
7.18115711 0.55620748 -5.83150530
7.31363821 0.55620497 -5.65835428
7.38070345 0.72385329 -5.70556259
7.11088562 0.39157838 -5.77947950
7.24208975 0.39156646 -5.60799170
7.51274776 0.72386742 -5.52862644
7.44449520 0.55620205 -5.48299408
7.57088900 0.55619955 -5.30689287
7.64028883 0.72388417 -5.35094309
7.37168598 0.39155024 -5.43431425
7.49685860 0.39153278 -5.25990391
7.76045656 0.72389936 -5.17399359
7.68997478 0.55619740 -5.13151932
7.80240536 0.55619526 -4.95769119
7.87390852 0.72391462 -4.99860239
7.61479521 0.39151677 -5.08621407
7.72613907 0.39150074 -4.91405487
7.98129988 0.72393066 -4.82559443
7.90882874 0.55619311 -4.78622532
8.01120281 0.55619091 -4.61285973
8.08460522 0.72394764 -4.65067053
7.83153439 0.39148435 -4.74423504
7.93291759 0.39146727 -4.57253504
8.18580055 0.72396398 -4.46953058
8.11148262 0.55618912 -4.43333483
8.20700264 0.55618733 -4.24963760
8.28218937 0.72397780 -4.28417969
8.03222847 0.39145088 -4.39473391
8.12682438 0.39143679 -4.21280146
8.37107754 0.72398525 -4.09662437
8.29509163 0.55618548 -4.06375694
8.37964916 0.55618370 -3.87718105
8.45640373 0.72399479 -3.90836763
8.21406269 0.39142755 -4.02870750
8.29780293 0.39141685 -3.84392571
8.54210186 0.72401506 -3.72091246
8.46457005 0.55618173 -3.69139814
8.54675198 0.55617988 -3.50558352
8.62503815 0.72403884 -3.53342509
8.38189983 0.39139760 -3.65992785
8.46328354 0.39137575 -3.47589827
8.70207977 0.72405976 -3.34507203
8.62309265 0.55617809 -3.31891131
8.69397831 0.55617625 -3.13044071
8.77361584 0.72407895 -3.15490341
8.53888321 0.39135543 -3.29102039
8.60908031 0.39133760 -3.10436130
8.84003448 0.72409528 -2.96196914
8.75979328 0.55617499 -2.93923020
8.82210159 0.55617356 -2.74494433
8.90291595 0.72411227 -2.76593161
8.67425537 0.39132163 -2.91499019
8.73595905 0.39130574 -2.72257304
8.96383953 0.72413355 -2.56645250
8.88246918 0.55617207 -2.54724765
8.93854904 0.55617082 -2.34489346
9.02043724 0.72415310 -2.36227298
8.79573822 0.39128652 -2.52677727
8.85127163 0.39126873 -2.32636976
9.07034206 0.72416764 -2.15213561
8.98799992 0.55616957 -2.13663554
9.03515339 0.55616844 -1.92660272
9.11793232 0.72418642 -1.94020712
8.90024090 0.39125502 -2.12011600
8.94693375 0.39123824 -1.91210425
9.16758633 0.72421944 -1.73065317
9.08434486 0.55616719 -1.71892262
9.12919521 0.55616593 -1.51443899
9.21286011 0.72425503 -1.52432406
8.99564075 0.39120907 -1.70642245
9.04004765 0.39117903 -1.50390637
9.24731350 0.72427917 -1.32206953
9.16332531 0.55616480 -1.31399500
9.18879032 0.55616403 -1.11363173
9.27301788 0.72429544 -1.11989546
9.07384109 0.39115801 -1.30539191
9.09905529 0.39114356 -1.10695839
9.29204845 0.72430676 -0.91380847
9.20764351 0.55616367 -0.90939093
9.22299099 0.55616367 -0.70001304
9.30754185 0.72432101 -0.70253760
9.11772346 0.39113358 -0.90468466
9.13291740 0.39112237 -0.69732356
9.32263374 0.72434300 -0.48481208
9.23793507 0.55616325 -0.48423880
9.25035667 0.55616283 -0.26490459
9.33518124 0.72437000 -0.26349387
9.16000366 0.39108175 -0.26640710
9.14770985 0.39110383 -0.48362803
9.25813675 0.55616242 -0.04484712
9.34304714 0.72439802 -0.04144510
9.26040173 0.55616224 0.17571560
9.34534931 0.72442567 0.18111397
9.16993332 0.39103597 0.16996671
9.16769886 0.39105842 -0.04847034
9.25628090 0.55616224 0.39656600
9.34120464 0.72445095 0.40396404
9.24598503 0.55616236 0.61693716
9.33082771 0.72447437 0.62633115
9.15563869 0.39099720 0.60693389
9.16584396 0.39101571 0.38868767
9.22972679 0.55616266 0.83606237
9.31443501 0.72449636 0.84744138
9.20794010 0.55616313 1.05425704
9.29246140 0.72451693 1.06761336
9.11794758 0.39096457 1.04003620
9.13953114 0.39098042 0.82394606
9.18105698 0.55616349 1.27183712
9.26534462 0.72453785 1.28716528
9.14809799 0.55616421 1.48846745
9.23209763 0.72455698 1.50575912
9.05866909 0.39093485 1.47005785
9.09131622 0.39094871 1.25551748
9.10808563 0.55616504 1.70381343
9.19173050 0.72457159 1.72305703
9.06159210 0.55616623 1.91800082
9.14482212 0.72458398 1.93918538
8.97298908 0.39091679 1.89544737
9.01903820 0.39092448 1.68332648
9.00919056 0.55616742 2.13115525
9.09195042 0.72459424 2.15427208
8.95063305 0.55616879 2.34303427
9.03286457 0.72460169 2.36807179
8.86309528 0.39090699 2.31638169
8.92109013 0.39091089 2.10654593
8.88567162 0.55617023 2.55339456
8.96731567 0.72460699 2.58033800
8.81720924 0.55617160 2.76377702
8.89823818 0.72461581 2.79262781
8.73095512 0.39090067 2.73306489
8.79875946 0.39090535 2.52471232
8.74815178 0.55617261 2.97572374
8.82856369 0.72463465 3.00649858
8.67566776 0.55617380 3.18848705
8.75543499 0.72465879 3.22119427
8.59076595 0.39087036 3.15367436
8.66255665 0.39088747 2.94296551
8.59693146 0.55617541 3.40132046
8.67599583 0.72468257 3.43596125
8.51402569 0.55617714 3.61115336
8.59234905 0.72470671 3.64770103
8.43066883 0.39083797 3.57225800
8.51278305 0.39085418 3.36445212
8.42903233 0.55617905 3.81491375
8.59234905 0.72470671 3.64770103
8.50659752 0.72473264 3.85331416
8.51402569 0.55617714 3.61115336
8.34033012 0.55618095 4.01184082
8.41710186 0.72475535 4.05203152
8.25863743 0.39080554 3.96907353
8.34648800 0.39082068 3.77404904
8.43066883 0.39083797 3.57225800
8.24630260 0.55618292 4.20117378
8.32222748 0.72477126 4.24308538
8.14486313 0.55618483 4.39009953
8.21987343 0.72478443 4.43372631
8.06504726 0.39078912 4.34367800
8.16551113 0.39079612 4.15657711
8.03392792 0.55618727 4.58580446
8.10793781 0.72479826 4.63120937
7.91452456 0.55619007 4.78279781
7.98745632 0.72480959 4.82999182
7.83692551 0.39077771 4.73258305
7.95517969 0.39078251 4.53749228
7.78768015 0.55619258 4.97558975
7.85946226 0.72481489 5.02453279
7.65702057 0.55619538 5.16616678
7.72762012 0.72482234 5.21683884
7.58190489 0.39077690 5.11225128
7.71130371 0.39077839 4.92351437
7.52617502 0.55619782 5.35651541
7.59559345 0.72484040 5.40891981
7.39320612 0.55620033 5.54475641
7.46142817 0.72486418 5.59887505
7.32062721 0.39075288 5.48717976
7.45231771 0.39076695 5.30075979
7.25618172 0.55620295 5.72901154
7.32316875 0.72488731 5.78480959
7.11604261 0.55620557 5.90605164
7.18176556 0.72490716 5.96346140
7.04612827 0.39072794 5.84498072
7.18491936 0.39073879 5.66965246
6.97373056 0.55620819 6.07264948
7.03816605 0.72491997 6.13157511
6.82544279 0.55621117 6.23500776
6.88853598 0.72492915 6.29540920
6.75832939 0.39071986 6.17075729
6.90518713 0.39072186 6.00996780
6.66737556 0.55621421 6.39933538
6.72903585 0.72493768 6.46122980
6.50286579 0.55621755 6.56474829
6.56303596 0.72494936 6.62814808
6.43886375 0.39071465 6.49731112
6.60178709 0.39071825 6.33349657
6.39390516 0.72496891 6.79527426
6.33525133 0.55622071 6.73036528
6.22038984 0.72498983 6.95945549
6.16329050 0.55622423 6.89306211
6.27286386 0.39070469 6.66132450
6.10255957 0.39069399 6.82244682
6.04123688 0.72500581 7.11753941
5.98574495 0.55622756 7.04971981
5.85826874 0.72501820 7.26909447
5.80441999 0.55623096 7.19990873
5.92672586 0.39068720 6.97758865
5.74715042 0.39068347 7.12632418
5.67330933 0.72502851 7.41369247
5.62112284 0.55623412 7.34320211
5.48825169 0.72503948 7.55160952
5.43772745 0.55623770 7.47987413
5.56562090 0.39068058 7.26823282
5.38399553 0.39067772 7.40358353
5.30498791 0.72505265 7.68312120
5.25611019 0.55624104 7.61019802
5.12091732 0.72506613 7.80943632
5.07369280 0.55624402 7.73537302
5.20412922 0.39067325 7.53264618
5.02347183 0.39066809 7.65660954
4.93343973 0.72507966 7.93176746
4.88789988 0.55624717 7.85659742
4.74022150 0.72509062 8.04942989
4.69641829 0.55625075 7.97319794
4.83947086 0.39066252 7.77665997
4.64983654 0.39066005 7.89213419
4.53892660 0.72509450 8.16174507
4.49693489 0.55625445 8.08450317
4.33597231 0.72509664 8.26804733
4.29580784 0.55625814 8.18984985
4.45228052 0.39066359 8.00236320
4.25309658 0.39066836 8.10669422
4.13777542 0.72510159 8.36767673
4.09939432 0.55626172 8.28858185
3.93675041 0.72511226 8.46561623
3.90017724 0.55626523 8.38563633
4.05857992 0.39067066 8.20447063
3.86128545 0.39066836 8.30058670
3.72531128 0.72513109 8.56684971
3.69063711 0.55626881 8.48594952
3.51121140 0.72515380 8.66569996
3.47846150 0.55627233 8.58389950
3.65376735 0.39065960 8.39992714
3.44363809 0.39064750 8.49692440
3.30220914 0.72517586 8.75648308
3.27133679 0.55627549 8.67385578
3.09430933 0.72519183 8.83791256
3.06530619 0.55627871 8.75454617
3.23851180 0.39063543 8.58600616
3.03446984 0.39062846 8.66591167
2.88352156 0.72519571 8.90869522
2.85641599 0.55628186 8.82469177
2.66458440 0.72519463 8.97389984
2.63945174 0.55628484 8.88931370
2.82759738 0.39063075 8.73538017
2.61272860 0.39063698 8.79937840
2.43223810 0.72519678 9.03859711
2.40919709 0.55628824 8.95342731
2.19213057 0.72519642 9.09786320
2.17125106 0.55629182 9.01216221
2.38469934 0.39064106 8.86287308
2.14905334 0.39064795 8.92104340
1.94990945 0.72518677 9.14677620
1.93121254 0.55629534 9.06064415
1.71342719 0.72518003 9.18979359
1.69685984 0.55629909 9.10327911
1.91133261 0.39066219 8.96906090
1.67924440 0.39067444 9.01128960
1.49053347 0.72518605 9.23136997
1.47597384 0.55630261 9.14447880
1.27392554 0.72519529 9.26803207
1.26131546 0.55630600 9.18080807
1.46049142 0.39067516 9.05208874
1.24790692 0.39067319 9.08806610
1.05629730 0.72519815 9.29631805
1.04564607 0.55630898 9.20884132
0.83764744 0.72519922 9.31921387
0.82896554 0.55631238 9.23153210
1.03432071 0.39067727 9.11582661
0.81973338 0.39068186 9.13829994
0.61798012 0.72520524 9.33971310
0.61127478 0.55631542 9.25184441
0.39277065 0.72520953 9.35434341
0.38809308 0.55631840 9.26634312
0.60414571 0.39068240 9.15841484
0.38311902 0.39068455 9.17277431
0.15750073 0.72520453 9.35963917
0.15494046 0.55632180 9.27159595
0.15221809 0.39069432 9.17798042
-0.29730427 -0.05564472 8.86746311
-0.08047309 0.08242275 8.97546673
-0.29920331 0.08241493 8.97098160
-0.08098571 -0.05564703 8.87189007
-0.50902843 -0.05564277 8.85902119
-0.51328725 0.08241031 8.96244049
-0.50450659 -0.18861121 8.74919128
-0.29528719 -0.18861903 8.75752831
-0.08152961 -0.18863024 8.76189613
-0.72618741 0.08240569 8.94917583
-0.71958232 -0.05564063 8.84590912
-0.51328725 0.08241031 8.96244049
-0.50902843 -0.05564277 8.85902119
-0.93147928 -0.05563885 8.82907772
-0.94044554 0.08240516 8.93215370
-0.92195702 -0.18860020 8.71960354
-0.71256840 -0.18860374 8.73623562
-0.50450659 -0.18861121 8.74919128
-1.15860629 0.08241299 8.91234207
-1.14723468 -0.05563743 8.80947876
-1.36225152 -0.05563582 8.78443623
-1.37601972 0.08241867 8.88702393
-1.34763002 -0.18860553 8.67548752
-1.13515794 -0.18860374 8.70023537
-1.58803892 0.08241175 8.85348225
-1.57193649 -0.05563422 8.75127220
-1.77711749 -0.05563279 8.71256924
-1.79550505 0.08240037 8.81433964
-1.75758874 -0.18858436 8.60448360
-1.55483377 -0.18859698 8.64272022
-1.99925828 0.08239257 8.77221394
-1.97862613 -0.05563118 8.67091560
-2.18212914 -0.05562958 8.62472725
-2.20502734 0.08238724 8.72550488
-2.15780926 -0.18856727 8.51769066
-1.95671356 -0.18857458 8.56332779
-2.41854167 0.08238405 8.67261314
-2.39329243 -0.05562832 8.57242203
-2.60801625 -0.05562707 8.51344204
-2.63565660 0.08237872 8.61297035
-2.57865882 -0.18855518 8.40772820
-2.36647391 -0.18856193 8.46600628
-2.85222602 0.08236825 8.54600906
-2.82220244 -0.05562564 8.44722748
-3.03573465 -0.05562421 8.37427998
-3.06813169 0.08235387 8.47223759
-3.00132155 -0.18852796 8.27022839
-2.79031181 -0.18854325 8.34230423
-3.28325629 0.08233717 8.39215755
-3.24849486 -0.05562277 8.29509640
-3.45755339 -0.05562133 8.20967960
-3.49463439 0.08231550 8.30577087
-3.41815901 -0.18848917 8.10759735
-3.21156907 -0.18851124 8.19198990
-3.69929910 0.08228406 8.21307659
-3.65997434 -0.05561972 8.11803055
-3.85652399 -0.05561810 8.02306557
-3.89802575 0.08225296 8.11702919
-3.81242561 -0.18842925 7.92322445
-3.61819100 -0.18845949 8.01705074
-4.09159184 0.08222988 8.02058411
-4.04796743 -0.05561631 7.92769909
-4.23932219 -0.05561487 7.82819653
-4.28506851 0.08221211 7.91995955
-4.19070768 -0.18838835 7.73068190
-4.00161076 -0.18840647 7.82900000
-4.48352671 0.08219507 7.81137466
-4.43560457 -0.05561343 7.72081900
-4.62911654 -0.05561199 7.60752153
-4.67918301 0.08217340 7.69680023
-4.57590628 -0.18834955 7.51263762
-4.38467503 -0.18837072 7.62458420
-4.86425304 0.08214071 7.57820797
-4.81216621 -0.05561091 7.49025726
-4.98869848 -0.05560982 7.37083292
-5.04273510 0.08210785 7.45743227
-4.93126059 -0.18828890 7.27877998
-4.75680304 -0.18831949 7.39677668
-5.21862316 0.08208565 7.33630991
-5.16266298 -0.05560891 7.25105715
-5.33473587 -0.05560783 7.12850285
-5.39259911 0.08206861 7.21238089
-5.10317755 -0.18826810 7.16043043
-5.27322435 -0.18825154 7.03933191
-5.56534624 0.08205157 7.08318853
-5.50559330 -0.05560656 7.00074244
-5.67406750 -0.05560547 6.86577177
-5.73567724 0.08202723 6.94670343
-5.44206810 -0.18823428 6.91308928
-5.60856152 -0.18821116 6.77972507
-5.90241671 0.08198816 6.80089521
-5.83899498 -0.05560474 6.72159052
-5.99917650 -0.05560436 6.57442904
-6.06435537 0.08194801 6.65207434
-5.77155495 -0.18817611 6.63726330
-5.92985916 -0.18814036 6.49185753
-6.22029495 0.08191995 6.50655222
-6.15341806 -0.05560363 6.43052244
-6.37391329 0.08189136 6.35568237
-6.30536699 -0.05560289 6.28132439
-6.08229208 -0.18811528 6.34966183
-6.23245955 -0.18808928 6.20223713
-6.52889299 0.08184961 6.19081736
-6.45866871 -0.05560215 6.11829233
-6.68263817 0.08180503 6.01855803
-6.61075306 -0.05560141 5.94794846
-6.38396978 -0.18805194 6.04114437
-6.53427649 -0.18801209 5.87282848
-6.83255148 0.08176845 5.84551048
-6.75904512 -0.05560067 5.77681875
-6.97583818 0.08173363 5.67226124
-6.90078211 -0.05560011 5.60548830
-6.68083668 -0.18797937 5.70373297
-6.82091379 -0.18794806 5.53443575
-7.10969114 0.08169384 5.49940014
-7.03319359 -0.05559973 5.43454170
-7.23859310 0.08165104 5.32250309
-7.16070890 -0.05559916 5.25960350
-6.95178270 -0.18791282 5.36552000
-7.07781506 -0.18787512 5.19265890
-7.36701632 0.08160787 5.13714314
-7.28775406 -0.05559843 5.07629538
-7.49165487 0.08156631 4.94913435
-7.41105175 -0.05559768 4.89036417
-7.20338249 -0.18783671 5.01152563
-7.32524824 -0.18779987 4.82780027
-7.60919094 0.08152990 4.76428843
-7.52732801 -0.05559694 4.70755816
-7.72170925 0.08149332 4.57698107
-7.63863897 -0.05559621 4.52231693
-7.44017076 -0.18776697 4.64715910
-7.55018759 -0.18773459 4.46411037
-7.83128071 0.08145193 4.38159037
-7.74704170 -0.05559564 4.32908058
-7.93500662 0.08140664 4.18367577
-7.84966421 -0.05559507 4.13334846
-7.65733337 -0.18769757 4.27316189
-7.75876999 -0.18765756 4.07974672
-8.02998066 0.08135922 3.98879838
-7.94363260 -0.05559469 3.94061923
-8.11929417 0.08131605 3.79633355
-8.03200245 -0.05559430 3.75027323
-7.85165644 -0.18761577 3.88929892
-7.93900681 -0.18757804 3.70120454
-8.20604038 0.08128427 3.60565782
-8.11782455 -0.05559391 3.56169152
-8.28979492 0.08125622 3.41231632
-8.20068455 -0.05559371 3.37047076
-8.02383423 -0.18755029 3.51484919
-8.10573483 -0.18752590 3.32588387
-8.37013340 0.08122443 3.21185541
-8.28016853 -0.05559367 3.17220807
-8.44590187 0.08119193 3.00882339
-8.35513496 -0.05559364 2.97140217
-8.18429852 -0.18749867 3.12996006
-8.25840092 -0.18747072 2.93152189
-8.51595688 0.08116157 2.80777168
-8.42444420 -0.05559325 2.77255225
-8.58032322 0.08113211 2.60814071
-8.48812962 -0.05559304 2.57510686
-8.32691288 -0.18744387 2.73501587
-8.38986683 -0.18741772 2.53989697
-8.63902950 0.08110138 2.40937448
-8.54621983 -0.05559266 2.37851548
-8.69248390 0.08107066 2.21137738
-8.59911442 -0.05559262 2.18268418
-8.44728756 -0.18739119 2.34562111
-8.49957752 -0.18736468 2.15209627
-8.74108887 0.08104066 2.01405573
-8.64721107 -0.05559259 1.98751950
-8.78561592 0.08101208 1.81547093
-8.69127560 -0.05559256 1.79110432
-8.54712582 -0.18733904 1.95922863
-8.59068584 -0.18731430 1.76512492
-8.82683086 0.08098562 1.61368537
-8.73206139 -0.05559253 1.59152246
-8.86404800 0.08096059 1.40958083
-8.76889515 -0.05559214 1.38964558
-8.63100624 -0.18729188 1.56788993
-8.66742134 -0.18726945 1.36838710
-8.89658737 0.08093503 1.20403874
-8.80109692 -0.05559193 1.18634558
-8.92558002 0.08091356 0.99763572
-8.82979012 -0.05559172 0.98219323
-8.69925976 -0.18724756 1.16747689
-8.72762680 -0.18722850 0.96572340
-8.95216465 0.08090008 0.79094964
-8.85609531 -0.05559151 0.77775884
-8.97367764 0.08088554 0.58326972
-8.87738609 -0.05559129 0.57234097
-8.75363159 -0.18721674 0.76368982
-8.77468300 -0.18720426 0.56068355
-8.98745823 0.08086123 0.37388682
-8.89103603 -0.05559144 0.36523822
-8.99553680 0.08083424 0.16547482
-8.89904594 -0.05559158 0.15909547
-8.78818321 -0.18718344 0.35601294
-8.79611492 -0.18716064 0.15229040
-8.99994183 0.08081205 -0.03929181
-8.90342140 -0.05559155 -0.04344248
-9.00055027 0.08079325 -0.24156445
-8.90403557 -0.05559152 -0.24351427
-8.80045033 -0.18714161 -0.04787026
-8.80106735 -0.18712521 -0.24559428
-8.99722767 0.08077639 -0.44249406
-8.90076351 -0.05559148 -0.44225848
-8.89261246 -0.05559145 -0.64223349
-8.98897266 0.08075901 -0.64466727
-8.78979492 -0.18709598 -0.63963664
-8.79784203 -0.18711096 -0.44200709
-8.87859154 -0.05559177 -0.84599745
-8.97478294 0.08073753 -0.85067016
-8.86001492 -0.05559209 -1.04867399
-8.95598602 0.08071588 -1.05557299
-8.75760460 -0.18706037 -1.04131186
-8.77595234 -0.18707837 -0.84101140
-8.83819199 -0.05559242 -1.24538684
-8.93390656 0.08069707 -1.25444639
-8.81201649 -0.05559239 -1.43878281
-8.90743065 0.08067827 -1.44996560
-8.71019077 -0.18702887 -1.42684817
-8.73604774 -0.18704489 -1.23571873
-8.78038311 -0.05559271 -1.63150895
-8.87543201 0.08065554 -1.64480650
-8.74437904 -0.05559304 -1.82326603
-8.83901596 0.08063247 -1.83866727
-8.64336777 -0.18699095 -1.80682719
-8.67893791 -0.18701017 -1.61731613
-8.70508671 -0.05559336 -2.01375580
-8.79927731 0.08061224 -2.03124595
-8.66183281 -0.05559368 -2.20293117
-8.75553608 0.08059236 -2.22249556
-8.56181145 -0.18695782 -2.18204665
-8.60454655 -0.18697420 -1.99508584
-8.61394405 -0.05559383 -2.39074659
-8.70710373 0.08057124 -2.41236901
-8.56308460 -0.05559398 -2.57584810
-8.65567207 0.08055243 -2.59949851
-8.46424007 -0.18692434 -2.55059862
-8.51449299 -0.18694019 -2.36766386
-8.51091766 -0.05559413 -2.75688100
-8.60292244 0.08053967 -2.78251600
-8.45501423 -0.05559428 -2.93413472
-8.54639435 0.08052512 -2.96171141
-8.35744858 -0.18690172 -2.90469098
-8.41268921 -0.18691382 -2.72951198
-8.39294529 -0.05559443 -3.10789704
-8.48362732 0.08050079 -3.13737464
-8.32799244 -0.05559458 -3.27893567
-8.41794300 0.08047718 -3.31028342
-8.23193741 -0.18686147 -3.24546099
-8.29611874 -0.18688123 -3.07642245
-8.26343918 -0.05559491 -3.44801641
-8.35267353 0.08046565 -3.48121595
-8.19654942 -0.05559523 -3.61520624
-8.28504372 0.08045679 -3.65023732
-8.10204506 -0.18684526 -3.57779694
-8.16814804 -0.18685204 -3.41256356
-8.12458897 -0.05559556 -3.78057384
-8.21228504 0.08044260 -3.81741428
-8.04825687 -0.05559589 -3.94423532
-8.13510513 0.08042539 -3.98286486
-7.95550442 -0.18681978 -3.90297937
-8.03093338 -0.18683386 -3.74123073
-7.96825838 -0.05559640 -4.10630798
-8.05421829 0.08040711 -4.14670897
-7.88436174 -0.05559690 -4.26678324
-7.96938848 0.08038794 -4.30893660
-7.79354572 -0.18678933 -4.22175980
-7.87645245 -0.18680499 -4.06315851
-7.79633284 -0.05559706 -4.42565298
-7.88038015 0.08036610 -4.46954012
-7.70481300 -0.05559757 -4.58282042
-7.78784370 0.08034427 -4.62842178
-7.61611748 -0.18675373 -4.53410816
-7.70655680 -0.18677154 -4.37877512
-7.61044693 -0.05559789 -4.73818874
-7.69242907 0.08032385 -4.78548527
-7.51350212 -0.05559822 -4.89413071
-7.59441137 0.08031019 -4.94313049
-7.42706203 -0.18672612 -4.84178352
-7.52286720 -0.18673702 -4.68766356
-7.41424561 -0.05559855 -5.05301857
-7.49406958 0.08030844 -5.10375786
-7.31236982 -0.05559871 -5.21170664
-7.39107895 0.08031219 -5.26418638
-7.22828245 -0.18672839 -5.15564203
-7.32896852 -0.18672486 -4.99881220
-7.20756721 -0.05559886 -5.36704874
-7.28513050 0.08031524 -5.42123127
-7.09965944 -0.05559919 -5.51811361
-7.17604065 0.08031473 -5.57395077
-7.01805925 -0.18673173 -5.45846224
-7.12470436 -0.18673138 -5.30916548
-6.98846960 -0.05559970 -5.66396809
-7.06362915 0.08030818 -5.72139978
-6.87343740 -0.05560021 -5.80655479
-6.94733047 0.08029807 -5.86554337
-6.79449081 -0.18671978 -5.74353218
-6.90817356 -0.18672708 -5.60261154
-6.75399733 -0.05560090 -5.94781542
-6.82657766 0.08028708 -6.00834656
-6.63098240 -0.05560122 -6.08707428
-6.70220900 0.08027536 -6.14912510
-6.67645264 -0.18671086 -5.88314438
-6.55488110 -0.18670231 -6.02077675
-6.57506752 0.08026455 -6.28719139
-6.50522280 -0.05560191 -6.22365046
-6.37620163 -0.05560225 -6.35764456
-6.44462681 0.08025319 -6.42264748
-6.43059921 -0.18669376 -6.15575981
-6.30309057 -0.18668485 -6.28818989
-6.31036377 0.08024077 -6.55559063
-6.24339914 -0.05560259 -6.48915434
-6.10742426 -0.05560292 -6.61792135
-6.17289305 0.08022764 -6.68575954
-6.17184544 -0.18667486 -6.41816664
-6.03746700 -0.18666454 -6.54543066
-6.03283453 0.08021487 -6.81289244
-5.96888828 -0.05560343 -6.74368382
-5.89126825 0.08020475 -6.93711901
-5.82885790 -0.05560431 -6.86657047
-5.90055513 -0.18665455 -6.66972685
-5.76216745 -0.18664743 -6.79117966
-5.74927282 0.08019997 -7.05856991
-5.68840361 -0.05560517 -6.98670769
-5.60468197 0.08019199 -7.17564106
-5.54538012 -0.05560604 -7.10251665
-5.62335682 -0.18664491 -6.90991402
-5.48200846 -0.18663956 -7.02437162
-5.45531940 0.08017193 -7.28673410
-5.39764404 -0.05560709 -7.21241760
-5.30345678 0.08014848 -7.39336681
-5.24743509 -0.05560813 -7.31790972
-5.33600569 -0.18662445 -7.13299465
-5.18756008 -0.18660630 -7.23726225
-5.15136242 0.08012965 -7.49705839
-5.09699488 -0.05560883 -7.42049074
-4.99872923 0.08011599 -7.59847927
-4.94601917 -0.05560952 -7.52082109
-5.03888416 -0.18659170 -7.33865070
-4.88967800 -0.18658191 -7.43781471
-4.84525394 0.08010960 -7.69829893
-4.79420662 -0.05561058 -7.61956453
-4.68959045 0.08010269 -7.79483986
-4.64022970 -0.05561163 -7.71506548
-4.73964119 -0.18657817 -7.53540468
-4.58746576 -0.18657424 -7.62979269
-4.53040028 0.08008884 -7.88642645
-4.48276567 -0.05561250 -7.80566835
-4.36849880 0.08007410 -7.97478056
-4.32261992 -0.05561337 -7.89307690
-4.43184757 -0.18656391 -7.71934319
-4.27357626 -0.18655288 -7.80573511
-4.20469856 0.08006505 -8.06163216
-4.16059446 -0.05561425 -7.97899389
-4.03828192 0.08005457 -8.14486694
-3.99598265 -0.05561513 -8.06133652
-4.11344767 -0.18654664 -7.89065266
-3.95076251 -0.18653917 -7.97203636
-3.86853528 0.08003557 -8.22237396
-3.82807732 -0.05561600 -8.13801479
-3.69710207 0.08001478 -8.29564762
-3.65850115 -0.05561688 -8.21051121
-3.78482366 -0.18652494 -8.04782772
-3.61723399 -0.18650874 -8.11948490
-3.52562189 0.07999898 -8.36619091
-3.48888111 -0.05561758 -8.28030205
-3.35204434 0.07998494 -8.43397427
-3.31718469 -0.05561863 -8.34736252
-3.44959903 -0.18649665 -8.18846798
-3.27991056 -0.18648668 -8.25475216
-3.17431617 0.07997091 -8.49897480
-3.14138031 -0.05561951 -8.41166782
-2.99458432 0.07996310 -8.56242561
-2.96359229 -0.05562074 -8.47443867
-3.10616088 -0.18647654 -8.31831264
-2.93045163 -0.18647192 -8.38035297
-2.81500173 0.07996845 -8.62556839
-2.78594923 -0.05562163 -8.53689480
-2.63382220 0.07997184 -8.68430233
-2.60672784 -0.05562268 -8.59498882
-2.75488472 -0.18647812 -8.44207573
-2.57775521 -0.18648310 -8.49948883
-2.44929981 0.07995940 -8.73452282
-2.42420053 -0.05562409 -8.64467621
-2.26079845 0.07994466 -8.78064919
-2.23773980 -0.05562569 -8.69031239
-2.39736199 -0.18647508 -8.54860115
-2.21308136 -0.18646547 -8.59371090
-2.06768870 0.07994182 -8.82709217
-2.04671669 -0.05562746 -8.73625374
-1.87384796 0.07994111 -8.86993599
-1.85496986 -0.05562888 -8.77863598
-2.02429008 -0.18646583 -8.63911724
-1.83478355 -0.18646777 -8.68100166
-1.68315411 0.07993294 -8.90527058
-1.66633713 -0.05563029 -8.81359196
-1.49395049 0.07992548 -8.93601990
-1.47917974 -0.05563189 -8.84401226
-1.64835489 -0.18646386 -8.71555424
-1.46338439 -0.18646048 -8.74562359
-1.30458474 0.07992620 -8.96510506
-1.29185951 -0.05563348 -8.87278271
-1.11524665 0.07992940 -8.99059391
-1.10456693 -0.05563525 -8.89799213
-1.27825117 -0.18646404 -8.77405548
-1.09314632 -0.18646953 -8.79896736
-0.92613047 0.07992816 -9.01054573
-0.91749412 -0.05563685 -8.91772938
-0.73598623 0.07993261 -9.02805138
-0.72940463 -0.05563845 -8.93504047
-0.90825909 -0.18647148 -8.81847382
-0.72236586 -0.18647823 -8.83557892
-0.54356182 0.07995322 -9.04619694
-0.53905910 -0.05563986 -8.95297241
-0.35084802 0.07996656 -9.05803108
-0.34842637 -0.05564146 -8.96466827
-0.53424430 -0.18649831 -8.85329056
-0.34583840 -0.18651289 -8.86484146
-0.15983135 0.07995038 -9.05660725
-0.15947513 -0.05564324 -8.96326923
0.02889025 -0.05564520 -8.95379066
0.03059165 0.07992141 -9.04700375
-0.15909405 -0.18650259 -8.86346626
0.02707013 -0.18648161 -8.85411167
0.21776329 -0.05564734 -8.94124603
0.22152726 0.07989599 -9.03430557
0.40673730 -0.05564911 -8.92866802
0.41256455 0.07988462 -9.02158260
0.21373840 -0.18646365 -8.84172630
0.40050477 -0.18645708 -8.82930088
0.59540558 -0.05565089 -8.91909122
0.60329467 0.07989705 -9.01191235
0.78307420 -0.05565267 -8.90637779
0.79301381 0.07991234 -8.99907303
0.58696830 -0.18647076 -8.81982708
0.77244419 -0.18648730 -8.80725479
0.96904993 -0.05565445 -8.88439178
0.98102152 0.07991020 -8.97684574
1.15591156 -0.05565623 -8.85520363
1.16992235 0.07989864 -8.94733334
0.95624793 -0.18648857 -8.78552532
1.14092755 -0.18648234 -8.75668335
1.34623432 -0.05565837 -8.82088375
1.36232328 0.07988637 -8.91263103
1.53681874 -0.05566051 -8.78463364
1.55498874 0.07988228 -8.87598228
1.32902777 -0.18647559 -8.72276878
1.51738536 -0.18647577 -8.68694210
1.72446465 -0.05566229 -8.74965191
1.74468720 0.07989436 -8.84062958
1.91010976 -0.05566408 -8.71271706
1.93236506 0.07991337 -8.80330658
1.70283854 -0.18648966 -8.65236282
1.88631296 -0.18650885 -8.61584949
2.09469271 -0.05566569 -8.67060852
2.11896729 0.07992883 -8.76074982
2.27707076 -0.05566729 -8.62386417
2.30334187 0.07994127 -8.71350479
2.06873679 -0.18652520 -8.57422256
2.24898124 -0.18653871 -8.52801704
2.45610237 -0.05566908 -8.57302380
2.48433208 0.07995103 -8.66211891
2.63189888 -0.05567086 -8.51770210
2.66205192 0.07995653 -8.60619736
2.42592025 -0.18655011 -8.47776604
2.59966207 -0.18655775 -8.42308521
2.80456996 -0.05567265 -8.45750713
2.83661008 0.07995670 -8.54534626
2.97690773 -0.05567444 -8.39418316
3.01083231 0.07995971 -8.48133373
2.77031469 -0.18656133 -8.36359406
2.94063735 -0.18656719 -8.30100822
3.15170383 -0.05567659 -8.32947540
3.18754482 0.07997464 -8.41592979
3.32742214 -0.05567838 -8.26224709
3.36519122 0.07999684 -8.34798336
3.11338735 -0.18658356 -8.23704815
3.28704667 -0.18660544 -8.17059422
3.50252414 -0.05567981 -8.19136047
3.54221678 0.08002065 -8.27633858
3.67603159 -0.05568124 -8.11597538
3.71762967 0.08004268 -8.20014668
3.46009636 -0.18662874 -8.10052299
3.63157034 -0.18665043 -8.02600861
3.84696507 -0.05568285 -8.03525448
3.89043880 0.08005901 -8.11855412
4.01609755 -0.05568447 -7.94987774
4.06142712 0.08007234 -8.03225422
3.80050111 -0.18666680 -7.94622326
3.96765232 -0.18668120 -7.86183739
4.18420219 -0.05568625 -7.86052942
4.23137712 0.08008672 -7.94193888
4.35096073 -0.05568805 -7.76710987
4.39996719 0.08010092 -7.84750843
4.13378668 -0.18669650 -7.77352715
4.29859114 -0.18671200 -7.68119287
4.51605701 -0.05569020 -7.66951990
4.56687641 0.08011441 -7.74886036
4.68086672 -0.05569199 -7.56842470
4.73349810 0.08013216 -7.64667177
4.46175194 -0.18672711 -7.58473587
4.62462759 -0.18674561 -7.48481512
4.84676409 -0.05569414 -7.46449661
4.90122509 0.08015846 -7.54162312
5.01143074 -0.05569629 -7.35710907
5.06770897 0.08018759 -7.43307972
4.78857565 -0.18677194 -7.38209057
4.95130634 -0.18680041 -7.27594566
5.17254639 -0.05569826 -7.24563932
5.23060179 0.08021317 -7.32040501
5.33032131 -0.05570024 -7.12857246
5.39011574 0.08023252 -7.20206690
5.11052799 -0.18682599 -7.16576958
5.26644993 -0.18684593 -7.05006218
5.48496485 -0.05570204 -7.00438833
5.54645967 0.08024228 -7.07653093
5.63861799 -0.05570384 -6.87670231
5.70180464 0.08025595 -6.94745398
5.57112741 -0.18687299 -6.80112982
5.41927862 -0.18685785 -6.92732906
5.79342175 -0.05570564 -6.74912262
5.85832310 0.08028810 -6.81849670
5.94644785 -0.05570744 -6.61867523
6.01304770 0.08032451 -6.68663979
5.87532711 -0.18693826 -6.54609585
5.72410631 -0.18690376 -6.67503214
6.09476852 -0.05570941 -6.48237896
6.16301107 0.08035133 -6.54886484
6.23693800 -0.05571139 -6.34359407
6.30675364 0.08037282 -6.40856981
6.16239500 -0.18698630 -6.27421761
6.02189922 -0.18696459 -6.41138554
6.44281435 0.08039270 -6.26915503
6.37151051 -0.05571319 -6.20568132
6.57363749 0.08040992 -6.12773895
6.50090265 -0.05571499 -6.06579018
6.42325020 -0.18702438 -5.99965286
6.29538202 -0.18700658 -6.13791132
6.70166445 0.08042340 -5.98144150
6.62753105 -0.05571661 -5.92107296
6.75341845 -0.05571824 -5.76948309
6.82894230 0.08043582 -5.82819366
6.67279625 -0.18705234 -5.70680761
6.54838896 -0.18703897 -5.85662603
6.95751667 0.08044841 -5.66592836
6.88058853 -0.05571968 -5.60897350
7.00762129 -0.05572149 -5.44294453
7.08595562 0.08046580 -5.49808550
6.79846954 -0.18706605 -5.54817486
6.92400503 -0.18708386 -5.38408613
7.21282864 0.08049155 -5.32810307
7.13309765 -0.05572312 -5.27479649
7.25429249 -0.05572474 -5.10593796
7.33537436 0.08052050 -5.15740347
7.04799843 -0.18710877 -5.21790075
7.16775894 -0.18713669 -5.05101252
7.45083666 0.08054695 -4.98740625
7.36848164 -0.05572637 -4.93777704
7.47628784 -0.05572764 -4.77109861
7.55984592 0.08057323 -4.81890678
7.28059578 -0.18716213 -4.88481522
7.38712502 -0.18718722 -4.72008276
7.66303444 0.08060128 -4.65269709
7.57833433 -0.05572892 -4.60668468
7.67649794 -0.05573019 -4.44044971
7.76229811 0.08063006 -4.48464584
7.48796129 -0.18721321 -4.55758953
7.58495951 -0.18723972 -4.39329720
7.85953093 0.08065829 -4.31062078
7.77265406 -0.05573128 -4.26830769
7.86424351 -0.05573238 -4.09216452
7.95214558 0.08068154 -4.13254929
7.67997265 -0.18726605 -4.22316694
7.77047586 -0.18728812 -4.04908466
8.03755283 0.08069520 -3.95235729
7.94871044 -0.05573347 -3.91392875
8.02978897 -0.05573456 -3.73502684
8.11953640 0.08071242 -3.77149200
7.85394430 -0.18730184 -3.87293696
7.93406248 -0.18731858 -3.69613099
8.20188618 0.08074580 -3.59139967
8.11121750 -0.05573584 -3.55688477
8.19001961 -0.05573711 -3.37871242
8.28158569 0.08078541 -3.41127682
8.01451683 -0.18734935 -3.52007389
8.09237289 -0.18738545 -3.34398532
8.35562038 0.08082075 -3.23032117
8.26322079 -0.05573821 -3.19971824
8.33119106 -0.05573930 -3.01899886
8.42436314 0.08085182 -3.04761934
8.16469574 -0.18741767 -3.16708612
8.23185062 -0.18744649 -2.98848391
8.48818779 0.08087935 -2.86225963
8.39429855 -0.05574005 -2.83565283
8.45404625 -0.05574114 -2.64935756
8.54861450 0.08090740 -2.67391753
8.29420280 -0.18747139 -2.80728674
8.35323238 -0.18749739 -2.62317586
8.60716343 0.08094150 -2.48226833
8.51193047 -0.05574206 -2.45979166
8.56570339 -0.05574281 -2.26575971
8.66155624 0.08097399 -2.28610325
8.41041851 -0.18752798 -2.43583274
8.46354294 -0.18755753 -2.24407673
8.70951366 0.08099760 -2.08421254
8.61311913 -0.05574355 -2.06606722
8.65833378 -0.05574447 -1.86467266
8.75525093 0.08102814 -1.88060021
8.51038742 -0.18757907 -2.04672885
8.55505180 -0.18760681 -1.84769893
8.80298233 0.08108179 -1.67927051
8.70550251 -0.05574521 -1.66553438
8.74850845 -0.05574596 -1.46946084
8.84650898 0.08113792 -1.48103857
8.60163593 -0.18765450 -1.65089810
8.64410496 -0.18770428 -1.45712638
8.87962818 0.08117664 -1.28671956
8.78123474 -0.05574670 -1.27726054
8.80565357 -0.05574726 -1.08513784
8.90433693 0.08120238 -1.09247673
8.67642593 -0.18773864 -1.26718450
8.70054340 -0.18776213 -1.07732081
8.92262936 0.08122101 -0.89447320
8.82373238 -0.05574765 -0.88929707
8.83844662 -0.05574786 -0.68853050
8.93752384 0.08124249 -0.69148844
8.71839809 -0.18777852 -0.88378394
8.73292732 -0.18779720 -0.68538016
8.95204067 0.08127747 -0.48230189
8.85277557 -0.05574807 -0.48163044
8.86468601 -0.05574828 -0.27131698
8.96411705 0.08132009 -0.26966313
8.75881481 -0.18786463 -0.27307776
8.74706841 -0.18782780 -0.48091525
8.87214661 -0.05574850 -0.06031012
8.97169399 0.08136414 -0.05632137
8.87431908 -0.05574888 0.15118146
8.97392559 0.08140694 0.15751193
8.76828480 -0.18794024 0.14444271
8.76616192 -0.18790308 -0.06455652
8.87036705 -0.05574875 0.36294866
8.96996117 0.08144636 0.37162521
8.86049557 -0.05574860 0.57425636
8.96000767 0.08148277 0.58527488
8.75458241 -0.18800502 0.56252909
8.76435757 -0.18797424 0.35371345
8.84490585 -0.05574846 0.78436923
8.94427299 0.08151580 0.79771769
8.82401562 -0.05574831 0.99359006
8.92317581 0.08154757 1.00925946
8.71849632 -0.18806036 0.97691560
8.73915768 -0.18803331 0.77016371
8.79823780 -0.05574817 1.20222127
8.89713764 0.08157918 1.22020674
8.76663399 -0.05574784 1.40994179
8.86520576 0.08160741 1.43023336
8.66175842 -0.18811090 1.38835239
8.69300461 -0.18808742 1.18308425
8.72826767 -0.05574717 1.61643040
8.82643032 0.08162942 1.63901460
8.68368530 -0.05574649 1.82180834
8.78136730 0.08164663 1.84667230
8.57976723 -0.18814261 1.79535711
8.62383270 -0.18812890 1.59240329
8.63343906 -0.05574564 2.02619648
8.73057461 0.08166134 2.05332971
8.57729149 -0.05574478 2.22936106
8.67381096 0.08167251 2.25874949
8.47461510 -0.18816134 2.19809866
8.53010654 -0.18815367 1.99733222
8.51500130 -0.05574375 2.43106890
8.61083603 0.08167870 2.46269536
8.44935513 -0.05574307 2.63279867
8.54446983 0.08169075 2.66666579
8.34817982 -0.18817402 2.59677410
8.41305733 -0.18816511 2.39742637
8.38313675 -0.05574239 2.83602881
8.47753716 0.08171898 2.87215757
8.31363487 -0.05574171 3.04004216
8.40728951 0.08175468 3.07844448
8.21402645 -0.18822688 2.99919963
8.28272820 -0.18819718 2.79760051
8.23813629 -0.05574086 3.24412251
8.33097935 0.08178930 3.28480029
8.15863991 -0.05573964 3.44532561
8.25062561 0.08182446 3.48824811
8.06082630 -0.18828365 3.39968371
8.13940144 -0.18825516 3.20086408
8.07714272 -0.05573861 3.64070559
8.25062561 0.08182446 3.48824811
8.16825008 0.08186229 3.68581033
8.15863991 -0.05573964 3.44532561
7.99208975 -0.05573757 3.82953310
8.08227634 0.08189585 3.87674689
7.89620733 -0.18834113 3.77933741
7.98027182 -0.18831407 3.59274769
8.06082630 -0.18828365 3.39968371
7.90192795 -0.05573636 4.01107883
7.99112844 0.08191840 4.06031752
7.80465937 -0.05573497 4.19223452
7.89279127 0.08193614 4.24349213
7.71097088 -0.18837139 4.13774443
7.80709934 -0.18835840 3.95873380
7.69828653 -0.05573340 4.37988997
7.78524733 0.08195495 4.43324041
7.58379316 -0.05573165 4.56878138
7.66949081 0.08196913 4.62423706
7.49270010 -0.18839368 4.50983477
7.60584688 -0.18838441 4.32317877
7.46216631 -0.05573026 4.75364351
7.54651356 0.08197444 4.81115484
7.33688164 -0.05572851 4.93638182
7.41984081 0.08198294 4.99592686
7.24870157 -0.18839997 4.87308884
7.37250900 -0.18839547 4.69251156
7.21141815 -0.05572677 5.11890125
7.29299736 0.08200850 5.18048763
7.08391809 -0.05572537 5.29940033
7.16410017 0.08204190 5.36301041
6.99870110 -0.18844463 5.23179817
7.12470865 -0.18841866 5.05344296
6.95252895 -0.05572363 5.47607756
7.03127003 0.08207493 5.54166794
6.81815338 -0.05572223 5.64583731
6.89541531 0.08210263 5.71332932
6.73605204 -0.18849108 5.57411861
6.86885166 -0.18847026 5.40637541
6.68169403 -0.05572048 5.80558252
6.75744772 0.08211931 5.87485981
6.53950453 -0.05571873 5.96126413
6.61368132 0.08213031 6.03227854
6.46068716 -0.18850890 5.88580751
6.60119915 -0.18850265 5.73196983
6.38793850 -0.05571679 6.11883259
6.46043348 0.08213987 6.19160509
6.23019505 -0.05571487 6.27744246
6.30094194 0.08215478 6.35198641
6.15502691 -0.18852282 6.19823980
6.31091022 -0.18851373 6.04151011
6.06947422 -0.05571276 6.43624878
6.13844538 0.08218124 6.51257467
5.90458632 -0.05571065 6.59225464
5.97173643 0.08220983 6.67033386
5.83324909 -0.18856287 6.50930691
5.99619722 -0.18854205 6.35515642
5.79960775 0.08223078 6.82223225
5.73434305 -0.05570855 6.74246788
5.62381220 0.08224658 6.96785498
5.56047678 -0.05570643 6.88647985
5.49319744 -0.18858708 6.80003643
5.66501236 -0.18857729 6.65773535
5.44610023 0.08225917 7.10679340
5.38471699 -0.05570433 7.02388096
5.26829386 0.08227195 7.23930979
5.20886374 -0.05570221 7.15493155
5.14573669 -0.18860152 7.06530285
5.31951284 -0.18859404 6.93580818
5.09221268 0.08228792 7.36567497
5.03471613 -0.05570046 7.27989578
4.91535711 0.08230603 7.48704910
4.85980225 -0.05569834 7.39992189
4.80079556 -0.18862344 7.30737972
4.97364521 -0.18861169 7.18878174
4.73522711 0.08232379 7.60459518
4.68165112 -0.05569623 7.51616001
4.54957867 0.08233622 7.71765375
4.49804401 -0.05569394 7.62796545
4.62474823 -0.18863481 7.42223549
4.44331074 -0.18864141 7.53271294
4.35616875 0.08233868 7.82556868
4.30676460 -0.05569164 7.73469162
4.16116333 0.08233849 7.92770767
4.11390924 -0.05568917 7.83570719
4.25429440 -0.18863948 7.63817644
4.06372213 -0.18863505 7.73799801
3.97072983 0.08234221 8.02343369
3.92557406 -0.05568688 7.93037796
3.77758121 0.08235481 8.11753941
3.73455048 -0.05568458 8.02344036
3.87761545 -0.18863399 7.83154678
3.68885040 -0.18864059 7.92350292
3.57442760 0.08237951 8.21481895
3.53362918 -0.05568246 8.11962891
3.36871910 0.08241042 8.30980778
3.33018017 -0.05568035 8.21355057
3.49030232 -0.18865803 8.01854038
3.28925490 -0.18868078 8.11133575
3.16790724 0.08244097 8.39704704
3.13157368 -0.05567822 8.29980755
2.96815252 0.08246140 8.47529697
2.93401670 -0.05567629 8.37717819
3.09299397 -0.18870337 8.19655609
2.89777255 -0.18871798 8.27300167
2.76562071 0.08246423 8.54330730
2.73371863 -0.05567452 8.44443893
2.55525804 0.08245961 8.60595703
2.52567816 -0.05567257 8.50640106
2.69984579 -0.18871672 8.33946419
2.49426961 -0.18870929 8.40069866
2.33201170 0.08245924 8.66811657
2.30489397 -0.05567063 8.56787872
2.10130692 0.08245461 8.72505856
2.07673383 -0.05566832 8.62419796
2.27610040 -0.18870503 8.46144867
2.05064201 -0.18869685 8.51710510
1.86856961 0.08243629 8.77204800
1.84656668 -0.05566584 8.67068672
1.64134598 0.08242171 8.81337357
1.62185133 -0.05566354 8.71156788
1.82320297 -0.18867679 8.56305313
1.60115027 -0.18866007 8.60346222
1.42718375 0.08242828 8.85332108
1.41005039 -0.05566124 8.75107384
1.21906149 0.08243930 8.88855267
1.20422173 -0.05565911 8.78590870
1.39185703 -0.18866114 8.64249706
1.18846345 -0.18866703 8.67691612
1.00995731 0.08243965 8.91572857
0.99742258 -0.05565698 8.81278896
0.79987198 0.08243822 8.93772602
0.78965366 -0.05565520 8.83454609
0.98411220 -0.18866313 8.70347691
0.77880400 -0.18865831 8.72498131
0.58880687 0.08244426 8.95742321
0.58091563 -0.05565308 8.85402298
0.37241936 0.08244728 8.97148228
0.36691347 -0.05565130 8.86792564
0.57253665 -0.18866010 8.74422359
0.36106774 -0.18865938 8.75796032
0.14636241 0.08243697 8.97656631
0.14334995 -0.05564917 8.87296391
0.14014980 -0.18864641 8.76294708
-0.29052642 -0.46158797 8.49809265
-0.08359503 -0.60766524 8.34347153
-0.08281081 -0.46157730 8.50236034
-0.28761280 -0.60766381 8.33929634
-0.49383038 -0.46159488 8.48997784
-0.48729783 -0.60766238 8.33133507
-0.28458756 -0.74651533 8.17441845
-0.48051357 -0.74650609 8.16661644
-0.08440911 -0.74652827 8.17850590
-0.69601023 -0.46160147 8.47737598
-0.48729783 -0.60766238 8.33133507
-0.49383038 -0.46159488 8.48997784
-0.68587798 -0.60766131 8.31896687
-0.89947987 -0.46160322 8.46120930
-0.88572651 -0.60766023 8.30309200
-0.67535818 -0.74649715 8.15448856
-0.87144494 -0.74649364 8.13891506
-0.48051357 -0.74650609 8.16661644
-1.08921242 -0.60765916 8.28460884
-1.10665584 -0.46159506 8.44239998
-1.29200304 -0.60765845 8.26099110
-1.31312156 -0.46158955 8.41835976
-1.27007413 -0.74650323 8.09759521
-1.07110083 -0.74649948 8.12077236
-1.51446533 -0.46159878 8.38650227
-1.48976350 -0.60765737 8.22971249
-1.68327785 -0.60765666 8.19321156
-1.71148336 -0.46161336 8.34932041
-1.46411455 -0.74649256 8.06691456
-1.65398872 -0.74647677 8.03111362
-1.90497577 -0.46162382 8.30930901
-1.87332749 -0.60765558 8.15392494
-2.06525993 -0.60765451 8.11036301
-2.10038280 -0.46163091 8.26494884
-1.84046566 -0.74646485 7.99257803
-2.02878785 -0.74645633 7.94984341
-2.30314565 -0.46163553 8.21471596
-2.26441526 -0.60765380 8.06103230
-2.46692944 -0.60765308 8.00540543
-2.50932693 -0.46164247 8.15807152
-2.22419691 -0.74645019 7.90144539
-2.42290354 -0.74644202 7.84687138
-2.71498704 -0.46165615 8.09447575
-2.66893649 -0.60765237 7.94295692
-2.87032652 -0.60765129 7.87415600
-2.92001867 -0.46167424 8.02440739
-2.62111330 -0.74642742 7.78560972
-2.81872010 -0.74640840 7.71812010
-3.12430811 -0.46169505 7.94835043
-3.07098842 -0.60765058 7.79947567
-3.26815796 -0.60764962 7.71891642
-3.32503533 -0.46172258 7.86629963
-3.01561522 -0.74638689 7.64486265
-3.20908475 -0.74635899 7.56584215
-3.51938367 -0.46176082 7.77825403
-3.45906782 -0.60764861 7.63247871
-3.64444065 -0.60764754 7.54291439
-3.70809388 -0.46179932 7.68702555
-3.39641857 -0.74632043 7.48106432
-3.57832170 -0.74628150 7.39321613
-3.89190412 -0.46182743 7.59542227
-3.82499886 -0.60764641 7.45297146
-4.00547171 -0.60764515 7.35912561
-4.07563019 -0.46184996 7.49985409
-3.75549412 -0.74625224 7.30498838
-3.93258405 -0.74622899 7.21292543
-4.26408720 -0.46187058 7.39672804
-4.19059277 -0.60764426 7.25785398
-4.37310171 -0.60764337 7.15099812
-4.44988108 -0.46189722 7.28791332
-4.11423540 -0.74620694 7.11357355
-4.29332733 -0.74617970 7.00874662
-4.62561750 -0.46193737 7.17527437
-4.54574203 -0.60764265 7.04040289
-4.79509544 -0.46197769 7.06056499
-4.71223545 -0.60764188 6.92777109
-4.46274424 -0.74614006 6.90026140
-4.62612915 -0.74610054 6.78977680
-4.96211624 -0.46200502 6.94552994
-4.87630844 -0.60764116 6.81480503
-5.12732267 -0.46202600 6.82783461
-5.03859854 -0.60764062 6.69921875
-4.78713655 -0.74607301 6.67895412
-4.94639063 -0.74605149 6.56555271
-5.29135847 -0.46204734 6.70514107
-5.19973946 -0.60763967 6.57872343
-5.45310116 -0.46207696 6.57551813
-5.35863495 -0.60763896 6.45142794
-5.10451841 -0.74602979 6.44733572
-5.26044655 -0.74599993 6.32245064
-5.61142111 -0.46212444 6.43703651
-5.51418209 -0.60763860 6.31544495
-5.76518488 -0.46217328 6.29569340
-5.66525412 -0.60763824 6.17665148
-5.41310263 -0.74595380 6.18905258
-5.56137037 -0.74590671 6.05289698
-5.91325474 -0.46220776 6.15749025
-5.81072617 -0.60763800 6.04092836
-6.05911970 -0.46224272 6.01420927
-5.95403433 -0.60763747 5.90021515
-5.70413065 -0.74587345 5.91974354
-5.84477282 -0.74583936 5.78169298
-6.20626974 -0.46229368 5.85763025
-6.09861898 -0.60763705 5.74645281
-6.35224533 -0.46234789 5.69403172
-6.24205542 -0.60763669 5.58579540
-5.98668003 -0.74579000 5.63084555
-6.12745953 -0.74573743 5.47323370
-6.49458647 -0.46239230 5.52968836
-6.38191509 -0.60763633 5.42439604
-6.63063240 -0.46243495 5.36515665
-6.51559067 -0.60763574 5.26280880
-6.26472998 -0.74569422 5.31488705
-6.39592838 -0.74565274 5.15635252
-6.75771999 -0.46248361 5.20099115
-6.64047241 -0.60763556 5.10158396
-6.88010216 -0.46253547 5.03299284
-6.76073742 -0.60763514 4.93659258
-6.51850414 -0.74560595 4.99817419
-6.63655090 -0.74555600 4.83630180
-7.00202942 -0.46258861 4.85695934
-6.88055849 -0.60763460 4.76370859
-7.12036037 -0.46263906 4.67841291
-6.99684620 -0.60763407 4.58835030
-6.75416803 -0.74550462 4.66668224
-6.86831570 -0.74545550 4.49463224
-7.23195410 -0.46268386 4.50287151
-7.10651016 -0.60763365 4.41593981
-7.33877563 -0.46272841 4.32499456
-7.21149206 -0.60763329 4.24123144
-6.97595882 -0.74541229 4.32546949
-7.07900953 -0.74536890 4.15405035
-7.44280434 -0.46277922 4.13944101
-7.31372881 -0.60763270 4.05898285
-7.54127216 -0.46283445 3.95149016
-7.41051579 -0.60763216 3.87438083
-7.17937374 -0.74531984 3.97523355
-7.27439308 -0.74526644 3.79410672
-7.63143063 -0.46289256 3.76642489
-7.49914169 -0.60763180 3.69261050
-7.71621752 -0.46294495 3.58365250
-7.58248520 -0.60763139 3.51308823
-7.36140633 -0.74521095 3.61575842
-7.44323540 -0.74516028 3.43961143
-7.79857111 -0.46298403 3.40258312
-7.66342688 -0.60763133 3.33522987
-7.87808228 -0.46301851 3.21898532
-7.74157572 -0.60763133 3.15488243
-7.52269363 -0.74512327 3.26509023
-7.59940958 -0.74509054 3.08812237
-7.95435143 -0.46305755 3.02862668
-7.81653929 -0.60763150 2.96789312
-8.02627945 -0.46309751 2.83582759
-7.88724279 -0.60763144 2.77850580
-7.67300510 -0.74505395 2.90463805
-7.74241877 -0.74501604 2.71879911
-8.09278011 -0.46313483 2.64490938
-7.95261383 -0.60763121 2.59096336
-8.15388107 -0.46317157 2.45534229
-8.01267815 -0.60763085 2.40474582
-7.80659962 -0.74498028 2.53476834
-7.86557293 -0.74494523 2.35203600
-8.20960808 -0.46320903 2.26659632
-8.06746483 -0.60763079 2.21933365
-8.26034737 -0.46324673 2.07858181
-8.11735058 -0.60763079 2.03463793
-7.91936922 -0.74490929 2.17009282
-7.96835756 -0.74487370 1.98885107
-8.30648041 -0.46328348 1.89120924
-8.16271305 -0.60763079 1.85057116
-8.34874249 -0.46331862 1.70263875
-8.20427036 -0.60763073 1.66532481
-8.01290226 -0.74483883 1.80822480
-8.05371571 -0.74480540 1.62643957
-8.38786125 -0.46335116 1.51103091
-8.24273777 -0.60763067 1.47709215
-8.42318726 -0.46338221 1.31722176
-8.27747536 -0.60763049 1.28669548
-8.09149075 -0.74477476 1.44172227
-8.12560940 -0.74474508 1.25487947
-8.45406532 -0.46341327 1.12204826
-8.30784702 -0.60763025 1.09495604
-8.48158073 -0.46343988 0.92605841
-8.33490849 -0.60762990 0.90241259
-8.15543842 -0.74471515 1.06671751
-8.18202114 -0.74468970 0.87776446
-8.50681400 -0.46345660 0.72980052
-8.35971737 -0.60762990 0.70960283
-8.52723503 -0.46347451 0.53259969
-8.37979889 -0.60762984 0.51586574
-8.20638180 -0.74467373 0.68854815
-8.22610474 -0.74465680 0.49842075
-8.54030418 -0.46350414 0.33378175
-8.39267159 -0.60762978 0.32053977
-8.54795742 -0.46353751 0.13588610
-8.40022850 -0.60762990 0.12611943
