-4.87510490 -1.92518985 2.82275677
-4.86664963 -1.82444978 3.09671140
-4.74713564 -1.94193196 2.98917532
-4.73380899 -1.84205401 3.26475048
-4.98586798 -1.70699239 3.20188308
-4.84986877 -1.72334433 3.37264514
-4.70555973 -1.73024321 3.53714585
-4.96252441 -1.59956765 3.47697663
-4.81970453 -1.61414862 3.64774656
-4.67175865 -1.62709165 3.81635571
-4.92490435 -1.48426521 3.75062490
-4.77641249 -1.50106323 3.92369366
-4.61925268 -1.51111424 4.09098721
-4.87096167 -1.36236918 4.02191019
-4.71378613 -1.37555218 4.19372177
-4.55262136 -1.38811553 4.36279726
-4.80311584 -1.23280108 4.29068661
-4.64180517 -1.24853921 4.46422243
-4.46930361 -1.25541747 4.62789011
-4.73024273 -1.10804701 4.56413794
-4.55546618 -1.11831510 4.73262358
-4.37033510 -1.12308061 4.89348650
-4.63646698 -0.97612280 4.83202744
-4.44856215 -0.98077637 4.99524117
-4.25602436 -0.98257577 5.15277767
-4.52118731 -0.83067214 5.08888102
-4.32771349 -0.83556980 5.25183725
-4.12941170 -0.84191763 5.41076136
-4.39805412 -0.68730175 5.34875965
-4.19760132 -0.69412124 5.51081467
-3.98848510 -0.69411790 5.66062498
-4.26428986 -0.54540372 5.60901737
-4.04930973 -0.54268008 5.75788450
-3.83143640 -0.54144973 5.90451717
-4.10156631 -0.38180554 5.84386921
-3.88644671 -0.38772225 6.00019932
-3.66144872 -0.38632014 6.14311981
-3.94132471 -0.23387089 6.09515333
-3.70917702 -0.22820421 6.23417664
-3.47525144 -0.22421309 6.37059259
-3.75949478 -0.07329803 6.32901335
-3.52298951 -0.07182078 6.46890879
-3.28074098 -0.06750515 6.60074091
-3.57068086 0.07932164 6.56919670
-3.32392430 0.08558904 6.69984674
-3.07259369 0.09202494 6.82147455
-3.37098789 0.23285799 6.80673170
-3.11250210 0.24498299 6.92216396
-2.85289216 0.25160772 7.03661537
-3.14756632 0.40358821 7.01359844
-2.88495708 0.40916303 7.13087130
-2.61746597 0.41485092 7.23869514
-2.91669226 0.56580132 7.22567272
-2.64521265 0.57211077 7.33288908
-2.36856937 0.58171141 7.42724943
-2.67019725 0.73330402 7.42036486
-2.39128900 0.73978317 7.52002239
-2.10952234 0.74706447 7.60875225
-2.41454315 0.89874065 7.61030054
-2.12904572 0.90459967 7.70193863
-1.83889043 0.91352141 7.77973557
-2.14839053 1.06034005 7.79683208
-1.85630536 1.06472957 7.88155317
-1.56121802 1.07454050 7.94707346
-1.87520540 1.21107101 7.99052334
-1.57296276 1.23185694 8.03886986
-1.26705825 1.24978518 8.08163071
-1.58242154 1.38592184 8.13547993
-1.27413702 1.40388608 8.17689800
-0.96639431 1.40850127 8.23210144
-1.27918673 1.56168413 8.26633739
-0.96986258 1.56342971 8.32710838
-0.65492076 1.57623923 8.36035347
-0.97081172 1.72402740 8.41220379
-0.65199733 1.73801982 8.43978691
-0.33181831 1.75684988 8.44612312
-0.64675409 1.90672374 8.50191307
-0.32518724 1.90733790 8.53643227
-0.00169365 1.91882300 8.55309010
-0.31851229 2.06593537 8.62375927
0.00894174 2.07574821 8.63951302
0.33738121 2.08663201 8.63887310
0.02054437 2.23439312 8.72274208
0.35326633 2.24396467 8.72378063
0.68475121 2.26153803 8.69607830
0.36788672 2.40798879 8.79539776
0.70508081 2.41743040 8.78183937
1.04152513 2.42550635 8.75677109
0.72404534 2.57710767 8.85985756
1.06402576 2.58738422 8.82839394
1.40277076 2.59798050 8.78208447
1.08611488 2.75022173 8.89855194
1.42777860 2.75976872 8.85287189
1.77168202 2.75928926 8.81604576
1.45189929 2.92341566 8.92091846
1.79699194 2.92605257 8.87393475
2.13629127 2.93344569 8.79550362
1.82043183 3.09689450 8.92124367
2.16145420 3.10342813 8.84314537
2.49873638 3.11279154 8.74430180
2.19460821 3.26218534 8.91758537
2.53786039 3.26411271 8.82915974
2.87528944 3.26449156 8.72602940
2.56753349 3.43229198 8.88362789
2.90636039 3.43246126 8.77718735
3.24188662 3.43017077 8.66061878
2.93995595 3.59709644 8.83807087
3.27745223 3.59346032 8.72039890
3.60783362 3.59053540 8.58651066
3.31375074 3.75636911 8.78233147
3.64554262 3.75359583 8.64516354
3.97038245 3.74731874 8.49511242
3.67701221 3.91992712 8.69140911
4.00590134 3.90968871 8.54710102
4.32436895 3.89879751 8.38372135
4.03765535 4.07076263 8.59204292
4.35861635 4.05839348 8.43056297
4.66898203 4.04667854 8.25259781
4.38930893 4.21243954 8.47208786
4.70088005 4.19446898 8.29500484
5.00532770 4.17781925 8.10896873
4.72608423 4.32098103 8.32818794
5.03214407 4.30695486 8.14273167
5.33566618 4.29839563 7.95353699
5.05775213 4.42805672 8.17529678
5.35373878 4.42013168 7.97495127
5.64541388 4.40888643 7.76754189
5.37806034 4.52582979 8.00567055
5.67084408 4.51633787 7.79860497
5.95648003 4.50964165 7.58154726
5.68715239 4.62164021 7.81701756
5.97804737 4.61640930 7.60562897
6.25392389 4.62276983 7.37732649
5.99834156 4.71941900 7.62840557
6.27656317 4.71851397 7.40169525
6.54463959 4.71625757 7.16401720
6.29832697 4.80728102 7.42543364
6.56738234 4.80167580 7.18672991
6.82886982 4.80958986 6.93811131
6.58937407 4.88422871 7.20836163
6.85339451 4.89408255 6.96084452
7.10897779 4.89754248 6.70598602
6.89115047 4.95636177 6.99758720
7.15092087 4.96219063 6.74447918
7.39281988 4.96051073 6.47118139
7.15092087 4.96219063 6.74447918
7.20897579 4.96727562 6.79680681
7.44936705 4.96829844 6.51958752
7.39281988 4.96051073 6.47118139
7.67671824 4.97300720 6.23198795
7.62090254 4.95428133 6.18769789
7.49418688 4.92609167 6.55775547
7.72455311 4.93858480 6.26963377
7.94882202 4.95070410 5.97540951
7.75452757 4.87785769 6.29250193
7.97812366 4.88855219 5.99510908
8.20182323 4.89965248 5.69520950
7.99268198 4.81696892 6.00359106
8.21512318 4.82340431 5.70270061
8.42313004 4.82608652 5.38953114
8.20757198 4.73976851 5.69552708
8.41840839 4.73934126 5.38466787
8.61794662 4.74235344 5.06404877
8.39579964 4.64562654 5.36755991
8.59586811 4.64681530 5.04860067
8.78270340 4.66039705 4.71982574
8.57055664 4.54703665 5.03113174
8.76015186 4.55884933 4.70574760
8.93738651 4.57435608 4.37253571
8.73413086 4.44995117 4.68970203
8.90863800 4.46064901 4.35655785
9.06946373 4.46960402 4.01623058
8.87695599 4.34306049 4.33896255
9.03507996 4.34775925 3.99922180
9.18284702 4.35515928 3.65529633
9.00099564 4.22106838 3.98218036
9.14566326 4.22325468 3.63863349
9.28070545 4.22600269 3.29016423
9.10558128 4.08501339 3.62107301
9.23581600 4.08404255 3.27244020
9.35150528 4.08484554 2.91758585
9.18491268 3.93016624 3.25263333
9.30737877 3.93028593 2.90188169
9.41131496 3.93943095 2.54408312
9.24828148 3.77399588 2.88083339
9.35692024 3.78280067 2.52684402
9.45028019 3.80002141 2.16752481
9.29970646 3.62144971 2.50847650
9.39297485 3.63513184 2.15123630
9.47341156 3.64953494 1.78934085
9.33341599 3.46777654 2.13365436
9.40964317 3.48210287 1.77340472
9.47644138 3.49464297 1.40997362
9.34842014 3.31239533 1.75694799
9.41363907 3.32449293 1.39608395
9.46500778 3.33578563 1.03285491
9.35005951 3.15374351 1.38152468
9.40210533 3.16400909 1.02076423
9.43780899 3.17399240 0.65780753
9.33748627 2.99286079 1.00776231
9.37206936 3.00283837 0.64809257
9.39188004 3.01116538 0.28549927
9.30368900 2.83211493 0.63788342
9.32683372 2.83913636 0.27850419
9.33374786 2.84606171 -0.08244794
9.25859261 2.66810679 0.27079523
9.26600933 2.67503524 -0.08696371
9.25607204 2.68168330 -0.44544351
9.19284439 2.50582695 -0.09188310
9.18594933 2.51156425 -0.44677544
9.16126823 2.51782775 -0.80004936
9.11448574 2.34188986 -0.44791844
9.09501266 2.34656405 -0.79904211
9.06102562 2.35257101 -1.14896429
9.02343655 2.17747164 -0.79704142
8.98654366 2.18512917 -1.14373934
8.93597412 2.19255304 -1.49030101
8.91116238 2.01829982 -1.13979387
8.86201000 2.02497268 -1.48280418
8.80067062 2.03146243 -1.82475054
8.78396702 1.85896504 -1.47429323
8.72508240 1.86474407 -1.81305468
8.65291405 1.87180555 -2.15024281
8.64613533 1.69937360 -1.80133760
8.57484436 1.70666349 -2.13517785
8.49194145 1.71192622 -2.46610379
8.49566460 1.54160953 -2.11977935
8.41298866 1.54799092 -2.44659877
8.31281567 1.55571878 -2.76995063
8.33317089 1.38432395 -2.42749548
8.23581219 1.39086926 -2.74844098
8.12433720 1.39922166 -3.06485629
8.15703297 1.22697234 -2.72578096
8.04675865 1.23559141 -3.03898358
7.92693853 1.24358773 -3.34885168
7.96667862 1.07339573 -3.01217937
7.84823608 1.08184290 -3.31879306
7.72037411 1.08923197 -3.62257195
7.76815939 0.92035484 -3.28885484
7.64115763 0.92823303 -3.58795333
7.50451088 0.93350822 -3.88305807
7.56095076 0.76734596 -3.55257034
7.42598963 0.77231967 -3.84468174
7.27457619 0.77831590 -4.12802935
7.34578180 0.61186874 -3.80420041
7.19580364 0.61745340 -4.08335638
7.03572512 0.62222469 -4.35618687
7.11605644 0.45698097 -4.03839064
6.95822096 0.46172842 -4.30773926
6.79249954 0.46718699 -4.57211065
6.87916756 0.30225214 -4.25934649
6.71502924 0.30738768 -4.52025843
6.54215670 0.31353894 -4.77317429
6.63651848 0.14834829 -4.46773529
6.46651030 0.15324830 -4.71823597
6.28916740 0.15652773 -4.96170378
6.38783789 -0.00512336 -4.66240931
6.21109152 -0.00066173 -4.90144062
6.02267456 0.00293637 -5.13042974
6.09726954 0.16144301 -5.19304323
6.13218355 -0.15709694 -4.84142637
5.94571257 -0.15357605 -5.06662750
5.94571257 -0.15357605 -5.06662750
5.75210953 -0.15273666 -5.28472376
6.02267456 0.00293637 -5.13042974
5.86674738 -0.30888152 -5.00316000
5.67595339 -0.30864275 -5.21762848
5.47873545 -0.30799279 -5.42418337
5.59862757 -0.46423212 -5.15107393
5.40353727 -0.46321988 -5.35394669
5.20306063 -0.46159488 -5.55044365
5.32747269 -0.61770999 -5.28368902
5.12974787 -0.61626107 -5.47716665
4.92559004 -0.61363286 -5.66378450
5.05508471 -0.76944631 -5.40189505
4.85443211 -0.76678097 -5.58554840
4.64762354 -0.76540452 -5.76260424
4.78311872 -0.92041826 -5.50756025
4.57931185 -0.91840541 -5.68096161
4.36953878 -0.91698152 -5.84639788
4.50934458 -1.07024777 -5.59791756
4.30290604 -1.06890118 -5.76014185
4.09102821 -1.06591535 -5.91347647
4.23362064 -1.21842372 -5.67122126
4.02582884 -1.21611834 -5.82179070
3.81327295 -1.21363640 -5.96491671
3.95915556 -1.36433625 -5.72696018
3.75105214 -1.36225891 -5.86713457
3.53916240 -1.35992217 -6.00016546
3.68779159 -1.50981224 -5.76721382
3.47998214 -1.50760257 -5.89676142
3.26924229 -1.50508714 -6.02076387
3.42134333 -1.65551794 -5.79414558
3.21384645 -1.65308249 -5.91677380
3.00236344 -1.65058351 -6.03080845
3.15860891 -1.79846323 -5.80884838
2.94970751 -1.79453635 -5.92033911
2.73637962 -1.79147506 -6.02356291
2.89492965 -1.93433273 -5.80549479
2.68570924 -1.92934024 -5.90561295
2.47363520 -1.92811823 -6.00118971
2.63359904 -2.06665063 -5.78779030
2.42618632 -2.06574106 -5.88292217
2.21298862 -2.05875397 -5.96654463
2.37686801 -2.19977307 -5.76281023
2.16724443 -2.19262576 -5.84602833
1.95448279 -2.18567038 -5.92393351
2.11924839 -2.32254791 -5.72264099
1.91203070 -2.31515288 -5.80006790
1.70000815 -2.30466413 -5.87048531
1.86673546 -2.44064260 -5.67349863
1.65865064 -2.43040323 -5.74399328
1.44907427 -2.41798329 -5.80842829
1.61766040 -2.55349565 -5.61566448
1.41236055 -2.54059148 -5.67926311
1.20491087 -2.52691627 -5.73686743
1.37450111 -2.65803361 -5.54556894
1.17149317 -2.64532852 -5.60280657
0.96818513 -2.63254142 -5.64994144
1.13779080 -2.75795627 -5.46365356
0.93860102 -2.74656057 -5.51039219
0.73976785 -2.73662424 -5.54815722
0.90875638 -2.85827088 -5.36814928
0.71582991 -2.84953880 -5.40470839
0.52242875 -2.84045672 -5.43494749
0.69179380 -2.96057653 -5.26011276
0.50546539 -2.95265341 -5.28831482
0.31548274 -2.94556046 -5.31152725
0.48590750 -3.06431437 -5.14099693
0.30703139 -3.05809593 -5.16188717
0.12389267 -3.05140138 -5.17728424
0.29525295 -3.16951799 -5.01029682
0.11922234 -3.16256666 -5.02566338
-0.05699263 -3.15847969 -5.03300524
0.11417421 -3.27104068 -4.87157536
-0.05480395 -3.26832652 -4.87860346
-0.22222321 -3.26497293 -4.87606525
-0.04938790 -3.37288880 -4.72022486
-0.21425728 -3.37126732 -4.71880674
-0.37775680 -3.36898875 -4.71164227
-0.20284200 -3.47021580 -4.55795813
-0.36100927 -3.46897578 -4.55151558
-0.51902360 -3.46631718 -4.53905964
-0.34511873 -3.56280947 -4.38967276
-0.49778137 -3.56572390 -4.38078594
-0.64839536 -3.55629945 -4.35913229
-0.47608942 -3.65292859 -4.21665859
-0.62212169 -3.64892435 -4.19797182
-0.76700711 -3.64739680 -4.17623234
-0.59863198 -3.77302575 -4.06392717
-0.73996526 -3.77282238 -4.04422951
-0.87988132 -3.77196407 -4.01873922
-3.89161444 -3.82599974 -0.98282409
-4.00742674 -3.69443083 -1.00033700
-3.97399545 -3.69111991 -1.15062523
-3.85971737 -3.82221413 -1.12885618
-3.93674374 -3.68871856 -1.29905343
-3.81933475 -3.81720805 -1.27232897
-4.12414885 -3.59940028 -1.18124950
-4.08646917 -3.59683990 -1.33382320
-4.04023600 -3.59442520 -1.48731375
-4.23620462 -3.50944901 -1.37293553
-4.18905497 -3.50696683 -1.53098500
-4.13668919 -3.50336862 -1.68810606
-4.33815622 -3.41665339 -1.57338846
-4.28369713 -3.41219378 -1.73520803
-4.22349310 -3.40679121 -1.89482212
-4.42911577 -3.31767106 -1.78025138
-4.36759949 -3.31108356 -1.94384015
-4.29917812 -3.30792212 -2.10665560
-4.50967693 -3.21243024 -1.99316800
-4.44029140 -3.20872092 -2.16047096
-4.36303473 -3.20368147 -2.32263064
-4.58144665 -3.10907459 -2.21242261
-4.50160837 -3.10255957 -2.38205242
-4.41655874 -3.09895349 -2.54682970
-4.64029598 -2.99950552 -2.43561029
-4.55238152 -2.99487114 -2.60815549
-4.46051979 -2.98971939 -2.77417922
-4.68769503 -2.88777304 -2.66538310
-4.59291983 -2.88161469 -2.83868384
-4.49280405 -2.87575722 -3.00682545
-4.72387695 -2.76993418 -2.89825630
-4.62244844 -2.76592398 -3.07397723
-4.51374722 -2.75905538 -3.24423099
-4.74656868 -2.64709234 -3.13607168
-4.63618612 -2.64019990 -3.31065321
-4.51904869 -2.63450861 -3.48107338
-4.75848436 -2.52047205 -3.37611198
-4.63878870 -2.51487303 -3.55186653
-4.51303291 -2.50996304 -3.72137570
-4.75828552 -2.39337754 -3.62016320
-4.62958050 -2.38788009 -3.79454184
-4.49195957 -2.38374662 -3.96223545
-4.74543428 -2.26412058 -3.86588311
-4.60596752 -2.26013756 -4.03868151
-4.45962143 -2.25487208 -4.20490313
-4.71797228 -2.13319945 -4.11199427
-4.56827259 -2.12836289 -4.28219843
-4.41283035 -2.12264657 -4.44712496
-4.67591906 -1.99807775 -4.35658407
-4.51662016 -1.99241626 -4.52628183
-4.35183859 -1.98765111 -4.68964767
-4.62025499 -1.85975039 -4.60119534
-4.45165110 -1.85517108 -4.76900339
-4.27606440 -1.84978974 -4.92964935
-4.55042601 -1.72036743 -4.84632158
-4.37202454 -1.71646154 -5.01102638
-4.18676424 -1.71221173 -5.16805410
-4.46785259 -1.58086991 -5.09089804
-4.27813244 -1.57561684 -5.25003290
-4.08347654 -1.57076049 -5.40236950
-4.36900759 -1.43718803 -5.33020496
-4.17018509 -1.43180025 -5.48595047
-3.96651721 -1.42813218 -5.63491917
-4.25582361 -1.29010499 -5.56562948
-4.04807138 -1.28607500 -5.71743870
-3.83322453 -1.28339958 -5.86214304
-4.12780476 -1.14301288 -5.79810333
-3.90811014 -1.13915324 -5.94460201
-3.68109560 -1.13548684 -6.08267307
-3.97919416 -0.99225569 -6.02383804
-3.74935341 -0.99019718 -6.16557503
-3.51502681 -0.98883051 -6.30123472
-3.81613636 -0.84305179 -6.24740648
-3.57810426 -0.84226084 -6.38555527
-3.33470726 -0.84133041 -6.51568413
-3.63985515 -0.69474661 -6.46987152
-3.39232397 -0.69459969 -6.60205555
-3.13980174 -0.69351107 -6.72598982
-3.44679642 -0.54687291 -6.68897104
-3.19040585 -0.54658437 -6.81566477
-2.93060327 -0.54488164 -6.93139982
-3.24042225 -0.39831021 -6.90374994
-2.97654533 -0.39709887 -7.02217913
-2.70584178 -0.39507338 -7.12799788
-3.01892567 -0.24682148 -7.11074924
-2.74559426 -0.24527472 -7.21815634
-2.46797395 -0.24318470 -7.31608820
-2.78348064 -0.09452020 -7.30801916
-2.50309157 -0.09268995 -7.40770578
-2.21923852 -0.09102241 -7.49858856
-2.53632998 0.05906175 -7.49812889
-2.24941945 0.06084040 -7.59003782
-1.96004188 0.06261960 -7.67319345
-2.27885747 0.21415310 -7.68093252
-1.98698759 0.21632427 -7.76477242
-1.69251692 0.21909563 -7.83682728
-2.01236367 0.37176320 -7.85549259
-1.71577847 0.37511125 -7.92709208
-1.41588569 0.37562665 -7.98874569
-1.73791993 0.53127092 -8.01868343
-1.43585575 0.53244859 -8.07947445
-1.13087189 0.53415734 -8.12907600
-1.45378458 0.69009465 -8.17130280
-1.14632356 0.69279248 -8.21907425
-0.83646399 0.69452488 -8.25727463
-1.16118824 0.85259503 -8.30860710
-0.84849197 0.85371029 -8.34668636
-0.53328818 0.85351658 -8.37422943
-0.85918164 1.01468909 -8.43434906
-0.54130495 1.01327538 -8.46355438
-0.22226177 1.01285708 -8.47800255
-0.54848206 1.17551291 -8.54961205
-0.22675288 1.17509854 -8.56390762
0.09638528 1.17400718 -8.56490421
-0.22994517 1.33882916 -8.64789009
0.09518375 1.33789527 -8.64863396
0.42158049 1.33622789 -8.63950729
0.09593405 1.50282013 -8.73070526
0.42448944 1.50082707 -8.72145844
0.75297898 1.49908161 -8.70228481
0.42809936 1.66675115 -8.80256939
0.75907457 1.66463089 -8.78415012
1.08838093 1.66277993 -8.75432110
0.76506513 1.83188808 -8.86386967
1.09679663 1.82941389 -8.83505535
1.42515540 1.83234906 -8.78358459
1.10532641 1.99716866 -8.91468716
1.43552911 2.00072145 -8.86040306
1.76511586 2.00051498 -8.79921722
1.44740903 2.16835785 -8.93896675
1.77825367 2.16975689 -8.87323666
2.10743904 2.16973376 -8.79885006
1.79135501 2.33992982 -8.94620800
2.12280774 2.33949447 -8.87152004
2.45375299 2.33711839 -8.78934669
2.13843155 2.50922608 -8.94400978
2.47246361 2.50542378 -8.86354733
2.80235124 2.50361156 -8.76612377
2.49059987 2.67565513 -8.93387890
2.82136965 2.67615819 -8.83112431
3.14841676 2.67781806 -8.71707344
2.84210110 2.84759355 -8.89920425
3.17204571 2.84894323 -8.78665352
3.49822378 2.85146022 -8.66351223
3.19426370 3.02242732 -8.85050488
3.52202916 3.02633595 -8.72505760
3.84583735 3.03161573 -8.58980846
3.54697824 3.19995141 -8.78800964
3.87238193 3.20654321 -8.64935207
4.19434166 3.21273923 -8.50094986
3.90055704 3.37978601 -8.70989799
4.22602034 3.38581610 -8.56189442
4.54241467 3.39223695 -8.39354420
4.25358152 3.56151938 -8.61092281
4.57495880 3.56591535 -8.44529343
4.88913822 3.56579924 -8.26638603
4.60576487 3.73808670 -8.49381542
4.92357254 3.73537564 -8.31384468
5.23222017 3.73103333 -8.12062263
4.95407915 3.90110707 -8.35638905
5.26646376 3.89565754 -8.16392803
5.56888676 3.89054132 -7.95660973
5.29592609 4.05460787 -8.20196629
5.60249233 4.04960251 -7.99644995
5.89966345 4.05007648 -7.77714300
5.63081789 4.20746469 -8.03050423
5.93110657 4.20319271 -7.81291866
6.22310257 4.20039654 -7.58326578
5.95424318 4.34207296 -7.84054041
6.24734068 4.33445835 -7.61003399
6.53032064 4.33572578 -7.36718130
6.26623821 4.46488285 -7.63158751
6.54996157 4.46368694 -7.38839865
6.82642698 4.46362305 -7.13762140
6.56902313 4.58477211 -7.40899372
6.84678698 4.58710623 -7.15812492
7.11834669 4.58983231 -6.89789438
6.86658430 4.70387888 -7.17804861
7.13807440 4.70575380 -6.91666031
7.39829779 4.70798922 -6.64388895
7.65039396 4.71467590 -6.36209917
7.15740776 4.81925821 -6.93550158
7.41659403 4.82320976 -6.66014719
7.66803026 4.82635880 -6.37605190
7.66803026 4.82635880 -6.37605190
7.42244005 4.92484999 -6.66482544
7.67189264 4.92358685 -6.37847090
7.67189264 4.92358685 -6.37847090
7.91120958 4.92567110 -6.08450460
7.65527821 5.00789833 -6.36375809
7.88882303 5.01068401 -6.06640530
8.10744476 5.02373219 -5.75681973
7.83766508 5.06692600 -6.02623415
8.05351448 5.07331657 -5.71717644
8.25754929 5.06775093 -5.40326023
7.98911572 5.05578470 -5.67176771
8.19425392 5.04755640 -5.36192846
8.39750099 5.03744602 -5.04865932
8.15452003 4.97611046 -5.33663273
8.35008335 4.97296667 -5.02103615
8.53559017 4.96349573 -4.69908094
8.32048225 4.88278627 -5.00510979
8.50186539 4.87287664 -4.68247509
8.67136955 4.86176062 -4.35200500
8.47244358 4.76999998 -4.66825438
8.64166451 4.75926256 -4.33929110
8.80039120 4.74605608 -4.00460005
8.80039120 4.74605608 -4.00460005
8.64166451 4.75926256 -4.33929110
8.61510372 4.64561558 -4.32801914
8.77133560 4.62975502 -3.99326563
8.91974258 4.61167908 -3.65609336
8.94947815 4.73335791 -3.66625118
8.73694897 4.49905729 -3.97968340
8.88501835 4.47557116 -3.64357615
9.02258492 4.46000290 -3.30112052
8.84706593 4.33103800 -3.62933588
8.97860527 4.31602001 -3.28715181
9.10257816 4.31376648 -2.94073391
8.93023109 4.16330194 -3.27092433
9.05470276 4.15922022 -2.92757130
9.16792107 4.17036819 -2.57927561
9.00149155 3.99734354 -2.91174865
9.11319256 4.00576544 -2.56500316
9.20950222 4.02206039 -2.21373940
9.05403805 3.83705139 -2.54923987
9.15122223 3.85066557 -2.20076823
9.22756004 3.86789083 -1.84714663
9.08322048 3.67987466 -2.18460989
9.16790009 3.69273257 -1.83530843
9.23831558 3.70415902 -1.48274004
9.10495090 3.51637053 -1.82251823
9.17292786 3.52978897 -1.47196412
9.23032188 3.54310155 -1.11957765
9.10520172 3.35329175 -1.45992184
9.16035557 3.36843419 -1.11010826
9.20324612 3.38499260 -0.75845867
9.09348774 3.19184136 -1.10067558
9.13795376 3.20708179 -0.75155574
9.16714191 3.22514677 -0.40062681
9.06100273 3.03436899 -0.74248630
9.08779335 3.05371642 -0.39381480
9.10394001 3.07362247 -0.04433149
9.02210331 2.87537074 -0.38730645
9.04048729 2.89482951 -0.04065992
9.04982281 2.91472054 0.30793473
8.96214581 2.72145748 -0.03575651
8.97920036 2.73814011 0.30947143
8.95862579 2.76770329 0.65416348
8.89283085 2.56822300 0.31101343
8.88244057 2.59406447 0.65295130
8.86589813 2.61788273 0.99578208
8.80267239 2.42124724 0.65383279
8.78372860 2.44800806 0.99253672
8.75320530 2.47657990 1.33210874
8.70016193 2.27866817 0.99162364
8.66378975 2.31200242 1.32613766
8.62696362 2.33862114 1.66201282
8.58891392 2.13876295 1.32387722
8.53381729 2.17609119 1.65335333
8.48697853 2.20378995 1.98543537
8.45493507 2.00542402 1.64816868
8.40485668 2.03606009 1.97613370
8.34495926 2.06761861 2.30450487
8.32008743 1.86969614 1.96711385
8.25869465 1.90341532 2.29169369
8.18546486 1.93859255 2.61467981
8.17447186 1.73770809 2.27983499
8.10094643 1.77398670 2.59934568
8.01295471 1.81194985 2.91570401
8.01300335 1.61163616 2.58362937
7.92829657 1.64874458 2.89810443
7.83451843 1.68423891 3.21044016
7.83851004 1.48887897 2.87980533
7.74082661 1.52817500 3.18718171
7.63943052 1.56525147 3.49381065
7.64202976 1.37603831 3.16238737
7.53776360 1.41669059 3.46352553
7.42420721 1.45695233 3.76261020
7.46330738 1.25145853 3.44708443
7.34552336 1.29588044 3.74061203
7.22187901 1.33625019 4.03306532
7.26176739 1.13783109 3.71717405
7.13679028 1.18110263 4.00517273
6.99252272 1.22974443 4.28400135
7.04139090 1.03331840 3.97226763
6.90290976 1.08074117 4.25033951
6.75467110 1.12659359 4.52370310
6.80971289 0.93435258 4.21546841
6.66781712 0.97872508 4.48836708
6.52512455 1.01528466 4.76140022
6.57644892 0.83569366 4.44938517
6.43959665 0.86955827 4.72318792
6.27334166 0.91544193 4.97748852
6.34900618 0.72904819 4.68347359
6.18942642 0.77110261 4.94053698
6.01041651 0.81680542 5.18258095
6.10016441 0.63289511 4.89981270
5.92740297 0.67701137 5.14156961
5.74376154 0.71649301 5.37948608
5.84543657 0.53591776 5.10476589
5.66210699 0.57852644 5.33791971
5.47122288 0.61379135 5.56871843
5.58405066 0.43924043 5.30207634
5.39300728 0.47806448 5.52804136
5.19317961 0.50884819 5.74873209
5.31563187 0.34207460 5.48908949
5.11710835 0.37443614 5.70686102
4.90115309 0.40407628 5.90929031
5.03829241 0.24449983 5.66328335
4.82527161 0.27157950 5.86705971
4.60022831 0.29395682 6.05433321
4.74886370 0.14111587 5.82473707
4.52854156 0.15923305 6.01320648
4.29683685 0.16934717 6.17974854
4.45375729 0.02875917 5.96852446
4.22504997 0.03505065 6.13251543
3.99325871 0.03500617 6.28280830
4.14856625 -0.09315921 6.07868624
3.92199016 -0.09666840 6.22119379
3.69700742 -0.10958572 6.35463619
3.84885788 -0.22530676 6.15638971
3.62702656 -0.23844261 6.28164530
3.40192008 -0.25322151 6.39353132
3.55778265 -0.36630321 6.20612907
3.33888936 -0.38392296 6.31437206
3.11968184 -0.40445849 6.41504097
3.27740455 -0.51416421 6.23218107
3.07222986 -0.54888952 6.34034157
2.84767509 -0.56098258 6.40924072
3.01733637 -0.67449784 6.23974514
2.80117202 -0.69406718 6.31225538
2.58636093 -0.71897882 6.38414621
2.76242828 -0.83288878 6.21873999
2.54934239 -0.85761803 6.28752184
2.33703279 -0.88413507 6.35069227
2.51990891 -1.00055790 6.19044781
2.30841494 -1.01993942 6.24045515
2.09590292 -1.04333639 6.29194880
2.28181362 -1.15186656 6.12343407
2.07297158 -1.17579329 6.17324209
1.86039448 -1.20054305 6.22221851
2.05407262 -1.30401206 6.04793406
1.84629846 -1.32589948 6.09071779
1.63659036 -1.35344851 6.13208294
1.83851469 -1.46069694 5.96532059
1.63159108 -1.47978079 5.99677944
1.42201519 -1.49795747 6.02054262
1.62968230 -1.60495520 5.85624504
1.42700136 -1.62986112 5.88682795
1.22109962 -1.66300118 5.92088175
1.43045020 -1.74666190 5.73652554
1.22710693 -1.77104270 5.76471663
1.01911306 -1.78362381 5.78120565
1.23628187 -1.88134193 5.60823298
1.03302848 -1.89497280 5.62712860
0.82578564 -1.91113293 5.64439535
1.04799736 -2.00778031 5.47154474
0.84572542 -2.02352643 5.49088240
0.63830870 -2.02864027 5.50011253
0.86322576 -2.12356281 5.32696915
0.66079855 -2.13051414 5.34104109
0.45350260 -2.13700628 5.35108805
0.68193883 -2.23136950 5.17995024
0.47945544 -2.23807573 5.19399452
0.27374974 -2.23956728 5.20051098
0.50352740 -2.33028316 5.02961206
0.30188641 -2.33278418 5.03999138
0.09693410 -2.33454752 5.04680586
0.32924020 -2.41812491 4.87497950
0.12851499 -2.42200089 4.88725710
-0.07812482 -2.41417074 4.88776112
0.15789917 -2.49883199 4.72159338
-0.04398225 -2.49485135 4.73096609
-0.25052756 -2.48461008 4.72559595
-0.01097206 -2.57085752 4.57063055
-0.21013410 -2.55780363 4.57251358
-0.40886596 -2.55627060 4.55044699
-0.17183274 -2.63393331 4.41449261
-0.36236995 -2.62631011 4.39681482
-0.55676210 -2.62888527 4.36274052
-0.31984389 -2.70066881 4.24729156
-0.50798655 -2.69650793 4.21862984
-0.70167929 -2.71127295 4.17162180
-0.46799824 -2.77162218 4.07994175
-0.65349060 -2.77485037 4.03958750
-0.84440017 -2.79265308 3.98122287
-0.61557132 -2.84301448 3.90580726
-0.80035245 -2.85762119 3.85835910
-0.98462743 -2.88468480 3.78733873
-0.76566511 -2.92058206 3.73941898
-0.94166112 -2.94269466 3.66835237
-1.10434532 -2.96203232 3.57626867
-0.90105528 -2.98870778 3.55276370
-1.05679941 -3.00307679 3.45983768
-1.19050682 -3.02942801 3.34998989
-1.00742471 -3.05237460 3.34870529
-1.12960887 -3.08249140 3.23607945
-1.23409522 -3.10634208 3.11089921
-1.05978930 -3.12452316 3.12460661
-1.14527380 -3.16198182 2.99344373
-1.22521996 -3.18525124 2.85742664
-1.03785241 -3.20128894 2.87665462
-1.10416448 -3.23803425 2.73502707
-1.17989421 -3.27882457 2.59881568
-0.96910912 -3.29830909 2.61726856
-1.04108548 -3.33639193 2.47851253
-1.11224174 -3.36451125 2.34542823
-0.88806039 -3.38238478 2.36733770
-0.95366168 -3.41570258 2.22635126
-1.03032589 -3.44145536 2.09172225
-0.79030573 -3.45899844 2.12157130
-0.86290568 -3.48589873 1.97686422
-0.93781829 -3.50970769 1.83906710
-0.69136077 -3.52439094 1.88251603
-0.75842190 -3.55084920 1.73192501
-0.83442396 -3.57218647 1.59193933
-0.57408816 -3.57562304 1.64954066
-0.64450800 -3.59913850 1.49277461
-0.73565739 -3.62666488 1.35411322
-0.92465121 -3.58871222 1.46381223
-0.83258760 -3.63544822 1.22034657
-1.01883864 -3.60008550 1.33459222
-0.92846173 -3.64303470 1.08678365
-1.11356258 -3.60432196 1.20108712
-1.02417302 -3.65070534 0.95030624
-1.20827818 -3.61029959 1.06513727
-1.11949801 -3.65367675 0.81181568
-1.30372775 -3.61567020 0.92734951
-1.21473074 -3.64991951 0.67104095
-1.39876997 -3.61467052 0.78739798
-1.31004500 -3.64222884 0.52931762
-1.49417686 -3.61022496 0.64560515
-1.40576577 -3.62672639 0.38587216
-1.59041607 -3.60425997 0.50223577
-1.50327253 -3.61849523 0.24171591
-1.68761623 -3.59469724 0.35782573
-1.60188067 -3.60798407 0.09669711
-1.78439641 -3.57532144 0.21246718
-1.70183229 -3.59657359 -0.04937103
-1.88463092 -3.56893849 0.06627884
-1.80067718 -3.56930089 -0.19625545
-1.98359644 -3.54461718 -0.08155949
-1.90189230 -3.54550362 -0.34504542
-2.08287001 -3.51467896 -0.23039252
-2.26125360 -3.48531008 -0.11356518
-2.18372655 -3.48717546 -0.38055310
-2.36119747 -3.45713830 -0.26426986
-2.53254342 -3.41285992 -0.14466888
-2.46133542 -3.42525554 -0.41603655
-2.63194132 -3.38018465 -0.29662031
-2.79968333 -3.33500552 -0.17455497
-2.73254037 -3.34696007 -0.44988713
-2.89906812 -3.30003762 -0.32814959
-3.05933332 -3.24168587 -0.20442605
-2.99810696 -3.25970745 -0.48282528
-3.15758419 -3.20200467 -0.35913223
-3.32112956 -3.16278410 -0.23383023
-3.25923872 -3.17001629 -0.51489615
-3.41895723 -3.12082720 -0.38937220
-3.57389927 -3.06529975 -0.26191887
-3.51865292 -3.07915020 -0.54543728
-3.66687894 -3.01056266 -0.41706201
-3.81829095 -2.95051622 -0.28728303
-3.72372842 -2.99682021 -0.13204110
-3.96920967 -2.89075351 -0.15676077
-3.87633586 -2.93707538 -0.00141228
-4.11752892 -2.82434726 -0.02605196
-4.02608967 -2.86793590 0.12935314
-4.26859808 -2.76091599 0.10411748
-4.17658949 -2.79956484 0.25963691
-4.41446066 -2.68339324 0.23427230
-4.32434273 -2.72276688 0.38946000
-4.56197691 -2.60340309 0.36301380
-4.47242498 -2.63998914 0.51732260
-4.71151638 -2.52051377 0.48860019
-4.62111855 -2.55461144 0.64292586
-4.85718346 -2.42383313 0.60810518
-4.77033567 -2.46483898 0.76303887
-5.00514984 -2.32699275 0.72127134
-4.91466522 -2.36387539 0.87763476
-5.14850950 -2.22172070 0.82731628
-5.05724287 -2.25882578 0.98629546
-5.28522158 -2.10620618 0.92436051
-5.19620991 -2.14716816 1.08685172
-5.42709255 -1.99838698 1.01643872
-5.33731747 -2.03975987 1.18208897
-5.24156523 -2.07319641 1.34653294
-5.47278881 -1.92391753 1.26926243
-5.38783836 -1.97449350 1.44087386
-5.28573608 -2.00251079 1.60874271
-5.51882648 -1.85365820 1.52611089
-5.42409611 -1.89358985 1.70017254
-5.32178640 -1.92449880 1.87214375
-5.55548048 -1.77455509 1.78531516
-5.45612144 -1.81029260 1.96265328
-5.34863329 -1.83884287 2.13758111
-5.58414555 -1.68929052 2.04818678
-5.47711134 -1.72054112 2.22851324
-5.36263561 -1.74528754 2.40574884
-5.59763336 -1.59274495 2.31240845
-5.48413038 -1.62041581 2.49408364
-5.36832666 -1.64747632 2.67532802
-5.59710217 -1.48402417 2.57584429
-5.48369932 -1.51585031 2.76261497
-5.36521482 -1.54495525 2.94656968
-5.24486065 -1.66863036 2.85298991
-5.23582792 -1.56526887 3.12608385
-5.11990738 -1.69141960 3.02976346
-5.10195255 -1.58463144 3.30317354
-5.35119963 -1.43883920 3.22021723
-5.21368361 -1.45655024 3.39996719
-5.07225037 -1.47191119 3.57738376
-5.32218218 -1.32381499 3.49292421
-5.17575598 -1.33611035 3.67167902
-5.02833462 -1.35247695 3.85015869
-5.27797127 -1.19973910 3.76449895
-5.12635088 -1.21446311 3.94547653
-4.97036362 -1.22905648 4.12315607
-5.22547531 -1.07680058 4.03927040
-5.05996990 -1.08312213 4.21363640
-4.88705778 -1.08424437 4.38185072
-5.14294910 -0.93096471 4.29873419
-4.97016191 -0.93448746 4.47220230
-4.81655598 -0.96633351 4.66200733
-5.06466150 -0.79911554 4.57117987
-4.89750385 -0.81953460 4.75551748
-4.70952892 -0.82360160 4.92151737
-4.97618961 -0.67054909 4.84613276
-4.78793955 -0.67752457 5.01722240
-4.59642363 -0.68461609 5.18622732
-4.86153936 -0.52636445 5.10824347
-4.66621494 -0.53151983 5.27704334
-4.46603489 -0.53670382 5.44333124
-4.73714447 -0.38162181 5.37085247
-4.53114414 -0.38382235 5.53484535
-4.31966782 -0.38413978 5.69330215
-4.58386612 -0.21809120 5.61167812
-4.36866379 -0.21626906 5.76904917
-4.15668154 -0.22432128 5.93346453
-4.43464518 -0.07023674 5.86986494
-4.21463442 -0.07139108 6.02817392
-3.98752737 -0.07153225 6.18040800
-4.26927471 0.08476936 6.11913204
-4.03695774 0.08768020 6.26847172
-3.81395388 0.07364596 6.43331909
-4.09019661 0.24141310 6.36347771
-3.85477185 0.23747416 6.51709032
-3.61438155 0.23674679 6.66196871
-3.89903951 0.39892167 6.60298681
-3.65446091 0.39746451 6.74960279
-3.41103816 0.39097661 6.89952946
-3.69906163 0.55257988 6.84307337
-3.44261646 0.55886316 6.97603512
-3.18413401 0.56060666 7.10675526
-3.48052335 0.71628892 7.06624699
-3.21686172 0.71951723 7.19681311
-2.94797659 0.72200274 7.32041168
-3.24938774 0.87847346 7.28600597
-2.97353172 0.88713115 7.39996624
-2.69614673 0.89348507 7.50961685
-3.00671387 1.03779531 7.50232697
-2.72326708 1.04883850 7.60629606
-2.43893480 1.05328989 7.70774126
-2.75480294 1.19510150 7.71418238
-2.46386528 1.20285916 7.81173277
-2.16880608 1.21146727 7.89767647
-2.48160672 1.36572647 7.89407730
-2.18355727 1.37347865 7.98145151
-1.88557100 1.37637615 8.07026386
-2.19391966 1.54289222 8.05013084
-1.89479339 1.54381669 8.14388943
-1.59013474 1.54984725 8.21622658
-1.90023816 1.71695185 8.20314789
-1.59494543 1.71526980 8.29071999
-1.28250134 1.72333014 8.34853935
-1.60089731 1.87883043 8.36724854
-1.28362131 1.89158797 8.41625214
-0.96837354 1.89169610 8.48117256
-1.28547895 2.05886579 8.48543262
-0.96446186 2.06351161 8.53907681
-0.64407080 2.05696321 8.60025501
-0.96698922 2.20855761 8.64579868
-0.63999885 2.21579337 8.68546200
-0.31014812 2.22472215 8.70894337
-0.63441288 2.37693524 8.76581478
-0.30190206 2.38553190 8.78972340
0.03237241 2.39288640 8.80640602
-0.29208604 2.54895687 8.86425495
0.04557377 2.55509472 8.88240147
0.38387555 2.56441331 8.88100719
0.05873129 2.71867681 8.95573139
0.40000346 2.72810698 8.95318222
0.74373198 2.73815203 8.93511486
0.41627666 2.89242482 9.02235794
0.76328140 2.90009665 9.00936413
1.10759401 2.91434813 8.96633148
0.78085738 3.06978321 9.06417370
1.12803519 3.08133221 9.02762032
1.47503173 3.09072447 8.98065758
1.14923835 3.24618840 9.09398174
1.49879515 3.25687742 9.04310799
1.84697068 3.26316237 8.98179436
1.52147686 3.42399883 9.10249615
1.87287033 3.43038821 9.04172134
2.22286916 3.43100619 8.97271538
1.90022767 3.59259462 9.11398125
2.25115037 3.59748316 9.03539371
2.59767485 3.60025406 8.94079590
2.28043294 3.76331306 9.09971905
2.63133693 3.76283097 9.01032734
2.97427225 3.75991511 8.90239525
2.65925169 3.92987204 9.06382465
3.00479531 3.92535377 8.95589828
3.34299088 3.92423964 8.82808113
3.03353834 4.08801651 9.00681210
3.37464333 4.08684444 8.88014412
3.71194768 4.07758236 8.74827480
3.40287685 4.23504639 8.92730904
3.74034500 4.22890568 8.79141521
4.06860447 4.22253466 8.63636208
3.76273751 4.36451721 8.82456017
4.09447336 4.35714054 8.67446899
4.41445351 4.34027863 8.50693607
4.11447096 4.47642660 8.70394993
4.43341541 4.46299648 8.53168488
4.74770069 4.43945074 8.35681248
4.45455170 4.57393789 8.56321716
4.76766157 4.55321312 8.38344193
5.07719803 4.53557539 8.20076561
4.78248978 4.65844297 8.40286446
5.09118938 4.63991022 8.21789455
5.39356327 4.62702036 8.02372074
5.11141825 4.73235750 8.24593353
5.41198349 4.72052956 8.04732418
5.70822287 4.71823311 7.84221125
5.43588686 4.80689764 8.07978439
5.73139477 4.80914545 7.87082100
6.02240896 4.81294250 7.65635967
5.75682068 4.89369011 7.90296316
6.04627132 4.89709663 7.68495464
6.32027245 4.88744116 7.44980860
6.07766151 4.96055174 7.72418261
6.35136986 4.95116615 7.48453236
6.62233353 4.94993544 7.24231958
6.35136986 4.95116615 7.48453236
6.39979076 4.96966410 7.53983641
6.67274809 4.97558594 7.29550314
6.62233353 4.94993544 7.24231958
6.94393826 4.97367334 7.05037451
6.89115047 4.95636177 6.99758720
6.72121239 4.93983364 7.34666872
6.99031401 4.93059540 7.09632635
7.25274658 4.92365694 6.83598185
7.01480341 4.85734320 7.11972761
7.27416134 4.85322952 6.85473871
7.51994705 4.86008024 6.57882833
7.27275085 4.77171564 6.85195589
7.52405310 4.78279686 6.58076286
7.76308823 4.80276632 6.29725409
7.51036263 4.69849682 6.56649446
7.75165367 4.72151995 6.28563499
7.98680592 4.73341990 5.99709225
7.73467636 4.63770151 6.26943731
7.96456718 4.64378262 5.97836018
8.18554211 4.64723492 5.67815542
7.94355059 4.53796387 5.95959902
8.16458321 4.54582787 5.66108274
8.37164593 4.54220533 5.34893942
8.13690472 4.43369341 5.63866615
8.34733582 4.43535995 5.33010960
8.54382706 4.43738365 5.01208687
8.31824112 4.31735420 5.30758953
8.51719093 4.32566023 4.99341393
8.70316982 4.33607817 4.66992521
8.48766994 4.20623493 4.97242832
8.67319012 4.21426821 4.65058613
8.84279537 4.21970892 4.31943798
8.63635254 4.08049440 4.62826300
8.80598831 4.08192492 4.29914761
8.96045399 4.08186007 3.96246338
8.75794792 3.92723179 4.27385616
8.91275787 3.92664552 3.93983865
9.05587578 3.92762733 3.59954214
8.86015034 3.76631856 3.91499972
9.00326824 3.76815057 3.57676816
9.13490677 3.76916933 3.23301458
8.94773197 3.60368180 3.55276704
9.07699203 3.60652828 3.21015954
9.19390202 3.61149883 2.86125159
9.01834774 3.44081140 3.18647552
9.13533688 3.44700336 2.83993411
9.23951054 3.45674133 2.48872352
9.07719707 3.28032160 2.81792712
9.18110657 3.28894210 2.46883392
9.27227783 3.29977822 2.11494851
9.11960030 3.12180638 2.44680405
9.20805168 3.13190913 2.09447026
9.28562641 3.14262223 1.73950922
9.14390945 2.96422386 2.07365608
9.21954060 2.97424579 1.72085297
9.28566170 2.98370075 1.36622465
9.15373707 2.80574489 1.70201099
9.21919441 2.81423712 1.35036659
9.26866817 2.82283449 0.99491239
9.15217972 2.64462662 1.33441639
9.20112705 2.65268707 0.98204160
9.23487282 2.66152120 0.62710977
9.13471794 2.48197651 0.96889812
9.16797543 2.48997593 0.61687917
9.18568230 2.49885750 0.26319471
9.09658051 2.32016444 0.60614270
9.11135769 2.32999158 0.25567091
9.11927605 2.33662748 -0.09614813
9.04000282 2.15972590 0.24745029
9.04742336 2.16633987 -0.10069726
9.04126930 2.17272997 -0.44932181
8.97285080 1.99726796 -0.10568606
8.96578312 2.00451612 -0.45161256
8.94716072 2.01009679 -0.79620910
8.88802242 1.83741248 -0.45397550
8.87290001 1.84196198 -0.79525155
8.83333206 1.85208833 -1.13501406
8.79446697 1.67574358 -0.79440176
8.75384140 1.68638337 -1.13042641
8.70535851 1.69302750 -1.46610701
8.67260170 1.52127707 -1.12506461
8.62526512 1.52759933 -1.45786119
8.56683826 1.53415322 -1.78953564
8.54462910 1.36259091 -1.45016575
8.48588848 1.36947310 -1.77797604
8.41632080 1.37662554 -2.10455656
8.40352440 1.20557702 -1.76632082
8.33497143 1.21253085 -2.08900857
8.25342846 1.21996570 -2.40932655
8.25218010 1.04912591 -2.07354188
8.17244720 1.05621600 -2.38985729
8.07522678 1.06431007 -2.70272255
8.08837795 0.89388835 -2.36952949
7.99284124 0.90214652 -2.67922235
7.88455772 0.91183394 -2.98488545
7.90900469 0.74089819 -2.65501022
7.80229950 0.75023353 -2.95795083
7.68744612 0.75909740 -3.25751853
7.71908808 0.58937395 -2.92964959
7.60383463 0.59901905 -3.22511840
7.47974348 0.60693538 -3.51652026
7.52005911 0.43905905 -3.19230819
7.39790869 0.44644263 -3.48033738
7.26379013 0.45218256 -3.76279259
7.31562614 0.28614542 -3.44272304
7.18238831 0.29213834 -3.72150612
7.03475523 0.29732567 -3.99322653
7.10022688 0.13240646 -3.68064880
6.95278215 0.13855773 -3.94715524
6.79892874 0.14344817 -4.21017408
6.86919975 -0.01925228 -3.90105581
6.71616268 -0.01374779 -4.16099310
6.55635881 -0.00929709 -4.41480207
6.63149738 -0.16978043 -4.11140823
6.47287846 -0.16522844 -4.36152029
6.30708694 -0.16180119 -4.60547161
6.38807726 -0.32033262 -4.30836582
6.22421694 -0.31698784 -4.54866505
6.05048656 -0.31215295 -4.78054667
6.13851023 -0.47015861 -4.49129248
5.96785975 -0.46716085 -4.72061014
5.78694487 -0.46384656 -4.93980408
5.86674738 -0.30888152 -5.00316000
5.88382006 -0.62070996 -4.66077423
5.70558643 -0.61859149 -4.87725353
5.70558643 -0.61859149 -4.87725353
5.51981735 -0.61875218 -5.08372927
5.78694487 -0.46384656 -4.93980408
5.62303400 -0.77277631 -4.81304312
5.43985558 -0.77274555 -5.01637459
5.25030136 -0.77188653 -5.21271276
5.35710621 -0.92460358 -4.94673014
5.16956615 -0.92293870 -5.13800812
4.97817612 -0.92122948 -5.32511282
5.08780956 -1.07348597 -5.06276178
4.90004921 -1.07216334 -5.24650621
4.70898628 -1.07178700 -5.42665672
4.82050705 -1.22226453 -5.16757441
4.63215160 -1.22054112 -5.34335470
4.43699026 -1.21950173 -5.51190758
4.55308676 -1.36863852 -5.25921440
4.36262751 -1.36760473 -5.42474937
4.16449308 -1.36789763 -5.58104658
4.28609657 -1.51381457 -5.33398724
4.09395599 -1.51507676 -5.48708391
3.89211965 -1.51179445 -5.62996769
4.02098799 -1.66039073 -5.39068556
3.82560325 -1.65912092 -5.53215981
3.62553716 -1.65770507 -5.66627455
3.76105404 -1.80944169 -5.43536234
3.56464291 -1.80730402 -5.56661844
3.36232328 -1.80300808 -5.69072056
3.50139308 -1.95244348 -5.46253633
3.30031490 -1.94290566 -5.57985735
3.09864283 -1.93851006 -5.69632769
3.23353052 -2.07228827 -5.46146250
3.03589773 -2.07063389 -5.57683945
2.83700871 -2.06919742 -5.68657780
2.97248626 -2.20104551 -5.45769072
2.77796316 -2.20232177 -5.56680250
2.57951641 -2.20043397 -5.66803598
2.71638799 -2.32941985 -5.44364738
2.52277303 -2.33086610 -5.54588699
2.32500696 -2.33048010 -5.64103317
2.46379304 -2.45525932 -5.42046833
2.27024651 -2.45480347 -5.51448393
2.07021022 -2.44790077 -5.59608364
2.21329021 -2.57314563 -5.38438177
2.01891422 -2.56952715 -5.46794128
1.81989264 -2.56199622 -5.54440975
1.96549904 -2.68528032 -5.33664227
1.77140784 -2.67838836 -5.41267252
1.57454205 -2.67016959 -5.48299837
1.71975195 -2.78745294 -5.27651072
1.52819955 -2.77883887 -5.34443617
1.33419824 -2.76856232 -5.40705585
1.48012960 -2.88697267 -5.20632744
1.29174173 -2.87823606 -5.26834297
1.10123038 -2.86827707 -5.32267618
1.24983931 -2.98811555 -5.12888670
1.06415737 -2.97690678 -5.18030310
0.87927848 -2.96854186 -5.22414064
1.02900720 -3.08510566 -5.03609324
0.84927142 -3.07736707 -5.07856560
0.66823936 -3.07079864 -5.11346626
0.82021517 -3.18510342 -4.93180323
0.64477038 -3.18119884 -4.96552849
0.46980926 -3.17559457 -4.99014044
0.62498748 -3.28767300 -4.81387854
0.45571092 -3.28347492 -4.83805943
0.28505751 -3.27767491 -4.85689640
0.44253927 -3.38704491 -4.68376255
0.27824226 -3.38135934 -4.70144081
0.11415702 -3.37660241 -4.71360970
0.27150345 -3.48007107 -4.54215479
0.11327670 -3.47411585 -4.55261612
-0.04456064 -3.47117686 -4.55839157
0.11293872 -3.56738663 -4.38988018
-0.03943567 -3.56493139 -4.39532232
-0.19260705 -3.56304312 -4.39470816
-0.03529179 -3.65873599 -4.23290920
-0.18175091 -3.65718126 -4.23319197
-0.33040059 -3.65590954 -4.22783899
-0.17315854 -3.78136110 -4.09703732
-0.31506228 -3.77745676 -4.09012222
-0.45715329 -3.77509069 -4.07738304
-3.95984864 -3.84204769 -0.53991061
-4.07482100 -3.70775676 -0.54293352
-4.05761528 -3.70317197 -0.69635552
-3.94457555 -3.83735156 -0.68892771
-4.03639174 -3.69892883 -0.84805131
-3.91900659 -3.83134794 -0.83649480
-4.21184349 -3.61280966 -0.70755690
-4.18784475 -3.60791230 -0.86864686
-4.15968847 -3.60343695 -1.02455461
-4.34361935 -3.52384830 -0.88746405
-4.31395483 -3.51742578 -1.05099082
-4.27891541 -3.51214528 -1.21278572
-4.46716976 -3.42978549 -1.07503676
-4.43069744 -3.42325115 -1.24271691
-4.38685179 -3.42032337 -1.40930223
-4.58027792 -3.33073306 -1.27007532
-4.53661871 -3.32702065 -1.44350648
-4.48575115 -3.32304740 -1.61170602
-4.68416071 -3.22957039 -1.47251725
-4.63204622 -3.22530580 -1.64859784
-4.57403088 -3.21905613 -1.82137096
-4.77627468 -3.12415195 -1.68343484
-4.71760750 -3.11873770 -1.86223733
-4.65197659 -3.11196017 -2.03807974
-4.86015511 -3.01555181 -1.90020645
-4.79340315 -3.00973082 -2.08263874
-4.72244835 -3.00751019 -2.26260734
-4.93323660 -2.90440464 -2.12453485
-4.85871077 -2.89710021 -2.30863285
-4.77657366 -2.89239550 -2.48882270
-4.99456596 -2.78614712 -2.35310960
-4.91173315 -2.78150058 -2.53859687
-4.82057953 -2.77593470 -2.72032046
-5.04460144 -2.66698170 -2.58684230
-4.95068169 -2.66039062 -2.77293682
-4.85116005 -2.65388799 -2.95609546
-5.08019686 -2.54248142 -2.82323098
-4.97844839 -2.53596950 -3.01103854
-4.87137413 -2.52812624 -3.19556499
-5.10456848 -2.41560555 -3.06570268
-4.99480486 -2.40760469 -3.25444484
-4.87981606 -2.39930582 -3.43953013
-5.11717081 -2.28512192 -3.31176257
-4.99962521 -2.27629137 -3.50181222
-4.87558031 -2.26844072 -3.68611646
-5.11922884 -2.15156984 -3.56110978
-4.99302530 -2.14248466 -3.75031424
-4.85997915 -2.13779402 -3.93485141
-5.10843754 -2.01321363 -3.81127071
-4.97301674 -2.00840211 -4.00084209
-4.82919216 -2.00323129 -4.18198156
-5.08592653 -1.87787807 -4.06443167
-4.93730927 -1.87064600 -4.25029707
-4.78152037 -1.86526310 -4.42830276
-5.04244137 -1.73465943 -4.31517172
-4.88433123 -1.72967505 -4.49794960
-4.72088575 -1.72469795 -4.67522001
-4.98533869 -1.59070218 -4.56466150
-4.81962347 -1.58637118 -4.74581814
-4.64766884 -1.58280492 -4.92139482
-4.91664553 -1.44392765 -4.81343508
-4.74261951 -1.44244158 -4.99317741
-4.56144619 -1.44194937 -5.16662073
-4.83587313 -1.29794335 -5.06166077
-4.65059376 -1.29617000 -5.23679066
-4.45788813 -1.29474568 -5.40599728
-4.73641491 -1.14897954 -5.30634022
-4.54186869 -1.14860213 -5.47881413
-4.33869600 -1.14527941 -5.64170599
-4.62196732 -0.99932265 -5.54964495
-4.41621971 -0.99669957 -5.71632767
-4.20237064 -0.99527192 -5.87507772
-4.49249697 -0.84783274 -5.79114056
-4.27513170 -0.84687364 -5.95258331
-4.04867268 -0.84447122 -6.10345745
-4.34657383 -0.69906181 -6.03245115
-4.11627722 -0.69633752 -6.18431044
-3.88091397 -0.69523925 -6.33034420
-4.18125439 -0.54719055 -6.26532650
-3.94252658 -0.54693091 -6.41425371
-3.69762063 -0.54716456 -6.55554628
-4.00140953 -0.39688981 -6.49689865
-3.75275183 -0.39737555 -6.64018345
-3.49834704 -0.39756337 -6.77524614
-3.80551791 -0.24651355 -6.72447395
-3.54759526 -0.24709092 -6.86083221
-3.28609657 -0.24787864 -6.99119186
-3.59453726 -0.09532968 -6.94666433
-3.32945514 -0.09606204 -7.07840157
-3.05970407 -0.09551073 -7.19909191
-3.37116504 0.05664685 -7.16621017
-3.09861946 0.05647165 -7.28862476
-2.81974506 0.05732131 -7.39846134
-3.13588381 0.20920718 -7.37889671
-2.85307026 0.21130544 -7.48701811
-2.56755805 0.21249427 -7.58848524
-2.88505673 0.36689791 -7.57564020
-2.59696460 0.36787179 -7.67756271
-2.30618644 0.36915174 -7.77146482
-2.62538385 0.52413774 -7.76712656
-2.33203006 0.52614933 -7.86111784
-2.03669953 0.52850258 -7.94553566
-2.35688877 0.68424112 -7.95038271
-2.05910993 0.68690741 -8.03543568
-1.75768077 0.68998760 -8.10824299
-2.08033514 0.84707594 -8.12350464
-1.77702928 0.84989792 -8.19724751
-1.47072899 0.85014057 -8.26006794
-1.79545367 1.01106477 -8.28522778
-1.48628902 1.01270986 -8.34659958
-1.17462540 1.01376212 -8.39615154
-1.50152612 1.17640483 -8.43177414
-1.18673921 1.17669523 -8.48207569
-0.86853570 1.17706728 -8.52065945
-1.19710600 1.34091902 -8.56602383
-0.87631553 1.34075475 -8.60568714
-0.55364597 1.33999765 -8.63223457
-0.88255656 1.50588560 -8.68814373
-0.55784357 1.50539374 -8.71501732
-0.23199557 1.50417376 -8.73030567
-0.56055164 1.67199242 -8.79636192
-0.23222706 1.66980481 -8.81264496
0.09693096 1.66870356 -8.81204128
-0.23214829 1.83677530 -8.89374638
0.09972095 1.83587611 -8.89316177
0.43234032 1.83403182 -8.88239288
0.10253748 2.00495076 -8.97172737
0.43706223 2.00286913 -8.96113873
0.77121705 2.00126195 -8.94081593
0.44212145 2.17382097 -9.03744507
0.77821434 2.17253280 -9.01624775
1.11403346 2.16704345 -8.99101734
0.78589410 2.34301353 -9.09405422
1.12347865 2.33892035 -9.06430340
1.45833039 2.33905625 -9.01273727
1.13308120 2.51105118 -9.13834953
1.46973050 2.51059389 -9.08549404
1.80467999 2.51027656 -9.01948738
1.48111308 2.68461061 -9.15428543
1.81840158 2.68168354 -9.09128189
2.15492892 2.67868638 -9.01708508
1.83221364 2.85452390 -9.16000366
2.17112517 2.85002613 -9.08666134
2.50838804 2.84803796 -8.99936390
2.18681479 3.02350378 -9.15071011
2.52552819 3.02124906 -9.06203365
2.86183047 3.02065945 -8.96282768
2.54365802 3.19373298 -9.12551689
2.88211179 3.19310737 -9.02637482
3.21705794 3.19521523 -8.91377926
2.90190363 3.36590123 -9.08520889
3.23879313 3.36841512 -8.97250652
3.57067633 3.37439489 -8.84475708
3.26024747 3.54053020 -9.02874374
3.59692860 3.54363894 -8.90526104
3.92778444 3.55181026 -8.76474857
3.62078857 3.71308661 -8.95804977
3.95430088 3.72302485 -8.81615829
4.28149652 3.73462129 -8.65939426
3.97872114 3.89214635 -8.86163521
4.31047678 3.90249634 -8.70705318
4.63551044 3.90553212 -8.53818512
4.33669281 4.06077766 -8.74962902
4.66383314 4.06387472 -8.58056068
4.98411369 4.06192064 -8.39792442
4.68908072 4.21953869 -8.61802483
5.00965643 4.21488333 -8.43304253
5.32267284 4.20651150 -8.23650646
5.03004551 4.34663677 -8.46188354
5.34567499 4.34691238 -8.26716995
5.65513468 4.34523344 -8.06158447
5.36517382 4.47167873 -8.29385471
5.67481947 4.47475052 -8.08714008
5.97458649 4.47011995 -7.86532021
5.69138050 4.59396791 -8.10926437
5.99159861 4.59029198 -7.88682461
6.28533840 4.58659410 -7.65388584
6.00743818 4.70198298 -7.90633154
6.30165720 4.70046711 -7.67298174
6.58713865 4.70136356 -7.42871666
6.31687593 4.80735397 -7.69103813
6.60230446 4.80717802 -7.44580269
6.88347101 4.81418943 -7.19545555
6.61133575 4.90724516 -7.45555735
6.89028835 4.91628361 -7.20264626
7.16251945 4.92337513 -6.94045830
6.87847376 5.00676918 -7.18996096
7.14649487 5.01232481 -6.92536211
7.40489340 5.00905371 -6.64829397
7.65527821 5.00789833 -6.36375809
7.10572910 5.07962942 -6.88626719
