-2.38511014 -4.36858368 2.35045552
-2.40196157 -4.48668242 2.37956119
-1.90222514 -4.57146597 2.82652569
-1.91521096 -4.62914038 2.85491419
-2.05298781 -4.62914038 2.75786209
-2.03863096 -4.57146597 2.73043942
-2.18584204 -4.62914038 2.65417099
-2.17016459 -4.57146597 2.62777877
-2.31346130 -4.62914038 2.54410076
-2.29651499 -4.57146597 2.51880312
-2.28232455 -4.48668242 2.49344301
-2.26693678 -4.36858368 2.46294689
-2.14338899 -4.36858368 2.56950641
-2.15724587 -4.48668242 2.60132194
-2.02703691 -4.48668242 2.70294714
-2.01477265 -4.36858368 2.66988754
-1.88139260 -4.36858368 2.76383972
-1.89200497 -4.48668242 2.79806423
-1.31450820 -4.57146597 3.14066839
-1.32159007 -4.62914038 3.17221069
-1.47565496 -4.62914038 3.10390615
-1.46704280 -4.57146597 3.07304120
-1.62618601 -4.62914038 3.02812743
-1.61607790 -4.57146597 2.99801397
-1.77282417 -4.62914038 2.94506621
-1.76125622 -4.57146597 2.91578007
-1.75245619 -4.48668242 2.88641953
-1.74354982 -4.36858368 2.85111403
-1.60159099 -4.36858368 2.93152523
-1.60873961 -4.48668242 2.96782565
-1.46120512 -4.48668242 3.04209685
-1.45586050 -4.36858368 3.00488734
-1.30670857 -4.36858368 3.07101417
-1.31020594 -4.48668242 3.10904312
-0.67680508 -4.57146597 3.33411407
-0.67748183 -4.62914038 3.36760044
-0.84190851 -4.62914038 3.33066320
-0.83959609 -4.57146597 3.29754424
-1.00432682 -4.62914038 3.28570628
-1.00039923 -4.57146597 3.25303507
-1.16435075 -4.62914038 3.23284984
-1.15883195 -4.57146597 3.20070457
-1.15609717 -4.48668242 3.16847467
-1.15448523 -4.36858368 3.12971878
-0.99956644 -4.36858368 3.18088818
-0.99925977 -4.48668242 3.22027802
-0.84007502 -4.48668242 3.26433921
-0.84232748 -4.36858368 3.22441053
-0.68314451 -4.36858368 3.26016998
-0.67892224 -4.48668242 3.30054092
-0.01360835 -4.57146597 3.39942861
-0.00762111 -4.62914038 3.43357182
-0.17609680 -4.62914038 3.42942286
-0.18040852 -4.57146597 3.39532089
-0.34416932 -4.62914038 3.41701746
-0.34680864 -4.57146597 3.38303876
-0.51143318 -4.62914038 3.39639783
-0.51240861 -4.57146597 3.36262488
-0.51618195 -4.48668242 3.32876515
-0.52239496 -4.36858368 3.28805017
-0.36046973 -4.36858368 3.30801344
-0.35225099 -4.48668242 3.34897470
-0.18752664 -4.48668242 3.36113214
-0.19776072 -4.36858368 3.32002258
-0.03465924 -4.36858368 3.32403779
-0.02240586 -4.48668242 3.36519790
0.64958847 -4.57146597 3.33411455
0.66223520 -4.62914038 3.36760044
0.49618563 -4.62914038 3.39639783
0.48519063 -4.57146597 3.36262488
0.32892257 -4.62914038 3.41701746
0.31959078 -4.57146597 3.38303924
0.16085276 -4.62914038 3.42942286
0.15319131 -4.57146597 3.39532089
0.14271493 -4.48668242 3.36113214
0.12844223 -4.36858368 3.32002258
0.29115152 -4.36858368 3.30801463
0.30743927 -4.48668242 3.34897470
0.47137034 -4.48668242 3.32876515
0.45307672 -4.36858368 3.28805017
0.61382627 -4.36858368 3.26016951
0.63411158 -4.48668242 3.30054092
1.28730059 -4.57146597 3.14066076
1.30634832 -4.62914038 3.17220473
1.14911008 -4.62914038 3.23284626
1.13162494 -4.57146597 3.20069933
0.98908556 -4.62914038 3.28570509
0.97319025 -4.57146597 3.25303340
0.82666451 -4.62914038 3.33066320
0.81238323 -4.57146597 3.29754424
0.79526663 -4.48668242 3.26433921
0.77300972 -4.36858368 3.22441053
0.93025100 -4.36858368 3.18088818
0.95445490 -4.48668242 3.22027683
1.11129582 -4.48668242 3.16847110
1.08517468 -4.36858368 3.12971783
1.23740077 -4.36858368 3.07101274
1.26540554 -4.48668242 3.10903788
1.87501645 -4.57146597 2.82651758
1.89996934 -4.62914038 2.85490799
1.75758004 -4.62914038 2.94505930
1.73404360 -4.57146597 2.91577411
1.61094010 -4.62914038 3.02812052
1.58886266 -4.57146597 2.99801064
1.46041071 -4.62914038 3.10389924
1.43983078 -4.57146597 3.07303524
1.41640019 -4.48668242 3.04209352
1.38654888 -4.36858368 3.00488687
1.53227448 -4.36858368 2.93152499
1.56393075 -4.48668242 2.96782398
1.70764792 -4.48668242 2.88641596
1.67423236 -4.36858368 2.85111308
1.81207693 -4.36858368 2.76383734
1.84720016 -4.48668242 2.79805851
2.39015174 -4.57146597 2.40375400
2.42027664 -4.62914038 2.42790008
2.29821396 -4.62914038 2.54409719
2.26930237 -4.57146597 2.51879621
2.17059994 -4.62914038 2.65416932
2.14295673 -4.57146597 2.62777495
2.03774714 -4.62914038 2.75785851
2.01142454 -4.57146597 2.73043346
1.98223579 -4.48668242 2.70294046
1.94546199 -4.36858368 2.66988206
2.07408071 -4.36858368 2.56949830
2.11244535 -4.48668242 2.60131454
2.23751974 -4.48668242 2.49343300
2.19762611 -4.36858368 2.46293616
2.31579518 -4.36858368 2.35044599
2.35715246 -4.48668242 2.37954926
2.81291389 -4.57146597 1.88861907
2.84728885 -4.62914038 1.90758753
2.75024033 -4.62914038 2.04536533
2.71683145 -4.57146597 2.02502608
2.64655018 -4.62914038 2.17821884
2.61417389 -4.57146597 2.15655804
2.53647542 -4.62914038 2.30583572
2.50519466 -4.57146597 2.28290415
2.47103620 -4.48668242 2.25991678
2.42828465 -4.36858368 2.23227644
2.53484511 -4.36858368 2.10873246
2.57891655 -4.48668242 2.13484335
2.68054008 -4.48668242 2.00463605
2.63522553 -4.36858368 1.98011768
2.72917747 -4.36858368 1.84673500
2.77565479 -4.48668242 1.86960196
3.12705564 -4.57146597 1.30090165
3.16458488 -4.62914038 1.31396663
3.09627748 -4.62914038 1.46802890
3.05942774 -4.57146597 1.45343161
3.02049732 -4.62914038 1.61855841
2.98440051 -4.57146597 1.60246408
2.93743777 -4.62914038 1.76519823
2.90216660 -4.57146597 1.74764502
2.86400890 -4.48668242 1.73004794
2.81645107 -4.36858368 1.70888782
2.89686179 -4.36858368 1.56692624
2.94541526 -4.48668242 1.58632839
3.01968622 -4.48668242 1.43879712
2.97022343 -4.36858368 1.42119908
3.03635025 -4.36858368 1.27205229
3.08663249 -4.48668242 1.28780317
3.32050157 -4.57146597 0.66319269
3.35997128 -4.62914038 0.66985410
3.32303500 -4.62914038 0.83428264
3.28393102 -4.57146597 0.82598591
3.27808046 -4.62914038 0.99670380
3.23942161 -4.57146597 0.98679262
3.22522449 -4.62914038 1.15672839
3.18709159 -4.57146597 1.14522660
3.14606404 -4.48668242 1.13369620
3.09505486 -4.36858368 1.11983001
3.14622474 -4.36858368 0.96491045
3.19786716 -4.48668242 0.97685778
3.24192858 -4.48668242 0.81767046
3.18974662 -4.36858368 0.80767107
3.22550583 -4.36858368 0.64848876
3.27813125 -4.48668242 0.65651613
3.42180109 -4.62914038 0.16847774
3.40939689 -4.62914038 0.33654663
3.36943340 -4.57146597 0.33320248
3.38171315 -4.57146597 0.16680406
3.38877273 -4.62914038 0.50380713
3.34901619 -4.57146597 0.49879819
3.30635834 -4.48668242 0.49377736
3.25338721 -4.36858368 0.48773971
3.27335167 -4.36858273 0.32581541
3.32656956 -4.48668242 0.32984877
3.28535962 -4.36858368 0.16310611
3.33872533 -4.48668242 0.16512544
2.81686234 -3.49518514 -0.28856799
2.79917789 -3.49518609 -0.43198419
2.86156487 -3.58102250 -0.44061244
2.87960267 -3.58102250 -0.29433185
2.77448201 -3.49518514 -0.57435876
2.83637619 -3.58102250 -0.58583039
2.90798283 -3.69885063 -0.59839410
2.93371177 -3.69885159 -0.45006177
2.95213580 -3.69885063 -0.30064416
2.96321654 -3.69885159 -0.15050110
2.89045119 -3.58102250 -0.14734113
2.96692085 -3.69885063 0.00000323
2.89407802 -3.58102250 0.00000297
2.83105493 -3.49518514 0.00000297
2.82749867 -3.49518609 -0.14445573
2.73334122 -3.38894272 0.00000310
2.72990203 -3.38894272 -0.13973062
2.77407598 -3.43370414 -0.14190084
2.77756929 -3.43370414 0.00000297
2.71961522 -3.38894272 -0.27912861
2.76362848 -3.43370414 -0.28346395
2.70251083 -3.38894272 -0.41785216
2.74625778 -3.43370414 -0.42434239
2.67862368 -3.38894272 -0.55556887
2.72199893 -3.43370414 -0.56419796
2.70426702 -3.49518514 -0.85461265
2.65894532 -3.49518609 -0.99182528
2.71853089 -3.58102250 -1.01163411
2.76475906 -3.58102250 -0.87168103
2.60694838 -3.49518514 -1.12664878
2.66549468 -3.58102250 -1.14915085
2.73343539 -3.69885063 -1.17379594
2.78760910 -3.69885159 -1.03333008
2.83482933 -3.69885063 -0.89037567
2.74281216 -3.49518609 -0.71534604
2.80407405 -3.58102250 -0.72963315
2.87498784 -3.69885159 -0.74528128
2.64798808 -3.38894272 -0.69194680
2.69088864 -3.43370414 -0.70269263
2.61070228 -3.38894153 -0.82665956
2.65302420 -3.43370414 -0.83949673
2.56686330 -3.38894272 -0.95938087
2.60850453 -3.43370414 -0.97428071
2.51656866 -3.38894272 -1.08979046
2.55742836 -3.43370414 -1.10671747
2.48340273 -3.49518514 -1.38781810
2.41218567 -3.49518609 -1.51355207
2.46684313 -3.58102250 -1.54378390
2.53948212 -3.58102250 -1.41553843
2.33488941 -3.49518514 -1.63564110
2.38800263 -3.58102250 -1.66831088
2.44999290 -3.69885063 -1.70409214
2.53052425 -3.69885159 -1.57689428
2.60472107 -3.69885063 -1.44589806
2.54837894 -3.49518609 -1.25874841
2.60575557 -3.58102250 -1.28388989
2.67241549 -3.69885159 -1.31142533
2.45991564 -3.38894272 -1.21756828
2.49989510 -3.43370414 -1.23647952
2.39706492 -3.38894153 -1.34241700
2.43606806 -3.43370414 -1.36326659
2.32817721 -3.38894272 -1.46404016
2.36611104 -3.43370414 -1.48677754
2.25340962 -3.38894272 -1.58213782
2.29018235 -3.43370414 -1.60670829
2.16276574 -3.49518514 -1.86768818
2.06838584 -3.49518609 -1.97710824
2.11617565 -3.58102250 -2.01659870
2.21244025 -3.58102250 -1.90499115
1.96875453 -3.49518514 -2.08176851
2.01455474 -3.58102250 -2.12335157
2.06853461 -3.69885063 -2.16889548
2.17233539 -3.69885159 -2.05985165
2.27066445 -3.69885063 -1.94584846
2.25167489 -3.49518609 -1.75377607
2.30312562 -3.58102250 -1.78880429
2.36329508 -3.69885159 -1.82716942
2.17291832 -3.38894272 -1.69640982
2.20844054 -3.43370414 -1.72275448
2.08691788 -3.38894153 -1.80659628
2.12110424 -3.43370414 -1.83465195
1.99562204 -3.38894272 -1.91243732
2.02839208 -3.43370414 -1.94213593
1.89924729 -3.38894272 -2.01367331
1.93052161 -3.43370414 -2.04494405
1.75466752 -3.49518514 -2.27578330
1.64075422 -3.49518609 -2.36468911
1.68000233 -3.58102250 -2.41192079
1.79619014 -3.58102250 -2.32123947
1.52261925 -3.49518514 -2.44790077
1.55950892 -3.58102250 -2.49679422
1.60373008 -3.69885063 -2.55034590
1.72680676 -3.69885159 -2.46365094
1.84548569 -3.69885063 -2.37102485
1.86409140 -3.49518609 -2.18140197
1.90780020 -3.58102250 -2.22497439
1.95948982 -3.69885159 -2.27269650
1.79800940 -3.38894272 -2.11004472
1.82771087 -3.43370414 -2.14281368
1.69216776 -3.38894153 -2.20133734
1.72022414 -3.43370414 -2.23552513
1.58198118 -3.38894272 -2.28733611
1.60832584 -3.43370414 -2.32285905
1.46771049 -3.38894272 -2.36782765
1.49228060 -3.43370414 -2.40459991
1.27479768 -3.49518514 -2.59642291
1.14572811 -3.49518609 -2.66140103
1.17508793 -3.58102250 -2.71455741
1.30673659 -3.58102250 -2.64828253
1.01362836 -3.49518514 -2.71996903
1.04034901 -3.58102250 -2.77429485
1.07343304 -3.69885063 -2.83379555
1.21106267 -3.69885159 -2.77277732
1.34553599 -3.69885063 -2.70508146
1.40053093 -3.49518609 -2.52520084
1.43498194 -3.58102250 -2.57563806
1.47653258 -3.69885159 -2.63088012
1.34961665 -3.38894272 -2.44259882
1.37235236 -3.43370414 -2.48053265
1.22799730 -3.38894153 -2.51149035
1.24884391 -3.43370414 -2.55049515
1.10314965 -3.38894272 -2.57434249
1.12205768 -3.43370414 -2.61432362
0.97537088 -3.38894272 -2.63099504
0.99229461 -3.43370414 -2.67185616
0.74159122 -3.49518514 -2.81727982
0.60232490 -3.49518609 -2.85582829
0.62083125 -3.58102250 -2.91286922
0.76287913 -3.58102250 -2.87355065
0.46133813 -3.49518514 -2.88750076
0.47702852 -3.58102250 -2.94517446
0.49803233 -3.69885063 -3.00834155
0.64491951 -3.69885159 -2.97534370
0.79001373 -3.69885063 -2.93518209
0.87880421 -3.49518609 -2.77196121
0.90283227 -3.58102250 -2.82732606
0.93296748 -3.69885159 -2.88796496
0.84495735 -3.38894272 -2.68128920
0.85985547 -3.43370414 -2.72292972
0.71223336 -3.38894153 -2.72512794
0.72506994 -3.43370414 -2.76744795
0.57752323 -3.38894272 -2.76241493
0.58826751 -3.43370414 -2.80531383
0.44114813 -3.38894272 -2.79305005
0.44977444 -3.43370414 -2.83642530
0.17554648 -3.49518514 -2.92987299
0.03143378 -3.49518609 -2.94050908
0.03853923 -3.58102250 -2.99924302
0.18552995 -3.58102250 -2.98839378
-0.11302505 -3.49518514 -2.94406581
-0.10880487 -3.58102250 -3.00287151
-0.10036501 -3.69885063 -3.06727815
0.05013925 -3.69885159 -3.06357169
0.20028238 -3.69885063 -3.05248833
0.31896314 -3.49518609 -2.91219282
0.33181053 -3.58102250 -2.97036004
0.34970009 -3.69885159 -3.03406763
0.30342934 -3.38894272 -2.81693268
0.30991724 -3.43370414 -2.86067939
0.16470249 -3.38894153 -2.83403325
0.16903621 -3.43370414 -2.87804604
0.02530276 -3.38894272 -2.84432316
0.02747220 -3.43370414 -2.88849449
-0.11443174 -3.38894272 -2.84776521
-0.11443161 -3.43370414 -2.89198947
-0.40158755 -3.49518514 -2.92987299
-0.54500383 -3.49518609 -2.91219282
-0.54941356 -3.58102250 -2.97036004
-0.40313220 -3.58102250 -2.98839378
-0.68737918 -3.49518514 -2.88750076
-0.69463414 -3.58102250 -2.94517446
-0.69876248 -3.69885063 -3.00834179
-0.55042624 -3.69885159 -3.03406763
-0.40100646 -3.69885063 -3.05248857
-0.25748026 -3.49518609 -2.94050908
-0.25614560 -3.58102250 -2.99924302
-0.25086644 -3.69885159 -3.06357169
-0.25416288 -3.38894272 -2.84432316
-0.25633207 -3.43370414 -2.88849449
-0.39355704 -3.38894153 -2.83403325
-0.39789078 -3.43370414 -2.87804604
-0.53228247 -3.38894272 -2.81693268
-0.53877038 -3.43370414 -2.86067939
-0.67000115 -3.38894272 -2.79305005
-0.67862743 -3.43370414 -2.83642530
-0.96763253 -3.49518514 -2.81728005
-1.10484540 -3.49518609 -2.77196121
-1.12043858 -3.58102250 -2.82732606
-0.98048550 -3.58102250 -2.87355065
-1.23966944 -3.49518514 -2.71996903
-1.25795448 -3.58102250 -2.77429485
-1.27416277 -3.69885063 -2.83379555
-1.13369882 -3.69885159 -2.88796496
-0.99074519 -3.69885063 -2.93518186
-0.82836610 -3.49518609 -2.85582829
-0.83843750 -3.58102250 -2.91286922
-0.84565055 -3.69885159 -2.97534370
-0.80637634 -3.38894272 -2.76241493
-0.81712037 -3.43370414 -2.80531406
-0.94108641 -3.38894153 -2.72512817
-0.95392281 -3.43370414 -2.76744795
-1.07381034 -3.38894272 -2.68128920
-1.08870840 -3.43370414 -2.72292972
-1.20422387 -3.38894272 -2.63099551
-1.22114766 -3.43370414 -2.67185616
-1.50083745 -3.49518514 -2.59642315
-1.62657046 -3.49518609 -2.52520084
-1.65258157 -3.58102250 -2.57563806
-1.52433693 -3.58102250 -2.64828253
-1.74865901 -3.49518514 -2.44790077
-1.77710962 -3.58102250 -2.49679422
-1.80445218 -3.69885063 -2.55034590
-1.67725360 -3.69885159 -2.63088012
-1.54625821 -3.69885063 -2.70508146
-1.37176883 -3.49518609 -2.66140103
-1.39269114 -3.58102250 -2.71455741
-1.41178894 -3.69885159 -2.77277732
-1.33200288 -3.38894272 -2.57434249
-1.35091078 -3.43370414 -2.61432362
-1.45685041 -3.38894153 -2.51149035
-1.47769690 -3.43370414 -2.55049515
-1.57846987 -3.38894272 -2.44259882
-1.60120547 -3.43370414 -2.48053265
-1.69656372 -3.38894272 -2.36782765
-1.72113359 -3.43370414 -2.40459991
-1.98070860 -3.49518514 -2.27578330
-2.09013224 -3.49518609 -2.18140197
-2.12540340 -3.58102250 -2.22497439
-2.01379490 -3.58102250 -2.32123947
-2.19479513 -3.49518514 -2.08176851
-2.23215628 -3.58102250 -2.12335157
-2.26925731 -3.69885063 -2.16889548
-2.16021538 -3.69885159 -2.27269650
-2.04621410 -3.69885063 -2.37102485
-1.86679459 -3.49518609 -2.36468911
-1.89760530 -3.58102250 -2.41192079
-1.92753303 -3.69885159 -2.46365094
-1.81083429 -3.38894272 -2.28733611
-1.83717906 -3.43370414 -2.32285905
-1.92102110 -3.38894153 -2.20133734
-1.94907725 -3.43370414 -2.23552513
-2.02686238 -3.38894272 -2.11004472
-2.05656409 -3.43370414 -2.14281368
-2.12809992 -3.38894272 -2.01367331
-2.15937471 -3.43370414 -2.04494429
-2.38880682 -3.49518514 -1.86768830
-2.47771549 -3.49518609 -1.75377619
-2.52072883 -3.58102250 -1.78880429
-2.43004513 -3.58102250 -1.90499115
-2.56093001 -3.49518514 -1.63564110
-2.60560417 -3.58102250 -1.66831088
-2.65071535 -3.69885063 -1.70409214
-2.56402040 -3.69885159 -1.82716942
-2.47139311 -3.69885063 -1.94584846
-2.29442644 -3.49518609 -1.97710824
-2.33377910 -3.58102250 -2.01659870
-2.37306070 -3.69885159 -2.05985165
-2.22447515 -3.38894272 -1.91243732
-2.25724483 -3.43370414 -1.94213605
-2.31577110 -3.38894153 -1.80659616
-2.34995747 -3.43370414 -1.83465195
-2.40177107 -3.38894272 -1.69640982
-2.43729377 -3.43370414 -1.72275448
-2.48226261 -3.38894272 -1.58213782
-2.51903534 -3.43370414 -1.60670829
-2.70944381 -3.49518514 -1.38781679
-2.77442002 -3.49518609 -1.25874329
-2.82336164 -3.58102250 -1.28388655
-2.75708723 -3.58102250 -1.41553760
-2.83298945 -3.49518514 -1.12664115
-2.88310003 -3.58102250 -1.14914584
-2.93416548 -3.69885063 -1.17379475
-2.87314630 -3.69885159 -1.31142437
-2.80545163 -3.69885063 -1.44589782
-2.63822627 -3.49518609 -1.51355207
-2.68444586 -3.58102250 -1.54378390
-2.73124933 -3.69885159 -1.57689428
-2.55703020 -3.38894272 -1.46404016
-2.59496403 -3.43370414 -1.48677754
-2.62591767 -3.38894153 -1.34241676
-2.66492105 -3.43370414 -1.36326575
-2.68876863 -3.38894272 -1.21756732
-2.72874808 -3.43370414 -1.23647618
-2.74542141 -3.38894272 -1.08978939
-2.78628159 -3.43370414 -1.10671222
-2.93030691 -3.49518514 -0.85461152
-2.96885204 -3.49518609 -0.71534604
-3.02167392 -3.58102250 -0.72963315
-2.98235965 -3.58102250 -0.87168020
-3.00052214 -3.49518514 -0.57435870
-3.05397582 -3.58102250 -0.58583039
-3.10870361 -3.69885063 -0.59839410
-3.07570910 -3.69885159 -0.74528128
-3.03555226 -3.69885063 -0.89037549
-2.88498569 -3.49518609 -0.99182022
-2.93613386 -3.58102250 -1.01163065
-2.98833561 -3.69885159 -1.03332913
-2.79571676 -3.38894272 -0.95938003
-2.83735728 -3.43370414 -0.97427732
-2.83955503 -3.38894153 -0.82665932
-2.88187742 -3.43370414 -0.83949590
-2.87684131 -3.38894272 -0.69194680
-2.91974187 -3.43370414 -0.70269263
-2.90747666 -3.38894272 -0.55556887
-2.95085216 -3.43370414 -0.56419796
-3.16764235 -3.69885063 0.00000336
-3.16393805 -3.69885159 -0.15050110
-3.10805082 -3.58102250 -0.14734113
-3.11167812 -3.58102250 0.00000388
-3.15285730 -3.69885063 -0.30064410
-3.09720230 -3.58102250 -0.29433185
-3.04290223 -3.49518514 -0.28856805
-3.05353832 -3.49518609 -0.14445573
-3.05709457 -3.49518514 0.00000427
-3.02521777 -3.49518609 -0.43198419
-3.07916451 -3.58102250 -0.44061244
-3.13443279 -3.69885159 -0.45006177
-2.93136358 -3.38894272 -0.41785216
-2.97511101 -3.43370414 -0.42434239
-2.94846773 -3.38894153 -0.27912861
-2.99248195 -3.43370414 -0.28346395
-2.95875573 -3.38894272 -0.13973062
-3.00292969 -3.43370414 -0.14190078
-2.96219420 -3.38894272 0.00000336
-3.00642228 -3.43370414 0.00000388
-3.00052214 -3.49518514 0.57436746
-3.05397582 -3.58102250 0.58583879
-3.07916451 -3.58102250 0.44061837
-3.02521777 -3.49518609 0.43199182
-3.10870361 -3.69885063 0.59840238
-3.13443279 -3.69885159 0.45006603
-3.15285730 -3.69885063 0.30064583
-3.09720230 -3.58102250 0.29433611
-3.04290223 -3.49518514 0.28857490
-3.16393805 -3.69885159 0.15050530
-3.10805082 -3.58102250 0.14734708
-3.05353832 -3.49518609 0.14446336
-2.95875573 -3.38894272 0.13973489
-3.00292969 -3.43370414 0.14190678
-2.94846845 -3.38894153 0.27913037
-2.99248195 -3.43370414 0.28346822
-2.93136358 -3.38894272 0.41785631
-2.97511101 -3.43370414 0.42434821
-2.90747666 -3.38894272 0.55557561
-2.95085216 -3.43370414 0.56420553
-2.83298945 -3.49518514 1.12665045
-2.88309956 -3.58102250 1.14915538
-2.93613338 -3.58102250 1.01164007
-2.88498521 -3.49518609 0.99182874
-2.93416548 -3.69885063 1.17380285
-2.98833561 -3.69885159 1.03333783
-3.03555179 -3.69885063 0.89038455
-2.98235965 -3.58102250 0.87168956
-2.93030643 -3.49518514 0.85461962
-3.02167392 -3.58102250 0.72964245
-2.96885204 -3.49518609 0.71535450
-3.07570910 -3.69885159 0.74529058
-2.87684131 -3.38894272 0.69195110
-2.91974187 -3.43370414 0.70269859
-2.83955550 -3.38894153 0.82666087
-2.88187742 -3.43370414 0.83950013
-2.79571676 -3.38894272 0.95938355
-2.83735728 -3.43370414 0.97428322
-2.74542189 -3.38894272 1.08979607
-2.78628159 -3.43370414 1.10672081
-2.56092954 -3.49518514 1.63564003
-2.60560322 -3.58102250 1.66831005
-2.68444586 -3.58102250 1.54378641
-2.63822627 -3.49518609 1.51355469
-2.65071392 -3.69885063 1.70409250
-2.73124933 -3.69885159 1.57689750
-2.80545115 -3.69885063 1.44590569
-2.75708723 -3.58102250 1.41554511
-2.70944381 -3.49518514 1.38782442
-2.82336164 -3.58102250 1.28389573
-2.77442002 -3.49518609 1.25875247
-2.87314630 -3.69885159 1.31143308
-2.68876863 -3.38894272 1.21757579
-2.72874808 -3.43370414 1.23648548
-2.62591815 -3.38894153 1.34242415
-2.66492105 -3.43370414 1.36327338
-2.55703020 -3.38894272 1.46404278
-2.59496403 -3.43370414 1.48678017
-2.48226261 -3.38894272 1.58213532
-2.51903534 -3.43370414 1.60670650
-2.19479418 -3.49518514 2.08177662
-2.23215532 -3.58102250 2.12335563
-2.33377552 -3.58102250 2.01660490
-2.29442549 -3.49518609 1.97711599
-2.26925588 -3.69885063 2.16889596
-2.37305570 -3.69885159 2.05985427
-2.47138524 -3.69885063 1.94585371
-2.43003988 -3.58102250 1.90499783
-2.38880563 -3.49518514 1.86769474
-2.52072525 -3.58102250 1.78880680
-2.47771430 -3.49518609 1.75377786
-2.56401515 -3.69885159 1.82717204
-2.40177107 -3.38894272 1.69640648
-2.43729377 -3.43370414 1.72275376
-2.31577086 -3.38894153 1.80659473
-2.34995747 -3.43370414 1.83465457
-2.22447515 -3.38894272 1.91243970
-2.25724530 -3.43370414 1.94214213
-2.12809968 -3.38894272 2.01367927
-2.15937471 -3.43370414 2.04495263
-1.74865901 -3.49518514 2.44791055
-1.77710962 -3.58102250 2.49680376
-1.89760530 -3.58102250 2.41193032
-1.86679459 -3.49518609 2.36469841
-1.80445242 -3.69885063 2.55035424
-1.92753303 -3.69885159 2.46365976
-2.04621434 -3.69885063 2.37103224
-2.01379490 -3.58102250 2.32124805
-1.98070800 -3.49518514 2.27579236
-2.12540340 -3.58102250 2.22498035
-2.09013200 -3.49518609 2.18141031
-2.16021538 -3.69885159 2.27269983
-2.02686238 -3.38894272 2.11005259
-2.05656362 -3.43370414 2.14282322
-1.92102110 -3.38894153 2.20134521
-1.94907725 -3.43370414 2.23553443
-1.81083429 -3.38894272 2.28734469
-1.83717906 -3.43370414 2.32286859
-1.69656348 -3.38894272 2.36783671
-1.72113359 -3.43370414 2.40460944
-1.23966849 -3.49518514 2.71996927
-1.25794923 -3.58102250 2.77429891
-1.39268756 -3.58102250 2.71456337
-1.37176788 -3.49518609 2.66140437
-1.27415502 -3.69885063 2.83380389
-1.41178370 -3.69885159 2.77278566
-1.54625738 -3.69885063 2.70509052
-1.52433622 -3.58102250 2.64829063
-1.50083721 -3.49518514 2.59643102
-1.65258157 -3.58102250 2.57564759
-1.62657046 -3.49518609 2.52521038
-1.67725360 -3.69885159 2.63088870
-1.57846987 -3.38894272 2.44260836
-1.60120547 -3.43370414 2.48054218
-1.45685041 -3.38894153 2.51149821
-1.47769690 -3.43370414 2.55050254
-1.33200288 -3.38894272 2.57434607
-1.35091078 -3.43370414 2.61432624
-1.20422387 -3.38894272 2.63099456
-1.22114766 -3.43370414 2.67185426
-0.68737787 -3.49518514 2.88750887
-0.69462895 -3.58102250 2.94518399
-0.83843440 -3.58102250 2.91287851
-0.82836533 -3.49518609 2.85583568
-0.69875473 -3.69885063 3.00835085
-0.84564561 -3.69885159 2.97535300
-0.99074256 -3.69885063 2.93519163
-0.98048395 -3.58102250 2.87355900
-0.96763200 -3.49518514 2.81728673
-1.12043512 -3.58102250 2.82733202
-1.10484457 -3.49518609 2.77196383
-1.13369358 -3.69885159 2.88797355
-1.07381034 -3.38894272 2.68128777
-1.08870840 -3.43370414 2.72292900
-0.94108641 -3.38894153 2.72512674
-0.95392281 -3.43370414 2.76744938
-0.80637634 -3.38894272 2.76241350
-0.81712037 -3.43370414 2.80531645
-0.67000115 -3.38894272 2.79304910
-0.67862743 -3.43370414 2.83642864
-0.11301471 -3.49518514 2.94407535
-0.10879465 -3.58102250 3.00288081
-0.25613862 -3.58102250 2.99925232
-0.25747356 -3.49518609 2.94051838
-0.10035596 -3.69885063 3.06728816
-0.25086048 -3.69885159 3.06358075
-0.40100333 -3.69885063 3.05249810
-0.40312961 -3.58102250 2.98840308
-0.40158623 -3.49518514 2.92988205
-0.54941016 -3.58102250 2.97036958
-0.54500276 -3.49518609 2.91220140
-0.55042106 -3.69885159 3.03407693
-0.53228247 -3.38894272 2.81693602
-0.53877014 -3.43370414 2.86068559
-0.39355549 -3.38894153 2.83404064
-0.39788923 -3.43370414 2.87805462
-0.25415590 -3.38894272 2.84433150
-0.25632533 -3.43370414 2.88850379
-0.11442140 -3.38894272 2.84777331
-0.11442140 -3.43370414 2.89199877
0.46133825 -3.49518514 2.88750887
0.47702929 -3.58102250 2.94518399
0.33181053 -3.58102250 2.97036958
0.31896302 -3.49518609 2.91220140
0.49803364 -3.69885063 3.00835109
0.34969997 -3.69885159 3.03407693
0.20028393 -3.69885063 3.05249810
0.18553163 -3.58102250 2.98840308
0.17554817 -3.49518514 2.92988205
0.03854609 -3.58102250 2.99925232
0.03144064 -3.49518609 2.94051838
0.05014520 -3.69885159 3.06358075
0.02530974 -3.38894272 2.84433174
0.02747906 -3.43370414 2.88850403
0.16470417 -3.38894153 2.83404064
0.16903789 -3.43370414 2.87805462
0.30342934 -3.38894272 2.81693602
0.30991712 -3.43370414 2.86068559
0.44114813 -3.38894272 2.79304934
0.44977444 -3.43370414 2.83642888
1.01362848 -3.49518514 2.71996927
1.04034972 -3.58102250 2.77429891
0.90283549 -3.58102250 2.82733178
0.87880510 -3.49518609 2.77196336
1.07343543 -3.69885063 2.83380389
0.93297327 -3.69885159 2.88797355
0.79002160 -3.69885063 2.93519163
0.76288432 -3.58102250 2.87355900
0.74159253 -3.49518514 2.81728673
0.62083477 -3.58102250 2.91287851
0.60232586 -3.49518609 2.85583568
0.64492464 -3.69885159 2.97535300
0.57752323 -3.38894272 2.76241350
0.58826751 -3.43370414 2.80531669
0.71223336 -3.38894153 2.72512674
0.72506994 -3.43370414 2.76744938
0.84495735 -3.38894272 2.68128777
0.85985547 -3.43370414 2.72292876
0.97537076 -3.38894272 2.63099384
0.99229461 -3.43370414 2.67185354
1.52261961 -3.49518514 2.44790912
1.55950975 -3.58102250 2.49680305
1.43498194 -3.58102250 2.57564759
1.40053093 -3.49518609 2.52520967
1.60373151 -3.69885063 2.55035377
1.47653258 -3.69885159 2.63088870
1.34553623 -3.69885063 2.70509052
1.30673659 -3.58102250 2.64829063
1.27479768 -3.49518514 2.59642982
1.17508793 -3.58102250 2.71456337
1.14572811 -3.49518609 2.66140366
1.21106350 -3.69885159 2.77278566
1.10314965 -3.38894272 2.57434082
1.12205768 -3.43370414 2.61432290
1.22799730 -3.38894153 2.51149058
1.24884391 -3.43370414 2.55049777
1.34961665 -3.38894272 2.44260240
1.37235236 -3.43370414 2.48053885
1.46771049 -3.38894272 2.36783433
1.49228060 -3.43370414 2.40460753
1.96875596 -3.49518514 2.08177400
2.01455545 -3.58102250 2.12335420
1.90780365 -3.58102250 2.22497702
1.86409307 -3.49518609 2.18140531
2.06853628 -3.69885063 2.16889524
1.95949578 -3.69885159 2.27269888
1.84549451 -3.69885063 2.37103081
1.79619515 -3.58102250 2.32124281
1.75466907 -3.49518514 2.27578473
1.68000567 -3.58102250 2.41192651
1.64075506 -3.49518609 2.36469340
1.72681272 -3.69885159 2.46365857
1.58198118 -3.38894272 2.28734279
1.60832584 -3.43370414 2.32286525
1.69216907 -3.38894153 2.20134354
1.72022510 -3.43370414 2.23552966
1.79801464 -3.38894272 2.11005187
1.82771420 -3.43370414 2.14281988
1.89925492 -3.38894272 2.01367927
1.93052661 -3.43370414 2.04495120
2.33488941 -3.49518514 1.63563752
2.38800263 -3.58102250 1.66830742
2.30312562 -3.58102250 1.78880346
2.25167489 -3.49518609 1.75377297
2.44999290 -3.69885063 1.70408916
2.36329508 -3.69885159 1.82717025
2.27066445 -3.69885063 1.94585216
2.21244025 -3.58102250 1.90499294
2.16276598 -3.49518514 1.86768699
2.11617565 -3.58102250 2.01660156
2.06838655 -3.49518609 1.97711110
2.17233539 -3.69885159 2.05985355
1.99562728 -3.38894272 1.91243899
2.02839541 -3.43370414 1.94213879
2.08691931 -3.38894153 1.80659378
2.12110496 -3.43370414 1.83464932
2.17291832 -3.38894272 1.69640541
2.20844054 -3.43370414 1.72275043
2.25340962 -3.38894272 1.58213484
2.29018235 -3.43370414 1.60670495
2.60694838 -3.49518514 1.12664640
2.66549468 -3.58102250 1.14914763
2.60575557 -3.58102250 1.28388584
2.54837894 -3.49518609 1.25874603
2.73343539 -3.69885063 1.17379308
2.67241549 -3.69885159 1.31142116
2.60472107 -3.69885063 1.44589376
2.53948212 -3.58102250 1.41553426
2.48340273 -3.49518514 1.38781559
2.46684313 -3.58102250 1.54377973
2.41218567 -3.49518609 1.51354873
2.53052425 -3.69885159 1.57689035
2.32817721 -3.38894272 1.46404099
2.36611104 -3.43370414 1.48677683
2.39706492 -3.38894153 1.34242177
2.43606806 -3.43370414 1.36326849
2.45991564 -3.38894272 1.21757424
2.49989510 -3.43370414 1.23648214
2.51656866 -3.38894272 1.08979499
2.55742836 -3.43370414 1.10671926
2.77448201 -3.49518514 0.57435620
2.83637619 -3.58102250 0.58582705
2.80407405 -3.58102250 0.72963238
2.74281216 -3.49518609 0.71534353
2.90798283 -3.69885063 0.59839284
2.87498784 -3.69885159 0.74528295
2.83482933 -3.69885063 0.89037937
2.76475906 -3.58102250 0.87168193
2.70426702 -3.49518514 0.85461032
2.71853089 -3.58102250 1.01163328
2.65894532 -3.49518609 0.99182278
2.78760910 -3.69885159 1.03333080
2.56686330 -3.38894272 0.95938170
2.60850453 -3.43370414 0.97427988
2.61070228 -3.38894153 0.82665777
2.65302420 -3.43370414 0.83949429
2.64798808 -3.38894272 0.69194770
2.69088864 -3.43370414 0.70269185
2.67862368 -3.38894272 0.55557251
2.72199893 -3.43370414 0.56419879
2.96321654 -3.69885159 0.15050440
2.89045119 -3.58102250 0.14734359
2.95213580 -3.69885063 0.30064312
2.87960267 -3.58102250 0.29432926
2.81686234 -3.49518514 0.28856573
2.82749867 -3.49518609 0.14445819
2.86156487 -3.58102250 0.44060817
2.79917789 -3.49518609 0.43198082
2.93371177 -3.69885159 0.45005929
2.70251083 -3.38894272 0.41785383
2.74625778 -3.43370414 0.42434147
2.71961522 -3.38894272 0.27912855
2.76362848 -3.43370414 0.28346214
2.72990203 -3.38894272 0.13973399
2.77407598 -3.43370414 0.14190330
2.57359576 -3.29375815 -0.53467840
2.59658575 -3.29375768 -0.40213624
2.57750678 -3.28742290 -0.39930677
2.55468011 -3.28742242 -0.53091639
2.61304784 -3.29375815 -0.26862586
2.59385109 -3.28742242 -0.26673537
2.56958985 -3.28681612 -0.26434678
2.55339289 -3.28681612 -0.39573076
2.53077269 -3.28681612 -0.52616096
2.62294769 -3.29375815 -0.13447161
2.60368133 -3.28742290 -0.13352512
2.62625670 -3.29375815 0.00000465
2.60696721 -3.28742242 0.00000465
2.58258939 -3.28681612 0.00000440
2.57933187 -3.28681612 -0.13232945
2.49421620 -3.30056405 0.00000336
2.49106431 -3.30056357 -0.12799586
2.54382062 -3.29138160 -0.13058633
2.54703569 -3.29138160 0.00000388
2.48163915 -3.30056405 -0.25568807
2.53420615 -3.29138160 -0.26086375
2.46597195 -3.30056357 -0.38276389
2.51822257 -3.29138160 -0.39051417
2.44409227 -3.30056405 -0.50891680
2.49590039 -3.29138160 -0.51922315
2.41763973 -3.29375815 -1.04881418
2.46604228 -3.29375768 -0.92330629
2.44788170 -3.28742290 -0.91680670
2.39981890 -3.28742242 -1.04143202
2.50823092 -3.29375815 -0.79557467
2.48977447 -3.28742242 -0.78997391
2.46644807 -3.28681612 -0.78289562
2.42492914 -3.28681612 -0.90859282
2.37729597 -3.28681612 -1.03210282
2.54411316 -3.29375815 -0.66592824
2.52540517 -3.28742290 -0.66124123
2.50176001 -3.28681612 -0.65531713
2.41603041 -3.30056357 -0.63384062
2.46727014 -3.29138160 -0.64667618
2.38187551 -3.30056405 -0.75724018
2.43242335 -3.29138160 -0.77257347
2.34171700 -3.30056357 -0.87882036
2.39145184 -3.29138160 -0.89661485
2.29564452 -3.30056405 -0.99828351
2.34444666 -3.29138160 -1.01849723
2.16437078 -3.29375815 -1.52264106
2.23632765 -3.29375768 -1.40898895
2.21978211 -3.28742290 -1.39907181
2.14833117 -3.28742242 -1.51192331
2.30262589 -3.29375815 -1.29194343
2.28561473 -3.28742242 -1.28285098
2.26411581 -3.28681612 -1.27135873
2.19887161 -3.28681612 -1.38653791
2.12805963 -3.28681612 -1.49837852
2.36311531 -3.29375815 -1.17178905
2.34567857 -3.28742290 -1.16354227
2.32364130 -3.28681612 -1.15311933
2.24374843 -3.30056357 -1.11533201
2.29149914 -3.29138160 -1.13791692
2.18617463 -3.30056405 -1.22969460
2.23275924 -3.29138160 -1.25459623
2.12307000 -3.30056357 -1.34110034
2.16837549 -3.29138160 -1.36825705
2.05457973 -3.30056405 -1.44927776
2.09849715 -3.29138160 -1.47862399
1.82352757 -3.29375815 -1.93795621
1.91627848 -3.29375768 -1.84052360
1.90198708 -3.28742290 -1.82757103
1.80988908 -3.28742242 -1.92431772
2.00414038 -3.29375815 -1.73865950
1.98923028 -3.28742242 -1.72642386
1.97038591 -3.28681612 -1.71095979
1.88392472 -3.28681612 -1.81120110
1.79265201 -3.28681612 -1.90708041
2.08690667 -3.29375815 -1.63261509
2.07141280 -3.28742290 -1.62112427
2.05183101 -3.28681612 -1.60660243
1.98084855 -3.30056357 -1.55395615
2.02327371 -3.29138160 -1.58542168
1.90207124 -3.30056405 -1.65489352
1.94290209 -3.29138160 -1.68840349
1.81844199 -3.30056357 -1.75184917
1.85757995 -3.29138160 -1.78732312
1.73015928 -3.30056405 -1.84458554
1.76750982 -3.29138160 -1.88193774
1.40821373 -3.29375815 -2.27879167
1.51818728 -3.29375768 -2.20132995
1.50669897 -3.28742290 -2.18583798
1.39749980 -3.28742242 -2.26275468
1.62423122 -3.29375815 -2.11856771
1.61199605 -3.28742242 -2.10365796
1.59653270 -3.28681612 -2.08481312
1.49217975 -3.28681612 -2.16625786
1.38395882 -3.28681612 -2.24248672
1.72609496 -3.29375815 -2.03070712
1.71314240 -3.28742290 -2.01641583
1.69677246 -3.28681612 -1.99835253
1.63742137 -3.30056357 -1.93286467
1.67289436 -3.29138160 -1.97200513
1.54046667 -3.30056405 -2.01649165
1.57397664 -3.29138160 -2.05732560
1.43953347 -3.30056357 -2.09527135
1.47099984 -3.29138160 -2.13769889
1.33485806 -3.30056405 -2.16900563
1.36420548 -3.29138160 -2.21292520
0.93438542 -3.29375815 -2.53205872
1.05736053 -3.29375768 -2.47753739
1.04911363 -3.28742290 -2.46010375
0.92700338 -3.28742242 -2.51424170
1.17751491 -3.29375815 -2.41705060
1.16842318 -3.28742242 -2.40004182
1.15693164 -3.28681612 -2.37854433
1.03869069 -3.28681612 -2.43806887
0.91767418 -3.28681612 -2.49172163
1.29456115 -3.29375815 -2.35075045
1.28464651 -3.28742290 -2.33420730
1.27211523 -3.28681612 -2.31329966
1.22667766 -3.30056357 -2.23749781
1.25383508 -3.29138160 -2.28280425
1.11526775 -3.30056405 -2.30060315
1.14016926 -3.29138160 -2.34718776
1.00090420 -3.30056357 -2.35817695
1.02348828 -3.29138160 -2.40592766
0.88385618 -3.30056405 -2.41007137
0.90406853 -3.29138160 -2.45887327
0.42025137 -3.29375815 -2.68802142
0.55149961 -3.29375768 -2.65853930
0.54681259 -3.28742290 -2.63982701
0.41648942 -3.28742242 -2.66910195
0.68114603 -3.29375815 -2.62265515
0.67554528 -3.28742242 -2.60419631
0.66846699 -3.28681612 -2.58086658
0.54088849 -3.28681612 -2.61617756
0.41173393 -3.28681612 -2.64519191
0.80887759 -3.29375815 -2.58046341
0.80237806 -3.28742290 -2.56230354
0.79416424 -3.28681612 -2.53935099
0.76439250 -3.30056357 -2.45613885
0.78218627 -3.29138160 -2.50587344
0.64281172 -3.30056405 -2.49629378
0.65814483 -3.29138160 -2.54684091
0.51941204 -3.30056357 -2.53045130
0.53224754 -3.29138160 -2.58168864
0.39448842 -3.30056405 -2.55851674
0.40479529 -3.29138160 -2.61032128
-0.11443161 -3.29375815 -2.74068236
0.02004970 -3.29375768 -2.73737025
0.01910320 -3.28742290 -2.71810651
-0.11443161 -3.28742242 -2.72139430
0.15420750 -3.29375815 -2.72746754
0.15231696 -3.28742242 -2.70827413
0.14992718 -3.28681612 -2.68401456
0.01790664 -3.28681612 -2.69375801
-0.11443148 -3.28681612 -2.69701624
0.28771439 -3.29375815 -2.71100783
0.28488499 -3.28742290 -2.69192839
0.28130808 -3.28681612 -2.66781497
0.26833603 -3.30056357 -2.58039451
0.27608889 -3.29138160 -2.63264465
0.14126079 -3.30056405 -2.59605908
0.14644015 -3.29138160 -2.64862800
0.01356801 -3.30056357 -2.60548258
0.01616105 -3.29138160 -2.65824270
-0.11443161 -3.30056405 -2.60863590
-0.11443161 -3.29138160 -2.66145849
-0.64910448 -3.29375815 -2.68802142
-0.51656729 -3.29375768 -2.71100783
-0.51373786 -3.28742290 -2.69192839
-0.64534336 -3.28742242 -2.66910195
-0.38306206 -3.29375815 -2.72746754
-0.38117164 -3.28742242 -2.70827413
-0.37878212 -3.28681612 -2.68401551
-0.51016188 -3.28681612 -2.66781592
-0.64058965 -3.28681612 -2.64519215
-0.24890956 -3.29375815 -2.73737025
-0.24796307 -3.28742290 -2.71810651
-0.24676675 -3.28681612 -2.69375873
-0.24242787 -3.30056357 -2.60548782
-0.24502091 -3.29138160 -2.65824604
-0.37011677 -3.30056405 -2.59606624
-0.37529588 -3.29138160 -2.64863300
-0.49719408 -3.30056357 -2.58039975
-0.50494528 -3.29138160 -2.63264799
-0.62335074 -3.30056405 -2.55851912
-0.63365513 -3.29138160 -2.61032295
-1.16323876 -3.29375815 -2.53205872
-1.03773153 -3.29375768 -2.58046341
-1.03123450 -3.28742290 -2.56230354
-1.15585744 -3.28742242 -2.51424170
-0.90999991 -3.29375815 -2.62265515
-0.90440345 -3.28742242 -2.60419631
-0.89732903 -3.28681612 -2.58086753
-1.02302325 -3.28681612 -2.53935170
-1.14652848 -3.28681612 -2.49172211
-0.78035361 -3.29375815 -2.65853930
-0.77566928 -3.28742290 -2.63982701
-0.76974821 -3.28681612 -2.61617851
-0.74827617 -3.30056357 -2.53045654
-0.76111078 -3.29138160 -2.58169198
-0.87167507 -3.30056405 -2.49630141
-0.88700885 -3.29138160 -2.54684615
-0.99325132 -3.30056357 -2.45614386
-1.01104593 -3.29138160 -2.50587678
-1.11271167 -3.30056405 -2.41007233
-1.13292396 -3.29138160 -2.45887423
-1.63706779 -3.29375815 -2.27879167
-1.52341425 -3.29375768 -2.35075045
-1.51349986 -3.28742290 -2.33420730
-1.62635386 -3.28742242 -2.26275468
-1.40636802 -3.29375815 -2.41705060
-1.39727652 -3.28742242 -2.40004182
-1.38578582 -3.28681612 -2.37854433
-1.50096929 -3.28681612 -2.31329966
-1.61281192 -3.28681612 -2.24248672
-1.28621387 -3.29375815 -2.47753739
-1.27796686 -3.28742290 -2.46010375
-1.26754463 -3.28681612 -2.43806911
-1.22976232 -3.30056357 -2.35817695
-1.25234473 -3.29138160 -2.40592790
-1.34412837 -3.30056405 -2.30060315
-1.36902738 -3.29138160 -2.34718776
-1.45553589 -3.30056357 -2.23749781
-1.48269165 -3.29138160 -2.28280425
-1.56371248 -3.30056405 -2.16900563
-1.59305930 -3.29138160 -2.21292520
-2.05238247 -3.29375815 -1.93795621
-1.95495296 -3.29375768 -2.03070712
-1.94199860 -3.28742290 -2.01641583
-2.03874302 -3.28742242 -1.92431772
-1.85309207 -3.29375815 -2.11856771
-1.84085405 -3.28742242 -2.10365796
-1.82538664 -3.28681612 -2.08481312
-1.92562604 -3.28681612 -1.99835253
-2.02150512 -3.28681612 -1.90708041
-1.74704516 -3.29375815 -2.20132995
-1.73555553 -3.28742290 -2.18583798
-1.72103345 -3.28681612 -2.16625786
-1.66838634 -3.30056357 -2.09527135
-1.69985294 -3.29138160 -2.13769889
-1.76931930 -3.30056405 -2.01649165
-1.80282950 -3.29138160 -2.05732560
-1.86627424 -3.30056357 -1.93286467
-1.90174747 -3.29138160 -1.97200513
-1.95901227 -3.30056405 -1.84458542
-1.99636269 -3.29138160 -1.88193774
-2.39322519 -3.29375815 -1.52264106
-2.31576037 -3.29375768 -1.63261509
-2.30026937 -3.28742290 -1.62112427
-2.37718916 -3.28742242 -1.51192331
-2.23299360 -3.29375815 -1.73865950
-2.21808434 -3.28742242 -1.72642386
-2.19924021 -3.28681612 -1.71095979
-2.28068948 -3.28681612 -1.60660243
-2.35692024 -3.28681612 -1.49837852
-2.14513135 -3.29375815 -1.84052360
-2.13084030 -3.28742290 -1.82757103
-2.11277771 -3.28681612 -1.81120110
-2.04729509 -3.30056357 -1.75184917
-2.08643293 -3.29138160 -1.78732300
-2.13092470 -3.30056405 -1.65489352
-2.17175603 -3.29138160 -1.68840349
-2.20970273 -3.30056357 -1.55395615
-2.25213051 -3.29138160 -1.58542168
-2.28343415 -3.30056405 -1.44927788
-2.32735562 -3.29138160 -1.47862399
-2.64649224 -3.29375815 -1.04881418
-2.59196854 -3.29375768 -1.17178905
-2.57453108 -3.28742290 -1.16354227
-2.62867188 -3.28742242 -1.04143202
-2.53147840 -3.29375815 -1.29194343
-2.51446843 -3.28742242 -1.28285098
-2.49296999 -3.28681612 -1.27135873
-2.55249381 -3.28681612 -1.15311933
-2.60614872 -3.28681612 -1.03210282
-2.46518135 -3.29375815 -1.40898895
-2.44863820 -3.28742290 -1.39907181
-2.42773008 -3.28681612 -1.38653791
-2.35192442 -3.30056357 -1.34110034
-2.39723206 -3.29138160 -1.36825705
-2.41502786 -3.30056405 -1.22969460
-2.46161366 -3.29138160 -1.25459623
-2.47260237 -3.30056357 -1.11533201
-2.52035236 -3.29138160 -1.13791692
-2.52449822 -3.30056405 -0.99828351
-2.57329917 -3.29138160 -1.01849723
-2.80244923 -3.29375815 -0.53467840
-2.77296615 -3.29375768 -0.66592824
-2.75425792 -3.28742290 -0.66124123
-2.78353333 -3.28742242 -0.53091639
-2.73708391 -3.29375815 -0.79557461
-2.71862721 -3.28742242 -0.78997391
-2.69530058 -3.28681612 -0.78289562
-2.73061323 -3.28681612 -0.65531713
-2.75962615 -3.28681612 -0.52616096
-2.69489503 -3.29375815 -0.92330629
-2.67673469 -3.28742290 -0.91680670
-2.65378237 -3.28681612 -0.90859282
-2.57057095 -3.30056357 -0.87882036
-2.62030482 -3.29138160 -0.89661485
-2.61072874 -3.30056405 -0.75724024
-2.66127634 -3.29138160 -0.77257347
-2.64488339 -3.30056357 -0.63384062
-2.69612336 -3.29138160 -0.64667618
-2.67294621 -3.30056405 -0.50891680
-2.72475362 -3.29138160 -0.51922315
-2.85511112 -3.29375815 0.00000465
-2.85180140 -3.29375768 -0.13447161
-2.83253789 -3.28742290 -0.13352512
-2.83582592 -3.28742242 0.00000465
-2.84190106 -3.29375815 -0.26862592
-2.82270527 -3.28742242 -0.26673543
-2.79844332 -3.28681612 -0.26434678
-2.80819035 -3.28681612 -0.13232945
-2.81145024 -3.28681612 0.00000465
-2.82543874 -3.29375815 -0.40213630
-2.80635977 -3.28742290 -0.39930683
-2.78224635 -3.28681612 -0.39573076
-2.69482565 -3.30056357 -0.38276389
-2.74707603 -3.29138160 -0.39051417
-2.71049356 -3.30056405 -0.25568801
-2.76306033 -3.29138160 -0.26086375
-2.71991920 -3.30056357 -0.12799586
-2.77267742 -3.29138160 -0.13058633
-2.72307110 -3.30056405 0.00000478
-2.77589393 -3.29138160 0.00000465
-2.80244875 -3.29375815 0.53468508
-2.82543874 -3.29375768 0.40214482
-2.80635977 -3.28742290 0.39931285
-2.78353333 -3.28742242 0.53091973
-2.84190154 -3.29375815 0.26863497
-2.82270479 -3.28742242 0.26674393
-2.79844379 -3.28681612 0.26435491
-2.78224587 -3.28681612 0.39573503
-2.75962567 -3.28681612 0.52616245
-2.85180140 -3.29375815 0.13448092
-2.83253741 -3.28742290 0.13353443
-2.80818963 -3.28681612 0.13233876
-2.71991920 -3.30056357 0.12800518
-2.77267694 -3.29138160 0.13059562
-2.71049356 -3.30056405 0.25569731
-2.76305985 -3.29138160 0.26087227
-2.69482565 -3.30056357 0.38277242
-2.74707556 -3.29138160 0.39052024
-2.67294502 -3.30056405 0.50892496
-2.72475314 -3.29138160 0.51922739
-2.64649224 -3.29375815 1.04881918
-2.69489503 -3.29375768 0.92330956
-2.67673469 -3.28742290 0.91681266
-2.62867188 -3.28742242 1.04143882
-2.73708391 -3.29375815 0.79557568
-2.71862721 -3.28742242 0.78997737
-2.69530058 -3.28681612 0.78290218
-2.65378237 -3.28681612 0.90860045
-2.60614872 -3.28681612 1.03210902
-2.77296615 -3.29375815 0.66593170
-2.75425792 -3.28742290 0.66124386
-2.73061323 -3.28681612 0.65532047
-2.64488339 -3.30056357 0.63384908
-2.69612336 -3.29138160 0.64668214
-2.61072874 -3.30056405 0.75724810
-2.66127634 -3.29138160 0.77258110
-2.57057095 -3.30056357 0.87882459
-2.62030482 -3.29138160 0.89662081
-2.52449870 -3.30056405 0.99828506
-2.57329917 -3.29138160 1.01850057
-2.39322519 -3.29375815 1.52264750
-2.46518135 -3.29375768 1.40899158
-2.44863892 -3.28742290 1.39907455
-2.37718916 -3.28742242 1.51193118
-2.53147840 -3.29375815 1.29194319
-2.51446843 -3.28742242 1.28285015
-2.49296999 -3.28681612 1.27135932
-2.42773008 -3.28681612 1.38654149
-2.35692024 -3.28681612 1.49838638
-2.59196854 -3.29375815 1.17179167
-2.57453108 -3.28742290 1.16354477
-2.55249381 -3.28681612 1.15312183
-2.47260237 -3.30056357 1.11533546
-2.52035236 -3.29138160 1.13791955
-2.41502786 -3.30056405 1.22970176
-2.46161366 -3.29138160 1.25459957
-2.35192442 -3.30056357 1.34110880
-2.39723206 -3.29138160 1.36826301
-2.28343415 -3.30056405 1.44928670
-2.32735562 -3.29138160 1.47863257
-2.05238080 -3.29375815 1.93796229
-2.14513135 -3.29375768 1.84053111
-2.13083982 -3.28742290 1.82758033
-2.03874207 -3.28742242 1.92432559
-2.23299408 -3.29375815 1.73866737
-2.21808410 -3.28742242 1.72643316
-2.19924045 -3.28681612 1.71096885
-2.11277771 -3.28681612 1.81121039
-2.02150488 -3.28681612 1.90708840
-2.31576037 -3.29375815 1.63262272
-2.30026937 -3.28742290 1.62113357
-2.28068948 -3.28681612 1.60661185
-2.20970273 -3.30056357 1.55396438
-2.25213051 -3.29138160 1.58543098
-2.13092470 -3.30056405 1.65490150
-2.17175603 -3.29138160 1.68841302
-2.04729509 -3.30056357 1.75185776
-2.08643293 -3.29138160 1.78733230
-1.95901227 -3.30056405 1.84459400
-1.99636269 -3.29138160 1.88194597
-1.63706684 -3.29375815 2.27879953
-1.74704015 -3.29375768 2.20133257
-1.73555219 -3.28742290 2.18584061
-1.62635279 -3.28742242 2.26276231
-1.85308456 -3.29375815 2.11856699
-1.84084916 -3.28742242 2.10365725
-1.82538557 -3.28681612 2.08481312
-1.72103298 -3.28681612 2.16626048
-1.61281168 -3.28681612 2.24249315
-1.95494807 -3.29375815 2.03070879
-1.94199550 -3.28742290 2.01641846
-1.92562532 -3.28681612 1.99835610
-1.86627424 -3.30056357 1.93287241
-1.90174723 -3.29138160 1.97201109
-1.76931930 -3.30056405 2.01649737
-1.80282950 -3.29138160 2.05732894
-1.66838634 -3.30056357 2.09527373
-1.69985294 -3.29138160 2.13770127
-1.56371093 -3.30056405 2.16900682
-1.59305859 -3.29138160 2.21292853
-1.16323853 -3.29375815 2.53206563
-1.28621387 -3.29375768 2.47754574
-1.27796686 -3.28742290 2.46010947
-1.15585637 -3.28742242 2.51424503
-1.40636802 -3.29375815 2.41705966
-1.39727652 -3.28742242 2.40005040
-1.38578534 -3.28681612 2.37855148
-1.26754355 -3.28681612 2.43807220
-1.14652741 -3.28681612 2.49172139
-1.52341425 -3.29375815 2.35075974
-1.51349986 -3.28742290 2.33421683
-1.50096834 -3.28681612 2.31330776
-1.45553076 -3.30056357 2.23750234
-1.48268819 -3.29138160 2.28280997
-1.34412110 -3.30056405 2.30060935
-1.36902225 -3.29138160 2.34719443
-1.22975731 -3.30056357 2.35818028
-1.25234139 -3.29138160 2.40593028
-1.11271036 -3.30056405 2.41007185
-1.13292241 -3.29138160 2.45887232
-0.64910424 -3.29375815 2.68802810
-0.78035259 -3.29375768 2.65854263
-0.77566564 -3.28742290 2.63983297
-0.64534229 -3.28742242 2.66910982
-0.90999866 -3.29375815 2.62265635
-0.90439826 -3.28742242 2.60419989
-0.89732099 -3.28681612 2.58087254
-0.76974255 -3.28681612 2.61618567
-0.64058709 -3.28681612 2.64519858
-1.03773069 -3.29375815 2.58046675
-1.03123116 -3.28742290 2.56230617
-1.02301836 -3.28681612 2.53935337
-0.99325079 -3.30056357 2.45614219
-1.01104283 -3.29138160 2.50587606
-0.87167221 -3.30056405 2.49630046
-0.88700312 -3.29138160 2.54684806
-0.74826998 -3.30056357 2.53045535
-0.76110405 -3.29138160 2.58169460
-0.62334269 -3.30056405 2.55851769
-0.63364917 -3.29138160 2.61032486
-0.11442152 -3.29375815 2.74069023
-0.24890284 -3.29375768 2.73737812
-0.24795634 -3.28742290 2.71811247
-0.11442140 -3.28742242 2.72140217
-0.38306051 -3.29375815 2.72747540
-0.38116983 -3.28742242 2.70827842
-0.37878007 -3.28681612 2.68401599
-0.24676003 -3.28681612 2.69376230
-0.11442152 -3.28681612 2.69702315
-0.51656729 -3.29375815 2.71101546
-0.51373786 -3.28742290 2.69193459
-0.51016110 -3.28681612 2.66781831
-0.49718916 -3.30056357 2.58039784
-0.50494218 -3.29138160 2.63264680
-0.37011394 -3.30056405 2.59606504
-0.37529328 -3.29138160 2.64863133
-0.24242115 -3.30056357 2.60549045
-0.24501418 -3.29138160 2.65824866
-0.11442140 -3.30056405 2.60864234
-0.11442140 -3.29138160 2.66146541
0.42025939 -3.29375815 2.68802786
0.28771943 -3.29375768 2.71101546
0.28488833 -3.28742290 2.69193459
0.41649538 -3.28742242 2.66910982
0.15421034 -3.29375815 2.72747540
0.15231942 -3.28742242 2.70827842
0.14992912 -3.28681612 2.68401599
0.28130975 -3.28681612 2.66781831
0.41173795 -3.28681612 2.64519835
0.02005656 -3.29375815 2.73737812
0.01910993 -3.28742290 2.71811247
0.01791349 -3.28681612 2.69376230
0.01357486 -3.30056357 2.60549045
0.01616790 -3.29138160 2.65824866
0.14126363 -3.30056405 2.59606528
0.14644273 -3.29138160 2.64863133
0.26834118 -3.30056357 2.58039737
0.27609238 -3.29138160 2.63264680
0.39449748 -3.30056405 2.55851674
0.40480199 -3.29138160 2.61032486
0.93438572 -3.29375815 2.53206539
0.80887860 -3.29375768 2.58046675
0.80238152 -3.28742290 2.56230640
0.92700428 -3.28742242 2.51424432
0.68114847 -3.29375815 2.62265635
0.67555124 -3.28742242 2.60419989
0.66847628 -3.28681612 2.58087277
0.79417014 -3.28681612 2.53935361
0.91767579 -3.28681612 2.49172044
0.55150557 -3.29375815 2.65854263
0.54681933 -3.28742290 2.63983297
0.54089612 -3.28681612 2.61618567
0.51942289 -3.30056357 2.53045464
0.53225762 -3.29138160 2.58169460
0.64282179 -3.30056405 2.49630046
0.65815568 -3.29138160 2.54684806
0.76439846 -3.30056357 2.45614219
0.78219295 -3.29138160 2.50587630
0.88385892 -3.30056405 2.41007042
0.90407115 -3.29138160 2.45887089
1.40821493 -3.29375815 2.27879786
1.29456115 -3.29375768 2.35075808
1.28464651 -3.28742290 2.33421350
1.39750063 -3.28742242 2.26276159
1.17751491 -3.29375815 2.41705847
1.16842318 -3.28742242 2.40004516
1.15693295 -3.28681612 2.37854314
1.27211607 -3.28681612 2.31330204
1.38395917 -3.28681612 2.24249220
1.05736053 -3.29375815 2.47754502
1.04911363 -3.28742290 2.46010637
1.03869152 -3.28681612 2.43806648
1.00090933 -3.30056357 2.35817432
1.02349174 -3.29138160 2.40592384
1.11527550 -3.30056405 2.30060101
1.14017427 -3.29138160 2.34718466
1.22668266 -3.30056357 2.23749638
