0.00000447 8.18365002 -9.79308128
-0.56570768 8.18365002 -9.77677059
0.00000448 8.16691685 -9.87772846
0.00000451 8.10562420 -9.95160484
-0.57484061 8.10562420 -9.93503189
-0.57058448 8.16691685 -9.86127853
-1.13710606 7.88141298 -9.79322815
-1.14721048 7.99165201 -9.88048363
-1.10350883 8.08913517 -9.50309944
-1.08002472 7.90794325 -9.30030155
-1.11980343 8.16752720 -9.64381218
-1.12954068 8.18365002 -9.72789764
-1.14777625 8.10562420 -9.88536930
-1.13927794 8.16691685 -9.81198311
-1.70093834 7.88141298 -9.71140671
-1.71605253 7.99165201 -9.79793644
-1.65068185 8.08913517 -9.42369556
-1.61555326 7.90794325 -9.22258854
-1.67505598 8.16752720 -9.56323528
-1.68962157 8.18365002 -9.64661980
-1.71689904 8.10562420 -9.80278015
-1.70418715 8.16691685 -9.73000526
-2.25911999 7.88141298 -9.59723854
-2.27919412 7.99165201 -9.68275261
-2.19237137 8.08913517 -9.31290150
-2.14571500 7.90794325 -9.11415100
-2.22474432 8.16752720 -9.45080376
-2.24408960 8.18365002 -9.53321075
-2.28031850 8.10562420 -9.68754101
-2.26343489 8.16691685 -9.61561871
-2.80979681 7.88141298 -9.45110226
-2.83476496 7.99165201 -9.53531837
-2.72677827 8.08913517 -9.17108154
-2.66874886 7.90794325 -8.97535038
-2.76704192 8.16752720 -9.30689240
-2.79110289 8.18365002 -9.38804722
-2.83616304 8.10562420 -9.54003334
-2.81516385 8.16691685 -9.46920395
-3.35114050 7.88141298 -9.27348232
-3.38091874 7.99165201 -9.35611916
-3.25212741 8.08913517 -8.99870968
-3.18291736 7.90794325 -8.80664635
-3.30014825 8.16752720 -9.13197327
-3.32884479 8.18365002 -9.21160889
-3.38258600 8.10562420 -9.36074638
-3.35754108 8.16691685 -9.29124451
-3.88135147 7.88141298 -9.06497002
-3.91584110 7.99165154 -9.14575386
-3.76667261 8.08913517 -8.79635811
-3.68651247 7.90794277 -8.60860062
-3.82229114 8.16752720 -8.92663383
-3.85552812 8.18365002 -9.00448322
-3.91777182 8.10562420 -9.15027618
-3.88876510 8.16691685 -9.08233261
-4.39866877 7.88141298 -8.82625675
-4.43775463 7.99165201 -8.90492058
-4.26870441 8.08913517 -8.56469917
-4.17786121 7.90794277 -8.38187122
-4.33173656 8.16752720 -8.69155407
-4.36940384 8.18365002 -8.76735973
-4.43994427 8.10562420 -8.90932560
-4.40707064 8.16691685 -8.84316635
-4.90137434 7.88141346 -8.55813694
-4.94492817 7.99165201 -8.63441753
-4.75655842 8.08913517 -8.30450153
-4.65533209 7.90794325 -8.12720966
-4.82679367 8.16752720 -8.42751217
-4.86876488 8.18365097 -8.50102234
-4.94736719 8.10562515 -8.63868904
-4.91073608 8.16691780 -8.57453156
-5.38779879 7.88141346 -8.26150036
-5.43567467 7.99165201 -8.33514500
-5.22861004 8.08913612 -8.01662827
-5.11733770 7.90794325 -7.84546471
-5.30581570 8.16752720 -8.13539124
-5.35195255 8.18365097 -8.20635986
-5.43835545 8.10562515 -8.33926964
-5.39808941 8.16691780 -8.27732944
-5.85632420 7.88141346 -7.93733311
-5.90836287 7.99165201 -8.00809669
-5.68329239 8.08913612 -7.70203924
-5.56234360 7.90794373 -7.53757048
-5.76721144 8.16752720 -7.81615639
-5.81736088 8.18365097 -7.88435078
-5.91127729 8.10562515 -8.01205921
-5.86751032 8.16691780 -7.95254374
-6.30539656 7.88141298 -7.58671045
-6.36142540 7.99165201 -7.65435886
-6.11909628 8.08913517 -7.36177635
-5.98887300 7.90794373 -7.20454931
-6.20945072 8.16752720 -7.47086954
-6.26344490 8.18365002 -7.53606033
-6.36456299 8.10562420 -7.65814734
-6.31743908 8.16691685 -7.60125065
-6.73352194 7.88141298 -7.21079969
-6.79335594 7.99165201 -7.27510834
-6.53457212 8.08913517 -6.99697208
-6.39550734 7.90794325 -6.84750795
-6.63106155 8.16752720 -7.10067797
-6.68872166 8.18365002 -7.16265011
-6.79670668 8.10562420 -7.27870893
-6.74638224 8.16691685 -7.22462273
-7.13928032 7.88141298 -6.81084776
-7.20271969 7.99165201 -6.87160158
-6.92834139 8.08913517 -6.60883617
-6.78089666 7.90794325 -6.46763229
-7.03064585 8.16752720 -6.70681190
-7.09178114 8.18365002 -6.76535845
-7.20627117 8.10562420 -6.87500334
-7.15291643 8.16691685 -6.82390642
-7.52132225 7.88141298 -6.38818312
-7.58815622 7.99165201 -6.44518137
-7.29909611 8.08913517 -6.19866037
-7.14376116 7.90794325 -6.06618547
-7.40687513 8.16752720 -6.29057789
-7.47128153 8.18365002 -6.34550524
-7.59189892 8.10562420 -6.44837284
-7.53568840 8.16691685 -6.40043402
-7.87837887 7.88141298 -5.94421101
-7.94838572 7.99165201 -5.99726391
-7.64560270 8.08913517 -5.76780653
-7.48289442 7.90794325 -5.64450026
-7.75849771 8.16752720 -5.85336113
-7.82596207 8.18365002 -5.90448761
-7.95230627 8.10562420 -6.00023460
-7.89342690 8.16691685 -5.95561361
-8.20926476 7.88141346 -5.48040438
-8.28221130 7.99165201 -5.52933598
-7.96671200 8.08913612 -5.31770372
-7.79716969 7.90794373 -5.20397615
-8.08434868 8.16752720 -5.39661217
-8.15464687 8.18365097 -5.44376659
-8.28629494 8.10562515 -5.53207636
-8.22494507 8.16691780 -5.49092102
-8.51287842 7.88141298 -4.99830532
-8.58852291 7.99165201 -5.04295397
-8.26135635 8.08913612 -4.84984875
-8.08554459 7.90794373 -4.74607801
-8.38334274 8.16752720 -4.92184925
-8.45624065 8.18365097 -4.96487522
-8.59275913 8.10562420 -5.04545355
-8.52913857 8.16691685 -5.00790167
-8.78821564 7.88141298 -4.49951553
-8.86630726 7.99165201 -4.53973103
-8.52855778 8.08913517 -4.36579561
-8.34705734 7.90794373 -4.27232695
-8.65449047 8.16752720 -4.43064928
-8.72974586 8.18365002 -4.46940422
-8.87067890 8.10562420 -4.54198360
-8.80500031 8.16691685 -4.50815964
-9.03435802 7.88141298 -3.98569250
-9.11463737 7.99165201 -4.02134275
-8.76742649 8.08913517 -3.86715460
-8.58084393 7.90794325 -3.78429699
-8.89688778 8.16752720 -3.92464447
-8.97424984 8.18365002 -3.95899963
-9.11913109 8.10562420 -4.02333879
-9.05161285 8.16691685 -3.99335480
-9.25049019 7.88141298 -3.45853996
-9.33269024 7.99165201 -3.48950577
-8.97717476 8.08913517 -3.35557747
-8.78612804 7.90794325 -3.28360724
-9.10973072 8.16752720 -3.40551353
-9.18894482 8.18365002 -3.43535471
-9.33729267 8.10562420 -3.49123979
-9.26815987 8.16691685 -3.46519566
-9.43589115 7.88141298 -2.91981411
-9.51973820 7.99165201 -2.94599271
-9.15709782 8.08913517 -2.83276868
-8.96222115 7.90794325 -2.77192426
-9.29231071 8.16752720 -2.87498546
-9.37311268 8.18365002 -2.90021324
-9.52443218 8.10562420 -2.94745874
-9.45391464 8.16691685 -2.92544103
-9.58994770 7.88141298 -2.37129879
-9.67516327 7.99165201 -2.39260316
-9.30660152 8.08913517 -2.30045962
-9.10854435 7.90794325 -2.25094342
-9.44402313 8.16752720 -2.33481598
-9.52614403 8.18365002 -2.35534692
-9.67993450 8.10562420 -2.39379621
-9.60826492 8.16691685 -2.37587810
-9.71214771 7.88141298 -1.81482053
-9.79844952 7.99165201 -1.83118021
-9.42519093 8.08913517 -1.76042354
-9.22461033 7.90794325 -1.72240007
-9.56436443 8.16752720 -1.78680587
-9.64753151 8.18365002 -1.80257154
-9.80328178 8.10562420 -1.83209634
-9.73069859 8.16691685 -1.81833684
-9.80208588 7.88141298 -1.25222611
-9.88918686 7.99165201 -1.26358688
-9.51247215 8.08913517 -1.21445155
-9.31003284 7.90794325 -1.18804729
-9.65293407 8.16752720 -1.23277187
-9.73687077 8.18365002 -1.24371982
-9.89406395 8.10562420 -1.26422274
-9.82080841 8.16691685 -1.25466764
-9.85946178 7.88141298 -0.68538433
-9.94707203 7.99165201 -0.69170833
-9.56815243 8.08913517 -0.66435754
-9.36452866 7.90794325 -0.64966059
-9.70943642 8.16752720 -0.67455542
-9.79386425 8.18365002 -0.68064952
-9.95197773 8.10562420 -0.69206214
-9.87829208 8.16691685 -0.68674368
-9.88408566 7.88141298 -0.11617997
-9.97191525 7.99165201 -0.11744532
-9.59204769 8.08913517 -0.11197107
-9.38791656 7.90794325 -0.10902898
-9.73368549 8.16752720 -0.11401250
-9.81832504 8.18365002 -0.11523210
-9.97683334 8.10562420 -0.11751649
-9.90296364 8.16691685 -0.11645167
-9.87587547 7.88141298 0.45349908
-9.96363258 7.99165201 0.45729512
-9.58408165 8.08913517 0.44087636
-9.38011932 7.90794325 0.43205231
-9.72560120 8.16752720 0.44699836
-9.81016922 8.18365002 0.45065692
-9.96854591 8.10562420 0.45750785
-9.89473915 8.16691685 0.45431548
-9.83485985 7.88141298 1.02175868
-9.92225075 7.99165201 1.03060436
-9.54427719 8.08913517 0.99234569
-9.34116077 7.90794325 0.97178620
-9.68520737 8.16752720 1.00661063
-9.76942539 8.18365002 1.01513517
-9.92714405 8.10562420 1.03109944
-9.85364342 8.16691685 1.02365959
-9.76117134 7.88141298 1.58671200
-9.84790897 7.99165201 1.60057831
-9.47276592 8.08913517 1.54060709
-9.27117252 7.90794325 1.50838017
-9.61264133 8.16752720 1.56296754
-9.69622898 8.18365002 1.57632995
-9.85276699 8.10562420 1.60135496
-9.77981567 8.16691685 1.58969235
-9.65505791 7.88141298 2.14648104
-9.74085236 7.99165201 2.16532135
-9.36978817 8.08913517 2.08383632
-9.17038631 7.90794325 2.04004884
-9.50814342 8.16752720 2.11421871
-9.59082127 8.18365002 2.13237453
-9.74565601 8.10562420 2.16637611
-9.67349911 8.16691685 2.15053010
-9.51687145 7.88141298 2.69920516
-9.60143757 7.99165201 2.72295666
-9.23568535 8.08913517 2.62023067
-9.03913689 7.90794325 2.56502700
-9.37205982 8.16752720 2.65853357
-9.45355511 8.18365002 2.68142200
-9.60617447 8.10562420 2.72428679
-9.53504944 8.16691685 2.70431042
-9.34707260 7.88141298 3.24305201
-9.43013096 7.99165201 3.27163649
-9.07090282 8.08913517 3.14800906
-8.87786007 7.90794325 3.08157325
-9.20484352 8.16752720 3.19410396
-9.28488445 8.18365002 3.22165012
-9.43478107 8.10562420 3.27323723
-9.36492443 8.16691685 3.24919581
-9.14622021 7.88141298 3.77621436
-9.22749329 7.99165201 3.80953574
-8.87598515 8.08913517 3.66541743
-8.68709183 7.90794325 3.58797097
-9.00704765 8.16752720 3.71915293
-9.08536816 8.18365002 3.75126481
-9.23204422 8.10562420 3.81140161
-9.16368961 8.16691685 3.78337646
-8.91498852 7.88141298 4.29691696
-8.99420643 7.99165201 4.33486652
-8.65158463 8.08913517 4.17073584
-8.46746731 7.90794325 4.08253670
-8.77933407 8.16752720 4.23193312
-8.85567474 8.18365002 4.26850367
-8.99864292 8.10562420 4.33699131
-8.93201542 8.16691685 4.30507421
-8.65414143 7.88141298 4.80343390
-8.73104095 7.99165201 4.84588385
-8.39844322 8.08913517 4.66228771
-8.21971416 7.90794373 4.56362629
-8.52245617 8.16752720 4.73074293
-8.59656334 8.18365002 4.77165079
-8.73534775 8.10562420 4.84826040
-8.67066956 8.16691685 4.81255817
-8.36454582 7.88141346 5.29408169
-8.43887234 7.99165201 5.34089184
-8.11740494 8.08913612 5.13843822
-7.94465590 7.90794373 5.02964401
-8.23726749 8.16752720 5.21392488
-8.30889416 8.18365097 5.25903463
-8.44303417 8.10562420 5.34351206
-8.38052177 8.16691780 5.30414438
-8.04716301 7.88141298 5.76723003
-8.11866856 7.99165201 5.81824398
-7.80940008 8.08913517 5.59760618
-7.64320517 7.90794325 5.47904110
-7.92471361 8.16752720 5.67987347
-7.99362326 8.18365002 5.72903490
-8.12267303 8.10562420 5.82110071
-8.06253338 8.16691685 5.77819633
-7.70304966 7.88141298 6.22130871
-7.77149725 7.99165201 6.27635670
-7.47545385 8.08913517 6.03826857
-7.31636524 7.90794325 5.91032457
-7.58583498 8.16752720 6.12704229
-7.65179825 8.18365002 6.18009138
-7.77533007 8.10562420 6.27943945
-7.71776104 8.16691685 6.23314190
-7.33334637 7.88141298 6.65480757
-7.39850950 7.99165201 6.71370792
-7.11667395 8.08913517 6.45895863
-6.96522093 7.90794325 6.32206249
-7.22175837 8.16752720 6.55394506
-7.28455544 8.18365002 6.61070538
-7.40215826 8.10562420 6.71700621
-7.34735250 8.16691685 6.66746712
-6.93928289 7.88141298 7.06628561
-7.00094461 7.99165201 7.12884235
-6.73425341 8.08913517 6.85828114
-6.59093904 7.90794325 6.71288633
-6.83369160 8.16752720 6.95916176
-6.89311409 8.18365002 7.01944637
-7.00439739 8.10562420 7.13234615
-6.95253706 8.16691685 7.07973146
-6.52216578 7.88141298 7.45438051
-6.58012152 7.99165201 7.52038622
-6.32946062 8.08913517 7.23490953
-6.19476128 7.90794325 7.08149958
-6.42292213 8.16752720 7.34135008
-6.47877216 8.18365002 7.40495920
-6.58336639 8.10562420 7.52408218
-6.53462315 8.16691685 7.46856880
-6.08338499 7.88141298 7.81779909
-6.13744116 7.99165201 7.88703299
-5.90364361 8.08913612 7.58758879
-5.77800608 7.90794373 7.42667294
-5.99081707 8.16752720 7.69923782
-6.04291058 8.18365097 7.76595974
-6.14046812 8.10562420 7.89091015
-6.09500360 8.16691685 7.83268023
-5.62439680 7.88141346 8.15533161
-5.67437506 7.99165201 8.22756577
-5.45821714 8.08913612 7.91514826
-5.34205914 7.90794373 7.74726152
-5.53881359 8.16752720 8.03163528
-5.58697701 8.18365097 8.10124588
-5.67717314 8.10562515 8.23161030
-5.63513994 8.16691780 8.17085743
-5.14672375 7.88141346 8.46586132
-5.19245768 7.99165201 8.54085541
-4.99465799 8.08913612 8.21650505
-4.88836432 7.90794325 8.04220390
-5.06840897 8.16752720 8.33744049
-5.11248112 8.18365097 8.40971184
-5.19501829 8.10562515 8.54505539
-5.15655375 8.16691780 8.48198223
-4.65195179 7.88141298 8.74835968
-4.69328833 7.99165201 8.82586479
-4.51450396 8.08913517 8.49065590
-4.41842890 7.90794277 8.31052113
-4.58116579 8.16752720 8.61564159
-4.62100172 8.18365002 8.69033051
-4.69560337 8.10562420 8.83020306
-4.66083670 8.16691685 8.76501942
-4.14172840 7.88141298 9.00188160
-4.17853165 7.99165154 9.08163834
-4.01935673 8.08913517 8.73668766
-3.93381858 7.90794277 8.55131721
-4.07870626 8.16752720 8.86530399
-4.11417246 8.18365002 8.94216442
-4.18059301 8.10562420 9.08610535
-4.14963865 8.16691685 9.01902485
-3.61774611 7.88141298 9.22558689
-3.64989328 7.99165154 9.30733204
-3.51085544 8.08913517 8.95378208
-3.43613982 7.90794325 8.76379395
-3.56269717 8.16752720 9.08560562
-3.59367657 8.18365002 9.16438198
-3.65169358 8.10562420 9.31190872
-3.62465644 8.16691685 9.24315834
-3.08174896 7.88141298 9.41873264
-3.10913277 7.99165201 9.50219154
-2.99069500 8.08913517 9.14122200
-2.92704844 7.90794325 8.94724274
-3.03485537 8.16752720 9.27581120
-3.06124520 8.18365002 9.35624218
-3.11066628 8.10562420 9.50686550
-3.08763504 8.16691685 9.43667126
-2.53550982 7.88141298 9.58067703
-2.55804014 7.99165201 9.66557693
-2.46059489 8.08913517 9.29838085
-2.40823030 7.90794325 9.10105705
-2.49692845 8.16752720 9.43529129
-2.51864052 8.18365002 9.51710892
-2.55930161 8.10562420 9.67033005
-2.54035258 8.16691685 9.59892559
-1.98084998 7.88141298 9.71088314
-1.99845183 7.99165201 9.79694080
-1.92232323 8.08913517 9.42474079
-1.88141358 7.90794325 9.22472763
-1.95070839 8.16752720 9.56351852
-1.96767080 8.18365002 9.64645100
-1.99943709 8.10562420 9.80175972
-1.98463333 8.16691685 9.72938156
-1.41961014 7.88141298 9.80891800
-1.43222487 7.99165154 9.89584732
-1.37766600 8.08913517 9.51988029
-1.34834719 7.90794277 9.31784248
-1.39800870 8.16752720 9.66006184
-1.41016519 8.18365002 9.74383354
-1.43293118 8.10562420 9.90071487
-1.42232156 8.16691685 9.82760429
-0.85365456 7.88141298 9.87445736
-0.86124015 7.99165201 9.96196747
-0.82843208 8.08913517 9.58348179
-0.81080186 7.90794325 9.38008976
-0.84066486 8.16752720 9.72460365
-0.84797496 8.18365002 9.80893517
-0.86166489 8.10562420 9.96686745
-0.85528499 8.16691685 9.89326668
-0.28486311 7.88141298 9.90728092
-0.28739446 7.99165201 9.99508286
-0.27644628 8.08913517 9.61533546
-0.27056304 7.90794325 9.41126728
-0.28052837 8.16752720 9.75692654
-0.28296775 8.18365002 9.84154034
-0.28753617 8.10562420 10.00000000
-0.28540716 8.16691685 9.92615318
0.28487465 7.88141298 9.90728092
0.28740594 7.99165201 9.99508286
0.27645788 8.08913517 9.61533546
0.27057457 7.90794325 9.41126728
0.28054002 8.16752720 9.75692654
0.28297940 8.18365002 9.84154034
0.28754771 8.10562420 10.00000000
0.28541881 8.16691685 9.92615318
0.85366607 7.88141298 9.87445736
0.86125153 7.99165201 9.96196747
0.82844365 8.08913517 9.58348179
0.81081343 7.90794325 9.38008976
0.84067655 8.16752720 9.72460365
0.84798652 8.18365002 9.80893517
0.86167639 8.10562420 9.96686745
0.85529643 8.16691685 9.89326668
1.41962409 7.88141346 9.80891705
1.43223870 7.99165201 9.89584637
1.37767982 8.08913612 9.51987743
1.34836113 7.90794373 9.31784058
1.39802265 8.16752720 9.66005993
1.41017914 8.18365097 9.74383068
1.43294501 8.10562515 9.90071297
1.42233562 8.16691780 9.82760239
1.98086178 7.88141298 9.71088314
1.99846351 7.99165201 9.79694080
1.92233503 8.08913517 9.42474079
1.88142526 7.90794325 9.22472763
1.95072031 8.16752720 9.56351852
1.96768260 8.18365002 9.64645004
1.99944913 8.10562420 9.80175877
1.98464513 8.16691685 9.72937965
2.53552127 7.88141298 9.58067703
2.55805135 7.99165201 9.66557503
2.46060634 8.08913517 9.29837990
2.40824127 7.90794325 9.10105705
2.49693966 8.16752720 9.43529129
2.51865196 8.18365002 9.51710892
2.55931330 8.10562420 9.67033005
2.54036427 8.16691685 9.59892559
3.08176041 7.88141298 9.41872978
3.10914469 7.99165201 9.50219059
2.99070644 8.08913517 9.14122009
2.92706060 7.90794325 8.94724083
3.03486729 8.16752720 9.27581024
3.06125689 8.18365002 9.35624027
3.11067820 8.10562420 9.50686359
3.08764672 8.16691685 9.43667030
3.61775756 7.88141346 9.22558594
3.64990497 7.99165201 9.30732918
3.51086688 8.08913517 8.95378017
3.43615079 7.90794325 8.76379108
3.56270862 8.16752720 9.08560371
3.59368825 8.18365002 9.16438007
3.65170503 8.10562515 9.31190681
3.62466764 8.16691780 9.24315548
4.14174080 7.88141346 9.00187683
4.17854404 7.99165201 9.08163452
4.01936865 8.08913612 8.73668194
3.93383121 7.90794373 8.55131340
4.07871914 8.16752720 8.86530113
4.11418533 8.18365097 8.94216156
4.18060493 8.10562515 9.08610058
4.14965153 8.16691780 9.01902103
4.65196276 7.88141298 8.74835682
4.69329977 7.99165201 8.82586098
4.51451540 8.08913612 8.49065208
4.41844082 7.90794373 8.31052017
4.58117676 8.16752720 8.61563778
4.62101269 8.18365097 8.69032764
4.69561481 8.10562420 8.83020115
4.66084814 8.16691685 8.76501656
5.14673281 7.88141298 8.46586132
5.19246626 7.99165154 8.54085636
4.99466658 8.08913517 8.21650505
4.88837433 7.90794325 8.04220581
5.06841803 8.16752720 8.33744240
5.11249065 8.18365002 8.40971279
5.19502735 8.10562420 8.54505634
5.15656328 8.16691685 8.48198223
5.62440825 7.88141298 8.15532970
5.67438650 7.99165154 8.22756386
5.45822906 8.08913517 7.91514826
5.34207010 7.90794277 7.74726152
5.53882456 8.16752720 8.03163528
5.58698797 8.18365002 8.10124588
5.67718458 8.10562420 8.23160839
5.63515043 8.16691685 8.17085743
6.08339548 7.88141298 7.81779718
6.13745213 7.99165201 7.88703108
5.90365553 8.08913517 7.58758736
5.77801752 7.90794277 7.42667294
5.99082851 8.16752720 7.69923639
6.04292154 8.18365002 7.76595831
6.14047909 8.10562420 7.89090872
6.09501505 8.16691685 7.83267832
6.52217770 7.88141298 7.45437717
6.58013344 7.99165201 7.52038336
6.32947254 8.08913517 7.23490667
6.19477320 7.90794325 7.08149624
6.42293406 8.16752720 7.34134722
6.47878456 8.18365002 7.40495586
6.58337879 8.10562420 7.52407885
6.53463554 8.16691685 7.46856594
6.93929291 7.88141298 7.06628561
7.00095463 7.99165201 7.12884235
6.73426390 8.08913517 6.85828114
6.59094906 7.90794325 6.71288490
6.83370113 8.16752720 6.95916033
6.89312410 8.18365002 7.01944494
7.00440836 8.10562420 7.13234472
6.95254707 8.16691685 7.07973003
7.33335495 7.88141298 6.65480900
7.39851856 7.99165201 6.71370935
7.11668253 8.08913517 6.45896053
6.96522999 7.90794325 6.32206392
7.22176790 8.16752720 6.55394650
7.28456497 8.18365002 6.61070728
7.40216780 8.10562420 6.71700764
7.34736204 8.16691685 6.66746855
7.70305920 7.88141298 6.22130680
7.77150774 7.99165201 6.27635527
7.47546387 8.08913517 6.03826714
7.31637621 7.90794325 5.91032457
7.58584595 8.16752720 6.12704086
7.65180874 8.18365002 6.18008995
7.77534103 8.10562420 6.27943802
7.71777201 8.16691685 6.23314047
8.04717350 7.88141298 5.76722956
8.11868000 7.99165201 5.81824398
7.80941010 8.08913517 5.59760618
7.64321518 7.90794325 5.47904062
7.92472458 8.16752720 5.67987299
7.99363375 8.18365002 5.72903442
8.12268448 8.10562420 5.82110071
8.06254292 8.16691685 5.77819586
8.36455536 7.88141298 5.29407930
8.43888187 7.99165201 5.34088945
8.11741447 8.08913517 5.13843632
7.94466543 7.90794277 5.02964258
8.23727703 8.16752720 5.21392250
8.30890560 8.18365002 5.25903225
8.44304466 8.10562420 5.34350967
8.38053226 8.16691685 5.30414152
8.65415192 7.88141298 4.80343246
8.73105145 7.99165201 4.84588242
8.39845467 8.08913517 4.66228580
8.21972370 7.90794277 4.56362486
8.52246666 8.16752720 4.73074150
8.59657288 8.18365002 4.77164888
8.73535728 8.10562420 4.84825897
8.67068005 8.16691685 4.81255627
8.91499996 7.88141298 4.29691553
8.99421787 7.99165201 4.33486509
8.65159607 8.08913517 4.17073441
8.46747875 7.90794325 4.08253479
8.77934551 8.16752720 4.23193169
8.85568523 8.18365002 4.26850224
8.99865341 8.10562420 4.33698988
8.93202686 8.16691685 4.30507231
9.14623260 7.88141298 3.77621102
9.22750664 7.99165201 3.80953312
8.87599659 8.08913517 3.66541529
8.68710423 7.90794325 3.58796883
9.00706100 8.16752720 3.71915126
9.08538151 8.18365002 3.75126266
9.23205662 8.10562420 3.81139898
9.16370201 8.16691685 3.78337431
9.34708214 7.88141298 3.24305201
9.43014050 7.99165201 3.27163577
9.07091331 8.08913517 3.14800811
8.87787151 7.90794325 3.08157325
9.20485401 8.16752720 3.19410324
9.28489399 8.18365002 3.22164965
9.43479061 8.10562420 3.27323651
9.36493492 8.16691685 3.24919581
9.51688290 7.88141298 2.69920516
9.60144901 7.99165201 2.72295666
9.23569584 8.08913517 2.62022972
9.03914738 7.90794325 2.56502700
9.37206936 8.16752720 2.65853262
9.45356369 8.18365002 2.68142176
9.60618496 8.10562420 2.72428608
9.53505898 8.16691685 2.70431042
9.65506840 7.88141298 2.14647841
9.74086285 7.99165201 2.16531873
9.36979866 8.08913517 2.08383393
9.17039585 7.90794325 2.04004622
9.50815392 8.16752720 2.11421633
9.59083080 8.18365002 2.13237214
9.74566746 8.10562420 2.16637397
9.67350960 8.16691685 2.15052772
9.76118279 7.88141298 1.58670950
9.84791946 7.99165201 1.60057592
9.47277641 8.08913517 1.54060495
9.27118301 7.90794325 1.50837767
9.61265182 8.16752720 1.56296515
9.69623852 8.18365002 1.57632744
9.85277653 8.10562420 1.60135174
9.77982616 8.16691685 1.58968985
9.83486938 7.88141298 1.02175796
9.92226124 7.99165201 1.03060365
9.54428768 8.08913517 0.99234492
9.34117126 7.90794325 0.97178537
9.68521690 8.16752720 1.00660992
9.76943588 8.18365002 1.01513445
9.92715549 8.10562420 1.03109860
9.85365295 8.16691685 1.02365887
9.87588596 7.88141298 0.45349827
9.96364212 7.99165201 0.45729512
9.58409119 8.08913517 0.44087559
9.38012791 7.90794325 0.43205231
9.72561073 8.16752720 0.44699758
9.81017971 8.18365002 0.45065612
9.96855640 8.10562420 0.45750704
9.89474869 8.16691685 0.45431465
9.88409710 7.88141298 -0.11618076
9.97192669 7.99165201 -0.11744611
9.59206009 8.08913517 -0.11197186
9.38792706 7.90794325 -0.10902976
9.73369694 8.16752720 -0.11401250
9.81833553 8.18365002 -0.11523248
9.97684383 8.10562420 -0.11751727
9.90297508 8.16691685 -0.11645246
9.85947323 7.88141298 -0.68538588
9.94708443 7.99165201 -0.69170946
9.56816292 8.08913517 -0.66435915
9.36454010 7.90794325 -0.64966136
9.70944691 8.16752720 -0.67455691
9.79387569 8.18365002 -0.68065113
9.95198822 8.10562420 -0.69206375
9.87830448 8.16691685 -0.68674523
9.80209637 7.88141298 -1.25223160
9.88919735 7.99165201 -1.26359236
9.51248264 8.08913517 -1.21445680
9.31004333 7.90794325 -1.18805242
9.65294456 8.16752720 -1.23277760
9.73688030 8.18365002 -1.24372542
9.89407444 8.10562420 -1.26422846
9.82081795 8.16691685 -1.25467360
9.71215916 7.88141298 -1.81482136
9.79846191 7.99165201 -1.83118105
9.42520237 8.08913517 -1.76042426
9.22462177 7.90794325 -1.72240090
9.56437588 8.16752720 -1.78680658
9.64754295 8.18365002 -1.80257225
9.80329418 8.10562420 -1.83209705
9.73071003 8.16691685 -1.81833804
9.58995724 7.88141298 -2.37130427
9.67517376 7.99165201 -2.39260912
9.30661201 8.08913517 -2.30046511
9.10855389 7.90794325 -2.25094914
9.44403362 8.16752720 -2.33482194
9.52615452 8.18365002 -2.35535288
9.67994595 8.10562420 -2.39380193
9.60827446 8.16691685 -2.37588382
9.43590260 7.88141298 -2.91981339
9.51974964 7.99165201 -2.94599223
9.15710735 8.08913517 -2.83276844
8.96223164 7.90794325 -2.77192354
9.29232216 8.16752720 -2.87498498
9.37312317 8.18365002 -2.90021276
9.52444363 8.10562420 -2.94745827
9.45392418 8.16691685 -2.92544079
9.25049877 7.88141298 -3.45854092
9.33269882 7.99165201 -3.48950648
8.97718239 8.08913517 -3.35557818
8.78613567 7.90794325 -3.28360796
9.10973930 8.16752720 -3.40551424
9.18895340 8.18365002 -3.43535542
9.33730030 8.10562420 -3.49124050
9.26816750 8.16691685 -3.46519637
9.03436661 7.88141298 -3.98569632
9.11464500 7.99165201 -4.02134657
8.76743507 8.08913517 -3.86715794
8.58085251 7.90794325 -3.78430080
8.89689541 8.16752720 -3.92464781
8.97425842 8.18365002 -3.95900345
9.11914062 8.10562420 -4.02334261
9.05162144 8.16691685 -3.99335861
8.78822517 7.88141298 -4.49951649
8.86631584 7.99165201 -4.53973198
8.52856731 8.08913517 -4.36579657
8.34706879 7.90794277 -4.27232742
8.65450096 8.16752720 -4.43064976
8.72975636 8.18365002 -4.46940470
8.87069035 8.10562420 -4.54198408
8.80501175 8.16691685 -4.50816011
8.51288700 7.88141298 -4.99831057
8.58853245 7.99165201 -5.04295778
8.26136494 8.08913517 -4.84985352
8.08555031 7.90794277 -4.74608278
8.38335133 8.16752720 -4.92185402
8.45625019 8.18365002 -4.96488047
8.59276867 8.10562420 -5.04545784
8.52914715 8.16691685 -5.00790596
8.20927143 7.88141298 -5.48040819
8.28221893 7.99165154 -5.52933979
7.96671867 8.08913517 -5.31770754
7.79717636 7.90794277 -5.20398045
8.08435535 8.16752720 -5.39661598
8.15465260 8.18365002 -5.44377089
8.28630352 8.10562420 -5.53208065
8.22494984 8.16691685 -5.49092579
7.87838840 7.88141298 -5.94421005
7.94839478 7.99165201 -5.99726295
7.64561176 8.08913517 -5.76780510
7.48290348 7.90794325 -5.64449930
7.75850725 8.16752720 -5.85336018
7.82597160 8.18365002 -5.90448666
7.95231533 8.10562420 -6.00023365
7.89343596 8.16691685 -5.95561266
7.52132845 7.88141298 -6.38818550
7.58816242 7.99165201 -6.44518375
7.29910183 8.08913517 -6.19866371
7.14376736 7.90794325 -6.06618834
7.40688038 8.16752720 -6.29058075
7.47128725 8.18365002 -6.34550905
7.59190464 8.10562420 -6.44837570
7.53569460 8.16691685 -6.40043688
7.13929033 7.88141298 -6.81084681
7.20272875 7.99165201 -6.87160063
6.92835140 8.08913517 -6.60883617
6.78090668 7.90794325 -6.46763229
7.03065586 8.16752720 -6.70681190
7.09179115 8.18365002 -6.76535845
7.20628166 8.10562420 -6.87500334
7.15292645 8.16691685 -6.82390547
6.73352861 7.88141298 -7.21080208
6.79336262 7.99165201 -7.27511024
6.53457832 8.08913517 -6.99697447
6.39551401 7.90794325 -6.84751034
6.63106823 8.16752720 -7.10068035
6.68872881 8.18365002 -7.16265249
6.79671240 8.10562420 -7.27871180
6.74638939 8.16691685 -7.22462463
6.30540276 7.88141298 -7.58671379
6.36143208 7.99165201 -7.65436220
6.11910295 8.08913517 -7.36177874
5.98887968 7.90794277 -7.20455122
6.20945692 8.16752720 -7.47087193
6.26345158 8.18365002 -7.53606319
6.36457014 8.10562420 -7.65815020
6.31744623 8.16691685 -7.60125446
5.85633516 7.88141298 -7.93733215
5.90837383 7.99165154 -8.00809574
5.68330240 8.08913517 -7.70203876
5.56235409 7.90794277 -7.53756952
5.76722240 8.16752720 -7.81615591
5.81737137 8.18365002 -7.88434887
5.91128778 8.10562420 -8.01205921
5.86752081 8.16691685 -7.95254230
5.38780451 7.88141298 -8.26150227
5.43567991 7.99165154 -8.33514690
5.22861528 8.08913517 -8.01663113
5.11734390 7.90794325 -7.84546709
5.30582094 8.16752720 -8.13539314
5.35195780 8.18365002 -8.20636272
5.43836021 8.10562420 -8.33927155
5.39809513 8.16691685 -8.27733135
4.90138054 7.88141298 -8.55813885
4.94493389 7.99165154 -8.63441944
4.75656366 8.08913517 -8.30450249
4.65533781 7.90794325 -8.12721252
4.82679939 8.16752720 -8.42751598
4.86877060 8.18365002 -8.50102329
4.94737291 8.10562420 -8.63869095
4.91074276 8.16691685 -8.57453442
4.39867592 7.88141346 -8.82625771
4.43776178 7.99165201 -8.90492058
4.26871157 8.08913612 -8.56470013
4.17786789 7.90794373 -8.38187218
4.33174324 8.16752720 -8.69155502
4.36941051 8.18365097 -8.76736069
4.43995047 8.10562420 -8.90932560
4.40707731 8.16691780 -8.84316635
3.88135767 7.88141346 -9.06497097
3.91584730 7.99165201 -9.14575577
3.76667881 8.08913612 -8.79635906
3.68651843 7.90794373 -8.60860157
3.82229733 8.16752720 -8.92663574
3.85553408 8.18365097 -9.00448418
3.91777849 8.10562515 -9.15028000
3.88877082 8.16691780 -9.08233452
3.35114670 7.88141298 -9.27348328
3.38092494 7.99165201 -9.35612011
3.25213361 8.08913517 -8.99871159
3.18292379 7.90794325 -8.80664825
3.30015421 8.16752720 -9.13197422
3.32885098 8.18365002 -9.21160984
3.38259196 8.10562420 -9.36074829
3.35754728 8.16691685 -9.29124641
2.80980372 7.88141298 -9.45110226
2.83477163 7.99165201 -9.53531742
2.72678494 8.08913517 -9.17108154
2.66875505 7.90794325 -8.97535038
2.76704860 8.16752720 -9.30689144
2.79110956 8.18365002 -9.38804626
2.83616948 8.10562420 -9.54003239
2.81517029 8.16691685 -9.46920395
2.25912666 7.88141298 -9.59723949
2.27920127 7.99165201 -9.68275356
2.19237828 8.08913517 -9.31290150
2.14572167 7.90794325 -9.11415100
2.22475123 8.16752720 -9.45080376
2.24409628 8.18365002 -9.53321171
2.28032517 8.10562420 -9.68754101
2.26344156 8.16691685 -9.61561966
1.70094514 7.88141298 -9.71140766
1.71605968 7.99165201 -9.79793739
1.65068889 8.08913517 -9.42369652
1.61555994 7.90794325 -9.22258949
1.67506301 8.16752720 -9.56323528
1.68962836 8.18365002 -9.64662170
1.71690595 8.10562420 -9.80278111
1.70419395 8.16691685 -9.73000717
1.13711333 7.88141298 -9.79322815
1.14721727 7.99165201 -9.88048363
1.10351586 8.08913517 -9.50309944
1.08003175 7.90794325 -9.30030155
1.11981058 8.16752720 -9.64381123
1.12954783 8.18365002 -9.72789764
1.14778316 8.10562420 -9.88536930
1.13928509 8.16691685 -9.81198311
0.56950396 7.88141298 -9.84242916
0.57456452 7.99165201 -9.93012238
0.55267745 8.08913517 -9.55084705
0.54091573 7.90794325 -9.34703350
0.56083810 8.16752720 -9.69226360
0.56571490 8.18365002 -9.77677059
0.57484782 8.10562420 -9.93503189
0.57059163 8.16691685 -9.86127853
-0.00194403 1.88055134 0.04874346
0.00000443 1.87333143 -3.00320530
-0.17452960 1.87333143 -2.99817324
0.00000476 1.86808622 -3.92807412
-0.22781278 1.86808622 -3.92150569
0.00000480 1.87094522 -4.63358307
-0.26845849 1.87094522 -4.62584305
0.00000485 1.89121711 -4.97065926
-0.28787810 1.89121711 -4.96235895
0.00000489 1.93835390 -5.32703543
-0.30840963 1.93835390 -5.31814384
0.00000492 2.04562283 -5.80001688
-0.33565897 2.04562283 -5.79033852
0.00000494 2.20428061 -6.17711926
-0.35738462 2.20428061 -6.16681576
0.00000493 2.46497869 -6.51116419
-0.37662956 2.46497869 -6.50030565
0.00000492 2.72952795 -6.78929424
-0.39265323 2.72952795 -6.77797365
0.00000487 3.13166475 -7.03702497
-0.40692553 3.13166475 -7.02529335
0.00000482 3.64347410 -7.25102377
-0.41925448 3.64347410 -7.23893642
0.00000476 4.08726311 -7.41824532
-0.42888847 4.08726311 -7.40588045
0.00000470 4.59397745 -7.57904720
-0.43815267 4.59397745 -7.56641483
0.00000465 5.05095100 -7.71648359
-0.44607067 5.05095100 -7.70362282
0.00000460 5.45308638 -7.84599161
-0.45353192 5.45308638 -7.83291578
0.00000455 5.92562675 -8.04069710
-0.46474931 5.92562675 -8.02729797
0.00000452 6.33783436 -8.24707031
-0.47663900 6.33783436 -8.23332787
0.00000449 6.67666960 -8.42975330
-0.48716378 6.67666960 -8.41570759
0.00000447 7.06163120 -8.65026379
-0.49986774 7.06163120 -8.63585186
0.00000445 7.38799477 -8.90604496
-0.51460379 7.38799477 -8.89120770
0.00000445 7.64922619 -9.13283157
-0.52766943 7.64922619 -9.11761761
-0.34848383 1.87333167 -2.98309517
-0.45487359 1.86808646 -3.90182400
-0.53602999 1.87094545 -4.60264969
-0.57480472 1.89121711 -4.93748856
-0.61579961 1.93835390 -5.29149961
-0.67020780 2.04562283 -5.76134014
-0.71358693 2.20428061 -6.13594007
-0.75201297 2.46497869 -6.46776676
-0.78400701 2.72952795 -6.74405098
-0.81250411 3.13166475 -6.99013710
-0.83712089 3.64347410 -7.20271492
-0.85635698 4.08726311 -7.36882734
-0.87485445 4.59397745 -7.52856112
-0.89066416 5.05095100 -7.66508436
-0.90556192 5.45308638 -7.79373312
-0.92795938 5.92562675 -7.98714638
-0.95169908 6.33783436 -8.19214916
-0.97271365 6.67666960 -8.37362003
-0.99807948 7.06163120 -8.59266472
-1.02750254 7.38799477 -8.84674931
-1.05359054 7.64922619 -9.07203007
-0.52128053 1.87333143 -2.95801926
-0.68042338 1.86808622 -3.86909366
-0.80182093 1.87094522 -4.56407881
-0.85982192 1.89121711 -4.89612770
-0.92114395 1.93835390 -5.24718904
-1.00253034 2.04562283 -5.71311522
-1.06741881 2.20428061 -6.08459330
-1.12489820 2.46497869 -6.41365576
-1.17275643 2.72952795 -6.68763781
-1.21538377 3.13166475 -6.93167353
-1.25220680 3.64347410 -7.14247990
-1.28098094 4.08726311 -7.30720758
-1.30865026 4.59397745 -7.46561050
-1.33229911 5.05095100 -7.60099697
-1.35458374 5.45308638 -7.72857332
-1.38808692 5.92562675 -7.92037439
-1.42359793 6.33783436 -8.12366962
-1.45503235 6.67666960 -8.30362797
-1.49297583 7.06163120 -8.52084827
-1.53698826 7.38799477 -8.77281380
-1.57601178 7.64922619 -8.99621868
-0.69234544 1.87333119 -2.92303038
-0.90371269 1.86808598 -3.82342243
-1.06494820 1.87094522 -4.51026011
-1.14198267 1.89121711 -4.83841562
-1.22342825 1.93835390 -5.18536091
-1.33152246 2.04562283 -5.64582396
-1.41770482 2.20428061 -6.01294708
-1.49404657 2.46497893 -6.33815098
-1.55760992 2.72952795 -6.60892105
-1.61422586 3.13166475 -6.85009527
-1.66313279 3.64347410 -7.05842972
-1.70134926 4.08726311 -7.22122717
-1.73809850 4.59397745 -7.37777233
-1.76950812 5.05095100 -7.51157093
-1.79910564 5.45308638 -7.63765192
-1.84360337 5.92562628 -7.82720470
-1.89076734 6.33783436 -8.02811623
-1.93251753 6.67666960 -8.20596504
-1.98291218 7.06163073 -8.42063904
-2.04136825 7.38799477 -8.66965008
-2.09319782 7.64922619 -8.89043522
-0.86111051 1.87333143 -2.87824440
-1.12400019 1.86808622 -3.76496387
-1.32453787 1.87094522 -4.44137144
-1.42035031 1.89121711 -4.76454353
-1.52164876 1.93835413 -5.10622025
-1.65609145 2.04562306 -5.55969095
-1.76328123 2.20428085 -5.92123938
-1.85823202 2.46497869 -6.24150562
-1.93728948 2.72952795 -6.50816298
-2.00770569 3.13166475 -6.74567509
-2.06853390 3.64347410 -6.95084620
-2.11606622 4.08726311 -7.11117077
-2.16177320 4.59397745 -7.26533985
-2.20083928 5.05095053 -7.39710712
-2.23765135 5.45308638 -7.52127314
-2.29299569 5.92562675 -7.70794678
-2.35165620 6.33783436 -7.90580750
-2.40358329 6.67666960 -8.08095646
-2.46626186 7.06163120 -8.29236984
-2.53896713 7.38799477 -8.53760052
-2.60343003 7.64922619 -8.75503254
-1.02701509 1.87333143 -2.82380867
-1.34055364 1.86808622 -3.69391012
-1.57972741 1.87094522 -4.35764027
-1.69399941 1.89121711 -4.67475653
-1.81481421 1.93835366 -5.01002932
-1.97515905 2.04562283 -5.45500183
-2.10300040 2.20428061 -5.80977345
-2.21624470 2.46497869 -6.12403727
-2.31053352 2.72952795 -6.38569784
-2.39451647 3.13166475 -6.61875820
-2.46706390 3.64347410 -6.82008410
-2.52375388 4.08726311 -6.97740412
-2.57826686 4.59397745 -7.12868357
-2.62485933 5.05095100 -7.25798130
-2.66876340 5.45308638 -7.37982035
-2.73477077 5.92562675 -7.56299591
-2.80473304 6.33783436 -7.75714827
-2.86666441 6.67666960 -7.92901373
-2.94141912 7.06163120 -8.13646603
-3.02813125 7.38799477 -8.37710094
-3.10501409 7.64922619 -8.59045696
-1.18950772 1.87333143 -2.75990582
-1.55265379 1.86808622 -3.61049891
-1.82966912 1.87094498 -4.25934744
-1.96202087 1.89121687 -4.56935310
-2.10195112 1.93835366 -4.89710951
-2.28766537 2.04562283 -5.33210468
-2.43573332 2.20428061 -5.67892218
-2.56689501 2.46497893 -5.98613977
-2.67610168 2.72952795 -6.24193335
-2.77337241 3.13166475 -6.46976852
-2.85739803 3.64347410 -6.66658068
-2.92305732 4.08726311 -6.82037306
-2.98619533 4.59397745 -6.96826029
-3.04015946 5.05095100 -7.09465885
-3.09101033 5.45308638 -7.21376610
-3.16746068 5.92562628 -7.39283466
-3.24849248 6.33783436 -7.58263397
-3.32022262 6.67666960 -7.75064564
-3.40680480 7.06163073 -7.95344639
-3.50723624 7.38799477 -8.18868542
-3.59628344 7.64922619 -8.39725876
-1.34804904 1.87333143 -2.68674898
-1.75959623 1.86808646 -3.51500678
-2.07353306 1.87094522 -4.14681816
-2.22352481 1.89121711 -4.44868469
-2.38210511 1.93835390 -4.76783466
-2.59257174 2.04562283 -5.19140768
-2.76037502 2.20428085 -5.52911854
-2.90901804 2.46497846 -5.82826996
-3.03278041 2.72952795 -6.07734632
-3.14301538 3.13166475 -6.29919958
-3.23824048 3.64347410 -6.49084377
-3.31265068 4.08726311 -6.64059782
-3.38420415 4.59397745 -6.78460217
-3.44536018 5.05095053 -6.90768147
-3.50298882 5.45308638 -7.02366209
-3.58962870 5.92562675 -7.19802856
-3.68146038 6.33783436 -7.38284397
-3.76275110 6.67666960 -7.54644489
-3.86087322 7.06163168 -7.74391985
-3.97469044 7.38799477 -7.97298145
-4.07560635 7.64922571 -8.17607880
-1.50211251 1.87333143 -2.60457826
-1.96069372 1.86808622 -3.40775061
-2.31050920 1.87094522 -4.02042580
-2.47764277 1.89121711 -4.31314945
-2.65434670 1.93835390 -4.62263250
-2.88886666 2.04562283 -5.03337717
-3.07584739 2.20428061 -5.36086035
-3.24147820 2.46497869 -5.65094995
-3.37938476 2.72952795 -5.89248371
-3.50221801 3.13166475 -6.10761738
-3.60832572 3.64347410 -6.29345655
-3.69124007 4.08726311 -6.43867540
-3.77097130 4.59397745 -6.57831812
-3.83911657 5.05095100 -6.69767046
-3.90333152 5.45308638 -6.81013727
-3.99987316 5.92562675 -6.97922182
-4.10220003 6.33783436 -7.15844059
-4.19278097 6.67666960 -7.31708622
-4.30211687 7.06163120 -7.50858068
-4.42894173 7.38799477 -7.73070526
-4.54139042 7.64922619 -7.92765093
-1.65118599 1.87333143 -2.51366925
-2.15527821 1.86808598 -3.28908730
-2.53980994 1.87094522 -3.88059163
-2.72353077 1.89121711 -4.16319942
-2.91777086 1.93835390 -4.46198893
-3.17556477 2.04562259 -4.85854006
-3.38110185 2.20428061 -5.17470694
-3.56317043 2.46497869 -5.45477295
-3.71476316 2.72952795 -5.68795967
-3.84978700 3.13166475 -5.89565897
-3.96642423 3.64347410 -6.07507753
-4.05756760 4.08726311 -6.21527767
-4.14521122 4.59397745 -6.35009527
-4.22011948 5.05095100 -6.46532297
-4.29070759 5.45308685 -6.57390356
-4.39683008 5.92562628 -6.73714638
-4.50931215 6.33783436 -6.91017151
-4.60888243 6.67666960 -7.06333494
-4.72906876 7.06163120 -7.24821186
-4.86848021 7.38799477 -7.46266079
-4.99208879 7.64922619 -7.65280104
-1.79477382 1.87333167 -2.41432214
-2.34270191 1.86808622 -3.15941048
-2.76067281 1.87094545 -3.72777891
-2.96036983 1.89121711 -3.99933290
-3.17150116 1.93835390 -4.28643560
-3.45171309 2.04562283 -4.66747618
-3.67512393 2.20428061 -4.97127581
-3.87302518 2.46497869 -5.24038744
-4.03780031 2.72952795 -5.46445370
-4.18456554 3.13166475 -5.66402912
-4.31134653 3.64347410 -5.83642960
-4.41041613 4.08726311 -5.97114658
-4.50568056 4.59397745 -6.10069036
-4.58710289 5.05095053 -6.21141100
-4.66382885 5.45308638 -6.31574488
-4.77917957 5.92562675 -6.47260237
-4.90144300 6.33783436 -6.63886023
-5.00967264 6.67667007 -6.78603268
-5.14031029 7.06163168 -6.96367836
-5.29184532 7.38799477 -7.16973925
-5.42620277 7.64922619 -7.35244226
-1.93240023 1.87333143 -2.30686688
-2.52234459 1.86808622 -3.01915121
-2.97236562 1.87094545 -3.56249547
-3.18737602 1.89121711 -3.82209325
-3.41469717 1.93835390 -4.09655523
-3.71639633 2.04562283 -4.46081924
-3.95693827 2.20428061 -4.75124311
-4.17001486 2.46497869 -5.00850630
-4.34742546 2.72952795 -5.22270775
-4.50544500 3.13166475 -5.41349602
-4.64194822 3.64347410 -5.57830572
-4.74861336 4.08726311 -5.70709133
-4.85118389 4.59397745 -5.83093214
-4.93884993 5.05095100 -5.93677807
-5.02145910 5.45308685 -6.03651857
-5.14565516 5.92562675 -6.18646908
-5.27729416 6.33783436 -6.34540653
-5.39382219 6.67667007 -6.48609924
-5.53447819 7.06163120 -6.65592432
-5.69763231 7.38799477 -6.85291243
-5.84229279 7.64922667 -7.02757215
-2.06360722 1.87333143 -2.19166231
-2.69360757 1.86808622 -2.86877537
-3.17418432 1.87094522 -3.38529062
-3.40379381 1.89121711 -3.63207006
-3.64654970 1.93835390 -3.89298034
-3.96873379 2.04562283 -4.23925734
-4.22560787 2.20428038 -4.51534176
-4.45315218 2.46497869 -4.75990105
-4.64260817 2.72952795 -4.96352577
-4.81135750 3.13166475 -5.14489365
-4.95712805 3.64347410 -5.30156517
-5.07103634 4.08726311 -5.42399168
-5.18057060 4.59397745 -5.54171753
-5.27418947 5.05095100 -5.64233685
-5.36240768 5.45308638 -5.73715210
-5.49503708 5.92562628 -5.87969875
-5.63561392 6.33783436 -6.03078842
-5.76005363 6.67666960 -6.16453457
-5.91025972 7.06163120 -6.32597351
-6.08449221 7.38799477 -6.51323509
-6.23897457 7.64922619 -6.67926979
-2.18795967 1.87333119 -2.06908965
-2.85592341 1.86808622 -2.70878243
-3.36545968 1.87094498 -3.19675279
-3.60890484 1.89121711 -3.42989445
-3.86628890 1.93835390 -3.67638516
-4.20788765 2.04562259 -4.00352573
-4.48024082 2.20428038 -4.26435184
-4.72149658 2.46497869 -4.49539661
-4.92236948 2.72952795 -4.68776703
-5.10128736 3.13166475 -4.85911179
-5.25584221 3.64347410 -5.00712538
-5.37661362 4.08726311 -5.12278605
-5.49274921 4.59397745 -5.23400545
-5.59200907 5.05095100 -5.32906389
-5.68554354 5.45308685 -5.41863966
-5.82616425 5.92562628 -5.55330849
-5.97521257 6.33783436 -5.69604874
-6.10715151 6.67666960 -5.82240295
-6.26640892 7.06163120 -5.97491980
-6.45114040 7.38799477 -6.15183306
-6.61493158 7.64922619 -6.30869198
-2.30504370 1.87333143 -1.93955696
-3.00875163 1.86808622 -2.53970385
-3.54555464 1.87094522 -2.99750805
-3.80202723 1.89121711 -3.21623731
-4.07318497 1.93835413 -3.44749045
-4.43306351 2.04562283 -3.75440741
-4.71999121 2.20428061 -3.99910927
-4.97415638 2.46497869 -4.21587086
-5.18577862 2.72952795 -4.39634943
-5.37427092 3.13166475 -4.55710173
-5.53709698 3.64347410 -4.69596529
-5.66433191 4.08726311 -4.80447626
-5.78668118 4.59397745 -4.90882015
-5.89125299 5.05095100 -4.99800205
-5.98979282 5.45308638 -5.08204031
-6.13793898 5.92562675 -5.20838404
-6.29496288 6.33783436 -5.34229946
-6.43396187 6.67667007 -5.46084309
-6.60174131 7.06163120 -5.60393143
-6.79635906 7.38799477 -5.76990795
-6.96891499 7.64922619 -5.91706991
-2.41446972 1.87333143 -1.80349326
-3.15158486 1.86808622 -2.36210155
-3.71387148 1.87094522 -2.78821993
-3.98251939 1.89121711 -2.99180961
-4.26654959 1.93835390 -3.20705652
-4.64351273 2.04562283 -3.49273038
-4.94406128 2.20428061 -3.72049570
-5.21029282 2.46497869 -3.92225432
-5.43196154 2.72952795 -4.09024143
-5.62940168 3.13166475 -4.23986721
-5.79995680 3.64347410 -4.36911917
-5.93323183 4.08726311 -4.47011948
-6.06138992 4.59397745 -4.56724119
-6.17092562 5.05095100 -4.65025139
-6.27414322 5.45308685 -4.72847176
-6.42932177 5.92562675 -4.84607172
-6.59379959 6.33783436 -4.97071838
-6.73939800 6.67666960 -5.08105659
-6.91514349 7.06163120 -5.21424150
-7.11899948 7.38799477 -5.36873007
-7.29974747 7.64922619 -5.50570583
-2.51587582 1.87333143 -1.66135144
-3.28394890 1.86808622 -2.17656517
-3.86985087 1.87094522 -2.56958103
-4.14978218 1.89121711 -2.75735521
-4.44574165 1.93835390 -2.95588112
-4.83853579 2.04562283 -3.21936297
-5.15170813 2.20428061 -3.42943478
-5.42912149 2.46497869 -3.61551976
-5.66009903 2.72952795 -3.77045703
-5.86583185 3.13166475 -3.90845966
-6.04355097 3.64347410 -4.02767134
-6.18242311 4.08726311 -4.12082481
-6.31596327 4.59397745 -4.21040201
-6.43009949 5.05095100 -4.28696346
-6.53765249 5.45308638 -4.35910797
-6.69934893 5.92562675 -4.46757221
-6.87073421 6.33783436 -4.58253574
-7.02244806 6.67666960 -4.68430281
-7.20557499 7.06163120 -4.80714130
-7.41799164 7.38799572 -4.94962835
-7.60633087 7.64922667 -5.07596397
-2.60892391 1.87333143 -1.51360309
-3.40540409 1.86808622 -1.98371100
-4.01297522 1.87094522 -2.34231949
-4.30325937 1.89121687 -2.51365399
-4.61016417 1.93835390 -2.69479942
-5.01748705 2.04562283 -2.93521404
-5.34224176 2.20428061 -3.12689447
-5.62991428 2.46497869 -3.29668784
-5.86943531 2.72952795 -3.43806100
-6.08277655 3.13166475 -3.56398201
-6.26706791 3.64347410 -3.67275691
-6.41107655 4.08726311 -3.75775504
-6.54955530 4.59397745 -3.83948994
-6.66791296 5.05095100 -3.90934825
-6.77944374 5.45308638 -3.97517705
-6.94712067 5.92562675 -4.07414436
-7.12484503 6.33783436 -4.17904377
-7.28216934 6.67666960 -4.27190113
-7.47206831 7.06163120 -4.38398504
-7.69234228 7.38799572 -4.51399803
-7.88764715 7.64922667 -4.62927341
-2.69330549 1.87333143 -1.36073959
-3.51554608 1.86808622 -1.78418016
-4.14276886 1.87094522 -2.10718942
-4.44244194 1.89121687 -2.26151609
-4.75927353 1.93835390 -2.42467856
-5.17976999 2.04562283 -2.64122748
-5.51502800 2.20428038 -2.81387949
-5.81200504 2.46497869 -2.96681809
-6.05927277 2.72952795 -3.09415698
-6.27951479 3.13166475 -3.20757747
-6.46976662 3.64347410 -3.30555415
-6.61843348 4.08726311 -3.38211489
-6.76139116 4.59397745 -3.45573568
-6.88357735 5.05095100 -3.51865911
-6.99871445 5.45308638 -3.57795286
-7.17181396 5.92562675 -3.66709614
-7.35528755 6.33783436 -3.76158190
-7.51770067 6.67666960 -3.84522152
-7.71374035 7.06163120 -3.94617867
-7.94113922 7.38799572 -4.06328583
-8.14276123 7.64922667 -4.16711712
-2.76874089 1.87333167 -1.20326936
-3.61401081 1.86808622 -1.57863593
-4.25880051 1.87094522 -1.86497295
-4.56686640 1.89121711 -2.00177813
-4.89257193 1.93835413 -2.14641690
-5.32484627 2.04562306 -2.33838010
-5.66949415 2.20428061 -2.49143052
-5.97478914 2.46497869 -2.62700558
-6.22898293 2.72952795 -2.73988771
-6.45539284 3.13166475 -2.84043097
-6.65097332 3.64347410 -2.92728424
-6.80380440 4.08726311 -2.99515247
-6.95076609 4.59397745 -3.06041527
-7.07637405 5.05095100 -3.11619473
-7.19473553 5.45308638 -3.16875672
-7.37268400 5.92562675 -3.24777961
-7.56129646 6.33783436 -3.33153796
-7.72825766 6.67667007 -3.40568161
-7.92978954 7.06163120 -3.49517703
-8.16355705 7.38799572 -3.59898829
-8.37082481 7.64922667 -3.69103146
-2.83497882 1.87333167 -1.04171383
-3.70047092 1.86808622 -1.36775935
-4.36068583 1.87094522 -1.61647260
-4.67612171 1.89121711 -1.73530245
-5.00961924 1.93835413 -1.86093652
-5.45223475 2.04562283 -2.02767658
-5.80512762 2.20428061 -2.16061735
-6.11772680 2.46497869 -2.27837825
-6.37800074 2.72952795 -2.37642765
-6.60982800 3.13166475 -2.46376061
-6.81008768 3.64347410 -2.53920126
-6.96657372 4.08726311 -2.59815264
-7.11705208 4.59397745 -2.65483975
-7.24566460 5.05095100 -2.70329022
-7.36685896 5.45308638 -2.74894571
-7.54906321 5.92562675 -2.81758523
-7.74218845 6.33783436 -2.89033818
-7.91314363 6.67666960 -2.95473981
-8.11949635 7.06163120 -3.03247595
-8.35885525 7.38799572 -3.12264681
-8.57108402 7.64922619 -3.20259666
-2.89179778 1.87333167 -0.87661135
-3.77463651 1.86808622 -1.15225303
-4.44808340 1.87094522 -1.36251676
-4.76984215 1.89121711 -1.46297646
-5.11002350 1.93835390 -1.56918812
-5.56150961 2.04562283 -1.71015179
-5.92147493 2.20428061 -1.82254052
-6.24033976 2.46497893 -1.92209697
-6.50583029 2.72952795 -2.00498843
-6.74230337 3.13166475 -2.07882023
-6.94657660 3.64347410 -2.14259863
-7.10619974 4.08726311 -2.19243574
-7.25969362 4.59397745 -2.24035978
-7.39088440 5.05095100 -2.28132033
-7.51450634 5.45308638 -2.31991768
-7.70036364 5.92562675 -2.37794614
-7.89735889 6.33783436 -2.43945169
-8.07174110 6.67666960 -2.49389768
-8.28222942 7.06163120 -2.55961609
-8.52638626 7.38799477 -2.63584781
-8.74286652 7.64922619 -2.70343733
-2.93901086 1.87333167 -0.70850891
-3.83626366 1.86808622 -0.93283004
-4.52070618 1.87094522 -1.10394609
-4.84771776 1.89121711 -1.18570161
-5.19345284 1.93835390 -1.27213848
-5.65231037 2.04562283 -1.38685679
-6.01815271 2.20428061 -1.47832084
-6.34222317 2.46497869 -1.55934107
-6.61204958 2.72952795 -1.62679958
-6.85238314 3.13166475 -1.68688500
-7.05999136 3.64347410 -1.73878884
-7.22222090 4.08726311 -1.77934730
-7.37822008 4.59397745 -1.81834841
-7.51155281 5.05095100 -1.85168254
-7.63719368 5.45308638 -1.88309383
-7.82608509 5.92562675 -1.93031812
-8.02629662 6.33783436 -1.98037255
-8.20352554 6.67666960 -2.02468109
-8.41745090 7.06163120 -2.07816458
-8.66559410 7.38799477 -2.14020252
-8.88560963 7.64922619 -2.19520807
-2.97646141 1.87333167 -0.53796613
-3.88514709 1.86808622 -0.71022201
-4.57831144 1.87094522 -0.84162199
-4.90948963 1.89121711 -0.90440208
-5.25963068 1.93835390 -0.97077674
-5.72433567 2.04562283 -1.05886877
-6.09484005 2.20428061 -1.12910390
-6.42303991 2.46497869 -1.19131947
-6.69630384 2.72952795 -1.24312079
-6.93969965 3.13166475 -1.28926027
-7.14995384 3.64347410 -1.32911706
-7.31424952 4.08726311 -1.36026192
-7.47223711 4.59397745 -1.39021039
-7.60726881 5.05095100 -1.41580784
-7.73451090 5.45308638 -1.43992853
-7.92580986 5.92562675 -1.47619224
-8.12857246 6.33783436 -1.51462901
-8.30805969 6.67666960 -1.54865324
-8.52470970 7.06163120 -1.58972323
-8.77601624 7.38799477 -1.63736188
-8.99883461 7.64922619 -1.67960083
-3.00402474 1.87333143 -0.36554918
-3.92112517 1.86808622 -0.48516729
-4.62070847 1.87094522 -0.57641447
-4.95495367 1.89121711 -0.62001020
-5.30833721 1.93835390 -0.66610223
-5.77734566 2.04562283 -0.72727561
-6.15128088 2.20428061 -0.77604890
-6.48252010 2.46497869 -0.81925249
