0.21296568 -3.47015595 -4.46251011
0.19939546 -3.61869860 -4.15920973
0.23014432 -3.29739475 -4.84997654
0.43626449 -3.29980636 -4.83601809
0.40199333 -3.47218060 -4.44977236
0.37492400 -3.62042403 -4.14734221
0.59030026 -3.47430396 -4.42856598
0.54978329 -3.62224126 -4.12758684
0.64159876 -3.30232453 -4.81277561
0.84575754 -3.30494547 -4.78030491
0.77752841 -3.47652268 -4.39894009
0.72364175 -3.62414742 -4.09998798
0.96332157 -3.47882938 -4.36094093
0.89616662 -3.62613916 -4.06458902
1.04835081 -3.30765939 -4.73866081
1.24899387 -3.31046534 -4.68792868
1.14732599 -3.48122144 -4.31465244
1.06703162 -3.62821031 -4.02146769
1.32919085 -3.48369431 -4.26014948
1.23590875 -3.63035917 -3.97069478
1.44730389 -3.31335521 -4.62819624
1.64290583 -3.31632829 -4.55958557
1.50857186 -3.48624444 -4.19754648
1.40248024 -3.63258052 -3.91237569
1.68512487 -3.48886490 -4.12695217
1.56642556 -3.63487148 -3.84661102
1.83542383 -3.31937528 -4.48222160
2.02449560 -3.32249093 -4.39646959
1.85851717 -3.49155259 -4.04851103
1.72743523 -3.63722682 -3.77353716
2.02841520 -3.49430275 -3.96236372
1.88520026 -3.63964295 -3.69328380
2.20975566 -3.32566953 -4.30269718
2.39085698 -3.32890368 -4.20091438
2.19449782 -3.49710870 -3.86868310
2.03942299 -3.64211464 -3.60601306
2.35644507 -3.49996424 -3.76764250
2.18980527 -3.64463711 -3.51188564
2.56744862 -3.33218980 -4.09113359
2.73920035 -3.33552051 -3.97357011
2.51395440 -3.50286555 -3.65943694
2.33606625 -3.64720488 -3.41108465
2.66672111 -3.50580668 -3.54426932
2.47792315 -3.64981270 -3.30379629
2.90578151 -3.33889008 -3.84844041
3.06687999 -3.34229064 -3.71598959
2.81445980 -3.50878143 -3.42236209
2.61511230 -3.65245605 -3.19022965
2.95688510 -3.51178479 -3.29394078
2.74736691 -3.65513134 -3.07059479
3.22218418 -3.34571528 -3.57646036
3.37140346 -3.34915876 -3.43012643
3.09373045 -3.51481247 -3.15925622
2.87443924 -3.65783191 -2.94512606
3.22472882 -3.51785827 -3.01855755
2.99608278 -3.66055489 -2.81405497
3.51424670 -3.35261703 -3.27725911
3.65044856 -3.35607958 -3.11815810
3.34963536 -3.52091384 -2.87212157
3.11206985 -3.66329455 -2.67763829
3.46820760 -3.52397490 -2.72022295
3.22217441 -3.66604280 -2.53613305
3.77974224 -3.35954118 -2.95312166
3.90189028 -3.36299372 -2.78246880
3.58022594 -3.52703381 -2.56315517
3.32619262 -3.66879630 -2.38981271
3.68547082 -3.53008890 -2.40121198
3.42392206 -3.67155075 -2.23894978
4.01665258 -3.36643267 -2.60651803
4.12381887 -3.36985183 -2.42560983
3.78374982 -3.53313208 -2.23470497
3.51518321 -3.67429924 -2.08383584
3.87486815 -3.53615618 -2.06394649
3.59979486 -3.67703581 -1.92476082
4.22317696 -3.37324262 -2.24008083
4.31457949 -3.37656140 -2.05030060
3.95865893 -3.53915668 -1.88926506
3.67760229 -3.67975593 -1.76203179
4.03495646 -3.54212761 -1.71099055
3.74845052 -3.68245721 -1.59595525
4.39787912 -3.37976027 -1.85663342
4.47287321 -3.38287759 -1.65943825
4.10361958 -3.54506397 -1.52946568
3.81221056 -3.68513227 -1.42685056
4.16451073 -3.54795980 -1.34503281
3.86875272 -3.68777561 -1.25503707
4.53935719 -3.38595581 -1.45907152
4.59721899 -3.38899112 -1.25592017
4.21752262 -3.55080986 -1.15804636
3.91797924 -3.69038343 -1.08084452
4.26255035 -3.55361128 -0.96885842
3.95979095 -3.69295096 -0.90460110
4.64634514 -3.39198065 -1.05036831
4.68665504 -3.39491916 -0.84281111
4.29951334 -3.55635500 -0.77783227
3.99411345 -3.69547319 -0.72664535
4.32833052 -3.55903339 -0.58533043
4.02087355 -3.69794083 -0.54731488
4.71806240 -3.39779806 -0.63364470
4.74052143 -3.40061283 -0.42326903
4.34895802 -3.56164503 -0.39172044
4.04002714 -3.70035386 -0.36695227
4.36134911 -3.56418633 -0.19736926
4.05153465 -3.70270753 -0.18589877
4.75398636 -3.40336227 -0.21208525
4.75845718 -3.40603757 -0.00185915
4.36548662 -3.56664968 -0.00396065
4.05537701 -3.70499730 -0.00577767
4.36135387 -3.56903005 0.18682292
4.05153799 -3.70721483 0.17179070
4.75393105 -3.40863228 0.20564398
4.74041414 -3.41114378 0.41139394
4.34896564 -3.57132292 0.37593332
4.04003477 -3.70935917 0.34774759
4.32833719 -3.57352686 0.56432259
4.02087975 -3.71142650 0.52303243
4.71790838 -3.41356659 0.61635798
4.68646526 -3.41589689 0.82014924
4.29952049 -3.57563567 0.75163275
3.99412036 -3.71341348 0.69731414
4.26256371 -3.57764578 0.93750817
3.95980263 -3.71531391 0.87026000
4.64614153 -3.41813016 1.02237868
4.59701872 -3.42026138 1.22266173
4.21754265 -3.57955289 1.12159467
3.91799688 -3.71712565 1.04154193
4.16453266 -3.58135390 1.30353880
3.86877203 -3.71884608 1.21083045
4.53917885 -3.42228818 1.42061496
7.91101027 2.18100119 3.71229625
8.11736965 2.86294699 3.81876373
7.94240952 2.85796189 4.16496134
7.74014425 2.17655301 4.04945469
8.31409073 3.46483827 3.92122507
8.13533306 3.45923209 4.27618170
7.94077730 3.45390868 4.62278223
7.75206900 2.85316038 4.50316381
7.55431795 2.17222214 4.37898636
7.54661226 2.84862256 4.83249950
7.35384560 2.16803527 4.70020342
7.73062277 3.44903874 4.95997143
7.50530815 3.44466496 5.28675175
7.32634115 2.84439850 5.15142155
7.13893938 2.16400981 5.01122379
7.09155035 2.84053755 5.45838451
6.90980673 2.16016555 5.31016254
7.26526976 3.44083142 5.60212898
7.01129961 3.43733168 5.90632200
6.84305525 2.83692384 5.75400639
6.66724253 2.15647674 5.59778357
6.58167696 2.83343935 6.03890848
6.41203880 2.15292168 5.87485504
6.74419117 3.43395758 6.19954872
6.46447039 3.43071604 6.48127556
6.30792904 2.83009243 6.31260395
6.14472580 2.14950514 6.14096546
6.02233887 2.82688737 6.57460451
5.86582994 2.14623547 6.39570618
6.17266369 3.42761302 6.75096560
5.86935043 3.42465377 7.00811291
5.72551775 2.82383204 6.82441521
5.57608271 2.14311719 6.63857508
5.41808033 2.82093143 7.06154203
5.27621889 2.14015698 6.86907291
5.55510616 3.42184472 7.25221443
5.23138618 3.41919160 7.48251963
5.10183287 2.81819153 7.28520727
4.96814060 2.13736081 7.08645010
4.77858162 2.81561780 7.49464130
4.65375376 2.13473392 7.28994989
4.89964199 3.41669846 7.69827652
4.55998945 3.41437101 7.89908218
4.44785070 2.81321406 7.68957901
4.33216858 2.13228035 7.47939873
4.10916471 2.81098533 7.86975908
4.00249386 2.13000584 7.65462160
4.21254969 3.41221237 8.08454037
3.85756350 3.41022706 8.25447750
3.76294065 2.80893540 8.03494930
3.66530895 2.12791348 7.81533527
3.40959263 2.80706859 8.18491745
3.32118773 2.12600923 7.96126127
3.49527550 3.40841985 8.40873909
3.12638164 3.40679336 8.54707050
3.04980469 2.80538917 8.31941986
2.97079253 2.12429523 8.09215832
2.68425179 2.80390000 8.43821335
2.61478424 2.12277484 8.20779228
2.75157905 3.40535092 8.66922474
2.37158680 3.40409470 8.77501488
2.31363773 2.80260301 8.54112053
2.25384665 2.12145162 8.30798817
1.93866181 2.80150151 8.62795544
1.88866103 2.12032771 8.39256763
1.98712182 3.40302777 8.86425972
1.59892154 3.40215206 8.93684101
1.56004179 2.80059695 8.69861221
1.51992679 2.11940479 8.46142006
1.17849636 2.79989243 8.75297356
1.14834261 2.11868572 8.51442909
1.20772064 3.40147018 8.99264336
0.81426716 3.40098143 9.03161335
0.79475278 2.79938841 8.79098511
0.77461886 2.11817074 8.55155277
0.40954155 2.79908538 8.81259823
0.39946505 2.11786175 8.57273483
0.41930792 3.40068841 9.05370140
0.02359583 3.40058994 9.05878639
0.02359559 2.79898334 8.81770515
0.02359559 2.11775827 8.57787228
-0.36235008 2.79908514 8.80618858
-0.35227364 2.11786175 8.56686783
-0.37211630 3.40068793 9.04675198
-0.76707578 3.40098143 9.01781464
-0.74756217 2.79938841 8.77826023
-0.72742766 2.11817074 8.53990746
-1.13130474 2.79989243 8.73412418
-1.10115182 2.11868596 8.49718761
-1.16052902 3.40147018 8.97219563
-1.55173004 3.40215302 8.91004944
-1.51285076 2.80059743 8.67392826
-1.47273576 2.11940575 8.43884754
-1.89147007 2.80150151 8.59780979
-1.84146976 2.12032771 8.36501980
-1.93993056 3.40302777 8.83151531
-2.32439446 3.40409422 8.73681068
-2.26644588 2.80260253 8.50597095
-2.20665526 2.12145162 8.27590275
-2.63706064 2.80389977 8.39861393
-2.56759334 2.12277484 8.17169094
-2.70438719 3.40535069 8.62613773
-3.07918978 3.40679336 8.49976254
-3.00261259 2.80538917 8.27599335
-2.92360163 2.12429523 8.05262661
-3.36240101 2.80706859 8.13836765
-3.27399635 2.12600923 7.91896391
-3.44808292 3.40841985 8.35794830
-3.81037140 3.41022706 8.20101547
-3.71574783 2.80893493 7.98604345
-3.61811733 2.12791348 7.77099609
-4.06197405 2.81098485 7.81932926
-3.95530295 2.13000584 7.60902452
-4.16535807 3.41221213 8.02928066
-4.51280355 3.41437101 7.84361792
-4.40066481 2.81321406 7.63883162
-4.28497887 2.13228035 7.43345594
-4.60656786 2.13473439 7.24470282
-4.73140907 2.81561852 7.44515991
-4.85246944 3.41669917 7.64489889
-5.18451405 3.41919184 7.43345881
-5.05515146 2.81819296 7.23906565
-4.92158127 2.13736129 7.04376173
-5.23152924 2.14015770 6.83161879
-5.37284136 2.82093239 7.02130079
-5.50909567 3.42184544 7.20964050
-5.82433033 3.42465425 6.97285652
-5.68215132 2.82383251 6.79115343
-5.53405809 2.14311767 6.60759401
-5.82680845 2.14623547 6.37099266
-5.98075676 2.82688737 6.54791021
-6.12833166 3.42761302 6.72252035
-6.42047501 3.43071604 6.45910597
-6.26787615 2.83009219 6.29201412
-6.10864925 2.14950514 6.12218094
-6.37844658 2.15292168 5.86152649
-6.54273319 2.83343935 6.02390385
-6.70014238 3.43395758 6.18309021
-6.96681213 3.43733168 5.89500046
-6.80482531 2.83692384 5.74404240
-6.63575697 2.15647674 5.58934307
-7.05366325 2.84053755 5.45288801
-6.88012886 2.16016555 5.30594397
-7.21996737 3.44083118 5.59536362
-7.45974731 3.44466496 5.28349829
-7.28945827 2.84439850 5.14922714
-7.11177921 2.16400981 5.00996447
-7.51243639 2.84862256 4.83184481
-7.33092165 2.16803455 4.70004225
-7.68627310 3.44903874 4.95872211
-7.89913654 3.45390868 4.62247229
-7.72193098 2.85315990 4.50300217
-7.53674507 2.17222142 4.37894726
-7.91728020 2.85796118 4.16496277
-7.72843838 2.17655253 4.04945612
-8.09792233 3.45923209 4.27618504
-8.28192329 3.46483827 3.92122698
-8.09792995 2.86294699 3.81876564
-7.90557194 2.18100119 3.71229696
-8.26332760 2.86803532 3.46544862
-8.06770897 2.18554187 3.36820459
-8.45042515 3.47056127 3.55896831
-8.60306644 3.47638869 3.19010472
-8.41311264 2.87321615 3.10568833
-8.21450424 2.19016480 3.01783800
-8.54693604 2.87847948 2.74016595
-8.34561348 2.19486189 2.66185856
-8.73947716 3.48230839 2.81533337
-8.85935020 3.48830867 2.43537140
-8.66449261 2.88381481 2.36958146
-8.46073437 2.19962358 2.30094957
-8.76547241 2.88921380 1.99463642
-8.55957413 2.20444155 1.93579400
-8.96238232 3.49438095 2.05093861
-9.04830647 3.50051236 1.66276896
-8.84963799 2.89466524 1.61604714
-8.64189053 2.20930648 1.56708944
-8.91673565 2.90015841 1.23453248
-8.70744705 2.21420884 1.19553578
-9.11687851 3.50669050 1.27160048
-9.16790199 3.51290512 0.87817883
-8.96657753 2.90568399 0.85082066
-8.75605679 2.21913934 0.82184225
-8.99897766 2.91123033 0.46564081
-8.78753853 2.22408891 0.44671881
-9.20118523 3.51914310 0.48325229
-9.21661282 3.52481508 0.08721193
-9.01381302 2.91648483 0.07925291
-8.80176163 2.22897267 0.07030895
-9.01095390 2.92113400 -0.30808127
-8.79859352 2.23370481 -0.30724388
-9.21406937 3.52933311 -0.30954775
-9.19348526 3.53326583 -0.70591211
-8.99034977 2.92547202 -0.69515133
-8.77799416 2.23835230 -0.68464965
-8.95194721 2.92979383 -1.08074534
-8.73993015 2.24298239 -1.06061566
-9.15478802 3.53718352 -1.10076559
-9.09798431 3.54107928 -1.49335742
-8.89576149 2.93409109 -1.46413136
-8.95194721 2.92979383 -1.08074534
-9.15478802 3.53718352 -1.10076559
-8.68441296 2.24758506 -1.43442905
-8.73993015 2.24298239 -1.06061566
-8.82180405 2.93835497 -1.84457719
-8.61146641 2.25215364 -1.80537593
-9.02309132 3.54494333 -1.88293922
-8.93018913 3.54877186 -2.26877189
-8.73016548 2.94257712 -2.22136259
-8.52117443 2.25667763 -2.17275333
-8.62092495 2.94675112 -2.59376478
-8.41362476 2.26114917 -2.53585649
-8.81937027 3.55255485 -2.65011644
-8.69078827 3.55628729 -3.02625299
-8.49425030 2.95086813 -2.96107936
-8.28897476 2.26555943 -2.89400101
-8.35030079 2.95492005 -3.32260489
-8.14738846 2.26990032 -3.24649811
-8.54460526 3.55995965 -3.39645863
-8.38106060 3.56356668 -3.76003575
-8.18930912 2.95889974 -3.67765594
-7.98909807 2.27416325 -3.59268427
-8.01150799 2.96279860 -4.02555084
-7.81433535 2.27834058 -3.93189192
-8.20038700 3.56710148 -4.11628485
-8.00198650 3.57083869 -4.46581459
-7.81675720 2.96673775 -4.36630821
-7.62329292 2.28245592 -4.26365423
-7.60489941 2.97083688 -4.69994450
-7.41615868 2.28653312 -4.58749628
-7.78524971 3.57505417 -4.80923319
-7.55070114 3.57980299 -5.14681578
-7.37568140 2.97516155 -5.02813768
-7.19220304 2.29058313 -4.90607214
-7.12884378 2.97977686 -5.35256577
-6.95068836 2.29461622 -5.22203207
-7.29886675 3.58513713 -5.47883272
-7.03211164 3.59066629 -5.80227470
-6.86695194 2.98445463 -5.66950941
-6.69411898 2.29857016 -5.53150511
-6.59257364 2.98896289 -5.97524977
-6.42499971 2.30238199 -5.83061552
-6.75279570 3.59599543 -6.11412859
-6.46148396 3.60111690 -6.41378689
-6.30630398 2.99329567 -6.26911259
-6.14402819 2.30604458 -6.11839771
-6.00874281 2.99744320 -6.55041599
-5.85190392 2.30955076 -6.39388275
-6.15875196 3.60601926 -6.70064449
-5.84523487 3.61069465 -6.97416258
-5.70072126 3.00139880 -6.81864262
-5.54994297 2.31289387 -6.65656137
-5.38307047 3.00515199 -7.07326841
-5.23946285 2.31606746 -6.90591526
-5.52157402 3.61513233 -7.23381042
-5.19050789 3.61932397 -7.47910738
-5.05922508 3.00869823 -7.31381655
-4.92394495 2.31906509 -7.14148617
-4.73262262 3.01203012 -7.53982210
-4.60687256 2.32188129 -7.36281395
-4.85476923 3.62326241 -7.70956993
-4.51338005 3.62694049 -7.92477846
-4.40096903 3.01514149 -7.75086355
-4.28505564 2.32451200 -7.56948805
-4.06197500 3.01802588 -7.94652700
-3.95530415 2.32695055 -7.76110220
-4.16535950 3.63035011 -8.12430096
-3.81037259 3.63348579 -8.30777836
-3.71574974 3.02067852 -8.12645340
-3.61811924 2.32919288 -7.93730783
-3.36240292 3.02309370 -8.29028893
-3.27399755 2.33123446 -8.09775257
-3.44808483 3.63634086 -8.47484684
-3.07919025 3.63891053 -8.62520123
-3.00261331 3.02526784 -8.43773460
-2.92360187 2.33307195 -8.24214554
-2.63706088 3.02719617 -8.56849098
-2.56759405 2.33470249 -8.37019825
-2.70438790 3.64118934 -8.75854015
-2.32439446 3.64317393 -8.87462616
-2.26644564 3.02887487 -8.68233109
-2.20665526 2.33612108 -8.48168182
-1.89147007 3.03030038 -8.77901936
-1.84146953 2.33732605 -8.57636929
-1.93992996 3.64485884 -8.97321892
-1.55172968 3.64624143 -9.05415249
-1.51285040 3.03147006 -8.85838699
-1.47273552 2.33831549 -8.65409470
-1.13130414 3.03238201 -8.92026615
-1.10115111 2.33908653 -8.71469593
-1.16052842 3.64732003 -9.11725235
-0.76707494 3.64809179 -9.16242027
-0.74756110 3.03303504 -8.96455860
-0.72742730 2.33963799 -8.75806904
-0.36234894 3.03342748 -8.99115944
-0.35227224 2.33997011 -8.78412151
-0.37211508 3.64855552 -9.18954754
0.02359719 3.64871049 -9.19859982
0.02359719 3.03355813 -9.00003910
0.02359719 2.34008050 -8.79281425
0.40954334 3.03342748 -8.99115944
0.39946684 2.33997011 -8.78412342
0.41930971 3.64855552 -9.18954754
0.81426895 3.64809179 -9.16242027
0.79475510 3.03303504 -8.96455860
0.77462107 2.33963799 -8.75806904
1.17849827 3.03238201 -8.92026615
1.14834523 2.33908653 -8.71469402
1.20772290 3.64732003 -9.11725235
1.59892392 3.64624143 -9.05415249
1.56004453 3.03147006 -8.85838699
1.51992941 2.33831549 -8.65409470
1.93866408 3.03030038 -8.77901936
1.88866365 2.33732605 -8.57636929
1.98712444 3.64485884 -8.97321892
2.37158918 3.64317393 -8.87462616
2.31364036 3.02887487 -8.68233109
2.25384951 2.33612108 -8.48168182
2.68425512 3.02719617 -8.56849098
2.61478782 2.33470249 -8.37019825
2.75158215 3.64119005 -8.75854015
3.12638497 3.63891053 -8.62520123
3.04980755 3.02526808 -8.43773460
2.97079587 2.33307219 -8.24214554
3.40959644 3.02309465 -8.29029083
3.32119179 2.33123517 -8.09775257
3.49527836 3.63634086 -8.47484779
3.85756636 3.63348579 -8.30778217
3.76294374 3.02067852 -8.12645435
3.66531301 2.32919288 -7.93730783
4.10916948 3.01802588 -7.94652700
4.00249958 2.32695055 -7.76110506
4.21255302 3.63035011 -8.12430382
4.56090307 3.62694049 -7.92489862
4.44831753 3.01514149 -7.75092649
4.33228779 2.32451200 -7.56950474
4.78043270 3.01203012 -7.54007626
4.65421963 2.32188129 -7.36287689
4.90327883 3.62326241 -7.71005726
5.23988771 3.61932397 -7.48037004
5.10709906 3.00869846 -7.31467009
4.97077322 2.31906509 -7.14197588
5.28442335 2.31606746 -6.90755367
5.42989969 3.00515270 -7.07539988
5.57093430 3.61513233 -7.23643541
5.89326000 3.61069465 -6.97855377
5.74505186 3.00139880 -6.82250929
5.59132385 2.31289387 -6.65983534
5.88762045 2.30955076 -6.39905405
6.04877043 2.99744344 -6.55623674
6.20370817 3.60602021 -6.70702744
6.50166368 3.60111690 -6.42238712
6.34036541 2.99329591 -6.27709675
6.17236471 2.30604458 -6.12568235
6.61914682 2.98896360 -5.98560190
6.44461060 2.30238223 -5.84019995
6.78651524 3.59599590 -6.12515974
7.05773401 3.59066582 -5.81594849
6.88459349 2.98445463 -5.68240976
6.70382786 2.29857016 -5.54351950
7.13617945 2.97977686 -5.36817217
6.94948435 2.29461622 -5.23655844
7.31479216 3.58513713 -5.49534321
7.55691099 3.57980132 -5.16584158
7.37310505 2.97516084 -5.04603291
7.18080282 2.29058290 -4.92262840
7.59456491 2.97083640 -4.71913576
7.39700127 2.28653288 -4.60504341
7.78330755 3.57505345 -4.82993460
7.99358368 3.57083869 -4.48732471
7.80029535 2.96673775 -4.38599014
7.59790039 2.28245521 -4.28147078
7.78332710 2.27834058 -3.94957566
7.99003029 2.96279836 -4.04510975
8.18732929 3.56710148 -4.13771486
8.36440086 3.56356668 -3.78077006
8.16354847 2.95889902 -3.69662237
7.95300150 2.27416301 -3.60987926
8.32063389 2.95492005 -3.34065628
8.10664940 2.26989985 -3.26290202
8.52465153 3.55995917 -3.41615534
8.66785240 3.55628610 -3.04459786
8.46105480 2.95086813 -2.97792077
8.24404812 2.26555943 -2.90933108
8.58458328 2.94675112 -2.60912061
8.36497021 2.26114917 -2.54985666
8.79377270 3.55255437 -2.66682434
8.90225983 3.54877186 -2.28358626
8.69106483 2.94257736 -2.23499203
8.46926498 2.25667763 -2.18519473
8.78034973 2.93835521 -1.85626829
8.55678558 2.25215387 -1.81605756
8.99315643 3.54494357 -1.89563560
9.06638050 3.54107928 -1.50374675
8.85235691 2.93409133 -1.47370327
8.62744236 2.24758601 -1.44318175
8.90699959 2.92979479 -1.08805287
8.68115902 2.24298239 -1.06730115
9.12186050 3.53718400 -1.10869253
9.15957546 3.53326631 -0.71126223
8.94427013 2.92547297 -0.70008415
8.71791553 2.23835230 -0.68916458
8.96415424 2.92113400 -0.31056583
8.73769665 2.23370481 -0.30951846
9.17952251 3.52933311 -0.31224200
9.18341732 3.52481508 0.08653905
8.96823597 2.91648483 0.07863227
8.74195480 2.22897267 0.06974068
8.95809841 2.91123033 0.46564138
8.73213387 2.22408891 0.44671980
9.17297840 3.51914310 0.48325288
9.14658546 3.51290512 0.87817901
8.93224907 2.90568399 0.85082132
8.70687771 2.21913934 0.82184291
8.88919640 2.90015841 1.23453271
8.66481876 2.21420884 1.19553578
9.10261440 3.50669050 1.27160096
9.04116631 3.50051236 1.66276944
8.82904053 2.89466524 1.61604714
8.60605907 2.20930648 1.56708944
8.75187778 2.88921380 1.99463594
8.53069592 2.20444155 1.93579328
8.96234131 3.49438095 2.05093861
8.86630726 3.48830867 2.43537116
8.65787220 2.88381481 2.36958098
8.43888092 2.19962406 2.30094934
8.54718876 2.87847877 2.74016523
8.33078003 2.19486189 2.66185808
8.75322628 3.48230743 2.81533241
8.62333298 3.47638822 3.19010329
8.42004776 2.87321544 3.10568643
8.20660877 2.19016480 3.01783633
8.27667904 2.86803508 3.46544623
8.06659222 2.18554187 3.36820245
8.47685623 3.47056103 3.55896640
6.55916500 -2.02642202 -1.14588106
6.94395256 -1.57593071 -1.20649827
6.98870945 -1.57971060 -0.90134794
6.60174847 -2.02998090 -0.85716951
7.24708414 -1.12149549 -1.25263512
7.29357243 -1.12545681 -0.93463475
7.32594299 -1.12945235 -0.61473787
7.01998997 -1.58352804 -0.59438062
6.63164186 -2.03357792 -0.56674230
7.03776836 -1.58737361 -0.28619838
6.64881659 -2.03720760 -0.27516711
7.34417534 -1.13347387 -0.29357344
7.34902477 -1.13751376 0.02692240
7.04267788 -1.59124291 0.02121736
6.65376234 -2.04086065 0.01556813
7.03534985 -1.59512568 0.32588559
6.64696026 -2.04453039 0.30347818
7.34125757 -1.14156461 0.34481066
7.32016754 -1.14561915 0.66079229
7.01520348 -1.59901643 0.62860215
6.62797451 -2.04820991 0.58942890
6.98166227 -1.60290635 0.93016511
6.59636259 -2.05189347 0.87428975
7.28505230 -1.14966798 0.97556990
7.23599625 -1.15370572 1.28854525
6.93480253 -1.60679030 1.23000097
6.55220032 -2.05557466 1.15751970
6.87470531 -1.61065769 1.52753890
6.49556065 -2.05924368 1.43857813
7.17307758 -1.15772307 1.59912086
7.09643316 -1.16171110 1.90670788
6.80149269 -1.61450446 1.82221258
6.42656136 -2.06289387 1.71693206
6.71528769 -1.61832070 2.11345887
6.34531832 -2.06652069 1.99204779
7.00618744 -1.16566598 2.21071601
6.90252686 -1.16957891 2.51057196
6.61627197 -1.62210059 2.40072656
6.25199938 -2.07011223 2.26340508
6.50461912 -1.62583601 2.68346524
6.14676905 -2.07365942 2.53048468
6.78563976 -1.17343998 2.80570030
6.65575838 -1.17724347 3.09554505
6.38055563 -1.62952077 2.96114159
6.02985668 -2.07710814 2.79278183
6.24430466 -1.63314772 3.23322082
5.90149069 -2.08041072 3.04979229
6.51311827 -1.18098307 3.37954712
6.35800648 -1.18464983 3.65717268
6.09613991 -1.63670957 3.49919176
5.76191330 -2.08359766 3.30103254
5.93632984 -1.64020002 3.75853968
5.61136723 -2.08670330 3.54601622
6.19070292 -1.18823838 3.92788625
6.01153708 -1.19174123 4.19118023
5.76519108 -1.64361119 4.01077986
5.45014811 -2.08972120 3.78428650
5.58303690 -1.64693868 4.25542641
5.27855253 -2.09264421 4.01538277
5.82083654 -1.19515240 4.44654655
5.61898041 -1.19840384 4.69350719
5.39027929 -1.64993715 4.49202013
5.09700394 -2.09511399 4.23887253
5.18733263 -1.65236604 4.72010231
4.90592861 -2.09677243 4.45432329
5.40634489 -1.20143366 4.93158627
5.18374729 -1.20405746 5.16029835
4.97482967 -1.65420973 4.93921614
4.70573378 -2.09776831 4.66131067
4.75340223 -1.65544724 5.14890051
4.49682522 -2.09825206 4.85941267
4.95200348 -1.20609617 5.37916470
4.71160793 -1.20763028 5.58769894
4.52336597 -1.65620637 5.34869766
4.27954388 -2.09835434 5.04819489
4.05422831 -2.09821010 5.22722483
4.28504372 -1.65661216 5.53814745
4.46305275 -1.20874226 5.78541470
4.20644617 -1.20954573 5.97196484
4.03875303 -1.65673888 5.71691704
3.82128143 -2.09783578 5.39619064
3.58110166 -2.09725356 5.55478096
3.78481817 -1.65665913 5.88467741
3.94189119 -1.21015561 6.14700556
3.66989303 -1.21057093 6.31022739
3.52372599 -1.65637434 6.04112959
3.33415437 -2.09646130 5.70271444
3.25596690 -1.65588546 6.18597794
3.08090043 -2.09546351 5.83971024
3.39094830 -1.21078968 6.46132040
3.10559702 -1.21081185 6.60002375
2.98205853 -1.65519202 6.31896925
2.82182932 -2.09425879 5.96550989
2.70251656 -1.65429461 6.43985128
2.55743122 -2.09285259 6.07985258
2.81437683 -1.21063709 6.72607470
2.51784658 -1.21026731 6.83926535
2.41787696 -1.65319610 6.54842186
2.28821135 -2.09124446 6.18256617
2.12867880 -1.65189850 6.64448309
2.01467943 -2.08944011 6.27347231
2.21656632 -1.20970166 6.93938589
1.91111338 -1.20894217 7.02627611
1.83547449 -1.65040505 6.72788239
1.73735905 -2.08744216 6.35242701
1.53882015 -1.64871764 6.79846382
1.45677459 -2.08525348 6.41928530
1.60206628 -1.20799029 7.09978533
1.29001582 -1.20684636 7.15980577
1.23928261 -1.64683974 6.85613155
1.17346382 -2.08288050 6.47395182
0.93743128 -1.64477515 6.90078592
0.88796407 -2.08032513 6.51633358
0.97555363 -1.20551336 7.20623541
0.65928119 -1.20399547 7.23902655
0.63384128 -1.64252627 6.93237782
0.60082024 -2.07759404 6.54638004
0.32908973 -1.64009941 6.95085669
0.31257766 -2.07469177 6.56404257
0.34179777 -1.20229268 7.25812817
0.02269004 -1.20088339 7.26348114
0.02236991 -1.63814294 6.95617390
0.02210271 -2.07237840 6.56928158
-0.28712195 -1.63730597 6.94827604
-0.27173769 -2.07141089 6.56205702
-0.29845494 -1.20024490 7.25502396
-0.62004715 -1.19992471 7.23288155
-0.59746528 -1.63697267 6.92727137
-0.56677133 -2.07107162 6.54245806
-0.90674001 -1.63652396 6.89326859
-0.86082947 -2.07064104 6.51057529
-0.94049388 -1.19946480 7.19717264
-1.25914609 -1.19884884 7.14800835
-1.21430194 -1.63593352 6.84637117
-1.15327740 -2.07008243 6.46650648
-1.51950502 -1.63517785 6.78668308
-1.44348276 -2.06936932 6.41034937
-1.57535577 -1.19805920 7.08550167
-1.88852179 -1.19709718 7.00980425
-1.82177079 -1.63425565 6.71435165
-1.73089600 -2.06849885 6.34224129
-2.12052155 -1.63317108 6.62952948
-2.01496601 -2.06747413 6.26232195
-2.19804502 -1.19596636 6.92107964
-2.50333977 -1.19466496 6.81953287
-2.41519070 -1.63192558 6.53241348
-2.29515481 -2.06629705 6.17077875
-2.70521331 -1.63052273 6.42320013
-2.57092643 -2.06497073 6.06779194
-2.80382180 -1.19319892 6.70537090
-3.09892178 -1.19156909 6.57884169
-2.99004269 -1.62896049 6.30212736
-2.84175873 -2.06349659 5.95353270
-3.26913047 -1.62724495 6.16943312
-3.10713172 -2.06187558 5.82816744
-3.38807487 -1.18977952 6.44019842
-3.67073488 -1.18783319 6.28973532
-3.54195213 -1.62538099 6.02540016
-3.36654854 -2.06011391 5.69200087
-3.80798197 -1.62336934 5.87030745
-3.61950541 -2.05821395 5.54533911
-3.94635653 -1.18573403 6.12774467
-4.21442509 -1.18348598 5.95456123
-4.06671953 -1.62121558 5.70447254
-3.86552858 -2.05617929 5.38847589
-4.31766558 -1.61892390 5.52821112
-4.10414362 -2.05401468 5.22171259
-4.47442007 -1.18109322 5.77052069
-4.72644567 -1.17855954 5.57593822
-4.56047440 -1.61649776 5.34152746
-4.33493567 -2.05172300 5.04483843
-4.79480600 -1.61394107 5.14442396
-4.55748892 -2.04930878 4.85764885
-4.97060537 -1.17589283 5.37112999
-5.20641279 -1.17309308 5.15577316
-5.02045298 -1.61126089 4.93695879
-4.77141428 -2.04677629 4.66058636
-5.23721075 -1.60845959 4.71919250
-4.97631979 -2.04413104 4.45409584
-5.43338156 -1.17017150 4.92954302
-5.65060520 -1.16712832 4.69295168
-5.44421673 -1.60554564 4.49179316
-5.17152739 -2.04137754 4.23881674
-5.64060545 -1.60252190 4.25542784
-5.35635853 -2.03852201 4.01538467
-5.85717440 -1.16397309 4.44651127
-6.05273867 -1.16070950 4.19117355
-5.82627487 -1.59939563 4.01078320
-5.53088522 -2.03556776 3.78428817
-6.00112104 -1.59617305 3.75854158
-5.69517374 -2.03252435 3.54601884
-6.23694563 -1.15734494 3.92788887
-6.40943813 -1.15388680 3.65717506
-6.16480398 -1.59285808 3.49919271
-5.84890604 -2.02939343 3.30103326
-6.31698132 -1.58945930 3.23322248
-5.99176359 -2.02618337 3.04979324
-6.56984043 -1.15033889 3.37954903
-6.71783829 -1.14670932 3.09554553
-6.45734453 -1.58598280 2.96114230
-6.12341309 -2.02289796 2.79278255
-6.58558702 -1.58243477 2.68346596
-6.24351931 -2.01954627 2.53048491
-6.85310268 -1.14300501 2.80570173
-6.97535181 -1.13923383 2.51057291
-6.70144415 -1.57882178 2.40072656
-6.35187531 -2.01613474 2.26340508
-6.80464792 -1.57515097 2.11345911
-6.44826651 -2.01266670 1.99204779
-7.08430338 -1.13540292 2.21071625
-7.17971420 -1.13151777 1.90670788
-6.89497042 -1.57142937 1.82221258
-6.53252935 -2.00915146 1.71693206
-6.97218895 -1.56766450 1.52753890
-6.60449409 -2.00559473 1.43857813
-7.26134968 -1.12758803 1.59912086
-7.32901382 -1.12361956 1.28854525
-7.03612709 -1.56386256 1.23000097
-6.66400385 -2.00200486 1.15751970
-6.71089363 -1.99838543 0.87428910
-7.08660650 -1.56003118 0.93016452
-7.38252687 -1.11961985 0.97556990
-7.42174292 -1.11559689 0.66079193
-7.12350130 -1.55617690 0.62860161
-6.74504519 -1.99474382 0.58942831
-7.14667034 -1.55230808 0.32588497
-6.76633358 -1.99108911 0.30347717
-7.44651890 -1.11155879 0.34480950
-7.45675898 -1.10751367 0.02722225
-7.15603113 -1.54843390 0.02146704
-6.77468586 -1.98742843 0.01575983
-7.15149736 -1.54455745 -0.28519863
-6.77002287 -1.98376775 -0.27439806
-7.45236969 -1.10346889 -0.29237059
-7.43332958 -1.09943080 -0.61235583
-7.13304996 -1.54068923 -0.59240204
-6.75232840 -1.98011339 -0.56522256
-7.10066891 -1.53683579 -0.89843404
-6.72158909 -1.97647297 -0.85493833
-7.39961576 -1.09540868 -0.93112105
-7.35125875 -1.09140861 -1.24806118
-7.05438519 -1.53300440 -1.20271397
-7.10066891 -1.53683579 -0.89843404
-7.39961576 -1.09540868 -0.93112105
-6.67783165 -1.97285473 -1.14299464
-6.72158909 -1.97647297 -0.85493833
-6.99422932 -1.52920175 -1.50466084
-6.62109566 -1.96926355 -1.42884314
-7.28828573 -1.08743966 -1.56257129
-7.21078110 -1.08350992 -1.87405407
-6.92028427 -1.52543724 -1.80370176
-6.55145454 -1.96570623 -1.71194065
-6.83262873 -1.52171457 -2.09926414
-6.46898842 -1.96219015 -1.99174452
-7.11883116 -1.07962525 -2.18191433
-7.01257610 -1.07579350 -2.48556876
-6.73140812 -1.51804483 -2.39079022
-6.37378931 -1.95872259 -2.26772666
-6.61675739 -1.51443148 -2.67771912
-6.26595116 -1.95531034 -2.53935862
-6.89216518 -1.07202160 -2.78443670
-6.75780582 -1.06831801 -3.07795358
-6.48887873 -1.51088309 -2.95951128
-6.14569616 -1.95195889 -2.80612659
-6.34796858 -1.50740647 -3.23562217
-6.01325035 -1.94867516 -3.06751704
-6.60970163 -1.06468928 -3.36555290
-6.44811916 -1.06114161 -3.64669538
-6.19428062 -1.50400698 -3.50553441
-5.86885977 -1.94546390 -3.32303810
-6.02806711 -1.50069427 -3.76872849
-5.71277475 -1.94233334 -3.57219887
-6.27331972 -1.05768311 -3.92083955
-6.08562231 -1.05431783 -4.18750525
-5.84963560 -1.49747097 -4.02470732
-5.54528522 -1.93928826 -3.81452966
-5.65929127 -1.49434400 -4.27297783
-5.36668301 -1.93633592 -4.04956436
-5.88534164 -1.05105507 -4.44621372
-5.67287874 -1.04789937 -4.69801521
-5.45774364 -1.49132168 -4.51380539
-5.17785358 -1.93347979 -4.27704287
-5.24569893 -1.48840702 -4.74745703
-4.97968817 -1.93072665 -4.49671364
-5.44863653 -1.04485762 -4.94396019
-5.21505451 -1.04193461 -5.18366957
-5.02477884 -1.48560691 -4.97428179
-4.77284718 -1.92808211 -4.70894575
-4.55799294 -1.92554963 -4.91411066
-4.79660797 -1.48292625 -5.19463158
-4.97456217 -1.03913605 -5.41676378
-4.72759724 -1.03646815 -5.64113235
-4.56099844 -1.48036969 -5.40742588
-4.33511972 -1.92313433 -5.11233139
-4.10422564 -1.92084301 -5.30372953
-4.31776524 -1.47794306 -5.61158228
-4.47459555 -1.03393567 -5.85466099
-4.21455383 -1.03154254 -6.05666113
-4.06682301 -1.47565103 -5.80555439
-3.86561418 -1.91867769 -5.48619795
-3.61959338 -1.91664302 -5.65763330
-3.80808878 -1.47349691 -5.98779631
-3.94647002 -1.02929413 -6.24644709
-3.67084908 -1.02719486 -6.42366934
-3.54206038 -1.47148681 -6.15797329
-3.36663628 -1.91474295 -5.81771946
-3.10722160 -1.91298199 -5.96614027
-3.26923800 -1.46962202 -6.31575012
-3.38818884 -1.02524889 -6.58797693
-3.09903264 -1.02345932 -6.73907280
-2.99014664 -1.46790719 -6.46084070
-2.84184480 -1.91136181 -6.10280085
-2.57100821 -1.90988719 -6.22760582
-2.70531249 -1.46634614 -6.59295130
-2.80392647 -1.02182949 -6.87665367
-2.50343776 -1.02036273 -7.00046587
-2.41528249 -1.46494067 -6.71184683
-2.29523134 -1.90855980 -6.34011412
-2.01503539 -1.90738320 -6.43989515
-2.12060595 -1.46369481 -6.81728840
-2.19813466 -1.01906168 -7.11027145
-1.88860142 -1.01792932 -7.20586872
-1.82184601 -1.46261024 -6.90908384
-1.73095787 -1.90635800 -6.52676439
-1.44353628 -1.90548801 -6.60054255
-1.51956904 -1.46168840 -6.98704815
-1.57542431 -1.01696849 -7.28706074
-1.25920248 -1.01617849 -7.35370588
-1.21435416 -1.46093190 -7.05104494
-1.15332043 -1.90477324 -6.66110563
-0.86086178 -1.90421629 -6.70832634
-0.90677953 -1.46034193 -7.10094118
-0.94053644 -1.01556373 -7.40566921
-0.62007517 -1.01514161 -7.44286299
-0.59749120 -1.45994651 -7.13665915
-0.56679302 -1.90385139 -6.74212599
-0.27174756 -1.90371084 -6.76242542
-0.28713423 -1.45977437 -7.15811300
-0.29846871 -1.01493347 -7.46520567
0.02268868 -1.01539648 -7.47266150
0.02236873 -1.46044338 -7.16527414
0.02210153 -1.90451920 -6.76920366
0.32909486 -1.46257269 -7.15811300
0.31258121 -1.90699613 -6.76242542
0.34180331 -1.01698577 -7.46520567
0.65929085 -1.01922250 -7.44286299
0.63385057 -1.46551144 -7.13665915
0.60082680 -1.91038132 -6.74212599
0.93744510 -1.46860850 -7.10094118
0.88797355 -1.91391361 -6.70832634
0.97556782 -1.02162731 -7.40566921
1.29003453 -1.02419627 -7.35370588
1.23930049 -1.47185731 -7.05104637
1.17347538 -1.91758513 -6.66110563
1.53884101 -1.47525156 -6.98704529
1.45678806 -1.92139089 -6.60054255
1.60208821 -1.02692425 -7.28706074
1.91113901 -1.02980518 -7.20586872
1.83549833 -1.47878671 -6.90908384
1.73737371 -1.92532301 -6.52676439
2.12870455 -1.48245311 -6.81728697
2.01469612 -1.92937267 -6.43989515
2.21659470 -1.03283262 -7.11027002
2.51787782 -1.03600299 -7.00046587
2.41790652 -1.48624575 -6.71184683
2.28823042 -1.93353355 -6.34011602
2.70254850 -1.49015594 -6.59295273
2.55745196 -1.93779743 -6.22760725
2.81441140 -1.03930926 -6.87665367
3.10563350 -1.04274487 -6.73907423
2.98209310 -1.49417853 -6.46084213
2.82185268 -1.94215608 -6.10280371
3.25600219 -1.49830270 -6.31575155
3.08092356 -1.94659948 -5.96614027
3.39098668 -1.04630339 -6.58797693
3.66993046 -1.04997766 -6.42366934
3.52376151 -1.50252140 -6.15797281
3.33417630 -1.95112121 -5.81771851
3.78485322 -1.50682819 -5.98779583
3.58112431 -1.95571208 -5.65763330
3.94193077 -1.05376124 -6.24644709
4.20649719 -1.05764663 -6.05666542
4.03878784 -1.51121497 -5.80555439
3.82130265 -1.96036267 -5.48619890
4.28507614 -1.51566970 -5.61158276
4.05424881 -1.96506429 -5.30373001
4.46314287 -1.06162608 -5.85467577
4.71225309 -1.06557608 -5.64134932
4.52362537 -1.52011430 -5.40751410
4.27961922 -1.96979189 -5.11235523
4.75434637 -1.52446389 -5.19498444
4.49707127 -1.97451580 -4.91419983
4.95421314 -1.06937289 -5.41755676
5.18839693 -1.07292616 -5.18542385
4.97706699 -1.52858424 -4.97515678
4.70645142 -1.97909653 -4.70922756
5.19161844 -1.53233814 -4.74919462
4.90761137 -1.98338890 -4.49739933
5.41417837 -1.07614219 -4.94707680
5.63013935 -1.07919228 -4.70257759
5.39704084 -1.53573465 -4.51658916
5.10016203 -1.98723376 -4.27834749
5.28371716 -1.99047136 -4.05170250
5.59236765 -1.53877640 -4.27683353
5.83486557 -1.08224833 -4.45199156
6.02790546 -1.08536077 -4.19425583
5.77686787 -1.54169869 -4.02953434
5.45736885 -1.99344993 -3.81752229
5.62020302 -1.99651873 -3.57586217
5.94980812 -1.54473031 -3.77430153
6.20880842 -1.08858442 -3.92831087
6.37726641 -1.09191287 -3.65464401
6.11089182 -1.54786527 -3.51163745
5.77193642 -1.99967217 -3.32719493
5.91228962 -2.00290370 -3.07199478
6.25981712 -1.55109835 -3.24203992
6.53296947 -1.09533799 -3.37374544
6.67566586 -1.09885478 -3.08616900
6.39634514 -1.55442309 -2.96604300
6.04105997 -2.00616860 -2.81077147
6.15804863 -2.00942063 -2.54403615
6.52022791 -1.55783391 -2.68417692
6.80509710 -1.10245764 -2.79246759
6.92107058 -1.10613823 -2.49322200
6.63127565 -1.56132209 -2.39699864
6.26302099 -2.01269722 -2.27229786
6.72930050 -1.56488240 -2.10506344
6.35574102 -2.01604033 -1.99606764
7.02338552 -1.10988951 -2.18901300
7.11190844 -1.11370397 -1.88044274
6.81416750 -1.56850970 -1.80894756
6.43608141 -2.01944470 -1.71588969
6.88574648 -1.57219517 -1.50922883
6.50391626 -2.02290821 -1.43230748
7.18650150 -1.11757505 -1.56811059
5.57312632 -2.93155551 -0.48763478
6.11110973 -2.51128578 -0.52819628
6.12744427 -2.51462889 -0.25887546
5.58850765 -2.93462920 -0.24123950
6.13238907 -2.51799750 0.00954910
5.59338713 -2.93771219 0.00421963
6.12625694 -2.52138329 0.27512360
5.58791828 -2.94079757 0.24684606
6.10877180 -2.52477884 0.53877038
5.57197571 -2.94387889 0.48759663
6.07965851 -2.52817917 0.80141252
5.54543066 -2.94695139 0.72742879
6.03898716 -2.53157926 1.06255054
5.50834560 -2.95000935 0.96588826
5.98682642 -2.53497124 1.32168627
5.46078396 -2.95304966 1.20251954
5.92328262 -2.53834772 1.57832909
5.40284443 -2.95606327 1.43687379
5.84846306 -2.54170370 1.83198595
5.33462334 -2.95904398 1.66850150
5.76251888 -2.54501915 2.08217716
5.25625610 -2.96196699 1.89696479
5.66559792 -2.54827428 2.32842493
5.16787386 -2.96480823 2.12182713
5.55796432 -2.55128455 2.57026291
5.06975889 -2.96729040 2.34266210
5.43988037 -2.55386019 2.80722737
4.96219158 -2.96914196 2.55904770
5.31152773 -2.55615902 3.03887105
4.84530115 -2.97059369 2.77057385
5.17308903 -2.55833316 3.26474571
4.71922731 -2.97187972 2.97683263
5.02483606 -2.56037450 3.48442960
4.58421516 -2.97299695 3.17743802
4.86703968 -2.56228280 3.69750142
4.44051313 -2.97394204 3.37200403
4.70007038 -2.56381798 3.90355921
4.28841639 -2.97465634 3.56016707
4.52429533 -2.56474018 4.10220480
4.12822342 -2.97508216 3.74156117
4.34003878 -2.56517339 4.29305553
3.96023965 -2.97524619 3.91584420
4.14762545 -2.56524062 4.47573328
3.78477454 -2.97517967 4.08267689
3.94739723 -2.56502247 4.64985704
3.60216165 -2.97490144 4.24173689
3.73969650 -2.56460118 4.81504965
3.41273522 -2.97443509 4.39270401
3.52492785 -2.56397581 4.97101736
3.21686220 -2.97378039 4.53530216
3.30349183 -2.56314778 5.11746836
3.01490855 -2.97293973 4.66925573
3.07581568 -2.56212234 5.25413847
2.80726361 -2.97191310 4.79432058
2.84232616 -2.56089640 5.38076401
2.59431601 -2.97070336 4.91025305
2.60347176 -2.55947447 5.49705029
2.37647676 -2.96931100 5.01673460
2.35970640 -2.55785847 5.60269547
2.15415764 -2.96774173 5.11345053
2.11149645 -2.55605268 5.69758654
1.92778492 -2.96599650 5.20032501
1.85931027 -2.55406046 5.78160620
1.69778669 -2.96408057 5.27728462
1.60363090 -2.55188417 5.85461855
1.46460235 -2.96199489 5.34420300
1.34494269 -2.54952860 5.91648960
1.22867393 -2.95974231 5.40095568
1.08374107 -2.54699874 5.96712971
0.99045300 -2.95732999 5.44745874
0.82052147 -2.54429936 6.00645113
0.75039130 -2.95476317 5.48362684
0.55578595 -2.54143620 6.03440428
0.50894785 -2.95204496 5.50941467
0.29003724 -2.53841233 6.05094385
0.26657987 -2.94918108 5.52477646
0.02186844 -2.53601146 6.05604172
0.02169308 -2.94690633 5.52969122
-0.25012729 -2.53501511 6.04966879
-0.22730669 -2.94595861 5.52414131
-0.52360600 -2.53468227 6.03189611
-0.47799265 -2.94564199 5.50817537
-0.79622668 -2.53427863 6.00279284
-0.72793913 -2.94526887 5.48184586
-1.06737840 -2.53376484 5.96244764
-0.97656238 -2.94479990 5.44522810
-1.33645117 -2.53310752 5.91094685
-1.22327876 -2.94420052 5.39839792
-1.60293436 -2.53230548 5.84841824
-1.46762180 -2.94346833 5.34146690
-1.70912266 -2.94260454 5.27454853
-1.86631811 -2.53136015 5.77498579
-2.12610388 -2.53027391 5.69081879
-1.94732404 -2.94161224 5.19778919
-2.18176913 -2.94049406 5.11133909
-2.38179350 -2.52904963 5.59608412
-2.63290405 -2.52769136 5.49076319
-2.41201687 -2.93925309 5.01504850
-2.63762379 -2.93788886 4.90877199
-2.87895322 -2.52619600 5.37483883
-3.11947846 -2.52457190 5.24871445
-2.85816503 -2.93640566 4.79296589
-3.07321692 -2.93480682 4.66808653
-3.35401487 -2.52282071 5.11279058
-3.58212352 -2.52094507 4.96733665
-3.28237343 -2.93309283 4.53438282
-3.48523211 -2.93127012 4.39209938
-3.80336380 -2.51894879 4.81262732
-4.01732111 -2.51683640 4.64860725
-3.68141413 -2.92934132 4.24142551
-3.87053990 -2.92730856 4.08254766
-4.22358322 -2.51461005 4.47521734
-4.42173719 -2.51227522 4.29292679
-4.05224991 -2.92517686 3.91581202
-4.22617817 -2.92294955 3.74156189
-4.61136913 -2.50983620 4.10220480
-4.79198122 -2.50729775 3.90356040
-4.39196920 -2.92063046 3.56016850
-4.54926300 -2.91822791 3.37200618
-4.96307802 -2.50466466 3.69750261
-5.12461805 -2.50194311 3.48443198
-4.69783926 -2.91574192 3.17743945
-4.83747101 -2.91317892 2.97683358
-5.27656174 -2.49913526 3.26474762
-5.41861963 -2.49624968 3.03887177
-4.96790409 -2.91054344 2.77057457
-5.08887672 -2.90783834 2.55904865
-5.55050516 -2.49328852 2.80722809
-5.67176676 -2.49026060 2.57026339
-5.19987202 -2.90507436 2.34266329
-5.78195381 -2.48717070 2.32842493
-5.30037117 -2.90225220 2.12182713
-5.88099194 -2.48402381 2.08217788
-5.39039612 -2.89937878 1.89696515
-5.96880531 -2.48082709 1.83198595
-5.46997309 -2.89646029 1.66850173
-6.04537630 -2.47758651 1.57832909
-5.53918982 -2.89350080 1.43687403
-6.11068678 -2.47430682 1.32168627
-5.59813881 -2.89050555 1.20251954
-6.16459799 -2.47099543 1.06255054
-5.64669466 -2.88748097 0.96588826
-6.20695972 -2.46765852 0.80141163
-5.68473434 -2.88443470 0.72742879
-6.23766804 -2.46430302 0.53876996
-5.71216583 -2.88137054 0.48759601
-6.25661612 -2.46093321 0.27512300
-5.72889757 -2.87829423 0.24684548
-6.26373768 -2.45755720 0.00967142
-5.73487997 -2.87521148 0.00428070
-6.25896883 -2.45418143 -0.25838229
-5.73005962 -2.87212801 -0.24099462
-6.24229670 -2.45081115 -0.52722472
-5.71443272 -2.86905098 -0.48715580
-6.21370888 -2.44745636 -0.79504263
-5.68799353 -2.86598587 -0.73237813
-6.17324018 -2.44412041 -1.06132686
-6.21370888 -2.44745636 -0.79504263
-5.65077925 -2.86294031 -0.97619700
-5.68799353 -2.86598587 -0.73237813
-6.12092304 -2.44080806 -1.32556999
-5.60282469 -2.85991669 -1.21814656
-6.05683231 -2.43752909 -1.58726990
-5.54420519 -2.85692167 -1.45776725
-5.98104334 -2.43428826 -1.84592521
-5.47499323 -2.85396266 -1.69460058
-5.89351177 -2.43109012 -2.10104775
-5.39505816 -2.85104156 -1.92819905
-5.79419804 -2.42794466 -2.35214829
-5.30426502 -2.84816885 -2.15811467
-5.68342113 -2.42485356 -2.59875202
-5.20299387 -2.84534693 -2.38391304
-5.56149769 -2.42182612 -2.84038568
-5.09162474 -2.84258294 -2.60516071
-5.42868662 -2.41886663 -3.07659388
-4.97042036 -2.83987951 -2.82144094
-5.28525257 -2.41598010 -3.30692172
-4.83964348 -2.83724380 -3.03233647
-5.13146591 -2.41317225 -3.53093696
-4.69955015 -2.83467984 -3.23745203
-4.96759939 -2.41044903 -3.74820662
-4.55039358 -2.83219337 -3.43639207
-4.79433680 -2.40781546 -3.95832443
-4.39255667 -2.82978916 -3.62878251
-4.61236477 -2.40527725 -4.16088581
-4.22642565 -2.82747221 -3.81425452
-4.42201662 -2.40283966 -4.35597897
-4.05231714 -2.82524514 -3.99257541
-4.22362423 -2.40050411 -4.54369450
-3.87054944 -2.82311440 -4.16351509
-4.01736355 -2.39827895 -4.72421837
-3.68142390 -2.82108140 -4.32689047
-3.80340695 -2.39616466 -4.89774084
-3.48524141 -2.81915188 -4.48252010
-3.58217049 -2.39416933 -5.06277180
-3.28238320 -2.81732821 -4.62982082
-3.07322669 -2.81561446 -4.76821518
-3.35406303 -2.39229369 -5.21782303
-3.11952734 -2.39054132 -5.36261177
-2.85817766 -2.81401515 -4.89744711
-2.63763571 -2.81253171 -5.01726198
-2.87900329 -2.38891745 -5.49684858
-2.63295174 -2.38742399 -5.62099218
-2.41202879 -2.81116843 -5.12849331
-2.18178058 -2.80992603 -5.23197412
-2.38183808 -2.38606381 -5.73549747
-2.12614608 -2.38483977 -5.83931208
-1.94733369 -2.80880857 -5.32625198
-1.70913112 -2.80781794 -5.40987253
-1.86635661 -2.38375497 -5.93138838
-1.60296893 -2.38281083 -6.01155329
-1.46762955 -2.80695558 -5.48267937
-1.22328568 -2.80622339 -5.54451561
-1.33648026 -2.38200808 -6.07963848
-1.06740248 -2.38134980 -6.13552904
-0.97656727 -2.80562258 -5.59527493
-0.72794306 -2.80515385 -5.63485098
-0.79624462 -2.38083673 -6.17910433
-0.52361751 -2.38050580 -6.21029758
-0.47799483 -2.80485511 -5.66318130
-0.25013217 -2.38039589 -6.22903156
-0.22730726 -2.80476737 -5.68019724
0.02186727 -2.38124490 -6.23528624
0.02169210 -2.80558085 -5.68587685
0.29003668 -2.38379431 -6.22903156
0.26657614 -2.80798793 -5.68019724
0.55578440 -2.38726091 -6.21029758
0.50893939 -2.81125450 -5.66318274
0.82051969 -2.39086032 -6.17910480
0.75037891 -2.81464124 -5.63485193
1.08373857 -2.39458752 -6.13552904
0.99043661 -2.81814504 -5.59527493
1.34493876 -2.39843535 -6.07963943
1.22865319 -2.82175851 -5.54451561
1.60362566 -2.40239644 -6.01155424
1.46457767 -2.82547259 -5.48267984
1.85930371 -2.40646148 -5.93138885
1.69775867 -2.82928371 -5.40987349
2.11148953 -2.41062617 -5.83931398
1.92775524 -2.83318186 -5.32625294
2.35970068 -2.41487932 -5.73549891
2.15412641 -2.83716130 -5.23197556
2.60346675 -2.41921544 -5.62099314
2.37644410 -2.84121394 -5.12849379
2.84231901 -2.42362452 -5.49684858
2.59428120 -2.84533095 -5.01726198
3.07580733 -2.42809796 -5.36261082
2.80722618 -2.84950709 -4.89744711
3.30348277 -2.43262744 -5.21782303
3.01486969 -2.85373235 -4.76821518
3.52491784 -2.43720531 -5.06277180
3.21682143 -2.85799837 -4.62982130
3.73968482 -2.44182205 -4.89774132
3.41269398 -2.86229849 -4.48252010
3.94738364 -2.44646883 -4.72421885
3.60211849 -2.86662316 -4.32689190
4.14761066 -2.45113754 -4.54369450
3.78472996 -2.87096524 -4.16351509
4.34014511 -2.45573878 -4.35602903
3.96022534 -2.87529421 -3.99258876
4.52476168 -2.46018267 -4.16108656
4.12829828 -2.87958431 -3.81430459
4.70122194 -2.46433568 -3.95881104
4.28866386 -2.88379622 -3.62890434
4.86928463 -2.46806359 -3.74914646
4.44103479 -2.88788819 -3.43662667
5.02825642 -2.47159815 -3.53236461
4.58503294 -2.89191508 -3.23780990
5.17744255 -2.47516966 -3.30873799
4.72028112 -2.89592576 -3.03279090
5.31657982 -2.47876930 -3.07869935
4.84653330 -2.89991236 -2.82196784
5.44540167 -2.48238969 -2.84268522
4.96354294 -2.90386772 -2.60573554
5.56382370 -2.48586702 -2.60119081
5.07130671 -2.90754795 -2.38456845
5.67176151 -2.48903799 -2.35471249
5.16982079 -2.91070914 -2.15893412
5.76882696 -2.49207520 -2.10367203
5.25859785 -2.91361380 -1.92918265
5.85463190 -2.49515510 -1.84849238
5.33715391 -2.91653013 -1.69566166
5.92906141 -2.49828219 -1.58967376
5.40537739 -2.91947031 -1.45882797
5.99199486 -2.50146437 -1.32771826
5.46315670 -2.92244744 -1.21913791
6.04335785 -2.50469661 -1.06314194
5.51041842 -2.92545962 -0.97706056
6.08307171 -2.50797343 -0.79645932
5.54708576 -2.92849612 -0.73306757
4.97643805 -3.23123336 1.32303655
4.91370249 -3.23371124 1.53682375
4.84163713 -3.23610258 1.74768972
4.76036787 -3.23838472 1.95523179
4.67012215 -3.24037910 2.15905786
4.57113647 -3.24189854 2.35877585
4.46355104 -3.24309969 2.55400991
4.34751368 -3.24413729 2.74438167
4.22324896 -3.24500871 2.92953563
4.09098577 -3.24571085 3.10911584
3.95098305 -3.24624467 3.28278494
3.80350041 -3.24660969 3.45020771
3.64882493 -3.24680543 3.61106992
3.48724556 -3.24682808 3.76505947
3.31907558 -3.24667883 3.91188788
3.14463234 -3.24636126 4.05126858
2.96425056 -3.24587321 4.18294430
2.77827072 -3.24521685 4.30665779
2.58704948 -3.24439430 4.42218065
2.39094448 -3.24340320 4.52928925
2.19033527 -3.24224782 4.62771320
1.98559976 -3.24092913 4.71718788
1.77713192 -3.23945212 4.79761648
1.56532514 -3.23781991 4.86890173
1.35058427 -3.23603368 4.93092346
1.13331616 -3.23409510 4.98356199
0.91393691 -3.23200941 5.02673340
0.69286293 -3.22978115 5.06035519
0.47051600 -3.22741556 5.08438015
0.24731806 -3.22491646 5.09875822
0.02160364 -3.22292471 5.10347176
-0.20829211 -3.22208095 5.09850502
-0.43995523 -3.22178745 5.08389091
-0.67097235 -3.22144198 5.05966282
-0.90078539 -3.22101092 5.02588606
-1.12883568 -3.22045660 4.98262405
-1.35469234 -3.21978164 4.92997503
-1.57792151 -3.21898389 4.86803770
-1.79810166 -3.21806812 4.79694176
-2.01480985 -3.21703720 4.71682119
-2.22763729 -3.21589208 4.62762213
-2.43617535 -3.21463370 4.52929020
-2.64003158 -3.21326375 4.42218208
-2.83881211 -3.21178651 4.30665827
-3.03214526 -3.21020555 4.18294525
-3.21965694 -3.20852304 4.05126953
-3.40099669 -3.20674205 3.91188812
-3.57581472 -3.20486617 3.76506019
-3.74378252 -3.20290065 3.61107063
-3.90457010 -3.20084429 3.45020890
-4.05788231 -3.19870353 3.28278685
-4.20341921 -3.19648457 3.10911679
-4.34091139 -3.19419122 2.92953682
-4.47008848 -3.19182515 2.74438286
-4.59071350 -3.18939090 2.55401063
-4.70254993 -3.18689537 2.35877657
-4.80519724 -3.18434381 2.15905809
-4.89825392 -3.18173862 1.95523179
-4.98169088 -3.17908740 1.74769032
-5.05547953 -3.17639399 1.53682375
-5.11964560 -3.17366147 1.32303655
-5.17421675 -3.17089748 1.10673344
-5.21908522 -3.16810632 0.88832808
-5.25414944 -3.16529393 0.66823512
-5.27933407 -3.16246557 0.44687548
-5.29456425 -3.15962601 0.22466859
-5.29980564 -3.15678072 0.00066640
-5.29502344 -3.15393519 -0.22607866
-5.28022289 -3.15109658 -0.45376125
-5.25540876 -3.14826870 -0.68057543
-5.22062492 -3.14545655 -0.90609127
-5.25540876 -3.14826870 -0.68057543
-5.17591858 -3.14266515 -1.12987816
-5.12136793 -3.13990116 -1.35151112
-5.05704927 -3.13716817 -1.57056594
-4.98291683 -3.13447332 -1.78662896
-4.89892101 -3.13182402 -1.99928510
-4.80536461 -3.12921810 -2.20813346
-4.70254946 -3.12666678 -2.41277242
-4.59071302 -3.12417173 -2.61281657
-4.47008753 -3.12173820 -2.80788088
-4.34091091 -3.11937118 -2.99759865
-4.20341825 -3.11707807 -3.18160415
-4.05788136 -3.11485863 -3.35955238
-3.90456891 -3.11271811 -3.53110123
-3.74378061 -3.11066318 -3.69592905
-3.57581258 -3.10869622 -3.85371017
-3.40099382 -3.10682082 -4.00415659
-3.21965480 -3.10503960 -4.14697075
-3.03214335 -3.10335588 -4.28189230
-2.83880997 -3.10177541 -4.40865421
-2.64003038 -3.10029840 -4.52702475
-2.43617511 -3.09892941 -4.63677025
-2.22763729 -3.09767056 -4.73839235
-2.01480889 -3.09652376 -4.83238888
