-9.92114735 4.62247467 1.25333190
-9.91537762 4.66074657 1.25260305
-9.91537762 4.66074657 1.25260305
-9.86144924 4.68434858 1.24579024
-9.79300022 4.65180445 1.23714316
-9.71806240 4.58138466 1.22767639
-9.64467239 4.49136257 1.21840501
-9.58086300 4.40000534 1.21034408
-9.53466702 4.32558489 1.20450819
-9.51412106 4.28637171 1.20191264
-9.30219936 3.65040445 1.17514086
-8.84430504 2.12468219 1.11729586
-8.76060486 1.87408960 1.10672188
-8.67939472 1.61280596 1.09646297
-8.59579468 1.33857024 1.08590174
-8.50491905 1.04912388 1.07442153
-8.40188503 0.74220705 1.06140518
-8.28180695 0.41555968 1.04623604
-8.13980198 0.06692202 1.02829659
-8.10047340 -0.03360480 1.02332842
-7.99452257 -0.30012041 1.00994372
-7.83999729 -0.68002731 0.99042273
-7.65494776 -1.12072802 0.96704561
-7.45742321 -1.56962514 0.94209266
-7.26547480 -1.97412121 0.91784388
-7.09714842 -2.28161883 0.89657956
-6.33008003 -3.50434661 0.79967642
-6.19089699 -3.69092226 0.78209358
-6.04555798 -3.86706018 0.76373315
-5.88955450 -4.02676344 0.74402523
-5.71837759 -4.16403770 0.72240061
-5.52751923 -4.27288580 0.69828957
-5.31247187 -4.34731245 0.67112273
-5.06872511 -4.38132191 0.64033043
-5.06872511 -4.38132191 0.64033043
-5.25193262 -4.64769745 1.34846842
-5.46143436 -4.56748819 1.40225959
-5.67042542 -4.45001411 1.45591938
-5.87543535 -4.30159855 1.50855708
-6.07299709 -4.12855625 1.55928218
-6.25964022 -3.93720102 1.60720408
-6.43189812 -3.73384881 1.65143239
-6.52704620 -3.60764074 1.67586195
-6.62900400 -3.46176982 1.70204031
-6.73840094 -3.29657578 1.73012877
-6.85586786 -3.11240101 1.76028907
-6.98203135 -2.90958357 1.79268241
-7.11752176 -2.68846560 1.82747042
-7.26296759 -2.44938731 1.86481440
-7.43149996 -2.13428640 1.90808630
-7.62376451 -1.72060716 1.95745134
-7.82166004 -1.26194906 2.00826192
-8.00708580 -0.81191212 2.05587125
-8.16194248 -0.42409563 2.09563184
-8.26813126 -0.15209933 2.12289619
-8.30754852 -0.04952283 2.13301706
-9.00880432 2.05035853 2.31306863
-9.46015358 3.64815593 2.42895484
-9.63432884 4.24891806 2.47367501
-9.64330101 4.28534985 2.47597861
-9.65472221 4.34356880 2.47891092
-9.66663742 4.41498184 2.48197055
-9.67709732 4.49100065 2.48465633
-9.68414688 4.56302834 2.48646617
-9.68583107 4.62247467 2.48689866
-9.68019962 4.66074657 2.48545241
-9.68019962 4.66074657 2.48545241
-9.62755108 4.68434858 2.47193456
-9.56072426 4.65180445 2.45477653
-9.48756409 4.58138466 2.43599224
-9.41591549 4.49136257 2.41759586
-9.35361862 4.40000534 2.40160084
-9.30851936 4.32558489 2.39002132
-9.28845978 4.28637171 2.38487077
-9.08156395 3.65040445 2.33174944
-8.63453102 2.12468219 2.21697140
-8.55281544 1.87408960 2.19599009
-8.47353268 1.61280596 2.17563391
-8.39191437 1.33857036 2.15467787
-8.30319500 1.04912412 2.13189840
-8.20260334 0.74220723 2.10607123
-8.08537292 0.41555980 2.07597184
-7.94673777 0.06692215 2.04037595
-7.90834236 -0.03360468 2.03051782
-7.80490351 -0.30012029 2.00395942
-7.65404320 -0.68002719 1.96522534
-7.47338295 -1.12072802 1.91883981
-7.28054428 -1.56962490 1.86932719
-7.09314728 -1.97412109 1.82121205
-6.92881536 -2.28161883 1.77901852
-6.17993927 -3.50434637 1.58674014
-6.04405880 -3.69092178 1.55185187
-5.90216637 -3.86705971 1.51542032
-5.74986362 -4.02676296 1.47631538
-5.58274603 -4.16403723 1.43340695
-5.39641428 -4.27288532 1.38556516
-5.18646765 -4.34731197 1.33165979
-4.94850206 -4.38132143 1.27056086
-4.94850206 -4.38132143 1.27056086
-5.04151154 -4.64769745 1.99607563
-5.24261951 -4.56748819 2.07570028
-5.44323778 -4.45001411 2.15513039
-5.64003372 -4.30159855 2.23304749
-5.82967949 -4.12855625 2.30813336
-6.00884581 -3.93720102 2.37907004
-6.17420244 -3.73384881 2.44453955
-6.26553726 -3.60764074 2.48070145
-6.36340952 -3.46176982 2.51945186
-6.46842384 -3.29657578 2.56103015
-6.58118439 -3.11240101 2.60567498
-6.70229292 -2.90958357 2.65362525
-6.83235502 -2.68846560 2.70512033
-6.97197390 -2.44938731 2.76039934
-7.13375425 -2.13428640 2.82445240
-7.31831455 -1.72060740 2.89752531
-7.50828075 -1.26194894 2.97273803
-7.68627882 -0.81191200 3.04321218
-7.83493137 -0.42409551 3.10206771
-7.93686581 -0.15209919 3.14242601
-7.97470379 -0.04952271 3.15740728
-8.64786339 2.05035877 3.42392945
-9.08113003 3.64815640 3.59547114
-9.24832630 4.24891853 3.66166878
-9.25693798 4.28534985 3.66507840
-9.26790142 4.34356880 3.66941929
-9.27934074 4.41498232 3.67394805
-9.28938103 4.49100065 3.67792344
-9.29614830 4.56302881 3.68060279
-9.29776478 4.62247515 3.68124318
-9.29235840 4.66074657 3.67910218
-9.29235840 4.66074657 3.67910218
-9.24181938 4.68434858 3.65909219
-9.17767048 4.65180492 3.63369417
-9.10744190 4.58138514 3.60588837
-9.03866291 4.49136305 3.57865715
-8.97886276 4.40000582 3.55498052
-8.93556976 4.32558537 3.53783965
-8.91631413 4.28637218 3.53021598
-8.71770859 3.65040493 3.45158219
-8.28858662 2.12468243 3.28168106
-8.21014404 1.87408984 3.25062370
-8.13403797 1.61280620 3.22049141
-8.05568981 1.33857048 3.18947124
-7.97052431 1.04912412 3.15575171
-7.87396288 0.74220735 3.11752081
-7.76142931 0.41555992 3.07296610
-7.62834787 0.06692224 3.02027512
-7.59149027 -0.03360459 3.00568247
-7.49219656 -0.30012017 2.96636939
-7.34738159 -0.68002707 2.90903306
-7.17395878 -1.12072778 2.84037066
-6.98884678 -1.56962490 2.76707935
-6.80895710 -1.97412109 2.69585657
-6.65120983 -2.28161883 2.63339925
-5.93233681 -3.50434637 2.34877825
-5.80189991 -3.69092178 2.29713464
-5.66569424 -3.86705971 2.24320674
-5.51949215 -4.02676296 2.18532157
-5.35906982 -4.16403723 2.12180614
-5.18020535 -4.27288532 2.05098820
-4.97866821 -4.34731197 1.97119462
-4.75023890 -4.38132143 1.88075256
-4.75023890 -4.38132143 1.88075256
-4.75158310 -4.64769745 2.61220479
-4.94112778 -4.56748819 2.71640730
-5.13020754 -4.45001411 2.82035518
-5.31568575 -4.30159855 2.92232251
-5.49442482 -4.12855625 3.02058554
-5.66328764 -3.93720102 3.11341882
-5.81913519 -3.73384833 3.19909644
-5.90521717 -3.60764050 3.24642062
-5.99746180 -3.46176958 3.29713225
-6.09643793 -3.29657578 3.35154438
-6.20271349 -3.11240053 3.40996957
-6.31685734 -2.90958357 3.47272110
-6.43943977 -2.68846560 3.54011130
-6.57102919 -2.44938731 3.61245298
-6.72350597 -2.13428640 3.69627762
-6.89745283 -1.72060716 3.79190564
-7.07649469 -1.26194894 3.89033461
-7.24425507 -0.81191182 3.98256183
-7.38435936 -0.42409536 4.05958462
-7.48043108 -0.15209909 4.11240005
-7.51609373 -0.04952257 4.13200617
-8.15054131 2.05035901 4.48079586
-8.55889130 3.64815593 4.70528746
-8.71647263 4.24891806 4.79191828
-8.72458839 4.28534985 4.79638052
-8.73492241 4.34356880 4.80206108
-8.74570274 4.41498184 4.80798769
-8.75516701 4.49100065 4.81319046
-8.76154423 4.56302834 4.81669664
-8.76306820 4.62247467 4.81753492
-8.75797176 4.66074657 4.81473303
-8.75797176 4.66074657 4.81473303
-8.71033859 4.68434858 4.78854656
-8.64988041 4.65180445 4.75530910
-8.58368969 4.58138466 4.71892071
-8.51886654 4.49136257 4.68328333
-8.46250439 4.40000534 4.65229845
-8.42170238 4.32558489 4.62986708
-8.40355301 4.28637171 4.61988974
-8.21636868 3.65040445 4.51698446
-7.81192493 2.12468266 4.29463959
-7.73799419 1.87408996 4.25399590
-7.66626358 1.61280632 4.21456194
-7.59242105 1.33857071 4.17396688
-7.51215363 1.04912436 4.12983942
-7.42114639 0.74220753 4.07980776
-7.31508541 0.41556007 4.02150011
-7.18965626 0.06692237 3.95254517
-7.15491867 -0.03360446 3.93344784
-7.06133509 -0.30012009 3.88200021
-6.92484760 -0.68002701 3.80696535
-6.76139784 -1.12072778 3.71710896
-6.58693075 -1.56962490 3.62119460
-6.41738749 -1.97412109 3.52798772
-6.26871014 -2.28161883 3.44625163
-5.59117985 -3.50434637 3.07377648
-5.46824455 -3.69092178 3.00619245
-5.33987093 -3.86705971 2.93561816
-5.20207644 -4.02676296 2.85986543
-5.05088139 -4.16403723 2.77674484
-4.88230085 -4.27288532 2.68406749
-4.69235516 -4.34731197 2.57964373
-4.47706127 -4.38132143 2.46128511
-4.47706127 -4.38132143 2.46128511
-4.38671970 -4.64769745 3.18713808
-4.56170797 -4.56748772 3.31427479
-4.73626900 -4.45001364 3.44110060
-4.90750504 -4.30159855 3.56551123
-5.07252026 -4.12855577 3.68540120
-5.22841597 -3.93720078 3.79866648
-5.37229586 -3.73384833 3.90320158
-5.45176840 -3.60764074 3.96094131
-5.53692961 -3.46176982 4.02281475
-5.62830448 -3.29657626 4.08920288
-5.72641850 -3.11240053 4.16048717
-5.83179808 -2.90958357 4.23704958
-5.94496822 -2.68846536 4.31927204
-6.06645250 -2.44938707 4.40753603
-6.20722103 -2.13428617 4.50980997
-6.36781168 -1.72060704 4.62648535
-6.53310490 -1.26194870 4.74657822
-6.68798399 -0.81191176 4.85910416
-6.81732988 -0.42409530 4.95307922
-6.90602446 -0.15209897 5.01751900
-6.93894863 -0.04952249 5.04144049
-7.52467823 2.05035901 5.46699715
-7.90167189 3.64815640 5.74089861
-8.04715252 4.24891853 5.84659624
-8.05464554 4.28534985 5.85204077
-8.06418514 4.34356880 5.85897112
-8.07413864 4.41498232 5.86620283
-8.08287525 4.49100065 5.87255001
-8.08876324 4.56302881 5.87682772
-8.09017086 4.62247515 5.87785053
-8.08546638 4.66074657 5.87443256
-8.08546638 4.66074657 5.87443256
-8.04148960 4.68434858 5.84248257
-7.98567390 4.65180492 5.80192900
-7.92456627 4.58138514 5.75753212
-7.86472034 4.49136305 5.71405172
-7.81268692 4.40000582 5.67624712
-7.77501631 4.32558537 5.64887857
-7.75826216 4.28637218 5.63670492
-7.58545065 3.65040493 5.51115084
-7.21206379 2.12468266 5.23986912
-7.14380884 1.87409019 5.19027948
-7.07758713 1.61280656 5.14216661
-7.00941515 1.33857071 5.09263706
-6.93531132 1.04912448 5.03879738
-6.85129166 0.74220753 4.97775364
-6.75337505 0.41556010 4.90661240
-6.63757706 0.06692246 4.82248068
-6.60550642 -0.03360436 4.79918098
-6.51910877 -0.30011997 4.73640919
-6.39310169 -0.68002689 4.64486027
-6.24220419 -1.12072766 4.53522635
-6.08113337 -1.56962478 4.41820192
-5.92461014 -1.97412086 4.30448008
-5.78734922 -2.28161860 4.20475483
-5.16184425 -3.50434589 3.75029945
-5.04834938 -3.69092155 3.66784024
-4.92983246 -3.86705947 3.58173323
-4.80261946 -4.02676249 3.48930740
-4.66303349 -4.16403675 3.38789225
-4.50739956 -4.27288532 3.27481675
-4.33203888 -4.34731197 3.14740992
-4.13327646 -4.38132143 3.00300097
-4.13327646 -4.38132143 3.00300097
-3.95267344 -4.64769745 3.71180797
-4.11034775 -4.56748772 3.85987401
-4.26763725 -4.45001411 4.00757885
-4.42192984 -4.30159855 4.15246964
-4.57061720 -4.12855625 4.29209614
-4.71108818 -3.93720102 4.42400742
-4.84073257 -3.73384881 4.54575062
-4.91234159 -3.60764074 4.61299610
-4.98907566 -3.46176982 4.68505478
-5.07140970 -3.29657626 4.76237154
-5.15981674 -3.11240053 4.84539080
-5.25476933 -2.90958309 4.93455744
-5.35674095 -2.68846512 5.03031540
-5.46620560 -2.44938707 5.13310957
-5.59304571 -2.13428617 5.25221968
-5.73774576 -1.72060704 5.38810253
-5.88668489 -1.26194870 5.52796507
-6.02623844 -0.81191164 5.65901518
-6.14278698 -0.42409521 5.76846075
-6.22270489 -0.15209888 5.84350872
-6.25237226 -0.04952240 5.87136793
-6.78014612 2.05035901 6.36698055
-7.11983824 3.64815640 6.68597174
-7.25092411 4.24891853 6.80907011
-7.25767612 4.28534985 6.81541014
-7.26627159 4.34356880 6.82348156
-7.27524042 4.41498232 6.83190346
-7.28311253 4.49100065 6.83929634
-7.28841782 4.56302881 6.84427834
-7.28968620 4.62247515 6.84546900
-7.28544712 4.66074657 6.84148788
-7.28544712 4.66074657 6.84148788
-7.24582195 4.68434858 6.80427837
-7.19552851 4.65180492 6.75704956
-7.14046764 4.58138514 6.70534325
-7.08654356 4.49136305 6.65470505
-7.03965759 4.40000582 6.61067724
-7.00571537 4.32558537 6.57880306
-6.99061871 4.28637218 6.56462574
-6.83490705 3.65040493 6.41840267
-6.49846315 2.12468266 6.10246229
-6.43696308 1.87409019 6.04470968
-6.37729359 1.61280656 5.98867655
-6.31586695 1.33857095 5.93099260
-6.24909449 1.04912460 5.86828995
-6.17338800 0.74220771 5.79719687
-6.08515930 0.41556022 5.71434498
-5.98082018 0.06692256 5.61636353
-5.95192337 -0.03360427 5.58922720
-5.87407446 -0.30011985 5.51612234
-5.76053524 -0.68002677 5.40950203
-5.62456751 -1.12072766 5.28182030
-5.47943449 -1.56962454 5.14553118
-5.33839655 -1.97412074 5.01308870
-5.21471834 -2.28161836 4.89694643
-4.65110350 -3.50434637 4.36767769
-4.54883766 -3.69092178 4.27164412
-4.44204903 -3.86705971 4.17136192
-4.32742262 -4.02676296 4.06372118
-4.20164824 -4.16403675 3.94561052
-4.06141281 -4.27288532 3.81392050
-3.90340304 -4.34731197 3.66554022
-3.72430801 -4.38132095 3.49735832
-3.72430801 -4.38132095 3.49735832
-3.45629287 -4.64769745 4.17793989
-3.59416628 -4.56748819 4.34460020
-3.73170304 -4.45001411 4.51085377
-3.86661959 -4.30159855 4.67394018
-3.99663472 -4.12855625 4.83110142
-4.11946487 -3.93720102 4.97957802
-4.23282814 -3.73384881 5.11661053
-4.29544449 -3.60764074 5.19229984
-4.36254311 -3.46176982 5.27340794
-4.43453741 -3.29657578 5.36043453
-4.51184177 -3.11240053 5.45387983
-4.59487009 -2.90958309 5.55424404
-4.68403625 -2.68846512 5.66202688
-4.77975368 -2.44938707 5.77772999
-4.89066505 -2.13428593 5.91179848
-5.01719379 -1.72060704 6.06474543
-5.14742899 -1.26194859 6.22217178
-5.26945829 -0.81191158 6.36967945
-5.37136936 -0.42409512 6.49286938
-5.44125175 -0.15209879 6.57734251
-5.46719313 -0.04952229 6.60869980
-5.92868853 2.05035925 7.16655207
-6.22572136 3.64815664 7.52560282
-6.34034634 4.24891853 7.66415930
-6.34624910 4.28535032 7.67129564
-6.35376596 4.34356928 7.68038130
-6.36160755 4.41498280 7.68986082
-6.36849213 4.49100113 7.69818163
-6.37313080 4.56302881 7.70378971
-6.37423992 4.62247562 7.70513010
-6.37053204 4.66074705 7.70064878
-6.37053204 4.66074705 7.70064878
-6.33588457 4.68434906 7.65876627
-6.29190731 4.65180540 7.60560656
-6.24376011 4.58138561 7.54740715
-6.19660759 4.49136305 7.49040937
-6.15561056 4.40000582 7.44085264
-6.12593079 4.32558537 7.40497541
-6.11272860 4.28637218 7.38901806
-5.97657156 3.65040493 7.22443247
-5.68237925 2.12468266 6.86881590
-5.62860155 1.87409019 6.80380964
-5.57642555 1.61280656 6.74074030
-5.52271318 1.33857095 6.67581224
-5.46432638 1.04912460 6.60523510
-5.39812803 0.74220777 6.52521420
-5.32097864 0.41556028 6.43195772
-5.22974205 0.06692266 6.32167149
-5.20447445 -0.03360417 6.29112816
-5.13640213 -0.30011979 6.20884228
-5.03712034 -0.68002671 6.08883286
-4.91822910 -1.12072742 5.94511652
-4.79132128 -1.56962454 5.79171181
-4.66799593 -1.97412074 5.64263678
-4.55984783 -2.28161836 5.51190948
-4.06701422 -3.50434637 4.91617489
-3.97759056 -3.69092178 4.80808067
-3.88421154 -3.86705971 4.69520521
-3.78398061 -4.02676296 4.57404661
-3.67400122 -4.16403723 4.44110441
-3.55137634 -4.27288532 4.29287624
-3.41321039 -4.34731197 4.12586212
-3.25660586 -4.38132095 3.93655968
-3.25660586 -4.38132095 3.93655968
-2.90540385 -4.64769745 4.57818365
-3.02130198 -4.56748819 4.76081038
-3.13691711 -4.45001411 4.94299030
-3.25032973 -4.30159855 5.12170076
-3.35962224 -4.12855625 5.29391766
-3.46287465 -3.93720078 5.45661831
-3.55816889 -3.73384833 5.60677814
-3.61080551 -3.60764050 5.68971920
-3.66720915 -3.46176958 5.77859735
-3.72772813 -3.29657555 5.87396097
-3.79271150 -3.11240053 5.97635794
-3.86250639 -2.90958309 6.08633614
-3.93746066 -2.68846512 6.20444584
-4.01792240 -2.44938707 6.33123302
-4.11115503 -2.13428617 6.47814512
-4.21751738 -1.72060692 6.64574385
-4.32699394 -1.26194847 6.81825256
-4.42957401 -0.81191158 6.97989130
-4.51524115 -0.42409503 7.11488247
-4.57398510 -0.15209872 7.20744753
-4.59579229 -0.04952224 7.24180937
-4.98373175 2.05035925 7.85310364
-5.23342085 3.64815664 8.24655056
-5.32977629 4.24891853 8.39838123
-5.33473825 4.28535032 8.40620136
-5.34105635 4.34356928 8.41615772
-5.34764910 4.41498280 8.42654514
-5.35343552 4.49100113 8.43566322
-5.35733557 4.56302881 8.44180775
-5.35826778 4.62247562 8.44327641
-5.35515165 4.66074705 8.43836689
-5.35515165 4.66074705 8.43836689
-5.32602549 4.68434906 8.39247227
-5.28905725 4.65180540 8.33421898
-5.24858427 4.58138561 8.27044487
-5.20894718 4.49136305 8.20798683
-5.17448473 4.40000582 8.15368176
-5.14953518 4.32558537 8.11436749
-5.13843775 4.28637218 8.09688187
-5.02398300 3.65040517 7.91652822
-4.77668095 2.12468290 7.52684402
-4.73147535 1.87409031 7.45561075
-4.68761539 1.61280668 7.38649893
-4.64246416 1.33857095 7.31535149
-4.59338331 1.04912472 7.23801279
-4.53773451 0.74220777 7.15032578
-4.47288322 0.41556036 7.04813480
-4.39618778 0.06692272 6.92728376
-4.37494755 -0.03360411 6.89381409
-4.31772470 -0.30011973 6.80364561
-4.23426819 -0.68002665 6.67213917
-4.13432550 -1.12072742 6.51465511
-3.97581124 -1.77187276 6.26487637
-3.83306670 -2.28161836 6.03994703
-3.41878390 -3.50434589 5.38714123
-3.34361315 -3.69092178 5.26869202
-3.26511765 -3.86705971 5.14500284
-3.18086267 -4.02676296 5.01223755
-3.08841228 -4.16403723 4.86655903
-2.98533225 -4.27288532 4.70413113
-2.86918807 -4.34731197 4.52111673
-2.73754454 -4.38132143 4.31367970
-2.73754454 -4.38132143 4.31367970
-2.30869555 -4.64770460 4.90622759
-2.40079021 -4.56748819 5.10193968
-2.49266100 -4.45001411 5.29717398
-2.58278084 -4.30159855 5.48868942
-2.66962695 -4.12855577 5.67324591
-2.75167346 -3.93720078 5.84760475
-2.82739663 -3.73384833 6.00852394
-2.86922193 -3.60764050 6.09740829
-2.91404152 -3.46176958 6.19265461
-2.96213198 -3.29657555 6.29485130
-3.01376867 -3.11240053 6.40458584
-3.06922913 -2.90958309 6.52244473
-3.12878966 -2.68846512 6.64901686
-3.19272614 -2.44938707 6.78488827
-3.26681113 -2.13428593 6.94232750
-3.35132837 -1.72060692 7.12193584
-3.43832111 -1.26194847 7.30680513
-3.51983309 -0.81191146 7.48002577
-3.58790684 -0.42409497 7.62468910
-3.63458586 -0.15209866 7.72388744
-3.65191364 -0.04952217 7.76071072
-3.96017838 2.05035949 8.41580677
-4.15858746 3.64815664 8.83744621
-4.23515272 4.24891853 9.00015640
-4.23909664 4.28535032 9.00853634
-4.24411678 4.34356928 9.01920605
-4.24935532 4.41498280 9.03033733
-4.25395298 4.49100113 9.04010963
-4.25705147 4.56302881 9.04669380
-4.25779295 4.62247562 9.04826832
-4.25531673 4.66074705 9.04300594
-4.25531673 4.66074705 9.04300594
-4.23217249 4.68434906 8.99382305
-4.20279694 4.65180540 8.93139648
-4.17063618 4.58138561 8.86305141
-4.13914013 4.49136305 8.79611874
-4.11175537 4.40000582 8.73792267
-4.09192991 4.32558537 8.69579124
-4.08311176 4.28637218 8.67705345
-3.99216270 3.65040517 8.48377705
-3.79565191 2.12468314 8.06616974
-3.75972986 1.87409055 7.98983192
-3.72487855 1.61280668 7.91576862
-3.68899941 1.33857095 7.83952236
-3.64999962 1.04912472 7.75664282
-3.60578012 0.74220788 7.66267347
-3.55424738 0.41556039 7.55316019
-3.49330378 0.06692278 7.42364883
-3.47642612 -0.03360405 7.38778114
-3.43095589 -0.30011967 7.29115152
-3.36463928 -0.68002659 7.15022182
-3.28522277 -1.12072742 6.98145342
-3.20045233 -1.56962442 6.80130768
-3.11807466 -1.97412074 6.62624693
-3.04583597 -2.28161836 6.47273064
-2.71663809 -3.50434589 5.77314949
-2.65690589 -3.69092155 5.64621258
-2.59453177 -3.86705947 5.51366091
-2.52758098 -4.02676249 5.37138224
-2.45411754 -4.16403723 5.21526527
-2.37220812 -4.27288532 5.04119921
-2.27991772 -4.34731197 4.84507132
-2.17531061 -4.38132143 4.62277031
-2.17531061 -4.38132143 4.62277031
-1.67557979 -4.64770126 5.15689516
-1.74241924 -4.56748772 5.36260700
-1.80909610 -4.45001364 5.56781626
-1.87450266 -4.30159855 5.76911640
-1.93753254 -4.12855577 5.96310282
-1.99707925 -3.93720078 6.14636898
-2.05203629 -3.73384833 6.31551075
-2.08239245 -3.60764050 6.40893602
-2.11492109 -3.46176958 6.50904894
-2.14982367 -3.29657555 6.61646652
-2.18730021 -3.11240053 6.73180723
-2.22755170 -2.90958309 6.85568810
-2.27077866 -2.68846488 6.98872709
-2.31718183 -2.44938684 7.13154078
-2.37095022 -2.13428593 7.29702377
-2.43229008 -1.72060692 7.48580885
-2.49542713 -1.26194847 7.68012285
-2.55458522 -0.81191140 7.86219358
-2.60399079 -0.42409489 8.01424885
-2.63786936 -0.15209861 8.11851501
-2.65044522 -0.04952210 8.15721989
-2.87417459 2.05035949 8.84578609
-3.01817346 3.64815664 9.28896809
-3.07374263 4.24891853 9.45999050
-3.07660484 4.28535032 9.46879959
-3.08024836 4.34356928 9.48001385
-3.08405042 4.41498280 9.49171448
-3.08738756 4.49100113 9.50198460
-3.08963633 4.56302881 9.50890636
-3.09017372 4.62247562 9.51056099
-3.08837700 4.66074705 9.50503063
-3.08837700 4.66074705 9.50503063
-3.07157969 4.68434906 9.45333481
-3.05025959 4.65180540 9.38771725
-3.02691841 4.58138561 9.31588173
-3.00405979 4.49136305 9.24552822
-2.98418427 4.40000582 9.18435955
-2.96979618 4.32558537 9.14007568
-2.96339607 4.28637218 9.12037945
-2.89738798 3.65040517 8.91722870
-2.75476646 2.12468314 8.47828484
-2.72869515 1.87409055 8.39804745
-2.70340109 1.61280680 8.32019901
-2.67736149 1.33857119 8.24005795
-2.64905596 1.04912484 8.15294361
-2.61696362 0.74220794 8.05417252
-2.57956243 0.41556048 7.93906450
-2.53533220 0.06692281 7.80293655
-2.52308202 -0.03360402 7.76523590
-2.49008107 -0.30011961 7.66366959
-2.44195056 -0.68002659 7.51553965
-2.38431311 -1.12072742 7.33814859
-2.32278919 -1.56962442 7.14879894
-2.26300192 -1.97412050 6.96479321
-2.21057296 -2.28161836 6.80343485
-1.97165167 -3.50434589 6.06810999
-1.92830014 -3.69092155 5.93468809
-1.88303101 -3.86705947 5.79536390
-1.83443999 -4.02676249 5.64581585
-1.78112233 -4.16403675 5.48172283
-1.72167528 -4.27288532 5.29876280
-1.65469337 -4.34731197 5.09261465
-1.57877314 -4.38132143 4.85895586
-1.57877314 -4.38132143 4.85895586
-1.01603663 -4.64770126 5.32623720
-1.05656672 -4.56748772 5.53870344
-1.09699798 -4.45001364 5.75065136
-1.13665891 -4.30159855 5.95856237
-1.17487872 -4.12855577 6.15891886
-1.21098733 -3.93720078 6.34820318
-1.24431205 -3.73384833 6.52289820
-1.26271927 -3.60764050 6.61939192
-1.28244400 -3.46176958 6.72279215
-1.30360770 -3.29657555 6.83373737
-1.32633281 -3.11240029 6.95286608
-1.35074043 -2.90958309 7.08081532
-1.37695217 -2.68846488 7.21822262
-1.40509045 -2.44938684 7.36572599
-1.43769443 -2.13428593 7.53664255
-1.47488952 -1.72060668 7.73162746
-1.51317430 -1.26194835 7.93232203
-1.54904711 -0.81191140 8.12037182
-1.57900548 -0.42409486 8.27742004
-1.59954882 -0.15209858 8.38510990
-1.60717487 -0.04952207 8.42508602
-1.74283969 2.05035973 9.13626385
-1.83015740 3.64815712 9.59399796
-1.86385274 4.24891901 9.77063656
-1.86558843 4.28535080 9.77973557
-1.86779773 4.34356976 9.79131794
-1.87010324 4.41498327 9.80340290
-1.87212729 4.49100161 9.81401062
-1.87349093 4.56302929 9.82115936
-1.87381673 4.62247562 9.82286835
-1.87272692 4.66074753 9.81715584
-1.87272692 4.66074753 9.81715584
-1.86254156 4.68434954 9.76376152
-1.84961379 4.65180540 9.69599152
-1.83545995 4.58138609 9.62179661
-1.82159865 4.49136305 9.54913330
-1.80954695 4.40000582 9.48595524
-1.80082214 4.32558537 9.44021702
-1.79694140 4.28637218 9.41987419
-1.75691533 3.65040517 9.21005154
-1.67043293 2.12468314 8.75669479
-1.65462351 1.87409055 8.67382240
-1.63928580 1.61280680 8.59341717
-1.62349594 1.33857119 8.51064491
-1.60633254 1.04912484 8.42066956
-1.58687210 0.74220800 8.31865501
-1.56419253 0.41556048 8.19976711
-1.53737235 0.06692284 8.05916882
-1.52994406 -0.03360399 8.02023029
-1.50993311 -0.30011958 7.91532850
-1.48074794 -0.68002653 7.76233435
-1.44579685 -1.12072730 7.57911777
-1.40849054 -1.56962442 7.38355112
-1.37223673 -1.97412050 7.19350290
-1.34044516 -2.28161836 7.02684450
-1.19556808 -3.50434589 6.26737404
-1.16928101 -3.69092155 6.12957048
-1.14183009 -3.86705947 5.98567152
-1.11236620 -4.02676249 5.83121300
-1.08003521 -4.16403675 5.66173124
-1.04398811 -4.27288532 5.47276354
-1.00337160 -4.34731197 5.25984526
-0.95733488 -4.38132143 5.01851368
-0.95733488 -4.38132143 5.01851368
-0.34047034 -4.64770126 5.41158104
-0.35405162 -4.56748772 5.62745190
-0.36759970 -4.45001364 5.84279585
-0.38089055 -4.30159855 6.05403805
-0.39369732 -4.12855577 6.25760508
-0.40579739 -3.93720078 6.44992256
-0.41696459 -3.73384833 6.62741661
-0.42313218 -3.60764050 6.72545671
-0.42974234 -3.46176958 6.83051348
-0.43683380 -3.29657555 6.94323683
-0.44444939 -3.11240029 7.06427336
-0.45262790 -2.90958309 7.19427252
-0.46141148 -2.68846488 7.33388186
-0.47084022 -2.44938684 7.48374891
-0.48176610 -2.13428593 7.65740442
-0.49422991 -1.72060668 7.85551310
-0.50705880 -1.26194835 8.05942440
-0.51908004 -0.81191128 8.25048733
-0.52911872 -0.42409489 8.41005135
-0.53600270 -0.15209857 8.51946735
-0.53855783 -0.04952208 8.56008434
-0.58401918 2.05035973 9.28265667
-0.61327904 3.64815712 9.74772549
-0.62457007 4.24891901 9.92719555
-0.62515163 4.28535080 9.93643951
-0.62589222 4.34356976 9.94820690
-0.62666464 4.41498327 9.96048546
-0.62734300 4.49100161 9.97126389
-0.62780011 4.56302929 9.97852707
-0.62790936 4.62247562 9.98026371
-0.62754357 4.66074753 9.97445965
-0.62754357 4.66074753 9.97445965
-0.62413096 4.68434954 9.92020988
-0.61979866 4.65180540 9.85135269
-0.61505556 4.58138609 9.77596951
-0.61041135 4.49136353 9.70214176
-0.60637224 4.40000629 9.63795090
-0.60344857 4.32558584 9.59148121
-0.60214853 4.28637266 9.57081127
-0.58873594 3.65040517 9.35762787
-0.55975610 2.12468314 8.89700603
-0.55445844 1.87409055 8.81280518
-0.54931843 1.61280680 8.73111248
-0.54402769 1.33857119 8.64701366
-0.53827572 1.04912484 8.55559635
-0.53175473 0.74220800 8.45194721
-0.52415502 0.41556057 8.33115387
-0.51516747 0.06692288 8.18830299
-0.51267874 -0.03360395 8.14874172
-0.50597316 -0.30011955 8.04215908
-0.49619311 -0.68002647 7.88671255
-0.48448098 -1.12072730 7.70056057
-0.47197983 -1.56962442 7.50185966
-0.45983139 -1.97412050 7.30876637
-0.44917795 -2.28161836 7.13943863
-0.40063041 -3.50434589 6.36779785
-0.39182195 -3.69092155 6.22778654
-0.38262346 -3.86705947 6.08158159
-0.37275007 -4.02676249 5.92464781
-0.36191615 -4.16403675 5.75245047
-0.34983686 -4.27288532 5.56045485
-0.33622652 -4.34731197 5.34412527
-0.32079962 -4.38132143 5.09892702
-0.32079962 -4.38132143 5.09892702
-0.34047034 -4.64770126 5.41158104
0.34046617 -4.64770126 5.41158056
0.35404745 -4.56748772 5.62745190
-0.35405162 -4.56748772 5.62745190
0.36759555 -4.45001364 5.84279585
-0.36759970 -4.45001364 5.84279585
0.38088569 -4.30159855 6.05403805
-0.38089055 -4.30159855 6.05403805
0.39369318 -4.12855577 6.25760508
-0.39369732 -4.12855577 6.25760508
0.40579253 -3.93720078 6.44992256
-0.40579739 -3.93720078 6.44992256
0.41695976 -3.73384833 6.62741661
-0.41696459 -3.73384833 6.62741661
0.42312804 -3.60764050 6.72545576
-0.42313218 -3.60764050 6.72545671
0.42973751 -3.46176958 6.83051348
-0.42974234 -3.46176958 6.83051348
0.43682963 -3.29657555 6.94323683
-0.43683380 -3.29657555 6.94323683
0.44444457 -3.11240029 7.06427336
-0.44444939 -3.11240029 7.06427336
0.45262307 -2.90958309 7.19427252
-0.45262790 -2.90958309 7.19427252
0.46140665 -2.68846488 7.33388186
-0.46141148 -2.68846488 7.33388186
0.47083539 -2.44938684 7.48374891
-0.47084022 -2.44938684 7.48374891
0.48176128 -2.13428593 7.65740442
-0.48176610 -2.13428593 7.65740442
0.49422505 -1.72060668 7.85551310
-0.49422991 -1.72060668 7.85551310
0.50705397 -1.26194835 8.05942440
-0.50705880 -1.26194835 8.05942440
0.51907450 -0.81191128 8.25048733
-0.51908004 -0.81191128 8.25048733
0.52911317 -0.42409489 8.41005135
-0.52911872 -0.42409489 8.41005135
0.53599715 -0.15209857 8.51946735
-0.53600270 -0.15209857 8.51946735
0.53855228 -0.04952208 8.56008434
-0.53855783 -0.04952208 8.56008434
0.58401227 2.05035973 9.28265667
-0.58401918 2.05035973 9.28265667
0.61327213 3.64815712 9.74772549
-0.61327904 3.64815712 9.74772549
0.62456316 4.24891901 9.92719555
-0.62457007 4.24891901 9.92719555
0.62514472 4.28535080 9.93643951
-0.62515163 4.28535080 9.93643951
0.62588531 4.34356976 9.94820690
-0.62589222 4.34356976 9.94820690
0.62665772 4.41498327 9.96048546
-0.62666464 4.41498327 9.96048546
0.62733543 4.49100161 9.97126389
-0.62734300 4.49100161 9.97126389
0.62779248 4.56302929 9.97852707
-0.62780011 4.56302929 9.97852707
0.62790179 4.62247562 9.98026371
-0.62790936 4.62247562 9.98026371
0.62753665 4.66074753 9.97445965
-0.62754357 4.66074753 9.97445965
0.62753665 4.66074753 9.97445965
0.62412333 4.68434954 9.92020988
0.61979175 4.65180540 9.85135269
0.61504865 4.58138609 9.77596951
0.61040378 4.49136353 9.70214176
0.60636532 4.40000629 9.63795090
0.60344166 4.32558584 9.59148121
0.60214162 4.28637266 9.57081127
0.58872902 3.65040517 9.35762787
0.55974919 2.12468314 8.89700603
0.55445224 1.87409055 8.81280518
0.54931223 1.61280680 8.73111248
0.54402149 1.33857119 8.64701366
0.53827018 1.04912484 8.55559635
0.53174925 0.74220800 8.45194721
0.52414954 0.41556057 8.33115387
0.51516193 0.06692288 8.18830299
0.51267320 -0.03360395 8.14874172
0.50596762 -0.30011955 8.04215908
0.49618757 -0.68002647 7.88671255
0.48447615 -1.12072730 7.70056057
0.47197500 -1.56962442 7.50185966
0.45982653 -1.97412050 7.30876637
0.44917312 -2.28161836 7.13943815
0.40062627 -3.50434589 6.36779785
0.39181709 -3.69092155 6.22778654
0.38261864 -3.86705947 6.08158159
0.37274522 -4.02676249 5.92464781
0.36191133 -4.16403675 5.75245047
0.34983200 -4.27288532 5.56045485
0.33622169 -4.34731197 5.34412527
0.32079545 -4.38132143 5.09892702
0.32079545 -4.38132143 5.09892702
1.01603246 -4.64770126 5.32623672
1.05656254 -4.56748772 5.53870344
1.09699380 -4.45001364 5.75065136
1.13665473 -4.30159855 5.95856190
1.17487454 -4.12855577 6.15891790
1.21098256 -3.93720078 6.34820318
1.24430716 -3.73384833 6.52289820
1.26271451 -3.60764050 6.61939192
1.28243911 -3.46176958 6.72279215
1.30360281 -3.29657555 6.83373737
1.32632792 -3.11240029 6.95286560
1.35073555 -2.90958309 7.08081436
1.37694728 -2.68846488 7.21822166
1.40508556 -2.44938684 7.36572599
1.43768966 -2.13428593 7.53664255
1.47488463 -1.72060668 7.73162651
1.51316941 -1.26194835 7.93232203
1.54904163 -0.81191140 8.12037182
1.57900023 -0.42409486 8.27742004
1.59954298 -0.15209858 8.38510990
1.60716891 -0.04952207 8.42508602
1.74283302 2.05035973 9.13626385
1.83015049 3.64815712 9.59399891
1.86384618 4.24891901 9.77063751
1.86558151 4.28535080 9.77973557
1.86779118 4.34356976 9.79131794
1.87009633 4.41498327 9.80340290
1.87212002 4.49100161 9.81401157
1.87348378 4.56302929 9.82116032
1.87380981 4.62247562 9.82286930
1.87272000 4.66074753 9.81715679
1.87272000 4.66074753 9.81715679
1.86253464 4.68434954 9.76376247
1.84960651 4.65180540 9.69599152
1.83545303 4.58138609 9.62179661
1.82159173 4.49136305 9.54913330
1.80954003 4.40000582 9.48595524
1.80081487 4.32558537 9.44021702
1.79693449 4.28637218 9.41987419
1.75690877 3.65040517 9.21005249
1.67042637 2.12468314 8.75669479
1.65461767 1.87409055 8.67382240
1.63927960 1.61280680 8.59341717
1.62348998 1.33857119 8.51064491
1.60632634 1.04912484 8.42066956
1.58686590 0.74220800 8.31865501
1.56418669 0.41556048 8.19976711
1.53736651 0.06692284 8.05916882
1.52993858 -0.03360399 8.02023029
1.50992763 -0.30011958 7.91532850
1.48074245 -0.68002653 7.76233435
1.44579208 -1.12072730 7.57911777
1.40848577 -1.56962442 7.38355112
1.37223184 -1.97412050 7.19350290
1.34044039 -2.28161836 7.02684450
1.19556320 -3.50434589 6.26737404
1.16927612 -3.69092155 6.12957048
1.14182591 -3.86705947 5.98567104
1.11236131 -4.02676249 5.83121300
1.08003104 -4.16403675 5.66173077
1.04398334 -4.27288532 5.47276306
1.00336742 -4.34731197 5.25984526
0.95733076 -4.38132143 5.01851368
0.95733076 -4.38132143 5.01851368
1.67557538 -4.64770126 5.15689516
1.74241507 -4.56748772 5.36260653
1.80909157 -4.45001364 5.56781578
1.87449813 -4.30159855 5.76911592
1.93752801 -4.12855577 5.96310234
1.99707472 -3.93720078 6.14636898
2.05203223 -3.73384833 6.31551027
2.08238792 -3.60764050 6.40893507
2.11491656 -3.46176958 6.50904799
2.14981890 -3.29657555 6.61646652
2.18729520 -3.11240053 6.73180723
2.22754669 -2.90958309 6.85568810
2.27077341 -2.68846488 6.98872662
2.31717658 -2.44938684 7.13154078
2.37094498 -2.13428593 7.29702377
2.43228531 -1.72060692 7.48580837
2.49542165 -1.26194847 7.68012285
2.55457997 -0.81191140 7.86219358
2.60398579 -0.42409489 8.01424885
2.63786387 -0.15209861 8.11851501
2.65043998 -0.04952210 8.15721989
2.87416840 2.05035949 8.84578609
3.01816702 3.64815664 9.28896809
3.07373548 4.24891853 9.45999050
3.07659745 4.28535032 9.46879959
3.08024144 4.34356928 9.48001385
3.08404303 4.41498280 9.49171448
3.08738041 4.49100113 9.50198555
3.08962917 4.56302881 9.50890732
3.09016681 4.62247562 9.51056194
3.08836985 4.66074705 9.50503063
3.08836985 4.66074705 9.50503063
3.07157278 4.68434906 9.45333481
3.05025268 4.65180540 9.38771820
3.02691150 4.58138561 9.31588173
3.00405240 4.49136305 9.24552917
2.98417735 4.40000582 9.18436050
2.96978879 4.32558537 9.14007664
2.96338892 4.28637218 9.12038040
2.89738131 3.65040517 8.91722965
2.75476003 2.12468314 8.47828579
2.72868943 1.87409055 8.39804745
2.70339489 1.61280680 8.32019901
2.67735529 1.33857119 8.24005890
2.64905047 1.04912484 8.15294361
2.61695766 0.74220794 8.05417252
2.57955670 0.41556048 7.93906450
2.53532624 0.06692281 7.80293655
2.52307653 -0.03360402 7.76523590
2.49007559 -0.30011961 7.66366959
2.44194531 -0.68002659 7.51553965
2.38430738 -1.12072742 7.33814859
2.32278419 -1.56962442 7.14879894
2.26299715 -1.97412050 6.96479321
2.21056795 -2.28161836 6.80343390
1.97164679 -3.50434589 6.06810999
1.92829525 -3.69092155 5.93468714
1.88302624 -3.86705947 5.79536343
1.83443511 -4.02676249 5.64581537
1.78111827 -4.16403675 5.48172283
1.72167110 -4.27288532 5.29876280
1.65468931 -4.34731197 5.09261465
1.57876897 -4.38132143 4.85895586
1.57876897 -4.38132143 4.85895586
2.30869341 -4.64770126 4.90622616
2.40078855 -4.56748819 5.10193825
2.49265885 -4.45001411 5.29717207
2.58277917 -4.30159855 5.48868752
2.66962504 -4.12855577 5.67324400
2.75167179 -3.93720078 5.84760332
2.82739496 -3.73384833 6.00852251
2.86922026 -3.60764050 6.09740591
2.91404033 -3.46176958 6.19265270
2.96213031 -3.29657555 6.29484987
3.01376724 -3.11240053 6.40458345
3.06922746 -2.90958309 6.52244329
3.12878752 -2.68846512 6.64901495
3.19272447 -2.44938707 6.78488684
3.26680946 -2.13428593 6.94232607
3.35132670 -1.72060692 7.12193441
3.43831944 -1.26194847 7.30680275
3.51983094 -0.81191146 7.48002434
3.58790469 -0.42409497 7.62468767
3.63458371 -0.15209866 7.72388601
3.65191174 -0.04952217 7.76070929
3.96017623 2.05035949 8.41580582
4.15858459 3.64815664 8.83744526
4.23514986 4.24891853 9.00015450
4.23909330 4.28535032 9.00853539
4.24411392 4.34356928 9.01920414
4.24935246 4.41498280 9.03033638
4.25395060 4.49100113 9.04010773
4.25704908 4.56302881 9.04669380
4.25778961 4.62247562 9.04826736
4.25531387 4.66074705 9.04300594
4.25531387 4.66074705 9.04300594
4.23217010 4.68434906 8.99382210
4.20279408 4.65180540 8.93139458
4.17063332 4.58138561 8.86305046
4.13913727 4.49136305 8.79611778
4.11175251 4.40000582 8.73792171
4.09192705 4.32558537 8.69579124
4.08310890 4.28637218 8.67705154
3.99216032 3.65040517 8.48377609
3.79564953 2.12468314 8.06616879
3.75972748 1.87409055 7.98983049
3.72487569 1.61280668 7.91576719
3.68899727 1.33857095 7.83952093
3.64999676 1.04912472 7.75664139
3.60577822 0.74220788 7.66267109
3.55424500 0.41556039 7.55315876
3.49330187 0.06692278 7.42364740
3.47642374 -0.03360405 7.38777971
3.43095350 -0.30011967 7.29115009
3.36463690 -0.68002659 7.15021992
3.28522062 -1.12072742 6.98145199
3.20045066 -1.56962442 6.80130625
3.11807299 -1.97412074 6.62624454
3.04583406 -2.28161836 6.47272921
2.71663594 -3.50434589 5.77314806
2.65690398 -3.69092155 5.64621115
2.59452987 -3.86705947 5.51365948
2.52757883 -4.02676249 5.37138081
2.45411587 -4.16403723 5.21526384
2.37220645 -4.27288532 5.04119778
2.27991557 -4.34731197 4.84506989
2.17530870 -4.38132143 4.62276888
2.17530870 -4.38132143 4.62276888
2.90540218 -4.64770126 4.57818222
3.02130008 -4.56748819 4.76080847
3.13691568 -4.45001411 4.94298887
3.25032830 -4.30159855 5.12169933
3.35962057 -4.12855625 5.29391575
3.46287322 -3.93720078 5.45661640
3.55816770 -3.73384833 5.60677624
3.61080360 -3.60764050 5.68971729
3.66720748 -3.46176958 5.77859545
3.72772717 -3.29657555 5.87395859
3.79271030 -3.11240053 5.97635555
3.86250472 -2.90958309 6.08633518
3.93745899 -2.68846512 6.20444393
4.01792097 -2.44938707 6.33123064
4.11115408 -2.13428617 6.47814322
4.21751595 -1.72060692 6.64574242
4.32699299 -1.26194847 6.81825018
4.42957211 -0.81191158 6.97988987
4.51523972 -0.42409503 7.11488008
4.57398367 -0.15209872 7.20744610
4.59579039 -0.04952224 7.24180794
4.98372936 2.05035925 7.85310221
5.23341894 3.64815664 8.24654961
5.32977343 4.24891853 8.39838028
5.33473635 4.28535032 8.40620041
5.34105444 4.34356928 8.41615582
5.34764671 4.41498280 8.42654419
5.35343361 4.49100113 8.43566227
5.35733271 4.56302881 8.44180679
5.35826492 4.62247562 8.44327545
5.35514927 4.66074705 8.43836594
5.35514927 4.66074705 8.43836594
5.32602358 4.68434906 8.39247036
5.28905487 4.65180540 8.33421803
5.24858189 4.58138561 8.27044296
5.20894480 4.49136305 8.20798492
5.17448235 4.40000582 8.15368080
5.14953327 4.32558537 8.11436653
5.13843584 4.28637218 8.09688091
5.02398014 3.65040517 7.91652775
4.77667856 2.12468290 7.52684259
4.73147297 1.87409031 7.45560932
4.68761301 1.61280668 7.38649750
4.64246130 1.33857095 7.31535006
4.59338140 1.04912472 7.23801136
4.53773308 0.74220777 7.15032434
4.47288132 0.41556036 7.04813337
4.39618635 0.06692272 6.92728233
4.37494564 -0.03360411 6.89381266
4.31772327 -0.30011973 6.80364370
4.23426628 -0.68002665 6.67213678
4.13432407 -1.12072742 6.51465273
4.02764416 -1.56962454 6.34655285
3.92397499 -1.97412074 6.18319654
3.83306503 -2.28161836 6.03994513
3.41878176 -3.50434589 5.38713932
3.34361148 -3.69092178 5.26869011
3.26511621 -3.86705971 5.14500141
3.18086076 -4.02676296 5.01223564
3.08841038 -4.16403723 4.86655712
2.98533058 -4.27288532 4.70412922
2.86918616 -4.34731197 4.52111530
2.73754239 -4.38132143 4.31367826
2.73754239 -4.38132143 4.31367826
3.45629072 -4.64770126 4.17793751
3.59416413 -4.56748819 4.34459782
3.73170090 -4.45001411 4.51085138
3.86661792 -4.30159855 4.67393780
3.99663258 -4.12855625 4.83109903
4.11946297 -3.93720102 4.97957516
4.23282576 -3.73384881 5.11660767
4.29544210 -3.60764074 5.19229746
4.36254072 -3.46176982 5.27340555
4.43453550 -3.29657578 5.36043215
4.51183939 -3.11240053 5.45387697
4.59486771 -2.90958309 5.55424118
4.68403435 -2.68846512 5.66202450
4.77975225 -2.44938707 5.77772760
4.89066315 -2.13428593 5.91179609
5.01719189 -1.72060704 6.06474304
5.14742661 -1.26194859 6.22216988
5.26945591 -0.81191158 6.36967754
5.37136698 -0.42409512 6.49286699
5.44124937 -0.15209879 6.57734060
5.46719074 -0.04952229 6.60869741
5.92868614 2.05035925 7.16655016
6.22571945 3.64815664 7.52560043
6.34034348 4.24891853 7.66415739
6.34624720 4.28535032 7.67129421
6.35376310 4.34356928 7.68037939
6.36160564 4.41498280 7.68985939
6.36848927 4.49100113 7.69818020
6.37312794 4.56302881 7.70378780
6.37423754 4.62247562 7.70512772
6.37053013 4.66074705 7.70064688
6.37053013 4.66074705 7.70064688
6.33588219 4.68434906 7.65876484
6.29190397 4.65180540 7.60560513
6.24375772 4.58138561 7.54740524
6.19660473 4.49136305 7.49040794
6.15560770 4.40000582 7.44085121
6.12592745 4.32558537 7.40497398
6.11272669 4.28637218 7.38901615
5.97656918 3.65040493 7.22443008
5.68237734 2.12468266 6.86881351
5.62859964 1.87409019 6.80380726
5.57642365 1.61280656 6.74073839
5.52271128 1.33857095 6.67581034
5.46432447 1.04912460 6.60523319
5.39812565 0.74220777 6.52521229
5.32097673 0.41556028 6.43195581
5.22974014 0.06692266 6.32166958
5.20447254 -0.03360417 6.29112530
5.13639975 -0.30011979 6.20883942
5.03711843 -0.68002671 6.08882999
4.91822624 -1.12072742 5.94511366
4.79131937 -1.56962454 5.79170942
4.66799355 -1.97412074 5.64263439
4.55984640 -2.28161836 5.51190710
4.06701136 -3.50434637 4.91617250
3.97758842 -3.69092178 4.80807829
3.88420963 -3.86705971 4.69520283
3.78397846 -4.02676296 4.57404423
3.67399883 -4.16403723 4.44110203
3.55137420 -4.27288532 4.29287386
3.41320777 -4.34731197 4.12585974
3.25660348 -4.38132095 3.93655777
3.25660348 -4.38132095 3.93655777
3.95267129 -4.64770079 3.71180439
4.11034584 -4.56748772 3.85987091
4.26763535 -4.45001411 4.00757504
4.42192841 -4.30159855 4.15246630
4.57061529 -4.12855625 4.29209232
4.71108627 -3.93720102 4.42400360
4.84072971 -3.73384881 4.54574728
4.91233873 -3.60764074 4.61299229
4.98907375 -3.46176982 4.68505096
5.07140827 -3.29657626 4.76236820
5.15981436 -3.11240053 4.84538698
5.25476742 -2.90958309 4.93455362
5.35673904 -2.68846512 5.03031158
5.46620369 -2.44938707 5.13310575
5.59304333 -2.13428617 5.25221586
5.73774433 -1.72060704 5.38809872
5.88668251 -1.26194870 5.52796173
6.02623701 -0.81191164 5.65901184
6.14278460 -0.42409521 5.76845694
6.22270298 -0.15209888 5.84350538
6.25236940 -0.04952240 5.87136412
6.78014469 2.05035901 6.36697721
7.11983585 3.64815640 6.68596840
7.25092220 4.24891853 6.80906630
7.25767374 4.28534985 6.81540680
7.26626921 4.34356880 6.82347870
7.27523756 4.41498232 6.83190060
7.28310966 4.49100065 6.83929300
7.28841496 4.56302881 6.84427547
7.28968334 4.62247515 6.84546614
7.28544426 4.66074657 6.84148502
7.28544426 4.66074657 6.84148502
7.24582005 4.68434858 6.80427551
7.19552565 4.65180492 6.75704670
7.14046478 4.58138514 6.70534039
7.08654022 4.49136305 6.65470266
7.03965473 4.40000582 6.61067390
7.00571299 4.32558537 6.57880020
6.99061584 4.28637218 6.56462288
6.83490419 3.65040493 6.41839981
6.49846125 2.12468266 6.10245895
6.43696022 1.87409019 6.04470587
6.37729120 1.61280656 5.98867273
6.31586409 1.33857095 5.93098927
6.24909163 1.04912460 5.86828613
6.17338610 0.74220771 5.79719400
6.08515739 0.41556022 5.71434164
5.98081732 0.06692256 5.61635971
5.95192051 -0.03360427 5.58922386
5.87407160 -0.30011985 5.51611900
5.76053238 -0.68002677 5.40949869
5.62456512 -1.12072766 5.28181696
5.47943211 -1.56962454 5.14552784
5.33839464 -1.97412074 5.01308537
5.21471548 -2.28161836 4.89694262
4.65110207 -3.50434637 4.36767435
4.54883623 -3.69092178 4.27164030
4.44204617 -3.86705971 4.17135859
4.32742071 -4.02676296 4.06371737
4.20164585 -4.16403675 3.94560742
4.06141090 -4.27288532 3.81391740
3.90340114 -4.34731197 3.66553688
3.72430563 -4.38132095 3.49735498
3.72430563 -4.38132095 3.49735498
4.38671589 -4.64770079 3.18713450
4.56170464 -4.56748772 3.31427121
4.73626614 -4.45001364 3.44109726
4.90750217 -4.30159855 3.56550765
5.07251692 -4.12855577 3.68539762
5.22841263 -3.93720078 3.79866314
5.37229252 -3.73384833 3.90319777
5.45176506 -3.60764074 3.96093798
5.53692579 -3.46176982 4.02281094
5.62830162 -3.29657626 4.08919907
5.72641611 -3.11240053 4.16048336
5.83179522 -2.90958357 4.23704624
5.94496536 -2.68846536 4.31926870
6.06645012 -2.44938707 4.40753222
6.20721817 -2.13428617 4.50980616
6.36780834 -1.72060704 4.62648153
6.53310156 -1.26194870 4.74657440
6.68798065 -0.81191176 4.85910034
6.81732655 -0.42409530 4.95307541
6.90602112 -0.15209897 5.01751566
6.93894529 -0.04952249 5.04143667
7.52467537 2.05035901 5.46699429
7.90166759 3.64815640 5.74089527
8.04714870 4.24891853 5.84659290
8.05464172 4.28534985 5.85203743
8.06418133 4.34356880 5.85896826
8.07413483 4.41498232 5.86619997
8.08287144 4.49100065 5.87254763
8.08875942 4.56302881 5.87682533
8.09016705 4.62247515 5.87784767
8.08546162 4.66074657 5.87442970
8.08546162 4.66074657 5.87442970
8.04148674 4.68434858 5.84247923
7.98566961 4.65180492 5.80192614
7.92456245 4.58138514 5.75752926
7.86471605 4.49136305 5.71404886
7.81268263 4.40000582 5.67624426
7.77501249 4.32558537 5.64887524
7.75825787 4.28637218 5.63670254
7.58544731 3.65040493 5.51114798
7.21205997 2.12468266 5.23986578
7.14380550 1.87409019 5.19027615
7.07758427 1.61280656 5.14216375
7.00941181 1.33857071 5.09263372
6.93530798 1.04912448 5.03879404
6.85128784 0.74220753 4.97775030
6.75337076 0.41556010 4.90660954
6.63757372 0.06692246 4.82247782
6.60550356 -0.03360436 4.79917765
6.51910591 -0.30011997 4.73640585
6.39309883 -0.68002689 4.64485645
6.24220085 -1.12072766 4.53522301
6.08113050 -1.56962478 4.41819859
5.92460632 -1.97412086 4.30447674
5.78734541 -2.28161860 4.20475149
5.16184139 -3.50434589 3.75029612
5.04834557 -3.69092155 3.66783690
4.92982912 -3.86705947 3.58172989
4.80261660 -4.02676249 3.48930383
4.66303062 -4.16403675 3.38788891
4.50739574 -4.27288532 3.27481365
4.33203506 -4.34731197 3.14740682
4.13327312 -4.38132143 3.00299788
4.13327312 -4.38132143 3.00299788
-0.00000277 -4.37891436 0.00000055
4.75157833 -4.64770079 2.61220384
4.94112158 -4.56748819 2.71640611
5.13020182 -4.45001411 2.82035398
5.31568050 -4.30159855 2.92232132
5.49442005 -4.12855625 3.02058458
5.66328239 -3.93720102 3.11341786
5.81912947 -3.73384833 3.19909525
5.90521145 -3.60764050 3.24641943
5.99745655 -3.46176958 3.29713154
6.09643173 -3.29657578 3.35154366
6.20270729 -3.11240053 3.40996885
6.31685162 -2.90958357 3.47272038
6.43943357 -2.68846560 3.54011059
6.57102251 -2.44938731 3.61245227
6.72349977 -2.13428640 3.69627690
6.89744616 -1.72060716 3.79190540
7.07648849 -1.26194894 3.89033437
7.24424982 -0.81191182 3.98256183
7.38435316 -0.42409536 4.05958462
7.48042488 -0.15209909 4.11240005
7.51608753 -0.04952257 4.13200617
8.15053463 2.05035901 4.48079681
8.55888367 3.64815593 4.70528841
8.71646500 4.24891806 4.79191971
8.72458172 4.28534985 4.79638195
8.73491478 4.34356880 4.80206251
8.74569607 4.41498184 4.80798912
8.75515938 4.49100065 4.81319237
8.76153660 4.56302834 4.81669807
8.76306152 4.62247467 4.81753635
8.75796509 4.66074657 4.81473446
8.75796509 4.66074657 4.81473446
8.71033192 4.68434858 4.78854799
8.64987278 4.65180445 4.75531006
8.58368206 4.58138466 4.71892214
8.51885986 4.49136257 4.68328476
8.46249771 4.40000534 4.65229988
8.42169476 4.32558489 4.62986851
8.40354633 4.28637171 4.61989117
8.21636200 3.65040445 4.51698542
7.81191778 2.12468266 4.29464054
7.73798704 1.87408996 4.25399637
7.66625738 1.61280632 4.21456289
7.59241486 1.33857071 4.17396736
7.51214743 1.04912436 4.12984037
7.42113972 0.74220753 4.07980776
7.31507826 0.41556007 4.02150059
7.18964911 0.06692237 3.95254540
7.15491199 -0.03360446 3.93344831
7.06132841 -0.30012009 3.88200021
6.92484045 -0.68002701 3.80696535
6.76139212 -1.12072778 3.71710873
6.58692455 -1.56962490 3.62119436
6.41738129 -1.97412109 3.52798724
6.26870441 -2.28161883 3.44625139
5.59117413 -3.50434637 3.07377577
5.46823835 -3.69092178 3.00619125
5.33986473 -3.86705971 2.93561745
5.20207119 -4.02676296 2.85986471
5.05087519 -4.16403723 2.77674389
4.88229513 -4.27288532 2.68406653
4.69234943 -4.34731197 2.57964277
4.47705603 -4.38132143 2.46128392
4.47705603 -4.38132143 2.46128392
5.04150581 -4.64770079 1.99607432
5.24261475 -4.56748819 2.07569909
5.44323254 -4.45001411 2.15512919
5.64002848 -4.30159855 2.23304605
5.82967424 -4.12855625 2.30813241
6.00884008 -3.93720102 2.37906909
6.17419720 -3.73384881 2.44453835
6.26553202 -3.60764074 2.48070049
6.36340475 -3.46176982 2.51945114
6.46841908 -3.29657578 2.56102943
6.58117914 -3.11240101 2.60567427
6.70228815 -2.90958357 2.65362453
6.83235025 -2.68846560 2.70511985
6.97196865 -2.44938731 2.76039886
7.13374901 -2.13428640 2.82445192
7.31830978 -1.72060740 2.89752483
7.50827599 -1.26194894 2.97273779
7.68627310 -0.81191200 3.04321218
7.83492613 -0.42409551 3.10206771
7.93685961 -0.15209919 3.14242601
7.97469807 -0.04952271 3.15740752
8.64785767 2.05035877 3.42393041
9.08112335 3.64815640 3.59547234
9.24831963 4.24891853 3.66167021
9.25693130 4.28534985 3.66508007
9.26789474 4.34356880 3.66942072
9.27933407 4.41498232 3.67394972
9.28937531 4.49100065 3.67792535
9.29614162 4.56302881 3.68060422
9.29776001 4.62247515 3.68124485
9.29235172 4.66074657 3.67910385
9.29235172 4.66074657 3.67910385
9.24181175 4.68434858 3.65909410
9.17766476 4.65180492 3.63369584
9.10743523 4.58138514 3.60589027
9.03865623 4.49136305 3.57865882
8.97885609 4.40000582 3.55498219
8.93556309 4.32558537 3.53784132
8.91630745 4.28637218 3.53021741
8.71770191 3.65040493 3.45158362
8.28857994 2.12468243 3.28168201
8.21013737 1.87408984 3.25062466
8.13403130 1.61280620 3.22049212
8.05568314 1.33857048 3.18947196
7.97051811 1.04912412 3.15575242
7.87395763 0.74220735 3.11752129
7.76142454 0.41555992 3.07296634
7.62834263 0.06692224 3.02027535
7.59148502 -0.03360459 3.00568271
7.49219179 -0.30012017 2.96636939
7.34737539 -0.68002707 2.90903258
7.17395401 -1.12072778 2.84037042
6.98884058 -1.56962490 2.76707911
6.80895233 -1.97412109 2.69585609
6.65120363 -2.28161883 2.63339877
5.93233204 -3.50434637 2.34877753
5.80189514 -3.69092178 2.29713392
5.66568899 -3.86705971 2.24320579
5.51948690 -4.02676296 2.18532038
5.35906553 -4.16403723 2.12180519
