-7.73246431 4.59825516 5.76966476
-7.76909971 4.67958021 5.79390192
-7.54199696 4.59234524 6.01660395
-7.57723475 4.67109728 6.03942394
-7.60754967 4.73883057 6.05898237
-7.37330627 4.66596985 6.28295183
-7.40449810 4.73260355 6.30204296
-7.43190479 4.79224539 6.31934547
-7.19175196 4.73260355 6.54555178
-7.21930790 4.79384899 6.56341314
-7.24307871 4.84491444 6.57940960
-6.98299551 4.78659630 6.80798435
-7.00730753 4.83844566 6.82392502
-7.03061247 4.88926840 6.83982801
-6.77261686 4.88292980 7.09150410
-6.74897623 4.83203173 7.07502270
-6.79577255 4.93384647 7.10800266
-6.51564646 4.93375349 7.36693048
-6.49249077 4.88527918 7.35005760
-6.53835535 4.98157501 7.38281631
-6.23140097 4.97573948 7.63616800
-6.21094799 4.93153477 7.61981726
-6.25190973 5.01895618 7.65164232
-5.94096518 5.01841545 7.89242983
-5.92537880 4.97499371 7.87313366
-5.95688725 5.06138992 7.91071939
-6.27185822 5.06165075 7.66687536
-5.66749573 5.07192373 8.12465858
-5.65420246 5.02812910 8.10282803
-5.68104982 5.11599827 8.14589405
-5.95688725 5.06138992 7.91071939
-5.66749573 5.07192373 8.12465858
-5.41466475 5.12653160 8.32759857
-5.40344095 5.08161831 8.30640030
-5.42566442 5.17109108 8.34792042
-5.17566776 5.17806387 8.50667477
-5.16539478 5.13260984 8.48450565
-5.18560505 5.22329426 8.52677155
-4.94824839 5.21768236 8.66227627
-4.94006395 5.17276907 8.64458370
-4.95844698 5.26401234 8.68192673
-4.72329044 5.25620079 8.80313110
-4.71784639 5.21262980 8.78933525
-4.71493816 5.29768372 8.79138660
-4.49687815 5.25739384 8.92660999
-4.48578501 5.29600573 8.91309357
-4.27195740 5.26557827 9.03450394
-4.49294424 5.21359921 8.91132259
-4.27093172 5.22251129 9.02216148
-4.04757738 5.23453617 9.12996006
-4.26735258 5.17942476 9.00441074
-4.04571247 5.19012642 9.11236000
-3.81799531 5.20272970 9.21370888
-4.04131269 5.14640617 9.09045315
-3.81406140 5.15811491 9.19187641
-3.55847144 5.16475201 9.30267715
-3.80947518 5.11307096 9.16976452
-3.55423903 5.12013674 9.27950287
-3.24556994 5.13611507 9.40277767
-3.24556994 5.13611507 9.40277767
-3.54933596 5.07565260 9.25610542
-3.24344397 5.09118271 9.37792492
-3.55423903 5.12013674 9.27950287
-2.86730218 5.10078430 9.50710964
-2.85993767 5.15037775 9.53637981
-2.87192583 5.05173254 9.47683144
-3.23971558 5.04440546 9.35109615
-2.46207547 5.06163216 9.59686089
-2.47136021 5.01120043 9.56499863
-2.87336159 5.00193453 9.44552803
-2.06784892 5.03219366 9.67697525
-2.07942677 4.97972918 9.64242744
-2.47915339 4.96048880 9.53211117
-1.69718826 5.00057316 9.73598289
-1.70938122 4.94769907 9.70063400
-2.09104204 4.92717171 9.60715199
-1.35177135 4.96597004 9.77228260
-1.36293900 4.91182804 9.73752975
-1.72183549 4.89346361 9.66429710
-1.02462554 4.93200064 9.79420757
-1.03499162 4.87591934 9.75926876
-1.37487113 4.85621309 9.70160294
-0.71381205 4.88777733 9.79763794
-0.72393572 4.82942152 9.76169300
-1.04621542 4.81750822 9.72291374
-0.41342044 4.83425045 9.78516579
-0.42421529 4.77091694 9.74713135
-0.73493564 4.76642370 9.72365856
-0.12233215 4.77160645 9.75822544
-0.13418972 4.70055437 9.71670437
-0.43646437 4.69833565 9.70495987
0.16310698 4.71101379 9.72131062
0.14888161 4.62642622 9.67320824
-0.14731507 4.61930418 9.67134380
0.44110715 4.63643789 9.66834259
0.42453274 4.53477287 9.61328602
0.13294105 4.52804184 9.62031555
0.71170574 4.53902340 9.59622669
0.69293129 4.42130518 9.53470325
0.40702602 4.42121220 9.55541611
0.97624493 4.42240524 9.50712776
0.95657569 4.29413462 9.44314194
0.67395175 4.29445171 9.47250557
1.23655200 4.29391098 9.40607738
1.21729279 4.15978622 9.34360218
0.93727911 4.15876055 9.38010693
1.49536753 4.16245222 9.30105591
1.47638798 4.02265978 9.24001503
1.19853711 4.01911783 9.28235626
1.75213230 4.02696657 9.19096279
1.73320878 3.88150620 9.13115311
1.45798647 3.87690115 9.18052292
2.00643611 3.88721156 9.07565022
1.98766160 3.73694110 9.01783562
1.71504962 3.73091912 9.07350636
2.25809216 3.74372768 8.95571327
2.23954177 3.58916903 8.90030384
1.96970737 3.58202815 8.96233273
2.50710106 3.59692502 8.83184338
2.48871827 3.43818998 8.77880096
2.22184849 3.43035960 8.84728050
2.75295925 3.44570398 8.70301247
2.73468828 3.28294182 8.65215302
2.47139788 3.27600598 8.72863102
2.99525619 3.28946710 8.56849670
2.97743273 3.12377810 8.52071190
2.71779656 3.11779356 8.60498333
3.23423457 3.12914777 8.42928314
3.21693301 2.96096039 8.38466740
2.96100712 2.95603824 8.47656345
3.46985698 2.96502495 8.28551960
3.45337582 2.79510379 8.24459648
3.20121622 2.79131913 8.34402370
3.70236611 2.79790020 8.13793278
3.68651843 2.62620807 8.10016060
3.43834877 2.62374711 8.20728874
3.93166828 2.62794185 7.98646927
3.91697669 2.45531750 7.95264959
3.67244244 2.45375133 8.06654549
4.15768909 2.45539212 7.83094168
4.17284679 2.62796068 7.86466885
4.39472866 2.45434809 7.70209312
4.41040802 2.62699103 7.73587704
4.62766600 2.45203614 7.56576920
4.64422178 2.62505221 7.60014772
4.85804987 2.44987345 7.42474604
4.87548161 2.62341142 7.45962811
5.08548737 2.44752431 7.27850294
5.10373974 2.62171483 7.31377745
5.30936384 2.44469047 7.12634897
5.32853031 2.61964536 7.16208887
5.52904606 2.44116664 6.96755838
5.54933071 2.61701655 7.00395107
5.74376869 2.43684125 6.80129147
5.76530266 2.61356759 6.83846807
5.95273018 2.43173265 6.62685871
5.97555017 2.60922337 6.66478062
6.15540886 2.42608380 6.44407320
6.17936611 2.60417080 6.48255396
6.35172939 2.42015481 6.25340128
6.37660074 2.59868956 6.29206896
6.56734753 2.59302163 6.09393978
6.54178619 2.41422606 6.05547667
6.75171757 2.58735418 5.88878107
6.72567225 2.40844655 5.85080338
6.92991638 2.58185387 5.67706013
6.90347910 2.40290928 5.63980961
7.10235453 2.57661510 5.45950365
7.07550764 2.39763284 5.42299891
7.27076530 2.57204747 5.23786449
7.24332142 2.39284134 5.20193720
7.27076530 2.57204747 5.23786449
7.24332142 2.39284134 5.20193720
7.43248367 2.56774068 5.01003504
7.40412617 2.38836694 4.97449923
7.58655691 2.56362033 4.77568054
7.55784512 2.38420939 4.74109554
7.73339701 2.55977964 4.53565788
7.70338011 2.38020086 4.50146484
7.87276077 2.55605078 4.29020977
7.84177399 2.37632275 4.25680017
8.00585938 2.55252719 4.04041815
7.97327042 2.37248230 4.00754881
8.13194847 2.54892874 3.78602123
8.09777451 2.36852980 3.75386024
8.25063610 2.54512548 3.52700067
8.21441174 2.36427879 3.49536180
8.36156845 2.54106092 3.26335621
8.32284451 2.35993481 3.23210883
8.46336365 2.53649330 2.99478984
8.42298126 2.35516191 2.96432567
8.55609894 2.53157139 2.72195387
8.51441097 2.35033321 2.69247794
8.63617516 2.52666783 2.44443846
8.59450626 2.34574676 2.41654706
8.70433807 2.52174592 2.16310120
8.66430855 2.34123492 2.13716722
8.76237583 2.51678658 1.87891114
8.72439861 2.33692813 1.85495365
8.81163311 2.51214433 1.59250247
8.77522182 2.33308768 1.57037210
8.85309792 2.50804257 1.30439723
8.81767464 2.32984352 1.28390753
8.88818550 2.50470543 1.01500559
8.85412312 2.32734537 0.99623102
8.91889191 2.50250530 0.72481215
8.88249874 2.32527566 0.70717496
8.93884087 2.50028658 0.43299678
8.90108681 2.32337403 0.41675791
8.94872284 2.49806786 0.14006276
8.90914154 2.32122993 0.12529674
8.94861126 2.49575615 -0.15357973
8.90757561 2.31882501 -0.16672371
8.93764877 2.49318337 -0.44731539
8.89513969 2.31600976 -0.45859504
8.91497707 2.49042392 -0.74026805
8.87265491 2.31334376 -0.74981380
8.88296509 2.48792577 -1.03213930
8.84043884 2.31090117 -1.03989530
8.84019566 2.48553920 -1.32225811
8.79839611 2.30864525 -1.32837343
8.78640747 2.48319006 -1.61034477
8.74626827 2.30663180 -1.61509907
8.72182560 2.48089671 -1.89623141
8.68308353 2.30486059 -1.89971781
8.64728737 2.47864103 -2.17988062
8.60981274 2.30316401 -2.18221116
8.56501102 2.47655296 -2.46162844
8.53003502 2.30157924 -2.46326900
8.47736549 2.47508001 -2.74194050
8.44065571 2.29977083 -2.74173522
8.38051033 2.47349524 -3.01945591
8.34368801 2.29803705 -3.01785254
8.23933792 2.29645205 -3.29145288
8.27565670 2.47205973 -3.29421210
8.12465858 2.29475546 -3.56098866
8.16280460 2.47077322 -3.56592917
8.00239182 2.29313350 -3.82728028
8.04064941 2.46943092 -3.83373141
7.87197781 2.29171658 -4.08984327
7.90976858 2.46820021 -4.09758043
7.73205471 2.29063535 -4.34772682
7.77143049 2.46728683 -4.35779476
7.58351755 2.28990817 -4.60107946
7.62317419 2.46646643 -4.61280680
7.42644262 2.28936744 -4.84960365
7.46591187 2.46581388 -4.86263609
7.26168633 2.28888273 -5.09322453
7.30078220 2.46531057 -5.10746861
7.08906126 2.28847265 -5.33112144
7.12815762 2.46493769 -5.34704351
6.90905380 2.28798771 -5.56305265
6.94686365 2.46460199 -5.57985067
6.72171926 2.28763366 -5.78855133
6.75910044 2.46443439 -5.80713940
6.52696419 2.28768969 -6.00722599
6.56348753 2.46452761 -6.02734327
6.32504988 2.28828621 -6.21904039
6.36039925 2.46497488 -6.24046183
6.15089703 2.46590710 -6.44729900
6.11515665 2.28964710 -6.42300558
5.93313551 2.46730566 -6.64585638
5.89808512 2.29167938 -6.61977339
5.70860624 2.46890903 -6.83742380
5.67437601 2.29393530 -6.80984879
5.47760725 2.47051215 -7.02188635
5.44438362 2.29630303 -6.99311924
5.23963594 2.47161222 -7.19812870
5.20810890 2.29790640 -7.16906309
4.99554873 2.47181726 -7.36614799
4.96577406 2.29826069 -7.33672810
4.74521637 2.47062397 -7.52430439
4.71745539 2.29704881 -7.49466133
4.49003649 2.46842408 -7.67358637
4.46419573 2.29484892 -7.64345789
4.23038197 2.46545959 -7.81418133
4.20668554 2.29190302 -7.78409004
3.96675611 2.46201062 -7.94672108
3.94522214 2.28852844 -7.91690969
3.69968128 2.45841217 -8.07195282
3.67999315 2.28500485 -8.04199219
3.42925048 2.45470214 -8.18989372
3.41122198 2.28140640 -8.15941143
3.44750285 2.62712169 -8.21979904
3.17250419 2.62335563 -8.33134651
3.15600443 2.45104790 -8.30157089
3.18989897 2.79478693 -8.36262989
2.91143298 2.79152417 -8.47015095
2.89545488 2.61994362 -8.43839931
2.92828679 2.96209788 -8.50367165
2.64452577 2.95848083 -8.60119820
2.62905121 2.78772068 -8.56721115
2.66113758 3.12827134 -8.63858032
2.37204432 3.12403917 -8.72404289
2.35694265 2.95411801 -8.68642044
2.38804078 3.29269242 -8.76513577
2.09471536 3.28846049 -8.84073639
2.08034062 3.11960196 -8.79936600
2.10974240 3.45564103 -8.88533306
1.81281853 3.45196819 -8.95202160
1.79952526 3.28443313 -8.90723991
1.82655907 3.61741447 -9.00019836
1.52635396 3.61450624 -9.05769634
1.51444042 3.44842577 -9.00896168
1.53862166 3.77823758 -9.11021614
1.23575032 3.77737999 -9.16105843
1.22534704 3.61226869 -9.10684109
1.24630296 3.93945169 -9.21794128
0.94098932 3.94030952 -9.26065445
0.93235719 3.77696967 -9.20298862
0.94975197 4.10088968 -9.32242203
0.64233160 4.10174751 -9.35411644
0.63545191 3.94090581 -9.29330063
0.64934170 4.25878572 -9.41819668
0.34009412 4.25528049 -9.43428516
0.33496711 4.09971523 -9.37209034
0.03045512 4.25136518 -9.44053173
0.02743487 4.09581900 -9.37803745
-0.27976185 4.24670458 -9.43635559
-0.28035840 4.09104586 -9.37352562
-0.59035164 4.23695374 -9.41646290
-0.58826351 4.08265638 -9.35475063
-0.90008390 4.22490931 -9.38377953
-0.89527375 4.07102251 -9.32180786
-1.20103490 4.06007862 -9.28004360
-1.20862293 4.21439457 -9.34291172
-1.50528574 4.05029011 -9.22998619
-1.51567054 4.20535231 -9.29387856
-1.80813837 4.04255295 -9.17317677
-1.82115197 4.19809961 -9.23720074
-2.11005878 4.03800392 -9.11187553
-2.12573838 4.19465017 -9.17615986
-2.40921998 4.03270912 -9.03890324
-2.42683840 4.18872166 -9.10042858
-2.70509958 4.02637005 -8.95316029
-2.72540307 4.18309116 -9.01449871
-2.99816442 4.02016163 -8.85708618
-3.02051854 4.17604351 -8.91538715
-3.28716421 4.01223803 -8.74717999
-3.31253886 4.16912699 -8.80581665
-3.57347965 4.00548887 -8.62961197
-3.60096121 4.16194868 -8.68561935
-3.85612226 3.99866509 -8.50247860
-3.88647461 4.15616941 -8.55826187
-4.13507366 3.99204659 -8.36703110
-4.16736460 4.14929008 -8.42055702
-4.44435835 4.14302540 -8.27546978
-4.41035175 3.98600578 -8.22416115
-4.71756697 4.13786077 -8.12383842
-4.68100595 3.97974157 -8.07301521
-4.98723316 4.13428116 -7.96650267
-4.94860268 3.97519255 -7.91689014
-5.21194887 3.97107172 -7.75420332
-5.25085878 4.12967634 -7.80038500
-5.46843386 3.96553469 -7.58224964
-5.50915241 4.12525749 -7.62735033
-5.71919537 3.95988560 -7.40345383
-5.75911188 4.11878824 -7.44521618
-6.00122261 4.11129332 -7.25514078
-5.96042967 3.95196199 -7.21475840
-6.23636055 4.10348129 -7.05788803
-6.19493294 3.94377708 -7.01918411
-6.46398401 4.09477472 -6.85280466
-6.42199850 3.93488407 -6.81596375
-6.68310690 4.08336449 -6.63864183
-6.63981533 3.92371655 -6.60314417
-6.89417601 4.06969881 -6.41601467
-6.85008287 3.91128111 -6.38247395
-7.09625721 4.05567837 -6.18494081
-7.05156803 3.89828587 -6.15361881
-7.29049015 4.04260921 -5.94752789
-7.24492455 3.88560820 -5.91797781
-7.47681808 4.03024817 -5.70454121
-7.42987251 3.87300467 -5.67624044
-7.65440178 4.01779366 -5.45575619
-7.60594654 3.86023378 -5.42868567
-7.82286882 4.00492954 -5.20130348
-7.77303314 3.84718275 -5.17561197
-7.98248005 3.99200916 -4.94176102
-7.93139505 3.83411312 -4.91757965
-8.13515472 3.98026347 -4.67852640
-8.08276558 3.82192016 -4.65583706
-8.27748299 3.96801424 -4.41016531
-8.08276558 3.82192016 -4.65583706
-8.22507572 3.80989504 -4.38958263
-8.13515472 3.98026347 -4.67852640
-8.41050816 3.95636177 -4.13751602
-8.35763359 3.79822373 -4.11890936
-8.53441620 3.94552970 -3.86098886
-8.48116875 3.78728008 -3.84437680
-8.64931870 3.93551803 -3.58091903
-8.59599686 3.77719355 -3.56639528
-8.75506687 3.92617726 -3.29751205
-8.70182037 3.76781559 -3.28513241
-8.85167980 3.91741443 -3.01104736
-8.79861927 3.75909019 -3.00081182
-8.93939972 3.90928602 -2.72184229
-8.88658237 3.75099874 -2.71375084
-9.01882267 3.90199614 -2.43026924
-8.96600533 3.74357820 -2.42424703
-9.09224319 3.89655185 -2.13699961
-9.03869820 3.73738861 -2.13287926
-9.15717983 3.89172339 -1.84162331
-9.10419369 3.73222399 -1.83968413
-9.21408176 3.88756561 -1.54441977
-9.16256809 3.72801042 -1.54482996
-9.25970364 3.88234544 -1.24516535
-9.20852566 3.72262239 -1.24768233
-9.24206638 3.71598530 -0.94885671
-9.29441833 3.87619281 -0.94432634
-9.26833630 3.71007514 -0.64919233
-9.31923389 3.86968589 -0.64242458
-9.28379154 3.70354986 -0.34874478
-9.33455849 3.86312342 -0.33983293
-9.28798676 3.69624138 -0.04792437
-9.33864212 3.85568428 -0.03696172
-9.28054714 3.68805671 0.25276557
-9.33111000 3.84723854 0.26570448
-9.26132584 3.67897677 0.55280292
-9.31168270 3.83780503 0.56758761
-9.23060036 3.66909552 0.85155380
-9.28062248 3.82745767 0.86812836
-9.19023609 3.65895343 1.14879465
-9.23984718 3.81688619 1.16704714
-9.14170647 3.64907169 1.44437611
-9.19114971 3.80685616 1.46434379
-9.08694839 3.64010406 1.73854053
-9.13667202 3.79826117 1.76031673
-9.02836895 3.63287044 2.03171706
-9.07872677 3.79205251 2.05541348
-8.96046734 3.62517047 2.32222724
-9.00819588 3.78390527 2.34666967
-8.88169765 3.61625862 2.60899019
-8.92849350 3.77503085 2.63447666
-8.79242992 3.60596752 2.89152074
-8.83889008 3.76486969 2.91814446
-8.69445515 3.59491134 3.17028522
-8.74082279 3.75394416 3.19797206
-8.58891201 3.58351994 3.44569421
-8.63557816 3.74283242 3.47455478
-8.51892281 3.72944617 3.74589920
-8.47339439 3.57087922 3.71662831
-8.39065266 3.71428847 4.01207924
-8.34637260 3.55680275 3.98243546
-8.20589066 3.54125404 4.24225760
-8.24802589 3.69696832 4.27197647
-8.29215622 3.84964395 4.30249643
-8.09251595 3.67854786 4.52601910
-8.13549042 3.82915401 4.55711699
-8.18010521 3.97543478 4.58881187
-7.96901894 3.80907440 4.80718851
-8.01260853 3.95311809 4.83947992
-8.05772686 4.09160519 4.87214422
-7.83728075 3.93298221 5.08660603
-7.88150454 4.06964302 5.11992264
-7.92708874 4.19968414 5.15325785
-7.69845772 4.05127811 5.36488581
-7.74353886 4.18046236 5.39909744
-7.78975725 4.30231953 5.43286133
-7.55426502 4.16597605 5.64309120
-7.60063314 4.28811264 5.67804861
-7.64744759 4.40210199 5.71162605
-7.40688467 4.27966690 5.92254543
-7.45701838 4.39626646 5.95867729
-7.50077534 4.50000143 5.98938370
-7.25391054 4.39210892 6.20218611
-7.29819059 4.49685049 6.23384333
-7.33793926 4.58811283 6.26054239
-7.08316946 4.49586248 6.47677469
-7.12234020 4.58686399 6.50401306
-7.15726042 4.66406822 6.52638578
-6.89559269 4.58854151 6.74867773
-6.92790222 4.66291237 6.77131128
-6.95648336 4.72760677 6.79057074
-6.69874907 4.72033596 7.03915167
-6.67177153 4.65631247 7.01785946
-6.72451496 4.77930641 7.05803728
-6.44580698 4.77779675 7.31099939
-6.42216635 4.71697998 7.28793621
-6.46894407 4.83441830 7.33161879
-6.17373562 4.83346748 7.57921124
-6.15570688 4.77941847 7.55536604
-6.19155931 4.88306046 7.60063314
-5.89621973 4.88677025 7.83014059
-5.88268471 4.83801651 7.80620146
-5.91070604 4.93181419 7.85197210
-5.62929440 4.93886185 8.05619812
-5.61773491 4.89258766 8.03127098
-5.64124489 4.98418522 8.08043575
-5.38004303 4.99020720 8.25910091
-5.36917353 4.94367218 8.23314857
-5.39160204 5.03595924 8.28339386
-5.14535236 5.04019165 8.43929386
-5.13472557 4.99360037 8.41421890
-5.15542030 5.08642864 8.46211433
-5.40344095 5.08161831 8.30640030
-4.92018938 5.08486271 8.59963226
-4.91032696 5.04071379 8.57684994
-5.15542030 5.08642864 8.46211433
-4.93014526 5.12897444 8.62226582
-4.92018938 5.08486271 8.59963226
-4.70143986 5.12686729 8.74975395
-4.69312429 5.08448982 8.72792244
-4.71018410 5.16945028 8.77143669
-4.48571062 5.17198610 8.89038563
-4.47845793 5.13044691 8.86929989
-4.26118135 5.13673019 8.98211288
-4.47088861 5.08814383 8.84716797
-4.25465584 5.09431505 8.95968437
-4.03672647 5.10270500 9.06826782
-4.03672647 5.10270500 9.06826782
-4.24719810 5.05094910 8.93552208
-4.02986574 5.05859327 9.04287529
-4.25465584 5.09431505 8.95968437
-3.80947518 5.11307096 9.16976452
-3.80421758 5.06774712 9.14672184
-4.02279949 5.01436996 9.01731396
-3.79689050 5.02149200 9.12088013
-3.54230690 5.02976990 9.23026466
-3.78919029 4.97521734 9.09502125
-3.53492379 4.98349571 9.20386410
-3.23453259 4.99606133 9.32268238
-3.52716804 4.93660593 9.17729759
-3.22819352 4.94630051 9.29372883
-2.87429380 4.95174456 9.41407585
-3.22004580 4.89488077 9.26436424
-2.87295127 4.90030575 9.38236332
-2.48590255 4.90940428 9.49860764
-2.49076867 4.85628748 9.46458149
-2.87009883 4.84620142 9.35031319
-2.10189271 4.87353325 9.57124519
-2.11160612 4.81791830 9.53473949
-2.49363971 4.80110168 9.42999840
-1.73460650 4.83745718 9.62685871
-1.74683702 4.77844906 9.58904934
-2.12029433 4.75909662 9.49786186
-1.38743722 4.79776430 9.66427803
-1.40166259 4.73232412 9.62344742
-1.75986910 4.71274805 9.54795837
-1.05975091 4.75115442 9.68226910
-1.07509494 4.67475128 9.63696480
-1.41723025 4.65640593 9.57762051
-0.74848986 4.69063616 9.67971420
-0.76362866 4.60373640 9.63153839
-1.09202361 4.58654642 9.58649445
-0.45063379 4.61350584 9.65788269
-0.46679813 4.51521492 9.60575390
-0.78171337 4.50240660 9.57670689
-0.16254722 4.52354860 9.62033367
-0.17971829 4.41252422 9.56415939
-0.48512515 4.40185928 9.54797649
0.11597503 4.41675615 9.56415939
0.09811413 4.29288530 9.50503922
-0.19834362 4.28716183 9.50377274
0.38841930 4.29521608 9.49431896
0.36943975 4.15904045 9.43176937
0.07963793 4.15734386 9.44357109
0.65480435 4.15857458 9.40963745
0.63653326 4.01641417 9.34854221
0.35105681 4.01525784 9.36990833
0.91863507 4.01693630 9.31848717
0.90086740 3.86949944 9.25882721
0.61911976 3.86817598 9.28904915
1.18047106 3.87250161 9.22269630
1.16337442 3.72105622 9.16543961
0.88418114 3.71723413 9.20157146
1.44034934 3.72581077 9.12293148
1.42371893 3.57043171 9.06795120
1.14724743 3.56508088 9.11047649
1.69774795 3.57572675 9.01815128
1.68163955 3.41712236 8.96602440
1.40820706 3.41136169 9.01584053
1.95283461 3.42338681 8.90975571
1.93713641 3.26163173 8.86040497
1.66663110 3.25514340 8.91676712
2.20527411 3.26830649 8.79731464
2.19013500 3.10390377 8.75115204
1.92261279 3.09694958 8.81403828
2.45521498 3.11091375 8.68149853
2.44035578 2.94358444 8.63783455
2.17607760 2.93681645 8.70782375
2.70202398 2.95001650 8.56072235
2.68789196 2.78093433 8.52082443
2.42693233 2.77455807 8.59791756
2.94590569 2.78635979 8.43582630
2.93222094 2.61526418 8.39872551
2.67497134 2.61000657 8.48396587
3.18669248 2.61985040 8.30643749
3.17373514 2.44744968 8.27274895
2.91995335 2.44299364 8.36518478
3.42464519 2.45110393 8.17326450
3.41230321 2.27745390 8.14246368
3.16195202 2.27387428 8.24192905
3.65952206 2.28000808 8.03565216
3.64712381 2.10481071 8.00600910
3.40031505 2.10218191 8.11229801
3.90342259 2.28142500 7.92155123
3.89065123 2.10630226 7.89222527
4.13069248 2.10641432 7.77100229
4.14379930 2.28159285 7.80006790
4.36655760 2.10514641 7.64164972
4.38020468 2.28039980 7.67092037
4.59863758 2.10292768 7.50526953
4.61280680 2.27816248 7.53474474
4.82644796 2.09940410 7.36152363
4.84179211 2.27514195 7.39221239
5.05163002 2.09556341 7.21332312
5.06813002 2.27204728 7.24509287
5.27304602 2.09092093 7.05904436
5.29090643 2.26837444 7.09211874
5.48968840 2.08551431 6.89758825
5.50928307 2.26395583 6.93232107
5.70103693 2.07949233 6.72846794
5.72245884 2.25873542 6.76482344
5.90669870 2.07304144 6.55164814
5.92976093 2.25289989 6.58915997
6.10618877 2.06662798 6.36705446
6.13085461 2.24674726 6.40542459
6.30025339 2.06023312 6.17576742
6.32600069 2.24050164 6.21434212
6.51529312 2.23436785 6.01656723
6.48878145 2.05395007 5.97829103
6.69852591 2.22853208 5.81235981
6.67123127 2.04805875 5.77443743
6.87590456 2.22295761 5.60211134
6.84786463 2.04254007 5.56473017
7.04800701 2.21764421 5.38649416
7.01964998 2.03711462 5.34995174
7.21475887 2.21266603 5.16567469
7.18466759 2.03202486 5.12889004
7.21475887 2.21266603 5.16567469
7.18466759 2.03202486 5.12889004
7.37423944 2.20809841 4.93842363
7.34243298 2.02751303 4.90163898
7.52667284 2.20382905 4.70535517
7.49384022 2.02326202 4.66914892
7.67168522 2.19970846 4.46671247
7.63764143 2.01910448 4.43110275
7.80983686 2.19566274 4.22324085
7.77435780 2.01494694 4.18815279
7.93956184 2.19159842 3.97454906
7.90376520 2.01026726 3.94093394
8.06149292 2.18742228 3.72106552
8.02385139 2.00596046 3.68804717
8.17648888 2.18292904 3.46336889
8.13737488 2.00139260 3.43133807
8.28251743 2.17862225 3.20063758
8.24237728 1.99719787 3.16981936
8.38148022 2.17379355 2.93404770
8.33947563 1.99253690 2.90404963
8.47151184 2.16915131 2.66320682
8.42749310 1.98826730 2.63414097
8.55084133 2.16478848 2.38854384
8.50676727 1.98388612 2.36098814
8.62215519 2.16027641 2.11100984
8.57865810 1.97928095 2.08496428
8.68375492 2.15619373 1.83062315
8.63971710 1.97566414 1.80588257
8.73571491 2.15283751 1.54775691
8.69244289 1.97247601 1.52456379
8.77960300 2.15020895 1.26304483
8.73554707 1.97023869 1.24108231
8.81428146 2.14840031 0.97658026
8.76849079 1.96917593 0.95590413
8.84068012 2.14687157 0.68886662
8.79464912 1.96779633 0.66981250
8.85796356 2.14526820 0.40009019
8.81271458 1.96604371 0.38323605
8.86622334 2.14308691 0.11067989
8.82194328 1.96356416 0.09636130
8.86294174 2.14060736 -0.17912194
8.81489658 1.96184886 -0.19096084
8.84925652 2.13794112 -0.46856958
8.80195713 1.95908952 -0.47818986
8.82546806 2.13551760 -0.75797987
8.77764606 1.95702004 -0.76549339
8.79353046 2.13305640 -1.04636478
8.74434757 1.95496929 -1.05208850
8.75284863 2.13074446 -1.33340728
8.70517635 1.95243371 -1.33782601
8.70226860 2.12888002 -1.61873460
8.65431499 1.95081174 -1.62151253
8.64070606 2.12755656 -1.90212297
8.59366703 1.94984221 -1.90361440
8.56978416 2.12654972 -2.18362808
8.52382660 1.94920838 -2.18359089
8.48954010 2.12502098 -2.46315718
8.44436550 1.94779122 -2.46174026
8.35640335 1.94615066 -2.73746586
8.40105629 2.12323093 -2.74046755
8.25949192 1.94447279 -3.01032043
8.30433178 2.12145996 -3.01520514
8.15402317 1.94266427 -3.28047132
8.19830227 2.11972594 -3.28669834
8.03990364 1.94091165 -3.54715490
8.08403397 2.11797357 -3.55491066
7.91814041 1.93889809 -3.81046343
7.96159887 2.11609054 -3.81954312
7.78735304 1.93727612 -4.06957722
7.83081150 2.11454296 -4.08031654
7.64662790 1.93667948 -4.32393694
7.69047880 2.11362934 -4.33642817
7.49827766 1.93630660 -4.57417631
7.54134560 2.11310744 -4.58791685
7.34254456 1.93597114 -4.82042599
7.38499737 2.11269712 -4.83537817
7.17970848 1.93524384 -5.06208897
7.22109795 2.11215663 -5.07797337
7.00738192 1.93475914 -5.29648113
7.04856682 2.11178374 -5.31413698
6.82890368 1.93377113 -5.52546644
6.86949110 2.11100054 -5.54478121
6.64317226 1.93306255 -5.74842978
6.68327522 2.11038542 -5.76914263
6.44880915 1.93356597 -5.96320820
6.48902369 2.11055303 -5.98600912
6.24823713 1.93472183 -6.17174053
6.28783703 2.11135483 -6.19618320
6.07894945 2.11310744 -6.39880610
6.04005861 1.93692183 -6.37287235
5.86210203 2.11575484 -6.59348583
5.82466459 1.93996084 -6.56689930
5.63943672 2.11860728 -6.78227520
5.60207415 1.94367099 -6.75307846
5.41034031 2.12179542 -6.96420288
5.37497234 1.94717610 -6.93465233
5.17577982 2.12380910 -7.13936281
5.14112091 1.94984221 -7.10701561
4.93538475 2.12421918 -7.30643082
4.90380192 1.95008457 -7.27423286
4.68937778 2.12291408 -7.46423388
4.66034889 1.94870484 -7.43182993
4.43809414 2.12073278 -7.61234093
4.41150808 1.94622517 -7.57980728
4.18270922 2.11763787 -7.75267410
4.15858412 1.94277608 -7.72027159
3.92324114 2.11424470 -7.88521385
3.90094280 1.93938291 -7.85215855
3.65983915 2.11083269 -8.00984955
3.63905120 1.93625081 -7.97560024
3.39291358 2.10740232 -8.12713814
3.37384057 1.93285763 -8.09238720
3.12283683 2.10397172 -8.23743725
3.10447264 1.92968810 -8.19949532
3.13980269 2.27788281 -8.27118301
2.86471105 2.27411675 -8.37407780
2.84905028 2.10001945 -8.33891582
2.88020444 2.44750571 -8.40752602
2.59978032 2.44344115 -8.50102425
2.58529401 2.27023888 -8.46554470
2.61432290 2.61600971 -8.53467751
2.32907009 2.61140466 -8.61794090
2.31570196 2.43889189 -8.58343124
2.34269857 2.78319025 -8.65149975
2.05367994 2.77834272 -8.72587109
2.04120708 2.60640812 -8.69175243
2.06676793 2.94953179 -8.76174164
1.77439320 2.94464684 -8.82653046
1.76259160 2.77317858 -8.79037952
1.78666103 3.11509037 -8.86501122
1.49156415 3.11067152 -8.92163372
1.48069489 2.93978095 -8.88296509
1.50278795 3.28023863 -8.96322823
1.20524883 3.27652812 -9.01147747
1.19559121 3.10653234 -8.97046089
1.21518600 3.44520044 -9.05693245
0.91546571 3.44262719 -9.09729671
0.90720642 3.27317238 -9.05152416
0.92385554 3.61064696 -9.14780235
0.62208420 3.60872650 -9.17858410
0.61550283 3.43958807 -9.12688446
0.62874007 3.77557135 -9.23317337
0.32519764 3.77223444 -9.24999046
0.32042480 3.60499763 -9.19538307
0.33002642 3.93708420 -9.30855083
0.02456363 3.93305683 -9.31449795
0.02176706 3.76805806 -9.25599384
-0.28088045 3.92807913 -9.30970669
-0.28149572 3.76291203 -9.25105381
-0.58613819 3.92071462 -9.29192066
-0.58438563 3.75584579 -9.23334122
-0.89050090 3.91025543 -9.25974178
-0.88625008 3.74613261 -9.20129299
-1.18686545 3.73636293 -9.15984631
-1.19359601 3.89981484 -9.21797943
-1.48604524 3.72717166 -9.10997295
-1.49521804 3.89017582 -9.16777039
-1.78378940 3.71913600 -9.05284882
-1.79547906 3.88221502 -9.11079407
-2.08034039 3.71298337 -8.99027920
-2.09467769 3.87684560 -9.04902649
-2.37511992 3.70776296 -8.92019653
-2.39158273 3.87155056 -8.97741508
-2.66654396 3.70142436 -8.83700752
-2.68503881 3.86495066 -8.89243698
-2.95505929 3.69504809 -8.74341488
-2.97586608 3.85879803 -8.79807854
-3.24020028 3.68826175 -8.63863564
-3.26296473 3.85163879 -8.69121265
-3.52219033 3.68160582 -8.52442360
-3.54683733 3.84462857 -8.57474327
-3.82748508 3.83801007 -8.44984722
-3.80061913 3.67478204 -8.40053368
-4.10429239 3.83126092 -8.31589031
-4.07582283 3.66838717 -8.26900101
-4.37710905 3.82456779 -8.17374802
-4.34653330 3.66139555 -8.12788486
-4.64604855 3.81826591 -8.02452183
-4.61355209 3.65481448 -7.97992611
-4.87682343 3.64868069 -7.82555342
-4.91135216 3.81278467 -7.86923599
-5.13662720 3.64323640 -7.66570044
-5.17277813 3.80790019 -7.70792913
-5.39093065 3.63715839 -7.49775505
-5.42838669 3.80223250 -7.53836203
-5.63936186 3.63053966 -7.32218552
-5.67830896 3.79622889 -7.36157942
-5.88022327 3.62285876 -7.13788939
-5.91943169 3.78849149 -7.17512131
-6.15352488 3.78021383 -6.98135471
-6.11306763 3.61420798 -6.94514847
-6.37949038 3.77094769 -6.77931118
-6.33875275 3.60505342 -6.74504328
-6.59717703 3.76050711 -6.56874561
-6.55561924 3.59481812 -6.53591347
-6.80641794 3.74870539 -6.34958601
-6.76364946 3.58338928 -6.31785297
-7.00713968 3.73634458 -6.12253904
-6.96386671 3.57151318 -6.09265232
-7.19933987 3.72379732 -5.88846397
-7.15517235 3.55920815 -5.86010695
-7.38270378 3.71106315 -5.64791965
-7.33736134 3.54667950 -5.62092304
-7.55717373 3.69821763 -5.40155840
-7.51058245 3.53400135 -5.37590456
-7.72291851 3.68524122 -5.14990234
-7.67522669 3.52126789 -5.12572098
-7.88021803 3.67235827 -4.89351034
-7.83144522 3.50855255 -4.87087631
-8.03022671 3.66003466 -4.63325882
-7.98022413 3.49624753 -4.61211681
-8.17272282 3.64830756 -4.36926031
-7.98022413 3.49624753 -4.61211681
-8.12236500 3.48461342 -4.35005713
-8.03022671 3.66003466 -4.63325882
-8.30511379 3.63676715 -4.10065699
-8.25492382 3.47324061 -4.08359766
-8.42846203 3.62584162 -3.82819390
-8.37862682 3.46242738 -3.81333447
-8.54315948 3.61568046 -3.55228162
-8.49371624 3.45230365 -3.53960395
-8.64902020 3.60624695 -3.27314425
-8.59998703 3.44286966 -3.26261044
-8.74604416 3.59748411 -2.99096799
-8.69740105 3.43410683 -2.98254085
-8.83432293 3.58937407 -2.70606947
-8.78607178 3.42597842 -2.69969296
-8.91415596 3.58191633 -2.41869140
-8.86618519 3.41846490 -2.41432858
-8.98722172 3.57548428 -2.12944865
-8.93934345 3.41179061 -2.12702513
-9.05288601 3.56987238 -1.83830464
-9.00489616 3.40574956 -1.83778250
-9.11071968 3.56485724 -1.54540789
-9.06215191 3.40011907 -1.54667556
-9.15764618 3.55945063 -1.25046027
-9.11040306 3.39469361 -1.25383484
-9.14399910 3.38829875 -0.95896178
-9.19122410 3.55292535 -0.95368570
-9.16941071 3.38209033 -0.66323119
-9.21671009 3.54673529 -0.65605330
-9.18620872 3.37597537 -0.36682945
-9.23270702 3.54039621 -0.35771251
-9.19081402 3.36915135 -0.06992421
-9.23796463 3.53355408 -0.05894294
-9.18395233 3.36174965 0.22703689
-9.23082352 3.52576065 0.23982663
-9.16551399 3.35365820 0.52356917
-9.21184444 3.51712871 0.53801829
-9.13551617 3.34476519 0.81905746
-9.18111897 3.50763893 0.83501667
-9.09649467 3.33559251 1.11322200
-9.14116478 3.49790668 1.13059819
-9.04887772 3.32628918 1.40582037
-9.09302616 3.48826766 1.42459488
-8.99453068 3.31728411 1.69694602
-9.03862286 3.47930002 1.71719325
-8.93582058 3.30915523 1.98699021
-8.97967052 3.47145104 2.00861716
-8.87077141 3.30128741 2.27537489
-8.91329861 3.46367621 2.29797149
-8.79175854 3.29177904 2.55936003
-8.83411694 3.45426106 2.58314967
-8.70523167 3.28210258 2.84056687
-8.74669647 3.44443583 2.86515832
-8.60833931 3.27143860 3.11763501
-8.64941120 3.43360376 3.14310288
-8.50357819 3.26041985 3.39136600
-8.54411030 3.42234278 3.41759753
-8.39057827 3.24900985 3.66153550
-8.43019581 3.41048551 3.68830824
-8.30420017 3.39730382 3.95363045
-8.26562595 3.23657441 3.92637300
-8.12773514 3.22343016 4.18533754
-8.16511631 3.38307858 4.21304274
-7.97602940 3.20998788 4.43781424
-8.01236534 3.36825657 4.46613455
-8.05120182 3.52460480 4.49555492
-7.84971619 3.35390067 4.71449089
-7.88726521 3.50858974 4.74448872
-7.92699575 3.66053796 4.77538204
-7.71536779 3.49378633 4.98952675
-7.75381136 3.64405704 5.02109098
-7.79428768 3.79063559 5.05340099
-7.57391548 3.62962651 5.26351833
-7.61308718 3.77480674 5.29661131
-7.65434599 3.91547585 5.33031988
-7.42584562 3.76183081 5.53704405
-7.46611691 3.90173507 5.57187128
-7.50873661 4.03658724 5.60725689
-7.27305841 3.89190984 5.81161404
-7.31517506 4.02692938 5.84864044
-7.35967827 4.15635586 5.88572359
-7.16171646 4.15251541 6.12824440
-7.11848116 4.02243614 6.08957624
-7.20812130 4.27675867 6.16666937
-6.95171070 4.14983034 6.36640167
-6.99587822 4.27468920 6.40663624
-7.04023218 4.39095306 6.44399834
-6.81924534 4.39522219 6.68644524
-6.77418327 4.27547216 6.64473867
-6.85895729 4.49940491 6.72058201
-6.61071253 4.49502325 6.96049213
-6.57678080 4.39291000 6.92290592
-6.64233303 4.58244514 6.99202013
-6.37372875 4.57599449 7.23105383
-6.34744072 4.48758459 7.19339228
-6.39843178 4.65118551 7.26202106
-6.11797142 4.65017891 7.49620867
-6.09878683 4.57157564 7.45819330
-6.13698769 4.71867657 7.52808952
-5.85509109 4.72413921 7.74911404
-5.84051180 4.65277004 7.71305561
-5.86922359 4.78488111 7.77954102
-5.59575367 4.78924370 7.97722197
-5.58466053 4.72837114 7.94532299
-5.60682821 4.84301329 8.00494671
-5.34901953 4.84394550 8.17872620
-5.33897018 4.78998947 8.15010738
-5.35914278 4.89523506 8.20615196
-5.11572742 4.90086508 8.36354446
-5.10659170 4.84890461 8.33541012
-5.12465763 4.94736338 8.38897514
-4.89226055 4.95129728 8.52828217
-4.88351679 4.90511608 8.50352192
-4.90122890 4.99628544 8.55272388
-4.67552471 4.99800014 8.68041801
-4.66678047 4.95381403 8.65595627
-4.68436193 5.04140329 8.70448685
-4.46289015 5.04468489 8.82283783
-4.45491076 5.00120735 8.79839611
-4.47088861 5.08814383 8.84716797
-4.69312429 5.08448982 8.72792244
-4.23944235 5.00708008 8.91042709
-4.44696808 4.95758057 8.77384186
-4.23174238 4.96289396 8.88492203
-4.01530457 4.96889734 8.99149132
-4.22366953 4.91648912 8.85934258
-4.00702667 4.92115021 8.96553898
-3.78106141 4.92855167 9.06916237
-3.99833870 4.87232161 8.93973637
-3.77116179 4.87990952 9.04356480
-3.51683927 4.88719940 9.15043163
-3.76051617 4.82934713 9.01811504
-3.50475788 4.83620787 9.12380791
-3.20981050 4.84170818 9.23488903
-3.49269533 4.78284883 9.09660721
-3.19961214 4.78668976 9.20524406
-2.86469197 4.79049301 9.31828308
-3.18790388 4.72777462 9.17498493
-2.85533285 4.73237991 9.28547001
-2.49500084 4.74278307 9.39481640
-2.84731579 4.66766644 9.25081062
-2.49516845 4.67816305 9.35751057
-2.12799430 4.69354439 9.45745945
-2.13438916 4.61805487 9.41396332
-2.49253964 4.60226393 9.31561756
-1.77237928 4.63710928 9.50287724
-1.78472161 4.54696560 9.45089817
-2.13877058 4.52781820 9.36390591
-1.43397260 4.56650448 9.52504444
-1.44965219 4.46310520 9.46842194
-1.79516220 4.44190693 9.39354897
-1.11010814 4.48413515 9.53043270
-1.12974036 4.36485100 9.46655846
-1.46466053 4.34404421 9.40553665
-0.80214715 4.38517284 9.51503181
-0.82120132 4.25677252 9.45188522
-1.14663172 4.23540640 9.40242290
-0.50421655 4.27521133 9.48663807
-0.52379274 4.13605261 9.42194271
-0.83969605 4.11649513 9.38566303
-0.21780790 4.14921522 9.44023228
-0.23656374 4.00250578 9.37648964
-0.54279095 3.98712468 9.35540390
0.06116174 4.01218176 9.38115120
0.04361777 3.86027098 9.31979370
-0.25403318 3.84910345 9.31369686
0.33364335 3.86528635 9.30967045
0.31751630 3.71037316 9.25176144
0.02758396 3.70349360 9.26078606
0.60261989 3.71441936 9.23127174
0.58742505 3.55656075 9.17617893
0.30271307 3.55113530 9.19629574
0.86857611 3.56055021 9.14670277
0.85422015 3.40024972 9.09466648
0.57355392 3.39514112 9.12390137
1.13229513 3.40541387 9.05831146
1.11862898 3.24272680 9.00925922
0.84111363 3.23683548 9.04548454
1.39385128 3.24899101 8.96658325
1.38081908 3.08408523 8.92068195
1.10632396 3.07757854 8.96361923
1.65281594 3.09033108 8.87051105
1.64039910 2.92342997 8.82787132
1.36914790 2.91703510 8.87826633
1.90943158 2.93012333 8.77123165
1.89759254 2.76135826 8.73185539
1.62941790 2.75485134 8.78905487
2.16343689 2.76793933 8.66813087
2.15217590 2.59751487 8.63197994
1.88728249 2.59123206 8.69645119
2.41481352 2.60387254 8.56131935
2.40424252 2.43218040 8.52878571
2.14251852 2.42608380 8.59996796
2.66344929 2.43790388 8.45061111
2.65299034 2.26451516 8.41975594
2.39465928 2.25903368 8.49830246
2.90880394 2.26951170 8.33432961
2.89819551 2.09459400 8.30442429
2.64320230 2.08978391 8.39007473
3.15057898 2.09869552 8.21166992
3.13859081 1.92157793 8.17865086
2.88663650 1.91755092 8.27052975
3.38769317 1.92487776 8.07959652
3.37335587 1.74557889 8.04092979
3.12425399 1.74259591 8.13791466
3.63401723 1.92748809 7.97403431
3.61943769 1.74764836 7.93706274
3.87676167 1.92897952 7.86026907
3.86061573 1.74943805 7.82242107
4.09979963 1.74895334 7.70263338
4.11646700 1.92886770 7.73964214
4.33426571 1.74753642 7.57331944
4.35197783 1.92763734 7.61066389
4.56423903 1.74585855 7.43585825
4.58318138 1.92551184 7.47378016
4.79020405 1.74265170 7.29123640
4.81050730 1.92213714 7.33003426
5.01249599 1.73763657 7.14063025
5.03363848 1.91730833 7.17935419
5.23104095 1.73153996 6.98407698
5.25339508 1.91173387 7.02345276
5.44488716 1.72499585 6.82086706
5.46828556 1.90561879 6.86044884
5.65308428 1.71867549 6.64975405
5.67788076 1.89922369 6.69011784
5.85660172 1.71172154 6.47289705
5.88227463 1.89241862 6.51275778
6.05355644 1.70543849 6.28791094
6.08016157 1.88607979 6.32756662
6.24501181 1.69922996 6.09675455
6.27312660 1.87972212 6.13635445
6.46085262 1.87340200 5.93939972
6.43184328 1.69305873 5.90011644
6.64272499 1.86739850 5.73616171
6.61315584 1.68679440 5.69768047
6.81863117 1.86193585 5.52706957
6.78743935 1.68153679 5.48832750
6.98907423 1.85658503 5.31234694
6.95667076 1.67609286 5.27399635
7.15312195 1.85115969 5.09173298
7.12105417 1.67023849 5.05472469
7.15312195 1.85115969 5.09173298
7.12105417 1.67023849 5.05472469
7.30943346 1.84668517 4.86477995
7.27505350 1.66624880 4.82732391
7.45903254 1.84269524 4.63228941
7.42269516 1.66240811 4.59498310
7.60238552 1.83812749 4.39530611
7.56517267 1.65750480 4.35898781
7.73703241 1.83385813 4.15274811
7.69884968 1.65284371 4.11760426
7.86530304 1.82889879 3.90648007
7.82708263 1.64756763 3.87267828
7.98408365 1.82483447 3.65452528
7.94489384 1.64357769 3.62141347
8.09469795 1.82082582 3.39785361
8.05418491 1.63955069 3.36586046
8.20050335 1.81590390 3.13846016
8.15600014 1.63557947 3.10639262
8.29655647 1.81159723 2.87403297
8.25278091 1.63108611 2.84368062
8.38304615 1.80764461 2.60529852
8.33833790 1.62726426 2.57643795
8.46200371 1.80331922 2.33330178
8.41625118 1.62331176 2.30593252
8.53119087 1.79945982 2.05826616
8.48420811 1.61988127 2.03186607
8.59187698 1.79604805 1.78047109
8.54591942 1.61613381 1.75591683
8.64415550 1.79310238 1.50056899
8.59855175 1.61316931 1.47752512
8.68722248 1.79092109 1.21854174
8.64051914 1.61151004 1.19678426
8.72232819 1.78942943 0.93517208
8.67433929 1.61003721 0.91509253
8.74634266 1.78851593 0.65092611
8.69839001 1.60880673 0.63256186
8.76334572 1.78678203 0.36645648
8.71487141 1.60705411 0.35040402
8.77022457 1.78478706 0.08208005
8.72201252 1.60468638 0.06789197
8.76472569 1.78294146 -0.20257607
8.71593380 1.60339999 -0.21469466
8.75023842 1.78094649 -0.48754913
8.69984436 1.60237455 -0.49750504
8.72674751 1.77913809 -0.77252221
8.67605400 1.60106957 -0.78001702
8.69207001 1.77751601 -1.05712247
8.64333439 1.59931695 -1.06301391
8.65194798 1.77535331 -1.34120047
8.60244846 1.59739661 -1.34535801
8.60250473 1.77339554 -1.62384307
8.55168056 1.59586775 -1.62632263
8.54319763 1.77210915 -1.90462112
8.49297047 1.59461868 -1.90581429
8.47449398 1.77115846 -2.18314338
8.42432404 1.59351861 -2.18262124
8.34736061 1.59217632 -2.45748949
8.39650726 1.76990926 -2.45970798
8.26031208 1.59072208 -2.72943020
8.30912304 1.76830578 -2.73373699
8.16424084 1.58952892 -2.99924588
8.21198750 1.76720595 -3.00459671
8.05797005 1.58857799 -3.26505280
8.10700321 1.76554668 -3.27318144
7.94495010 1.58688140 -3.52851081
7.99238014 1.76399910 -3.53777695
7.82320499 1.58535266 -3.78831434
7.87207079 1.76179910 -3.80019069
7.69446802 1.58350682 -4.04520941
7.74068689 1.76049399 -4.05717897
7.55333328 1.58371186 -4.29589653
7.60080099 1.75999069 -4.31036425
7.40647507 1.58358133 -4.54373074
7.45370054 1.75971103 -4.55955935
7.25221491 1.58330166 -4.78681087
7.29863787 1.75935674 -4.80452251
7.08958292 1.58261204 -5.02467060
7.13598824 1.75859237 -5.04430246
6.91962481 1.58143747 -5.25658274
6.96506023 1.75762284 -5.27765036
6.74041891 1.58104587 -5.48116779
6.78635740 1.75678384 -5.50469685
6.55603075 1.58041203 -5.70159578
6.59984398 1.75669062 -5.72501230
6.36246872 1.58132553 -5.91355944
6.40574121 1.75728738 -5.93811321
6.16294050 1.58304071 -6.11966848
6.20543051 1.75896525 -6.14508009
5.99829626 1.76144493 -6.34524202
5.95781946 1.58561361 -6.31999826
5.78493404 1.76455843 -6.53906393
5.74434662 1.58941698 -6.51102352
5.56627798 1.76769054 -6.72742367
5.52682734 1.59297812 -6.69736958
5.33966064 1.77182949 -6.90601444
5.30309963 1.59661365 -6.87596035
5.10813999 1.77423465 -7.07755709
5.07601643 1.59786272 -7.04897642
4.87104464 1.77557707 -7.24004030
4.84123278 1.59900010 -7.21017265
4.63273716 1.77317190 -7.40097475
4.60149002 1.59816098 -7.36392927
4.38501453 1.77091599 -7.54636049
4.35827923 1.59499145 -7.51242876
4.13443995 1.76711273 -7.68721581
4.10854340 1.59185934 -7.65065527
3.87802935 1.76409245 -7.81749964
3.85399723 1.58878314 -7.78038025
3.61762905 1.76123977 -7.93948650
3.59559202 1.58581865 -7.90227318
3.35322046 1.75831270 -8.05344009
3.33243251 1.58346951 -8.01477146
3.08538127 1.75542295 -8.15967178
3.06662536 1.58044922 -8.12162018
2.81427908 1.75210416 -8.25882053
2.79634380 1.57806277 -8.21802807
2.83206534 1.92592192 -8.29993153
2.55522132 1.92275250 -8.38891888
2.53948569 1.74867368 -8.34855366
2.57062101 2.09657025 -8.42835045
2.28868699 2.09254313 -8.50820255
2.27466702 1.91902363 -8.46742821
2.30229712 2.26587605 -8.54666615
2.01674604 2.26069307 -8.61905956
2.00444126 2.08722949 -8.58016777
2.02892065 2.43374634 -8.65612411
1.74010694 2.42800403 -8.71951294
1.72912574 2.25472689 -8.68168449
1.75121880 2.60087109 -8.75519848
1.45992541 2.59505391 -8.81070137
1.44996953 2.42170238 -8.77460575
1.47019839 2.76788354 -8.84675884
1.17685401 2.76242089 -8.89461708
1.16779304 2.58901334 -8.85880184
1.18610156 2.93495202 -8.93114090
0.89098620 2.93016052 -8.97090912
0.88300657 2.75682759 -8.93343353
0.89904034 3.10231924 -9.00974369
0.60232162 3.09776998 -9.03826904
0.59572166 2.92490292 -8.99861336
0.60890287 3.26948071 -9.08111382
0.31078583 3.26467085 -9.09692287
0.30578932 3.09266162 -9.05443382
0.31563327 3.43548656 -9.14384937
0.01606199 3.43050885 -9.14892101
0.01300440 3.25928259 -9.10134220
0.01897048 3.60009432 -9.20017338
-0.28216690 3.59451985 -9.19444942
-0.28313637 3.42493439 -9.14345837
-0.58283818 3.58788276 -9.17731667
-0.58166361 3.41814804 -9.12550449
-0.88235354 3.57893348 -9.14564037
-0.87897891 3.40979552 -9.09405231
-1.18060112 3.56983519 -9.10454845
-1.17504513 3.40133119 -9.05348301
-1.46969450 3.39310908 -9.00454235
-1.47741306 3.56105375 -9.05490017
-1.76294541 3.38550210 -8.94818115
-1.77280807 3.55316758 -8.99798012
-2.05498457 3.37908864 -8.88615417
-2.06702852 3.54680967 -8.93559742
-2.34553194 3.37368202 -8.81782341
-2.35973883 3.54164553 -8.86685753
-2.63298488 3.36752963 -8.73694611
-2.64894414 3.53519487 -8.78424549
-2.91775274 3.36152649 -8.64657784
-2.93557644 3.52907944 -8.69255352
-3.19894099 3.35500073 -8.54427910
-3.21868491 3.52242351 -8.58911800
-3.47679234 3.34830785 -8.43189335
-3.49849343 3.51565576 -8.47576237
-3.77511406 3.50905561 -8.35381222
-3.75162268 3.34181952 -8.31132221
-4.04808092 3.50236249 -8.22296810
-4.02263165 3.33505154 -8.18139172
-4.31726217 3.49561357 -8.08397770
-4.28978109 3.32813501 -8.04307270
-4.58239794 3.48884583 -7.93723059
-4.55363035 3.32157207 -7.89839554
-4.81328487 3.31487870 -7.74616814
-4.84382343 3.48239493 -7.78401423
-5.06937838 3.30844665 -7.58810425
-5.10159540 3.47631717 -7.62492657
-5.32077360 3.30173492 -7.42286301
-5.35440731 3.46988511 -7.45845461
-5.56694889 3.29463172 -7.25040579
-5.60183144 3.46307993 -7.28471184
-5.80501366 3.28637242 -7.06808662
-5.84123850 3.45502567 -7.10140419
-6.03647804 3.27764678 -6.87845945
-6.07376623 3.44644928 -6.91062021
-6.29866886 3.43725801 -6.71191216
-6.26037359 3.26839972 -6.68085098
-6.51473331 3.42724609 -6.50410652
-6.47541332 3.25855541 -6.47401524
-6.72181225 3.41620898 -6.28729677
-6.68142891 3.24785399 -6.25815535
-6.92102242 3.40459371 -6.06332636
-6.87963295 3.23653674 -6.03534174
-7.11096764 3.39249396 -5.83191729
-7.06862736 3.22473526 -5.80527449
-7.29170227 3.38017011 -5.59394550
-7.24846697 3.21269131 -5.56873846
-7.46367455 3.36771607 -5.35030603
-7.41960001 3.20051670 -5.32660961
-7.62738657 3.35522437 -5.10172606
-7.58262300 3.18828630 -5.07966995
-7.78310108 3.34282613 -4.84872723
-7.73777771 3.17611194 -4.82836819
-7.93169403 3.33076358 -4.59194422
-7.88603497 3.16419840 -4.57343054
-8.07366753 3.31922293 -4.33186054
-7.88603497 3.16419840 -4.57343054
-8.02810097 3.15275121 -4.31532335
-7.93169403 3.33076358 -4.59194422
-8.20624447 3.30796218 -4.06743336
-8.16073513 3.14154601 -4.05289078
-8.33009624 3.29720449 -3.79925847
-8.28482914 3.13080716 -3.78672981
-8.44537258 3.28708076 -3.52761579
-8.40053368 3.12068343 -3.51713800
-8.55190372 3.27760983 -3.25267339
-8.50755024 3.11117482 -3.24424624
-8.64967251 3.26880980 -2.97467303
-8.60574722 3.10235620 -2.96824098
-8.73875427 3.26064348 -2.69385767
-8.69520187 3.09417152 -2.68934560
-8.81929588 3.25309300 -2.41050673
-8.77604103 3.08656478 -2.40784049
-8.89277172 3.24623203 -2.12512326
-8.84957314 3.07957315 -2.12422848
-8.95847225 3.23992991 -1.83776391
-8.91527462 3.07306671 -1.83856559
-9.01572895 3.23398280 -1.54848421
-8.97295952 3.06693292 -1.55103827
-9.06362534 3.22820306 -1.25741458
-9.01996040 3.06089211 -1.26149762
-9.05385494 3.05470204 -0.97016692
-9.09738922 3.22192001 -0.96438724
-9.07991982 3.04868031 -0.67801589
-9.12295055 3.21578646 -0.67050236
-9.09559917 3.04254651 -0.38508186
-9.13959885 3.20967078 -0.37592769
-9.10067081 3.03626323 -0.09166308
-9.14450264 3.20310831 -0.08083095
-9.09485340 3.02966356 0.20194210
-9.13816357 3.19611692 0.21439627
-9.07788754 3.02257895 0.49536085
-9.12032127 3.18852854 0.50930655
-9.04997730 3.01484156 0.78803390
-9.09121799 3.18021345 0.80332190
-9.01253986 3.00656390 1.07955098
-9.05256844 3.17145109 1.09603226
-8.96656418 2.99800587 1.36963236
-9.00569820 3.16250181 1.38730693
-8.91355991 2.98942971 1.65833426
-8.95217133 3.15372038 1.67718327
-8.85619164 2.98124504 1.94606650
-8.89407635 3.14551711 1.96599722
-8.79097557 2.97289252 2.23191595
-8.82913971 3.13738823 2.25307703
-8.71410656 2.96385026 2.51437211
-8.75189781 3.12823415 2.53648376
-8.62724400 2.95426726 2.79334164
-8.66453171 3.11839008 2.81627393
-8.53212261 2.94425535 3.06912327
-8.56873989 3.10809851 3.09276414
-8.43060589 2.93405724 3.34235072
-8.46565723 3.09754610 3.36623359
-8.31818295 2.92318797 3.61089826
-8.35319614 3.08645320 3.63569498
-8.19455528 2.91190815 3.87443066
-8.22912121 3.07465124 3.89999175
-8.05862141 2.90047956 4.13227701
-8.09165859 3.06238365 4.15811729
-7.94161224 3.05017185 4.41029596
-7.91006660 2.88925552 4.38410139
-7.78149796 3.03842616 4.65757084
-7.75114584 2.87851691 4.63083506
-7.81431150 3.19699311 4.68542480
-7.61314297 3.02746344 4.90063190
-7.64480066 3.18493056 4.92912006
-7.67876959 3.34049582 4.95870781
-7.46855879 3.17406106 5.16931057
-7.50112963 3.32852626 5.19949484
-7.53606844 3.48051190 5.23081684
-7.31746769 3.31821609 5.43705654
-7.35102701 3.46930695 5.46918011
-7.38701010 3.61728430 5.50247812
-7.19604015 3.60801792 5.73948002
-7.16113853 3.46043229 5.70497036
-7.23316002 3.75196791 5.77501583
-7.03769684 3.74609518 6.01192427
-7.00203085 3.60205197 5.97502804
-7.07617807 3.88627911 6.05007029
-6.86965895 3.88219619 6.28393984
-6.83306074 3.74171424 6.24400473
-6.90968752 4.01870728 6.32523680
-6.65747213 3.88117075 6.51512527
-6.69403267 4.01799917 6.55828667
-6.73316622 4.14990520 6.60198736
-6.50707102 4.15303707 6.83526039
-6.47265387 4.02060890 6.78891230
-6.54165554 4.27763462 6.88021183
-6.29245996 4.27384996 7.10589600
-6.26352501 4.14986753 7.05662060
-6.32050037 4.38701916 7.15194702
-6.05773258 4.38079214 7.37032461
-6.03608704 4.26807070 7.31987381
-6.07874393 4.48214054 7.41663551
-5.81107283 4.47906399 7.62492657
-5.79477787 4.37754774 7.57736492
-5.82613707 4.57099724 7.67090225
-5.56157923 4.57189274 7.86349392
-5.54972172 4.47848606 7.81608295
-5.57269096 4.65592098 7.90807247
-5.31946850 4.65631247 8.07808590
-5.30822611 4.57342148 8.03634167
-5.32923841 4.72917271 8.11731339
-5.08768702 4.73178291 8.27183437
-5.07743263 4.65946341 8.23380089
-5.09736347 4.79369974 8.30535603
-4.86630821 4.80397272 8.44885826
-4.85655737 4.74181366 8.41597080
-4.87501526 4.85636234 8.47719765
-4.65050459 4.86232853 8.60597229
-4.64243126 4.81359291 8.57986927
-4.65840960 4.90880775 8.63129044
-4.43913794 4.91270399 8.74926853
-4.43140078 4.86646700 8.72465897
