9.34610000 32.35260000 59.23710000
5.59780000 31.09120000 58.42160000
3.59970000 28.95410000 57.65030000
7.93320000 26.96250000 57.86100000
47.44280000 1.71740000 32.71660000
46.71210000 -0.62020000 31.65470000
-7.75940000 -21.40210000 -4.26340000
-6.27260000 -21.80310000 -3.09740000
-6.13070000 -21.89860000 -4.85650000
-33.36420000 14.14300000 45.94640000
-30.95800000 14.71270000 48.09030000
-34.40630000 18.07800000 45.98920000
-41.83810000 17.74910000 37.63940000
39.58980000 -18.85230000 11.31210000
36.20100000 -20.33340000 11.94020000
37.95720000 -19.02420000 13.98290000
39.67510000 -18.21990000 13.73640000
-29.15410000 34.58090000 50.90040000
-27.93570000 31.45200000 51.91320000
-25.46550000 34.46680000 53.35380000
-44.41980000 23.06180000 20.68180000
-44.22790000 26.51410000 21.18380000
-42.63500000 25.53880000 24.42780000
-48.03830000 22.09940000 -3.73310000
-47.53450000 20.10940000 -6.81830000
23.18840000 -24.40050000 -13.89880000
24.73860000 -23.79770000 -16.05700000
-36.04840000 52.57710000 37.16750000
-20.92720000 44.76840000 51.66880000
-23.56500000 34.87120000 48.50040000
10.85320000 -33.92010000 13.02050000
9.90820000 -33.11910000 14.70650000
8.88290000 -32.25000000 16.90180000
-32.95740000 0.81110000 27.56570000
-35.53200000 2.56310000 25.32760000
-33.97050000 2.85200000 28.36040000
6.37820000 12.62540000 -62.40820000
5.96430000 8.76500000 -61.37000000
12.19590000 4.80550000 -59.79550000
70.06380000 14.66480000 3.98350000
71.35230000 16.81570000 0.88970000
68.71370000 11.94960000 5.91580000
-38.71060000 53.18610000 38.92880000
-38.59880000 53.44190000 38.71650000
42.68150000 17.69090000 -48.08610000
43.80840000 20.70820000 -48.87830000
46.14680000 26.26390000 -50.06450000
-42.03030000 32.06770000 38.59960000
-41.31740000 27.68690000 39.69280000
-45.60880000 27.04450000 33.69250000
-38.58990000 50.49320000 -41.80220000
-39.30380000 49.00910000 -40.91460000
54.46080000 26.66910000 42.22110000
54.65320000 24.80950000 40.83510000
54.80880000 23.20070000 39.67640000
-44.94320000 53.30560000 28.32780000
-44.70560000 51.96290000 29.05460000
-44.02720000 53.95590000 29.84570000
-43.86410000 52.82400000 30.54780000
72.96990000 21.75240000 2.89360000
73.05420000 21.55110000 6.67780000
7.03810000 -44.52830000 9.89030000
4.64520000 -43.87240000 11.54180000
4.91530000 -43.68730000 10.33440000
7.58400000 -44.59080000 8.27210000
6.14910000 -43.82180000 8.47430000
7.09490000 -44.38000000 7.00130000
55.78040000 15.72020000 32.03440000
54.79990000 13.52020000 31.80640000
53.39920000 14.02540000 34.09880000
44.61010000 17.66010000 44.21270000
47.59030000 23.53720000 45.04340000
9.33010000 -45.14210000 -10.79360000
10.44190000 -45.26370000 -7.91180000
-45.81200000 37.99920000 -32.57900000
-43.68990000 37.55730000 -36.51280000
-43.70560000 34.40920000 -36.86470000
-45.20900000 42.78510000 -32.44210000
-44.02610000 41.57830000 -34.95970000
-12.94700000 10.32600000 -50.98090000
-5.10120000 13.35150000 52.46130000
-4.23150000 3.87100000 49.48490000
32.78890000 26.33800000 -56.54940000
36.17680000 28.08450000 -56.02640000
13.71030000 -24.60160000 -14.57730000
9.24610000 -23.99390000 -17.03280000
69.05440000 21.44500000 22.76550000
69.51140000 20.69860000 20.55790000
69.91960000 21.66030000 20.82430000
-12.82120000 5.74420000 55.30870000
-8.56800000 4.54240000 56.23550000
-26.64260000 18.60360000 43.58590000
-25.42670000 15.71090000 44.15010000
-28.00940000 15.93600000 42.00290000
-24.21120000 23.25360000 46.16850000
-25.31380000 25.26030000 45.55700000
-22.02930000 -15.67630000 -0.60100000
-23.44630000 -14.98070000 -4.76340000
36.26720000 -16.08610000 -26.13130000
33.62880000 -18.01870000 -24.92850000
-47.33390000 47.33740000 -25.97150000
-43.89950000 45.69650000 -33.81920000
59.84460000 20.16160000 29.71990000
59.45880000 17.46290000 27.19740000
57.87930000 17.28410000 29.95470000
-25.62800000 -31.17380000 18.86960000
-23.30770000 -30.94530000 20.32220000
-22.85120000 -26.76010000 0.08650000
-23.06570000 -26.81890000 -2.33110000
-21.79230000 -26.97240000 -2.15170000
-24.04710000 -27.10790000 -0.61900000
-35.57680000 51.92420000 -43.53320000
27.78980000 -18.07070000 -29.39540000
31.53290000 -17.47670000 -27.86000000
29.32380000 -16.33340000 -31.38310000
25.72670000 -19.83130000 -27.22580000
22.77970000 -19.36200000 -29.81430000
18.81500000 -1.50370000 -48.45990000
22.26890000 2.96950000 -49.85110000
20.00060000 2.78010000 -50.38090000
17.75850000 0.01330000 -49.56680000
-43.18600000 54.52030000 30.80430000
-42.55590000 54.81070000 30.81470000
-41.49980000 54.22290000 33.74380000
10.97640000 -45.74250000 0.26170000
10.96080000 -45.50490000 4.61100000
11.23500000 -45.59820000 2.10790000
-28.26780000 -33.18860000 4.78610000
-28.08290000 -33.34070000 7.98780000
-28.68540000 -33.55140000 5.46310000
-28.97310000 -33.45370000 4.16530000
-29.65700000 -33.11560000 1.62510000
-20.06200000 -2.37470000 -49.17200000
-26.21090000 48.48660000 -48.72270000
-28.89250000 49.47820000 -46.13560000
-23.61680000 46.09870000 -50.68020000
-24.79700000 45.92370000 -49.53120000
-23.01470000 43.78670000 -50.74990000
42.21140000 19.12150000 52.19970000
42.16030000 22.06810000 53.13160000
43.07910000 25.21220000 53.72640000
12.31660000 -22.27350000 -24.89430000
6.52190000 -22.29170000 -22.91490000
9.47260000 -22.18650000 -24.53100000
6.57890000 -21.38520000 -25.95070000
-18.14860000 26.91060000 57.15200000
-16.23860000 29.26760000 58.09660000
-16.29160000 32.09070000 58.12930000
-12.23750000 23.84320000 59.51780000
-17.06490000 -25.11300000 -21.89740000
-19.54010000 -23.95580000 -22.32880000
-34.87470000 -17.59270000 -3.38250000
-12.30270000 -0.36640000 -46.18440000
-11.99480000 2.32170000 -48.01830000
-12.99650000 -4.45020000 -42.43960000
42.64400000 -6.63570000 -41.06520000
45.31360000 -3.14190000 -41.40500000
50.47120000 0.67960000 -38.68000000
-8.92380000 -7.61230000 39.86970000
-42.95110000 53.94270000 -26.99190000
-42.31320000 52.18630000 -26.78840000
-41.79250000 53.40340000 -28.84220000
-39.44440000 49.81330000 -31.67590000
-7.77740000 -39.32690000 24.08780000
-5.49170000 -39.84510000 23.80000000
37.26450000 2.11400000 -43.01580000
34.75040000 1.03430000 -44.03620000
-34.78110000 -6.83910000 0.35630000
-34.64430000 -6.76380000 2.98570000
-32.14630000 -9.08450000 2.30810000
-39.05910000 8.13860000 24.32280000
37.23510000 15.37180000 48.12900000
42.66120000 18.07600000 45.85530000
40.89770000 20.34590000 48.02920000
48.74920000 -12.67980000 -8.20650000
-26.96530000 16.04290000 -43.95620000
5.10480000 -39.21540000 -18.20910000
2.45780000 -39.39950000 -20.14420000
2.97810000 -35.81140000 -19.96110000
-1.36870000 -30.42890000 -22.55480000
-0.42660000 -30.61180000 -22.29240000
-1.03040000 -31.08220000 -22.23410000
-24.38090000 -12.06050000 -20.79580000
53.93040000 1.44080000 -34.84690000
-14.91120000 3.75940000 -55.10930000
-9.54260000 10.24980000 -59.52540000
15.54120000 12.20250000 61.33630000
23.26470000 11.51170000 58.35660000
28.09750000 14.41160000 57.52090000
64.83140000 24.18400000 32.94800000
65.06820000 23.05510000 32.15120000
53.76090000 16.97580000 -43.96180000
54.43430000 19.82520000 -44.62880000
57.68560000 18.77910000 -40.63260000
-33.44640000 47.98370000 -47.98080000
-36.26660000 49.64110000 -44.90550000
-16.00870000 25.38480000 51.42710000
-15.30920000 29.14320000 52.45110000
-12.05700000 -19.83350000 0.23000000
-14.33650000 -19.08800000 -1.13840000
-15.24850000 -18.57180000 1.59350000
21.21610000 -13.05230000 -47.33080000
24.94490000 -14.27690000 -45.00360000
24.63620000 -16.61470000 -42.73200000
-41.31960000 40.83870000 26.33780000
22.35690000 10.38930000 -60.03650000
26.20450000 9.07190000 -58.42560000
29.93730000 11.42820000 -57.76760000
-14.78910000 45.21070000 -60.69300000
-14.87120000 44.44030000 -60.97130000
-15.93820000 45.33540000 -60.34920000
-18.87440000 46.96480000 -58.06950000
-17.56310000 46.42040000 -59.09950000
34.41890000 -19.42040000 -33.37010000
29.84110000 -22.19590000 -32.20710000
25.14180000 -21.79760000 -35.42750000
-46.01610000 41.50780000 10.25710000
-45.92340000 38.03100000 12.23980000
-46.71160000 39.17570000 7.48990000
-48.94280000 55.56130000 -17.07030000
-49.71970000 55.74740000 -14.58530000
48.61450000 27.88650000 -52.25240000
44.85540000 28.65580000 -55.27340000
68.80090000 19.21770000 -23.03280000
68.99410000 17.53740000 -19.43690000
67.37340000 17.74500000 -23.98450000
5.47300000 39.65190000 64.31880000
2.17530000 39.35730000 64.08130000
58.57090000 9.17440000 20.39630000
-26.73670000 42.99150000 51.67790000
-29.69490000 44.05780000 49.17800000
-28.50400000 42.92950000 50.37640000
71.39070000 17.16100000 -6.81140000
72.34040000 18.29210000 -2.74380000
71.52410000 16.99220000 -2.98810000
6.78850000 38.75890000 -66.42720000
3.51160000 39.11280000 -66.07060000
2.09100000 40.12540000 -65.80010000
4.31010000 39.58700000 -66.07460000
19.97610000 -22.87990000 -21.61910000
-36.10950000 52.87990000 41.46590000
-34.65780000 52.58630000 43.10470000
48.25910000 27.44450000 -53.20170000
44.19640000 27.98840000 -56.11470000
45.32850000 26.14140000 -54.73450000
41.98550000 27.56090000 -57.14170000
-19.44770000 -16.48210000 6.83920000
-21.61260000 -15.59490000 5.35790000
-21.74160000 -15.26320000 8.24890000
-45.33450000 55.36120000 24.61480000
-46.46940000 55.21820000 23.12450000
-46.46080000 55.38930000 22.53980000
-20.37930000 46.35810000 -58.04990000
-21.73510000 46.16270000 -57.35950000
-20.69890000 47.19240000 -57.13380000
-21.10130000 45.28100000 -57.98610000
11.98430000 23.26880000 62.43000000
9.46860000 19.81390000 62.28730000
14.34070000 18.87420000 61.69690000
5.47650000 18.29470000 62.36010000
-31.97250000 16.80350000 38.47820000
-29.84350000 13.20630000 39.66230000
-29.81220000 10.29920000 38.65980000
3.95770000 -15.62080000 34.36390000
2.53120000 -14.00850000 36.38160000
17.07870000 35.92620000 60.33200000
16.45420000 33.01460000 59.62240000
-52.68050000 16.76050000 14.51590000
-54.23510000 24.34990000 10.55190000
-3.88920000 18.27180000 53.87540000
-1.82940000 21.94800000 55.14600000
-4.76850000 21.71760000 54.46550000
14.83240000 -34.90880000 0.23530000
14.47320000 -35.25230000 -2.42230000
14.28190000 -36.77440000 0.16720000
-25.39700000 -33.61260000 11.76440000
-53.11450000 26.23690000 -17.42490000
-53.10840000 30.32870000 -16.70360000
-51.83090000 27.54710000 -21.24480000
-32.87740000 20.75860000 -39.36560000
8.37590000 40.36440000 60.92730000
10.26650000 40.49830000 61.57580000
-32.77460000 44.43460000 40.24870000
-31.77160000 41.98640000 41.18560000
-47.21460000 30.88890000 10.74290000
-47.57760000 28.07880000 10.02060000
57.51020000 19.98520000 -35.74820000
55.34450000 17.01200000 -36.04370000
56.73710000 19.80120000 -36.58200000
30.53880000 9.26140000 49.16580000
29.60410000 5.44780000 47.82170000
28.17600000 8.05190000 49.57670000
-14.71000000 40.18110000 -55.83500000
-12.97920000 41.42100000 -57.01510000
-15.87940000 41.77120000 -55.44410000
-12.29600000 43.67210000 -58.05840000
9.71440000 22.30430000 -58.90980000
10.80800000 25.84490000 -59.90010000
8.51630000 30.47490000 -60.94610000
5.84280000 28.41090000 -60.15610000
8.59710000 27.14620000 -60.11730000
12.50860000 1.25210000 50.26750000
10.51940000 2.92450000 50.75300000
14.81400000 4.68730000 51.54310000
-37.32830000 -13.51320000 -12.25890000
-39.00730000 -11.21980000 -14.90540000
23.87170000 20.45900000 -62.23480000
18.99630000 20.08940000 -63.09900000
24.45950000 16.47760000 -61.27210000
21.58330000 17.70010000 -62.20180000
-27.22460000 49.32170000 51.59190000
-26.26990000 50.11760000 52.14700000
-28.23900000 50.24160000 50.50090000
29.70630000 -23.11640000 9.43280000
-52.68030000 44.97160000 -5.51840000
-51.11500000 47.79070000 -12.71380000
45.51970000 29.81520000 54.09650000
45.33330000 29.19760000 54.28210000
43.30280000 29.92780000 55.62520000
-22.35770000 7.00680000 51.19740000
-20.05210000 6.14300000 52.07580000
-19.95140000 -2.20210000 47.94590000
-22.51370000 -2.28800000 46.47920000
-22.04060000 -3.51050000 45.96570000
-31.13620000 -27.84930000 -8.19110000
-33.02060000 -30.66960000 -6.47050000
-31.89800000 -27.08090000 -5.33840000
-33.52470000 -30.21880000 -3.64280000
-49.82200000 47.54950000 -18.44040000
-49.37700000 49.38880000 -18.94810000
-9.50130000 -27.84420000 -23.23770000
-10.40700000 -28.49110000 -23.00740000
-11.35390000 -26.87150000 -23.31030000
-6.82850000 -29.30880000 -23.20390000
-6.71100000 -28.28000000 -23.63200000
-46.08480000 5.15990000 -25.41150000
-47.42790000 4.82980000 -21.52580000
-48.35390000 4.25880000 -17.03770000
-51.11240000 9.05550000 -14.43220000
-50.73500000 10.82170000 17.03200000
-51.40370000 15.71300000 18.50450000
-13.76670000 43.99890000 -61.48930000
-13.55860000 44.53940000 -61.35610000
36.75370000 -27.83110000 4.70580000
-7.09940000 -9.52150000 38.57650000
-5.83170000 -8.03920000 40.80590000
-3.41180000 -8.17350000 41.40390000
27.47180000 -27.39980000 21.94930000
-38.67330000 -1.50400000 31.55550000
-40.57360000 -2.51170000 27.15280000
-36.07660000 -4.02950000 32.61480000
-43.60690000 -2.06710000 21.45030000
-32.18330000 -1.44170000 -25.76640000
-19.70780000 -16.65510000 -7.47470000
-34.37470000 19.94030000 -37.39590000
-29.38060000 -32.41760000 14.07600000
-29.31990000 -32.02330000 14.65460000
-2.42140000 36.41090000 58.06280000
-4.38540000 40.22200000 58.36060000
-16.65980000 -6.23440000 47.05600000
-19.99200000 -5.58300000 45.68270000
-18.65140000 -8.50450000 44.03650000
55.55360000 22.45360000 -39.84380000
55.15530000 24.53720000 -41.66750000
57.16860000 23.93120000 -39.14280000
33.30300000 -18.83530000 21.59100000
34.34400000 -17.36680000 24.00380000
35.81190000 -18.42540000 19.68380000
-17.41120000 -6.60540000 -48.59610000
-16.63640000 -5.53800000 -49.95750000
-16.21160000 -6.44000000 -49.54500000
-9.20130000 -5.19580000 -52.44320000
-17.00920000 -35.34150000 -23.21890000
-18.33990000 -36.04550000 -22.81260000
-19.90230000 -35.97610000 -21.95620000
-18.65660000 -35.03990000 -22.78770000
-30.90420000 2.28570000 -44.43350000
-29.61970000 4.44790000 -46.67880000
66.84130000 14.30150000 19.70270000
68.22620000 16.85410000 18.68560000
64.12020000 15.05120000 26.87580000
65.70410000 15.29900000 23.64220000
-45.18060000 53.48300000 -30.33520000
-44.76630000 54.11130000 -30.32470000
-44.69890000 53.21840000 -31.28470000
-43.81910000 52.69630000 -32.98430000
51.76660000 27.28960000 44.45690000
46.39260000 29.48580000 49.48950000
32.81400000 -10.74370000 -36.22250000
33.53100000 -11.97300000 -34.37230000
-44.91400000 28.40990000 19.04560000
53.76110000 3.41740000 -26.38710000
54.67130000 7.39990000 -28.76780000
9.07760000 -14.07210000 -39.57830000
8.42550000 -15.74510000 -37.43660000
10.36470000 -15.35670000 -37.94980000
10.96320000 -14.23540000 -39.38120000
9.80710000 -16.25170000 -36.73170000
42.38020000 -18.46880000 -7.22390000
43.57610000 -17.77120000 -4.87920000
45.65930000 -15.94050000 -6.54410000
-30.51070000 50.42550000 43.54260000
18.26400000 35.31810000 -62.59780000
21.11370000 35.33030000 -62.52170000
18.52430000 36.05760000 -62.93070000
19.57560000 34.62810000 -62.32190000
42.09180000 24.80050000 -55.87130000
48.84270000 22.31280000 -50.61310000
53.14170000 21.97050000 -47.05090000
73.48170000 20.85590000 -4.42500000
72.37400000 21.23540000 -14.85530000
72.54780000 21.42890000 -11.83930000
72.60210000 20.98540000 -13.28540000
52.41100000 -16.18210000 -9.51430000
61.64640000 20.43630000 26.74500000
60.00170000 15.52150000 24.10560000
61.33990000 18.66250000 25.02120000
4.93880000 -35.31200000 -3.85600000
3.71680000 -34.18010000 -4.14420000
2.45210000 -33.78990000 -2.12320000
-13.68630000 -31.32200000 15.44840000
-11.60180000 -31.44000000 15.97020000
-13.59450000 -33.57180000 16.94950000
-14.59730000 -29.63050000 12.75060000
-13.55200000 -29.50900000 11.35480000
-27.01710000 -33.00560000 -6.00080000
-27.09860000 -32.25950000 -5.61660000
-27.76970000 -33.31380000 -5.60120000
-27.16580000 -33.63170000 -8.71980000
-26.86860000 -33.27760000 -8.20380000
-26.97790000 -33.33680000 -7.57910000
-27.44050000 -33.67000000 -7.76950000
15.66310000 -7.61770000 -45.23830000
61.34930000 23.38600000 -39.81250000
62.86740000 23.14420000 -37.70330000
63.93230000 23.35160000 -36.14860000
9.94990000 -15.99250000 -46.40310000
11.17470000 -17.69240000 -44.32040000
10.78370000 -18.21090000 -43.72120000
2.06050000 -12.03180000 -49.73380000
51.83390000 -7.70170000 -14.14580000
49.73490000 -9.13170000 -16.48400000
50.21460000 -9.88320000 -13.54480000
51.18900000 28.19240000 49.41340000
52.00770000 27.28060000 48.91710000
48.01010000 -7.43720000 21.51870000
-25.83820000 49.32340000 52.79060000
-22.92200000 49.69680000 54.21930000
-24.65290000 50.19260000 52.79150000
-24.30810000 49.85680000 53.73260000
53.33010000 17.12580000 42.53230000
55.80710000 18.97600000 40.91400000
53.57150000 14.96380000 41.31250000
58.50970000 0.15160000 22.87360000
60.40850000 0.59490000 18.87180000
61.52260000 1.10330000 16.16890000
69.44860000 20.67010000 -7.12300000
69.92690000 21.14990000 2.95400000
70.66670000 21.84010000 -1.55910000
69.37340000 20.24640000 -0.78530000
25.00670000 -24.43600000 -31.05860000
41.76140000 -6.24240000 32.25560000
40.93710000 -8.17400000 30.87900000
-18.64920000 -24.97190000 -20.79410000
-20.09720000 -23.97120000 -20.61830000
-26.28980000 -23.71590000 -14.01310000
-24.85750000 -23.41380000 -15.82500000
-30.34830000 31.52850000 50.19140000
-34.90240000 30.20780000 46.33070000
-14.12700000 -22.36570000 28.80950000
-14.24900000 -21.10640000 30.77020000
-14.09030000 -17.24020000 37.27570000
26.38740000 -7.60900000 41.15030000
-28.65270000 -7.76330000 36.98330000
-16.66140000 -36.90660000 -18.63620000
59.86610000 25.29800000 41.10310000
59.25190000 25.75070000 42.45610000
58.73920000 25.55860000 42.97730000
59.14750000 25.38330000 42.31540000
-9.85530000 -0.30180000 -47.45880000
-30.48110000 -32.22350000 -12.55840000
-32.08670000 -31.65270000 -9.10280000
-46.84940000 42.93870000 -2.92740000
-46.49270000 49.82880000 -2.78140000
-11.20950000 -18.67150000 -20.12500000
-8.59270000 -19.46530000 -20.73740000
26.05640000 25.87330000 -58.44280000
27.72980000 27.65730000 -58.58720000
25.56100000 28.04250000 -59.34690000
30.46100000 26.52480000 -57.36740000
58.28030000 25.41400000 37.45280000
56.75670000 24.63210000 38.51080000
56.21810000 25.02210000 39.77480000
-3.01680000 30.77670000 -58.87380000
-1.32750000 27.96490000 -58.75580000
-20.43790000 47.82620000 52.41020000
-19.78640000 46.67580000 52.58450000
-18.81970000 48.00950000 53.40130000
-17.10950000 47.39160000 54.24580000
-18.81960000 46.33980000 53.10420000
48.68320000 -5.96240000 -24.34410000
-28.35680000 39.66320000 44.54130000
-25.31520000 39.33360000 47.43950000
-45.51530000 52.40750000 27.29130000
-45.57320000 50.58480000 27.32580000
15.61690000 -25.55720000 -2.93090000
59.95550000 4.31250000 8.45160000
61.20770000 8.38680000 11.62670000
-33.51410000 -2.87790000 20.66630000
-31.08210000 -5.60270000 20.52830000
-18.90050000 19.30350000 48.79370000
10.18460000 11.38190000 63.14980000
-16.20940000 46.92150000 58.67170000
-13.97100000 46.44970000 59.58880000
-15.22190000 47.12360000 59.12640000
-16.98450000 47.59090000 58.18260000
-18.93880000 47.43220000 57.18280000
49.79730000 16.04200000 -41.33260000
-22.03980000 -35.36830000 -15.41540000
-21.51930000 -35.62030000 -16.53920000
-20.66980000 -35.19030000 -15.76390000
-50.70970000 56.07230000 -5.39600000
-50.92140000 55.54740000 -5.80450000
-50.61910000 55.94570000 -8.86290000
-42.05880000 34.79990000 24.66300000
-39.14350000 38.11160000 30.60590000
-38.26180000 34.02790000 32.06110000
-40.09220000 35.39780000 28.77000000
63.85680000 23.73650000 -30.39060000
60.89430000 23.50900000 -34.28560000
9.70140000 -42.64710000 13.10180000
8.01200000 -43.21270000 14.92690000
23.74940000 35.95330000 63.90460000
24.00850000 34.79710000 63.56220000
24.57450000 35.72350000 63.54470000
-19.14140000 3.14340000 43.31950000
64.91000000 22.90790000 -34.59230000
65.47710000 23.09160000 -33.48170000
67.52250000 22.25830000 -29.51760000
66.87550000 22.44440000 -30.82790000
66.82780000 22.85190000 -30.84150000
-25.64310000 -23.53380000 15.32070000
-23.00270000 -23.10300000 19.74860000
-15.65800000 -24.67950000 24.24710000
-12.98710000 -24.18840000 26.79830000
-16.30440000 -22.46840000 26.93150000
-19.78890000 -23.09030000 22.80500000
-34.32740000 0.72910000 -24.71740000
-28.11700000 -31.09980000 -15.66630000
-29.03740000 -23.44170000 -9.32030000
-28.75190000 -24.36410000 -10.41390000
43.54000000 15.40540000 -46.17660000
40.63200000 13.15790000 -47.02880000
45.14240000 19.31320000 -47.16870000
-8.44940000 -39.65810000 19.66720000
-8.72880000 -39.45680000 23.11670000
-10.71570000 -39.00210000 20.27180000
50.60240000 8.69350000 34.01560000
48.25980000 4.94690000 34.25790000
47.61330000 7.39220000 36.81610000
-36.55200000 -1.43940000 -35.38300000
-34.91610000 2.01660000 -40.27440000
-9.83220000 -14.07460000 -33.43500000
-4.58900000 -15.73040000 -33.85200000
-6.52280000 -12.66910000 -37.32220000
35.80590000 -2.70520000 39.92410000
32.87450000 -5.29760000 39.89170000
54.07680000 -6.49260000 5.13240000
-2.23110000 -20.56560000 18.86080000
-18.19580000 -36.43100000 22.07490000
-19.40910000 -35.72020000 22.00710000
-19.32760000 -36.04880000 21.67130000
-18.63710000 -36.57800000 19.72180000
-19.72720000 -36.14450000 20.39670000
-19.42410000 -36.32870000 19.73290000
6.26120000 -14.78820000 -38.61470000
10.43420000 -11.03560000 -42.91260000
7.24200000 -11.93910000 -42.02200000
9.76230000 -12.66000000 -41.28560000
28.60140000 -9.01910000 38.86410000
25.89890000 -10.68180000 38.50650000
-9.75120000 45.41560000 61.38720000
-7.22870000 44.53600000 62.25590000
-10.42670000 46.05190000 60.66010000
-12.24750000 46.58570000 59.86350000
-12.29670000 46.34220000 60.18220000
5.35640000 -43.17520000 -8.40740000
5.28960000 -41.25050000 -7.27020000
5.97600000 -43.05560000 -6.09220000
5.55480000 -42.03690000 -6.42070000
-11.91270000 28.36280000 53.69430000
-32.18470000 51.12680000 -43.43040000
-32.25650000 47.98160000 -41.84150000
62.74320000 9.05300000 -26.38300000
-43.66740000 20.82480000 -21.93620000
-43.30800000 23.79930000 -23.80450000
-44.11950000 23.79270000 -22.03390000
-35.95910000 52.13610000 42.39120000
-35.11110000 52.24730000 43.44470000
-35.61580000 51.02060000 43.02870000
66.65900000 19.89000000 -18.67610000
68.26690000 21.71960000 -17.60170000
-3.37490000 -40.61910000 -22.51930000
-4.47810000 -40.20230000 -22.99750000
-6.58590000 -39.08120000 -23.79000000
-7.82230000 -39.50270000 -23.42720000
-9.93500000 -38.33160000 -24.03600000
-11.76240000 -14.27850000 -31.54770000
-12.13300000 -12.06880000 -34.82900000
-28.07070000 -3.30950000 29.02110000
-24.46040000 -4.45360000 32.31700000
-23.13240000 -10.05560000 25.34370000
-25.38020000 -9.73020000 22.59820000
71.86800000 21.62890000 14.78630000
72.30880000 21.46020000 12.95760000
72.96920000 20.89890000 8.00950000
73.28410000 20.96020000 5.72550000
53.77380000 -7.36880000 1.81500000
52.02240000 -9.73430000 1.32560000
6.54320000 -24.10600000 7.29920000
6.05700000 -23.62210000 11.33400000
36.12980000 -27.45260000 -10.98750000
65.73880000 5.02680000 -9.24300000
64.43280000 1.83790000 -8.76760000
22.15620000 31.06000000 58.82370000
20.95570000 33.76800000 59.74270000
56.77840000 -3.25840000 -3.93050000
36.32280000 32.71900000 55.95030000
38.42850000 31.92370000 54.84780000
36.76710000 31.10590000 54.93900000
38.25720000 32.52690000 55.48080000
35.30710000 33.40610000 57.01380000
7.32470000 24.31690000 -64.27580000
7.01070000 28.70850000 -64.78130000
32.20370000 -15.74590000 38.39900000
-13.00930000 14.69440000 57.91290000
-11.12500000 17.95690000 59.12070000
-15.53440000 14.58570000 56.98320000
60.56610000 22.54930000 -40.29160000
61.39850000 21.29170000 -38.28480000
60.73070000 19.80110000 -37.66490000
15.45970000 36.70380000 -66.27340000
15.35220000 36.07800000 -66.35140000
14.30020000 37.45550000 -65.99980000
-37.65940000 14.82490000 -30.98270000
-10.39880000 -23.64070000 29.23140000
-9.79880000 -27.40930000 24.01440000
-5.65040000 -29.99790000 22.98660000
6.34500000 -19.81450000 26.56160000
-0.41980000 -13.61250000 36.16520000
0.43260000 -15.38240000 33.73270000
1.93470000 -9.92060000 41.50980000
-0.62760000 -9.07850000 41.72430000
-0.39310000 -32.69220000 -10.84430000
0.35780000 -33.86720000 -11.21630000
-2.63690000 -32.46540000 -12.68370000
-2.48580000 -32.02870000 -11.22660000
-4.02390000 -31.69470000 -11.99900000
-4.25040000 -32.08320000 -13.39960000
41.82980000 -15.54400000 -19.44260000
39.68350000 -16.20150000 -21.20720000
26.53450000 32.85140000 62.41610000
-0.02440000 -15.26410000 -36.66910000
-28.18480000 -14.97130000 27.50980000
-5.44330000 -6.46750000 51.38850000
-0.85130000 -7.14870000 51.87250000
3.68420000 -8.00280000 51.83040000
41.60550000 11.84630000 -52.01680000
37.76850000 8.82450000 -53.32800000
-44.49980000 -4.15190000 -15.13740000
-46.21390000 -0.28010000 -17.04480000
-44.71890000 -2.61970000 -17.87870000
45.98620000 -16.04980000 -2.78360000
1.81900000 -32.30620000 20.30750000
4.26180000 -33.14820000 19.08790000
3.65290000 -31.84790000 19.76090000
18.86600000 -3.13390000 -54.85600000
18.18670000 -0.57010000 -56.52350000
21.57740000 -1.61220000 -55.03360000
38.56010000 29.03530000 -55.57200000
38.06050000 30.21590000 -56.50470000
42.48460000 28.56800000 -53.56520000
41.21380000 28.55230000 -54.20880000
-47.49700000 54.70350000 -23.02340000
-47.67550000 54.18510000 -23.43960000
-47.97360000 54.42900000 -22.25360000
11.86590000 -32.88040000 -14.61830000
19.47170000 -32.26310000 -11.80080000
-25.59860000 28.37660000 -47.10710000
-28.27910000 30.25240000 -44.78710000
-27.05300000 24.25820000 -45.53360000
25.63600000 4.60450000 -49.75130000
28.30250000 3.79690000 -48.62660000
-4.93790000 -18.78310000 -27.05700000
-40.77410000 9.04160000 21.54550000
-42.02340000 9.53180000 19.02700000
-41.90650000 11.86160000 21.57310000
-46.22970000 1.79950000 20.02960000
-43.23520000 50.45960000 21.24540000
-42.77440000 50.36950000 22.67660000
-8.00340000 42.93840000 -63.56980000
-6.40530000 42.52750000 -64.03290000
-7.42160000 42.49470000 -63.86590000
-5.08870000 41.50280000 -64.56630000
19.55550000 35.81160000 -65.81470000
18.65870000 35.78120000 -66.19020000
17.35280000 36.48130000 -66.01150000
21.49780000 34.56780000 -65.52920000
-14.59260000 43.56800000 -56.62110000
-42.41350000 42.27830000 -24.79300000
-42.66890000 39.74500000 -24.33430000
-41.43230000 44.44760000 -27.08880000
-3.33390000 27.09680000 55.92020000
0.50910000 23.32730000 55.90420000
0.72900000 28.66470000 57.08880000
45.73540000 -15.25210000 8.22390000
-41.98710000 36.88290000 -39.12530000
-19.28340000 -16.76880000 3.64110000
-14.90580000 -18.52990000 4.73170000
43.00640000 -22.45850000 14.87790000
15.91870000 28.37640000 -60.66650000
13.84710000 29.32760000 -60.89160000
13.12800000 25.14270000 -59.75840000
-29.72190000 49.60680000 -50.66360000
-45.89890000 53.71730000 -28.24430000
-37.03780000 22.44800000 -45.51490000
12.71650000 -35.52200000 9.17540000
13.01070000 -38.00270000 7.67670000
13.06540000 -37.93020000 7.48780000
13.41190000 -35.86180000 7.36990000
25.97100000 -8.33740000 48.15540000
29.56610000 -10.24490000 45.11600000
55.77410000 21.72070000 42.59600000
53.42730000 20.00020000 43.88450000
59.25860000 22.28010000 39.24810000
-11.34320000 40.77070000 60.20620000
-9.43200000 41.21830000 61.02410000
-13.32510000 37.88580000 59.26200000
-22.15660000 19.74690000 -48.53050000
-38.65330000 47.91950000 -41.72570000
-39.45200000 48.04700000 -40.55520000
64.39900000 13.17350000 -11.86640000
63.85500000 11.56120000 -9.58440000
65.05180000 14.92020000 -13.56670000
65.76190000 15.41100000 -10.68750000
-2.50500000 -41.26700000 20.31550000
-41.19800000 52.28180000 -37.58050000
-40.82560000 52.69730000 -37.76540000
42.30630000 -17.31100000 -13.21240000
43.87450000 -15.08620000 -16.27740000
-15.43060000 37.71520000 58.39540000
-14.35480000 35.96020000 58.87090000
18.55070000 11.54660000 -54.76790000
16.21480000 10.57130000 -54.80300000
-35.58950000 16.36630000 34.16870000
-35.97950000 19.89030000 34.53650000
-25.43760000 -34.22470000 -15.44370000
-25.78180000 -34.32020000 -13.14910000
23.71110000 34.72040000 -62.18180000
-45.92950000 54.72110000 -14.46200000
-40.10410000 32.31890000 -30.19050000
-40.32570000 35.99140000 -29.39050000
14.09470000 -34.90580000 -5.53010000
11.18900000 -34.37920000 -11.72350000
12.71390000 -34.25410000 -9.78170000
-40.49820000 7.52150000 -19.76470000
-40.92530000 7.59010000 -18.75690000
-40.52500000 6.50020000 -18.04480000
34.42420000 -22.82900000 -3.53620000
-26.25730000 -16.52440000 -28.22720000
-22.97970000 -17.09400000 -31.02680000
-24.50450000 -17.86710000 -27.19100000
68.36890000 20.65400000 10.45410000
69.14760000 22.02980000 11.86870000
68.30770000 21.48140000 13.05610000
63.82380000 14.19990000 12.40400000
64.19740000 16.04640000 14.50150000
62.52840000 11.51250000 12.20630000
32.33100000 -1.59300000 42.72000000
66.52770000 23.33190000 -25.96840000
67.59060000 22.94390000 -22.64860000
5.61270000 -43.71730000 16.60420000
69.00160000 21.85310000 -26.03760000
-23.17190000 -14.93910000 3.50670000
-41.91660000 40.26940000 37.06650000
-42.25560000 43.27460000 35.62550000
-45.45480000 16.94290000 31.99450000
48.99320000 4.13100000 -33.83370000
-32.91010000 -5.39970000 16.59980000
48.89520000 3.05600000 31.89200000
9.51670000 17.67690000 55.77390000
10.84590000 13.72830000 54.63660000
7.18320000 14.67230000 54.87580000
13.30410000 12.87550000 54.34440000
14.67470000 10.80900000 53.83810000
16.52370000 12.79280000 54.35040000
16.81150000 9.40620000 53.12590000
36.78460000 -18.78970000 -19.16680000
24.81220000 29.01330000 -59.86180000
25.42680000 31.33650000 -60.42480000
42.74980000 -10.75650000 25.16670000
-26.70440000 -34.02400000 -10.61730000
-25.95960000 -32.70550000 -8.80580000
3.28970000 13.38200000 60.99030000
5.82490000 13.68810000 61.80390000
5.07540000 13.88330000 63.52040000
-48.42560000 24.03310000 -1.12660000
-48.79220000 26.62700000 1.70080000
27.73480000 -30.47340000 9.12450000
21.30130000 -31.67950000 11.08930000
-48.74890000 55.91000000 13.79070000
-48.54410000 56.32540000 11.72410000
24.97130000 -1.12780000 46.18270000
26.83570000 3.07540000 47.76490000
18.09780000 15.96210000 60.71780000
11.61110000 16.01210000 61.76980000
-42.93160000 11.92850000 18.78760000
-42.49250000 9.52110000 16.43160000
-37.27040000 44.25590000 -34.47850000
61.50780000 14.80830000 -23.92560000
61.72960000 18.35000000 -27.74490000
59.34580000 14.36320000 -27.75250000
62.37070000 18.14590000 -26.30200000
-48.57640000 25.68430000 -3.24530000
60.58790000 -2.60630000 -16.13570000
-6.22390000 43.19610000 58.40970000
-9.65040000 45.01990000 57.63010000
-11.22810000 45.37520000 57.07520000
-11.07770000 45.88190000 57.25760000
44.86670000 8.94910000 39.68990000
29.72040000 -7.26340000 -41.20290000
4.08620000 38.95460000 -62.70870000
3.33530000 -23.97360000 2.25680000
-48.24610000 55.86020000 -17.34580000
-48.31520000 55.26560000 -19.26050000
-48.35640000 54.63300000 -20.48370000
4.33790000 -31.99650000 -19.61930000
2.84600000 -32.96270000 -20.01150000
5.76340000 -34.71110000 -17.52030000
25.45520000 -7.47290000 -42.97520000
28.25430000 -5.88250000 -42.91210000
-49.75600000 20.63110000 -25.90400000
-50.59180000 20.40280000 -23.67100000
-51.01740000 22.55550000 -23.30760000
56.15280000 -0.56750000 -15.73220000
56.24170000 -1.56500000 -13.62480000
4.81930000 -42.34860000 -18.06950000
-38.26880000 -1.03870000 8.30490000
-46.67470000 53.33620000 -5.81970000
-5.46050000 26.39840000 -57.37420000
-1.57820000 33.54750000 -59.81390000
-25.05100000 33.67210000 -47.96660000
-28.39630000 34.55320000 -44.85750000
-29.85710000 25.04080000 -43.01070000
60.39380000 17.29500000 -29.00480000
12.66590000 -18.40100000 -43.27540000
-43.74510000 28.99810000 36.50810000
-15.36070000 37.46830000 53.85040000
-13.34620000 39.70480000 55.20010000
-12.60950000 37.71710000 55.18920000
-13.42790000 36.31460000 54.59580000
32.27940000 31.90190000 -62.10930000
32.67470000 31.77950000 -61.94150000
32.65000000 31.67590000 -61.95240000
31.74100000 30.87010000 -62.24290000
32.64160000 31.56850000 -62.00630000
32.50780000 31.04810000 -62.03590000
7.03310000 -11.23390000 40.95070000
4.21710000 -9.89200000 41.66600000
34.38120000 -9.86080000 -44.17900000
39.14040000 -13.63560000 -36.90770000
19.24170000 -0.08100000 48.55990000
-24.22370000 38.79270000 -49.11240000
-26.20340000 36.75640000 -47.16090000
-23.63240000 35.08470000 -49.19910000
5.98850000 -19.37010000 -30.92700000
6.68620000 -20.02260000 -29.55420000
6.54380000 -16.55500000 -36.11710000
3.96920000 -17.14770000 -34.82470000
6.26140000 -17.81740000 -34.06190000
29.83580000 -19.04740000 -26.10740000
5.42910000 -43.25040000 9.44640000
3.92160000 -43.27800000 11.82990000
1.33650000 -42.65160000 14.94710000
32.44550000 34.29460000 59.53250000
32.94200000 33.72400000 60.82990000
-46.89910000 22.01320000 12.16440000
-47.07140000 25.63710000 12.63170000
2.96340000 42.38190000 63.27980000
27.98860000 31.17430000 -63.42940000
53.45470000 21.48680000 39.72740000
54.03620000 19.18900000 36.94860000
52.63330000 16.69910000 36.92610000
-26.42910000 -12.51400000 -12.26210000
-27.26420000 -12.28030000 -10.04870000
-25.50640000 -13.42510000 -9.86600000
-1.51680000 -41.89180000 -20.77620000
-4.49460000 -41.11860000 -21.67450000
-5.34010000 -40.38130000 -22.72610000
-3.71980000 -40.96360000 -22.12110000
-3.93920000 -41.20050000 -21.66760000
24.43150000 18.81000000 -56.26150000
7.03310000 -44.12600000 -4.94850000
7.10210000 -44.66890000 -6.93960000
-32.03860000 -8.69880000 7.48240000
7.73910000 -44.37340000 0.20690000
7.93840000 -44.57610000 1.71120000
7.83020000 -44.70380000 4.60860000
-49.14570000 25.04300000 -28.16430000
-50.25530000 28.13750000 -25.22410000
-48.63910000 31.65840000 -28.46850000
12.37570000 33.87650000 -62.03300000
14.61040000 34.23690000 -62.15300000
13.46250000 35.93480000 -62.63720000
-24.11320000 43.16870000 53.46800000
-19.54800000 40.19120000 56.34390000
19.67670000 36.90040000 63.94300000
18.46810000 37.30820000 64.28520000
63.12480000 17.87750000 -24.29800000
61.77930000 16.25170000 -25.17910000
62.68660000 16.18920000 -23.06070000
-44.19660000 15.91790000 -16.93960000
-45.39800000 21.33100000 -16.58960000
-12.84790000 -6.44220000 38.94290000
-16.02760000 -1.39800000 41.80380000
45.32640000 -15.68770000 -10.23400000
-9.96960000 -30.77700000 7.09840000
-9.42370000 -31.30700000 3.13840000
45.41060000 -2.62690000 -32.39390000
-49.40250000 51.52780000 15.34440000
-50.88980000 45.45760000 13.70930000
13.14090000 38.99730000 64.87920000
12.30250000 39.49000000 64.68990000
12.19220000 38.75420000 65.06760000
12.72430000 38.00070000 65.00380000
13.47660000 38.35850000 64.92250000
-38.89650000 -13.15650000 -6.94270000
22.88560000 -15.24850000 -36.15180000
19.54190000 -13.21950000 -39.55560000
40.02530000 -16.43270000 -32.52440000
-0.09830000 -23.17050000 -11.06290000
-3.07440000 -22.41680000 -11.87590000
11.95850000 33.26260000 63.67330000
8.70940000 34.78640000 63.90870000
2.25710000 -35.18730000 -9.61500000
16.40230000 21.97820000 -58.80340000
19.68810000 23.98710000 -59.10770000
17.79280000 26.91680000 -60.20120000
-3.89550000 -15.77110000 30.92140000
-4.13980000 -17.00100000 28.25120000
62.88020000 0.75380000 9.34510000
-43.86370000 54.93870000 29.09340000
-44.19790000 54.62920000 29.06650000
-44.75960000 54.25390000 28.29210000
0.78050000 -21.69560000 -21.63990000
3.53170000 -20.75940000 -26.56100000
2.16480000 -20.04440000 -27.71400000
1.07450000 -21.13720000 -23.92740000
-22.43670000 6.84200000 43.13650000
-20.55060000 4.85050000 43.35020000
-30.63540000 -22.14350000 1.61860000
4.69270000 -31.12930000 20.24930000
9.12590000 -31.40890000 18.89310000
8.69640000 -30.02780000 21.99810000
15.13460000 -31.61100000 15.87580000
11.94720000 -30.83730000 19.48940000
11.45300000 -32.10050000 16.39200000
-42.46790000 20.62110000 -38.89400000
-21.17830000 -27.22820000 6.75860000
-31.46090000 3.87490000 43.42780000
50.74260000 -3.17600000 -24.25460000
24.46910000 30.33620000 58.24250000
26.37130000 33.72870000 59.02380000
28.41740000 33.99100000 58.72400000
-33.20690000 -32.18450000 3.20620000
-30.52360000 -32.27070000 5.44440000
-32.21110000 -31.70840000 4.81290000
15.27330000 -21.09540000 24.32000000
23.43770000 -17.56100000 30.29550000
-37.65230000 45.13730000 33.28070000
-21.40210000 29.41570000 49.18780000
-21.93710000 22.70520000 47.70930000
45.49370000 -18.95650000 18.52350000
47.43310000 -16.74860000 19.56170000
-7.75540000 -30.80790000 -14.42870000
-3.92180000 -32.54760000 -13.60310000
-13.60390000 27.18880000 59.13470000
-14.21960000 31.52890000 58.95800000
-32.36510000 44.27570000 -41.14880000
-31.74940000 41.34800000 -41.58810000
-32.73610000 39.21020000 -40.31750000
-30.89270000 38.52270000 -42.37690000
-46.07580000 44.91050000 -29.83580000
-44.46170000 48.11660000 -32.27270000
-45.50990000 50.17360000 -29.76220000
-44.25070000 49.49400000 -32.53970000
8.65460000 -16.11100000 45.20030000
11.16770000 -19.13630000 41.58530000
2.17970000 -10.78800000 49.63460000
6.57510000 -13.41660000 47.79720000
-5.96090000 -39.27080000 24.05270000
15.47510000 -6.96830000 51.82810000
56.48090000 26.81220000 44.38120000
60.94840000 25.81740000 37.89310000
48.85640000 -7.95830000 18.82750000
48.01670000 1.93020000 -42.17380000
-1.99770000 41.22280000 -65.30090000
-0.11800000 40.75840000 -65.56260000
-9.90730000 38.16670000 56.34820000
6.96610000 0.97870000 -51.37610000
9.34870000 1.02910000 -51.51580000
-51.06110000 8.63500000 13.45650000
-53.79930000 13.28890000 0.28290000
-45.94300000 24.66060000 -16.33210000
-45.63450000 27.01330000 -17.76750000
-29.68630000 -32.00380000 -14.08020000
-43.96040000 48.63340000 -19.65610000
-44.62760000 47.11530000 -17.32790000
-44.00680000 44.68970000 -19.66240000
1.26030000 2.12720000 -51.47150000
1.15330000 5.99060000 -53.23540000
53.47130000 0.88910000 -24.20340000
56.04880000 4.44910000 -23.38860000
27.78360000 26.55060000 60.23300000
49.69090000 -11.55210000 6.55460000
47.38810000 -13.82100000 7.31180000
-37.09650000 51.95430000 -42.54570000
-38.68900000 52.76180000 -40.06720000
-38.68890000 52.05790000 -40.84310000
-31.64650000 47.02380000 41.72850000
13.37010000 -24.07340000 11.64310000
16.83670000 -24.37330000 9.60840000
-21.92360000 26.69020000 -49.55150000
-23.44420000 24.91790000 -48.29640000
-20.60820000 22.27760000 -49.92340000
-32.93540000 -31.78960000 6.14330000
9.03560000 -33.43880000 -15.17360000
9.09130000 -32.68460000 -16.46430000
69.44640000 22.82740000 21.96540000
60.84750000 4.54560000 -4.83930000
59.39520000 1.43530000 -2.33800000
60.32880000 3.26180000 0.47230000
61.24280000 5.05840000 -1.53870000
-2.13330000 -23.44730000 -34.59080000
2.03940000 -24.89780000 -33.22970000
0.73100000 -21.92080000 -37.92220000
5.27880000 -23.59270000 -36.06090000
5.59250000 -24.24650000 -35.00060000
55.07460000 18.33330000 35.03930000
-35.89000000 32.37770000 35.61640000
-37.16030000 37.07120000 33.99890000
17.86570000 -33.68720000 -1.88850000
19.32540000 -33.40810000 -0.30930000
-43.82310000 54.05730000 -31.95910000
-43.83750000 53.56500000 -32.59100000
-42.71620000 52.32840000 -35.05600000
-11.73280000 -6.49870000 -41.48500000
-13.91910000 -7.64380000 -38.63310000
-25.05880000 26.12070000 -55.34940000
-26.58990000 22.01450000 -54.05580000
-40.17800000 50.34600000 -39.70320000
-39.47370000 50.17100000 -40.69360000
-38.99950000 49.68710000 -41.39010000
54.95180000 6.36950000 25.09470000
52.88390000 1.75960000 24.22870000
53.01710000 4.00820000 26.22570000
-24.81080000 -13.86390000 6.27780000
-26.45480000 -13.04630000 4.50490000
-27.71750000 -12.06660000 6.92380000
-33.68090000 -29.79830000 -0.08980000
-32.58970000 -27.66440000 -2.54390000
-34.99720000 6.72560000 30.19150000
-31.39290000 2.11270000 30.93380000
-46.18900000 33.12960000 13.44950000
-22.05620000 -24.30370000 19.34970000
-23.75270000 -24.33030000 17.61740000
-22.03730000 -25.62120000 19.14330000
-40.42440000 7.21480000 35.54710000
-41.77280000 2.06120000 29.83840000
52.09830000 -9.59740000 -2.96360000
2.27210000 16.46390000 61.76970000
3.39030000 15.11210000 61.80240000
2.72040000 16.37510000 62.19590000
2.88940000 17.11520000 62.21150000
27.91560000 25.07070000 -57.61760000
26.54280000 19.58310000 -55.98500000
25.58920000 17.28380000 -55.37680000
27.16140000 0.87910000 -54.69090000
63.61720000 15.09410000 -19.04570000
8.95150000 37.54830000 -66.50170000
10.61910000 37.10040000 -66.53380000
9.75690000 38.02210000 -66.50450000
-36.61480000 48.74780000 -44.64730000
-35.73980000 48.95930000 -45.63180000
-34.74960000 49.86100000 -46.30410000
-34.69890000 48.54510000 -46.67010000
-48.23780000 54.39400000 -21.45680000
-47.12520000 34.07320000 9.04490000
26.50410000 35.16670000 63.03120000
25.74860000 35.65840000 63.07700000
40.52490000 -19.89910000 2.35320000
38.38020000 -21.04470000 0.99360000
-15.73620000 -36.13920000 18.37330000
-13.68080000 -36.79250000 18.89170000
-12.54360000 -38.45140000 20.14420000
-15.18880000 -31.88820000 15.64180000
13.13770000 7.49030000 59.11570000
10.90970000 10.12640000 60.34160000
9.81070000 6.87190000 59.06760000
-22.04540000 -3.16200000 -47.45630000
-19.34080000 -5.54500000 -47.73220000
-24.93030000 -2.63960000 -45.85480000
4.65440000 -23.18820000 -18.29180000
41.07230000 -1.04870000 44.36230000
-29.97020000 -10.56040000 6.00110000
69.42760000 20.42800000 1.74110000
69.31390000 20.64430000 5.49830000
-33.23940000 50.54620000 -47.13010000
57.23060000 -10.93550000 -1.67990000
-29.29820000 3.73550000 -35.04700000
-40.35080000 45.20250000 37.56330000
-39.05150000 40.56800000 40.65380000
-32.19570000 49.40220000 41.39170000
-19.41510000 -15.20450000 15.87270000
-21.06500000 -13.86120000 17.99930000
37.14920000 -21.18900000 6.07520000
9.21280000 -9.48680000 -44.50880000
6.62870000 -8.46450000 -45.35240000
19.29920000 27.95100000 58.20020000
12.84290000 -13.47350000 -48.52200000
14.16530000 -11.68610000 -49.95140000
9.00860000 -13.86010000 -48.48100000
-31.50710000 -9.42510000 4.57900000
0.55930000 42.86980000 59.93340000
4.97360000 41.20330000 60.50210000
-5.96010000 44.73120000 58.79160000
26.39740000 33.98040000 -61.43040000
30.25790000 32.62950000 -59.67920000
27.59620000 33.48140000 -60.72080000
27.79490000 32.19010000 -60.07040000
-15.84590000 -34.92720000 23.93190000
-18.78440000 -34.52320000 22.66590000
-30.32370000 -22.28850000 -3.48640000
-30.60930000 -22.39340000 -1.32890000
-29.22020000 -22.45620000 -8.70930000
-29.62870000 -22.33870000 -6.99580000
-29.96310000 -21.52700000 -7.45310000
-11.67750000 -30.96820000 -15.34850000
-14.06990000 -29.29210000 -12.58500000
-15.05890000 -29.49420000 -13.46220000
-52.35720000 46.17510000 2.78140000
-51.17240000 52.16250000 3.22900000
-25.39730000 48.80640000 -53.87800000
-27.01140000 48.78970000 -53.05050000
14.48350000 -35.00050000 3.72220000
14.20170000 -33.99020000 7.74870000
14.41870000 -33.95580000 7.43110000
16.08800000 -33.40760000 7.51830000
-25.76800000 -34.24820000 12.34780000
-23.74080000 -34.60960000 14.15190000
-1.60990000 -22.49120000 7.92570000
-39.55080000 47.53290000 29.85980000
-38.12110000 47.44120000 32.49160000
-10.73940000 -19.32590000 -17.58970000
-12.96770000 -37.79410000 -19.14810000
-16.73620000 -36.33150000 -17.76050000
-15.40540000 -36.78020000 -18.33620000
67.28420000 18.46760000 23.07310000
67.76980000 17.89170000 21.26140000
68.10190000 18.97570000 21.84690000
67.32210000 16.55810000 20.84810000
66.67180000 15.77610000 21.68050000
49.15400000 26.89890000 45.99000000
47.01620000 25.03860000 46.36940000
44.69530000 23.62190000 -49.69840000
46.04790000 22.04100000 -47.95160000
22.27650000 -20.82270000 23.99130000
24.62440000 -19.05330000 27.03390000
-38.41470000 20.65370000 31.29940000
16.08940000 13.10200000 60.88700000
16.23750000 11.26750000 60.94360000
-19.75020000 -27.94750000 -4.53310000
-47.72080000 35.85950000 -2.98540000
3.51630000 36.02190000 -61.68450000
6.00160000 34.75900000 -61.79410000
6.70670000 38.96740000 -63.13590000
73.57450000 20.71350000 -1.32380000
73.58800000 20.95510000 1.46220000
-13.60210000 -10.38360000 45.37370000
-11.33860000 -9.10630000 47.60090000
14.47040000 34.64330000 64.02690000
17.75700000 36.80690000 64.53970000
41.10360000 28.91580000 -58.13260000
42.59280000 28.72520000 -57.27630000
53.50660000 -4.15430000 13.96750000
55.17620000 -0.42500000 16.03780000
-24.23840000 19.62960000 45.56970000
10.15800000 -45.17720000 -9.72850000
10.74950000 -45.50740000 -4.40760000
52.58500000 11.05050000 33.11490000
-35.59780000 11.79700000 -32.56870000
68.21120000 21.30590000 -16.71480000
-10.19150000 -11.87520000 33.90160000
-43.95350000 51.70270000 -20.39700000
-29.35830000 -29.97420000 14.16450000
63.96710000 9.07300000 21.10130000
62.28780000 6.71650000 22.01450000
-17.44140000 16.87440000 49.05980000
-1.71960000 3.76420000 49.85260000
10.64130000 -24.57030000 -34.85500000
-32.46830000 25.76850000 -40.46460000
-31.36130000 22.00860000 -41.26820000
-42.29960000 5.37430000 -8.53750000
33.80740000 -2.90780000 41.08730000
-46.17450000 55.21510000 23.74680000
-11.53500000 -38.98360000 21.51990000
-14.94320000 -37.73370000 19.93940000
-28.80280000 37.51320000 -44.58260000
-31.47410000 34.88170000 -41.59150000
-28.50030000 7.37340000 -38.65200000
-22.34190000 49.02350000 55.27400000
-23.32650000 49.30440000 54.49810000
-22.10170000 48.08830000 55.32580000
-20.01990000 48.51110000 56.51030000
-18.50110000 48.08930000 57.34280000
48.65100000 28.28680000 51.86760000
52.52730000 26.88730000 48.52620000
-15.52390000 6.20690000 46.52140000
38.34500000 -20.15380000 8.89280000
39.43120000 -19.98490000 5.69170000
-38.65260000 -13.71970000 -1.94030000
-36.78370000 -15.52720000 0.36100000
-35.92410000 -16.48210000 -1.62170000
-35.61010000 -16.51890000 1.35810000
49.03240000 -14.17160000 -24.19760000
49.84210000 8.50210000 -36.06320000
10.86310000 12.96950000 -56.27470000
12.68040000 15.33040000 -56.97270000
9.22280000 15.26420000 -56.90230000
31.31750000 5.30010000 -48.22820000
30.03390000 -0.66830000 -45.41500000
-22.25570000 -1.71870000 37.32180000
-23.17000000 -3.87390000 34.40500000
-19.69380000 44.61460000 52.44980000
-21.18760000 39.99820000 50.95600000
-22.95160000 49.03260000 50.57430000
-25.56180000 49.77600000 48.27170000
-24.18630000 49.75700000 49.58030000
-24.21160000 48.14530000 49.22600000
6.77960000 -44.20120000 6.39570000
6.08350000 -43.63260000 7.81490000
-34.22270000 51.83650000 44.65630000
-32.63310000 52.06070000 45.65360000
-32.60230000 51.51580000 46.24530000
-34.35920000 8.11690000 -32.00030000
-15.41860000 45.63860000 -56.91070000
-17.66360000 45.92220000 -55.41290000
35.63250000 -10.15140000 -34.68260000
35.61390000 -8.66960000 -36.14940000
28.29840000 18.66170000 58.58580000
-48.08860000 55.55640000 18.08900000
-49.37080000 54.05080000 14.48350000
27.21570000 -19.45210000 24.90480000
-19.17600000 2.55540000 50.96140000
-15.90690000 -1.94070000 50.45060000
-42.37130000 40.09950000 23.82460000
23.32700000 -17.81090000 -32.23180000
25.24160000 -18.41430000 -30.29610000
20.19310000 -19.75470000 -30.05170000
7.45020000 4.44360000 -59.82700000
10.26810000 7.35210000 -60.89760000
-4.39970000 42.62180000 63.16350000
-5.20570000 43.46740000 62.90000000
53.19650000 -8.37770000 -0.65440000
-43.72330000 12.84270000 -15.35240000
31.74950000 -21.68510000 -17.50850000
32.51540000 11.66600000 54.88860000
19.45380000 11.63720000 53.50610000
22.71930000 13.43530000 53.40040000
-27.75520000 38.23690000 51.59120000
-28.17680000 41.38110000 50.88570000
-29.93520000 42.15390000 49.33540000
-12.48490000 -14.66600000 26.84290000
-11.12080000 -13.42220000 30.71290000
-9.69170000 -15.13450000 28.41230000
-29.54230000 -33.00190000 -0.30160000
-40.13250000 49.94990000 28.86960000
-40.57680000 52.64160000 28.43560000
44.86210000 28.88130000 -52.79850000
46.59120000 27.58170000 -50.52360000
-36.26620000 1.46010000 22.14390000
-33.98520000 -0.49390000 24.17380000
44.71400000 -11.79350000 20.12180000
12.86070000 -25.22320000 -8.66900000
16.61720000 -25.21250000 -9.86170000
-20.13950000 18.88420000 55.46530000
-21.43120000 15.56370000 54.25320000
-19.51790000 15.59500000 55.18300000
-18.78680000 16.76650000 55.77340000
-24.40530000 16.38850000 52.95800000
