15.93070000 4.09410000 -2.71170000
14.66930000 3.14470000 -4.50350000
15.39380000 3.99450000 -4.70810000
13.89680000 3.11080000 -6.36700000
14.58600000 3.94010000 -6.65810000
12.91800000 3.07820000 -8.15810000
13.55870000 3.91270000 -8.53460000
11.71940000 3.05090000 -9.80730000
12.29600000 3.88420000 -10.26700000
10.31520000 3.06090000 -11.26430000
10.83390000 3.89310000 -11.80930000
8.74210000 3.07410000 -12.48530000
9.16900000 3.90570000 -13.09070000
7.01520000 3.07620000 -13.50090000
7.37260000 3.90260000 -14.15690000
5.19550000 3.09290000 -14.29080000
5.46860000 3.93370000 -14.97180000
3.28610000 3.08630000 -14.84590000
3.47160000 3.93610000 -15.55500000
1.30690000 3.10650000 -15.14280000
1.38020000 3.95380000 -15.88780000
-0.68040000 3.10860000 -15.15340000
-0.72320000 3.93530000 -15.90550000
-2.65950000 3.08880000 -14.92120000
-2.79670000 3.92120000 -15.64380000
-4.58030000 3.10920000 -14.43000000
-4.81680000 3.94490000 -15.11880000
-6.42390000 3.14340000 -13.68410000
-6.77600000 3.97350000 -14.35530000
-8.17460000 3.15630000 -12.69960000
-8.60710000 4.00230000 -13.30540000
-9.80060000 3.17940000 -11.49100000
-10.31270000 4.01710000 -12.04670000
-11.26730000 3.23370000 -10.12170000
-11.83670000 4.07990000 -10.59470000
-12.49400000 3.23340000 -8.58870000
-13.12820000 4.08890000 -8.98670000
-13.51240000 3.25560000 -6.86610000
-14.17270000 4.09060000 -7.19590000
-14.34150000 3.32180000 -5.06070000
-15.02110000 4.15640000 -5.30860000
-14.89010000 3.34410000 -3.19220000
-15.60580000 4.18700000 -3.33730000
-15.18530000 3.34030000 -1.28610000
-15.92590000 4.18990000 -1.32600000
-15.24140000 3.33970000 0.64940000
-15.97000000 4.19790000 0.69730000
-16.68840000 5.07420000 0.75830000
-15.76630000 4.18780000 2.71960000
-16.46520000 5.04510000 2.86940000
-15.29560000 4.22050000 4.71750000
-15.94350000 5.06170000 4.94610000
-14.50610000 4.20160000 6.64910000
-15.13470000 5.05460000 6.96410000
-13.49380000 4.20430000 8.51820000
-14.09430000 5.06450000 8.92110000
-12.22590000 4.22570000 10.25230000
-12.76630000 5.08320000 10.71760000
-10.72390000 4.20740000 11.79190000
-11.21750000 5.06160000 12.31470000
-9.06050000 4.17350000 13.12320000
-10.25270000 3.37100000 11.23260000
-8.63430000 3.35930000 12.50690000
-6.87690000 3.38380000 13.56310000
-8.21710000 2.57870000 11.87960000
-6.53980000 2.59760000 12.89480000
-4.79320000 2.60300000 13.68460000
-6.24630000 1.78280000 12.24390000
-4.58630000 1.78990000 12.96280000
-2.86870000 1.79030000 13.46840000
-2.99250000 2.61410000 14.24170000
-1.13810000 1.79740000 13.74230000
-1.20180000 2.61310000 14.57230000
0.60120000 1.75740000 13.81520000
0.63430000 2.56630000 14.62280000
2.36270000 1.70710000 13.63250000
2.49940000 2.50010000 14.43470000
4.09170000 1.64770000 13.23230000
4.32470000 2.45830000 13.98720000
5.76270000 1.58760000 12.59480000
6.09400000 2.38280000 13.31070000
7.34280000 1.53730000 11.72170000
7.75710000 2.32290000 12.39070000
8.81630000 1.49850000 10.64580000
9.30840000 2.26810000 11.27270000
10.12680000 1.46610000 9.40120000
10.69670000 2.24930000 9.95170000
11.26500000 1.42970000 7.98510000
11.91550000 2.19750000 8.45080000
12.21920000 1.41250000 6.38710000
12.92340000 2.16830000 6.76560000
12.96030000 1.42390000 4.66160000
13.71240000 2.17990000 4.93870000
13.48030000 1.46550000 2.88050000
14.25550000 2.23950000 3.05190000
13.76630000 1.51690000 1.09900000
14.54000000 2.32110000 1.16190000
13.81210000 1.56200000 -0.65780000
14.63730000 2.38840000 -0.70340000
13.60450000 1.58030000 -2.36500000
14.42560000 2.37980000 -2.48650000
13.14400000 1.55020000 -4.09940000
13.93000000 2.32350000 -4.30070000
12.46220000 1.51700000 -5.78390000
13.19910000 2.29670000 -6.07840000
11.56330000 1.48660000 -7.36790000
12.25930000 2.26210000 -7.77430000
10.48580000 1.45900000 -8.82330000
11.11720000 2.23490000 -9.32760000
9.23500000 1.46180000 -10.12150000
9.78290000 2.24970000 -10.70310000
7.82090000 1.47180000 -11.22500000
8.28700000 2.26000000 -11.86990000
6.26800000 1.47970000 -12.14580000
6.64500000 2.27070000 -12.82980000
4.61130000 1.49490000 -12.84410000
4.90860000 2.27550000 -13.58670000
2.87820000 1.48590000 -13.32930000
3.08280000 2.27320000 -14.09750000
1.10760000 1.48780000 -13.57230000
1.21110000 2.28250000 -14.36970000
-0.66170000 1.47890000 -13.59400000
-0.65530000 2.26920000 -14.40150000
-2.40900000 1.49050000 -13.38290000
-2.52490000 2.27800000 -14.17190000
-4.10990000 1.50090000 -12.93620000
-4.33840000 2.29980000 -13.69670000
-5.74590000 1.52090000 -12.28510000
-6.07110000 2.32910000 -12.99770000
-7.29710000 1.55250000 -11.41150000
-7.72290000 2.34720000 -12.06840000
-8.74270000 1.59300000 -10.34100000
-9.27270000 2.37850000 -10.92600000
-10.05630000 1.61970000 -9.11700000
-10.66770000 2.40980000 -9.62900000
-11.16690000 1.65800000 -7.72330000
-11.82610000 2.43740000 -8.16280000
-12.11120000 1.69780000 -6.18650000
-12.82200000 2.47160000 -6.52130000
-12.84090000 1.71990000 -4.58430000
-13.60500000 2.51210000 -4.81770000
-13.32530000 1.74120000 -2.91130000
-14.12930000 2.51830000 -3.05830000
-13.60710000 1.74900000 -1.18890000
-14.41280000 2.52540000 -1.24560000
-13.66750000 1.75170000 0.56720000
-14.46220000 2.53470000 0.60780000
-13.50670000 1.75210000 2.31670000
-14.28370000 2.53910000 2.45800000
-15.04540000 3.33930000 2.59170000
-13.86950000 2.56480000 4.25690000
-14.60470000 3.38720000 4.49070000
-13.16710000 2.57360000 5.99610000
-13.84500000 3.38580000 6.31380000
-12.25410000 2.56390000 7.68940000
-12.88030000 3.37500000 8.09950000
-11.11690000 2.58190000 9.25500000
-11.68650000 3.38940000 9.76300000
-9.76120000 2.57580000 10.64920000
-10.54960000 1.75300000 8.78790000
-9.26500000 1.76270000 10.10580000
-7.82340000 1.76480000 11.28250000
-8.96010000 0.76410000 9.77890000
-7.58160000 0.76470000 10.91270000
-6.08170000 0.77260000 11.83900000
-7.41030000 -0.29000000 10.63630000
-5.95000000 -0.29240000 11.53560000
-4.40190000 -0.29420000 12.22020000
-4.48210000 0.77570000 12.53190000
-2.77720000 -0.31140000 12.69300000
-2.81110000 0.76540000 13.01270000
-1.12260000 -0.33940000 12.96320000
-1.12170000 0.74720000 13.29550000
0.54200000 -0.37600000 13.01610000
0.57680000 0.71190000 13.36100000
2.20680000 -0.41960000 12.84970000
2.27840000 0.66430000 13.19150000
3.83910000 -0.46230000 12.45640000
3.94620000 0.61910000 12.78600000
5.42410000 -0.50800000 11.87630000
5.55990000 0.57110000 12.17140000
6.92910000 -0.53020000 11.05620000
7.09880000 0.53280000 11.33750000
8.32040000 -0.57530000 10.03060000
8.53600000 0.49000000 10.29130000
9.55340000 -0.62470000 8.85220000
9.79190000 0.44860000 9.08150000
10.62770000 -0.63620000 7.50990000
10.88880000 0.42820000 7.70930000
11.51930000 -0.62900000 6.00430000
11.81270000 0.42000000 6.17090000
12.21190000 -0.61940000 4.38450000
12.52550000 0.43310000 4.50220000
12.67820000 -0.59750000 2.71390000
13.00700000 0.46890000 2.78190000
12.91160000 -0.57110000 1.04080000
13.24960000 0.51410000 1.06850000
12.93960000 -0.53630000 -0.61620000
13.27940000 0.55290000 -0.62200000
12.74210000 -0.49300000 -2.26860000
13.08130000 0.58060000 -2.30380000
12.31420000 -0.50870000 -3.92320000
12.64130000 0.56160000 -3.99300000
11.66000000 -0.55180000 -5.48290000
11.98890000 0.52180000 -5.61030000
10.82590000 -0.58130000 -6.94130000
11.12280000 0.49270000 -7.11230000
9.80500000 -0.59820000 -8.29430000
10.08250000 0.46840000 -8.50850000
8.61390000 -0.59240000 -9.49990000
8.87100000 0.47090000 -9.75290000
7.28780000 -0.57930000 -10.55410000
7.50840000 0.48190000 -10.82370000
5.81360000 -0.55850000 -11.38910000
6.00790000 0.49930000 -11.69720000
4.26290000 -0.54870000 -12.05480000
4.41050000 0.51270000 -12.36780000
2.63390000 -0.55500000 -12.48890000
2.73770000 0.50270000 -12.82590000
0.96660000 -0.56820000 -12.70980000
1.03000000 0.49180000 -13.06260000
-0.69830000 -0.57280000 -12.70230000
-0.68050000 0.49060000 -13.06760000
-2.33520000 -0.58110000 -12.50260000
-2.36490000 0.48760000 -12.87480000
-3.91950000 -0.57310000 -12.08790000
-3.99230000 0.49690000 -12.44630000
-5.43980000 -0.54800000 -11.47000000
-5.56200000 0.51940000 -11.81680000
-6.88180000 -0.52050000 -10.67750000
-7.04680000 0.54720000 -10.99360000
-8.22030000 -0.47440000 -9.71450000
-8.42780000 0.59130000 -9.97800000
-9.43540000 -0.42970000 -8.56760000
-9.68840000 0.62530000 -8.79830000
-10.49370000 -0.39860000 -7.26440000
-10.76920000 0.66250000 -7.45300000
-11.36980000 -0.37080000 -5.84620000
-11.66840000 0.69740000 -5.99310000
-12.04680000 -0.34120000 -4.33740000
-12.36250000 0.72470000 -4.44500000
-12.52280000 -0.31790000 -2.75830000
-12.84330000 0.74580000 -2.82150000
-12.78320000 -0.30840000 -1.12970000
-13.11540000 0.75330000 -1.15110000
-12.84250000 -0.30110000 0.52110000
-13.17210000 0.76130000 0.53650000
-12.69730000 -0.29210000 2.18310000
-13.01500000 0.76780000 2.23170000
-12.31900000 -0.28310000 3.80780000
-12.63480000 0.77520000 3.89920000
-13.11870000 1.75800000 4.03570000
-12.01060000 0.78140000 5.51210000
-12.47760000 1.76150000 5.69560000
-11.20000000 0.76880000 7.05780000
-11.61400000 1.75880000 7.29800000
-10.18310000 0.76000000 8.49090000
-10.91730000 -0.28950000 6.88930000
-9.93180000 -0.29750000 8.28570000
-8.74360000 -0.28810000 9.53950000
-9.66470000 -1.34610000 8.06320000
-8.52200000 -1.33930000 9.28370000
-7.22710000 -1.34470000 10.33810000
-8.27330000 -2.38030000 8.98670000
-7.02450000 -2.38480000 9.99590000
-5.66360000 -2.39550000 10.83920000
-5.81950000 -1.35450000 11.21630000
-4.20490000 -2.40880000 11.49110000
-4.30880000 -1.36270000 11.88750000
-2.67970000 -2.43450000 11.92860000
-2.73560000 -1.38280000 12.34650000
-1.12460000 -2.46540000 12.17400000
-1.13030000 -1.41720000 12.60610000
0.44940000 -2.49550000 12.21800000
0.49790000 -1.44750000 12.64060000
2.03080000 -2.53260000 12.07050000
2.12480000 -1.48860000 12.48560000
3.58620000 -2.56880000 11.69350000
3.72070000 -1.52960000 12.10150000
5.08540000 -2.60410000 11.13290000
5.26300000 -1.56350000 11.52210000
6.50060000 -2.61200000 10.37270000
6.73350000 -1.57890000 10.73530000
7.78300000 -2.66610000 9.41620000
8.07690000 -1.63190000 9.74260000
8.95460000 -2.70140000 8.27640000
9.27260000 -1.67840000 8.58090000
9.98570000 -2.70080000 7.00290000
10.32460000 -1.67910000 7.27550000
10.81810000 -2.69460000 5.61000000
11.19060000 -1.66700000 5.81380000
11.47070000 -2.68870000 4.11260000
11.86670000 -1.66220000 4.25420000
11.88310000 -2.68850000 2.53850000
12.30690000 -1.65300000 2.63190000
12.10060000 -2.68440000 0.96180000
12.53560000 -1.64000000 1.00380000
12.12090000 -2.65860000 -0.61050000
12.55880000 -1.60950000 -0.61770000
11.96130000 -2.60290000 -2.18360000
12.38970000 -1.56440000 -2.23070000
11.54660000 -2.61810000 -3.70310000
11.95710000 -1.56880000 -3.83110000
10.91940000 -2.66880000 -5.14320000
11.31450000 -1.62170000 -5.33140000
10.13710000 -2.68500000 -6.51420000
10.50630000 -1.64530000 -6.74440000
9.18290000 -2.69030000 -7.79070000
9.50950000 -1.65330000 -8.05410000
8.04630000 -2.67270000 -8.91860000
8.35090000 -1.64560000 -9.23210000
6.78280000 -2.65550000 -9.90200000
7.04980000 -1.62770000 -10.24370000
5.39690000 -2.62530000 -10.70460000
5.61640000 -1.60570000 -11.07290000
3.91260000 -2.62130000 -11.31450000
4.09300000 -1.59860000 -11.71030000
2.38910000 -2.62990000 -11.70010000
2.51330000 -1.60430000 -12.12800000
0.84660000 -2.65070000 -11.89130000
0.90700000 -1.61610000 -12.32130000
-0.70400000 -2.65140000 -11.87440000
-0.70560000 -1.62310000 -12.31200000
-2.24270000 -2.66580000 -11.66650000
-2.29510000 -1.63550000 -12.10380000
-3.74170000 -2.66330000 -11.27640000
-3.83690000 -1.63180000 -11.70580000
-5.16480000 -2.63810000 -10.69090000
-5.31170000 -1.60610000 -11.10450000
-6.51340000 -2.62130000 -9.95880000
-6.71220000 -1.58320000 -10.34540000
-7.74530000 -2.57150000 -9.05510000
-7.99850000 -1.53120000 -9.40740000
-8.84820000 -2.52450000 -8.02690000
-9.16530000 -1.47970000 -8.31550000
-9.82860000 -2.47500000 -6.83770000
-10.18480000 -1.44970000 -7.06740000
-10.68330000 -2.43700000 -5.48470000
-11.04730000 -1.42290000 -5.67900000
-11.32720000 -2.41630000 -4.04120000
-11.72900000 -1.40180000 -4.20970000
-11.78400000 -2.40610000 -2.55810000
-12.19470000 -1.37740000 -2.67580000
-12.01920000 -2.39450000 -1.03910000
-12.43560000 -1.36450000 -1.09400000
-12.08390000 -2.38050000 0.50390000
-12.49530000 -1.35150000 0.51330000
-11.95880000 -2.37170000 2.06240000
-12.34710000 -1.34140000 2.12850000
-11.59920000 -2.36740000 3.60850000
-11.98530000 -1.33750000 3.71560000
-11.03950000 -2.36040000 5.08620000
-11.40540000 -1.32390000 5.24790000
-11.70970000 -0.27280000 5.38620000
-10.62250000 -1.33940000 6.70440000
-10.28700000 -2.36970000 6.48930000
-9.35580000 -2.37550000 7.80090000
-9.87860000 -3.36110000 6.21730000
-8.99220000 -3.36760000 7.46610000
-7.95390000 -3.37180000 8.59400000
-8.54470000 -4.29130000 7.05510000
-7.57000000 -4.30060000 8.12370000
-6.45440000 -4.31100000 9.04700000
-6.76720000 -3.38030000 9.56730000
-5.22460000 -4.32840000 9.82520000
-5.47810000 -3.40430000 10.39080000
-3.89660000 -4.34080000 10.43060000
-4.07040000 -3.41500000 11.01570000
-2.49730000 -4.39270000 10.84800000
-2.60300000 -3.44730000 11.43680000
-1.07270000 -4.41890000 11.06710000
-1.10810000 -3.48120000 11.67750000
0.36900000 -4.44730000 11.12870000
0.41000000 -3.51300000 11.73380000
1.83010000 -4.44510000 10.97490000
1.93880000 -3.53480000 11.58280000
3.25460000 -4.48900000 10.61870000
3.43770000 -3.56680000 11.20990000
4.61090000 -4.51950000 10.08390000
4.87550000 -3.60260000 10.66430000
5.89360000 -4.53560000 9.38770000
6.22280000 -3.61960000 9.93920000
7.06510000 -4.56280000 8.50630000
7.45930000 -3.65360000 9.00460000
8.10460000 -4.58060000 7.46520000
8.57250000 -3.67660000 7.91200000
9.01830000 -4.58060000 6.32640000
9.55050000 -3.68220000 6.69950000
9.76710000 -4.57840000 5.08190000
10.34670000 -3.67760000 5.37580000
10.37290000 -4.56090000 3.73900000
10.97110000 -3.66660000 3.95060000
10.73990000 -4.58390000 2.31500000
11.36510000 -3.67430000 2.43570000
10.92110000 -4.61030000 0.88450000
11.56900000 -3.68530000 0.92580000
10.96120000 -4.60240000 -0.54800000
11.59730000 -3.66650000 -0.58500000
10.80710000 -4.55730000 -1.95330000
11.44530000 -3.60500000 -2.08480000
10.45890000 -4.55860000 -3.31270000
11.05270000 -3.63340000 -3.52180000
9.91180000 -4.59440000 -4.65990000
10.46000000 -3.67230000 -4.92070000
9.17630000 -4.59030000 -5.92630000
9.70500000 -3.68050000 -6.24750000
8.28780000 -4.58550000 -7.08350000
8.76770000 -3.67260000 -7.46600000
7.25320000 -4.57610000 -8.11590000
7.68920000 -3.66180000 -8.55520000
6.10560000 -4.55210000 -9.00480000
6.47730000 -3.64170000 -9.50080000
4.84530000 -4.52500000 -9.75020000
5.14200000 -3.61140000 -10.27600000
3.50570000 -4.53600000 -10.28240000
3.72760000 -3.61430000 -10.86040000
2.12830000 -4.55990000 -10.63020000
2.26640000 -3.63480000 -11.21970000
0.70600000 -4.56710000 -10.79040000
0.78320000 -3.64570000 -11.39190000
-0.71470000 -4.57450000 -10.77950000
-0.70790000 -3.65750000 -11.39000000
-2.12580000 -4.57920000 -10.58360000
-2.18690000 -3.65650000 -11.17330000
-3.49030000 -4.56880000 -10.19640000
-3.63040000 -3.65200000 -10.78170000
-4.78730000 -4.55740000 -9.65210000
-5.00100000 -3.63700000 -10.21520000
-6.00290000 -4.54490000 -8.94930000
-6.28000000 -3.62090000 -9.50300000
-7.10750000 -4.53180000 -8.12760000
-7.45960000 -3.59180000 -8.64900000
-8.11210000 -4.47950000 -7.18910000
-8.51360000 -3.54680000 -7.65650000
-9.03310000 -4.37180000 -6.10060000
-9.47120000 -3.46870000 -6.52150000
-9.76010000 -4.33150000 -4.89690000
-10.27640000 -3.40600000 -5.21600000
-10.30310000 -4.32740000 -3.62340000
-10.87150000 -3.40380000 -3.84150000
-10.69350000 -4.32140000 -2.29680000
-11.29130000 -3.39680000 -2.43460000
-10.90200000 -4.30740000 -0.92720000
-11.53080000 -3.39220000 -0.98750000
-10.96530000 -4.28690000 0.46520000
-11.58470000 -3.37090000 0.48850000
-10.85420000 -4.26750000 1.86970000
-11.46680000 -3.35630000 1.97650000
-10.54820000 -4.26850000 3.25420000
-11.12590000 -3.34820000 3.44480000
-10.05530000 -4.27880000 4.60140000
-10.59730000 -3.35520000 4.86890000
-9.38480000 -4.28720000 5.87610000
-9.37410000 -5.05390000 4.27220000
-8.76350000 -5.06520000 5.45060000
-8.00070000 -5.07820000 6.56550000
-8.12420000 -5.66370000 5.03310000
-7.41770000 -5.69640000 6.05450000
-6.56970000 -5.71800000 6.98050000
-7.09370000 -5.09460000 7.55800000
-5.61600000 -5.71170000 7.79260000
-6.05380000 -5.11030000 8.43100000
-4.56520000 -5.71410000 8.47160000
-4.90600000 -5.12190000 9.15870000
-3.43430000 -5.72780000 9.00130000
-3.67100000 -5.14580000 9.73590000
-2.23240000 -5.77440000 9.35210000
-2.36650000 -5.18310000 10.11220000
-0.97650000 -5.80400000 9.55870000
-1.03130000 -5.22530000 10.33060000
0.30220000 -5.79500000 9.63560000
0.33100000 -5.21900000 10.37940000
1.56690000 -5.80690000 9.53580000
1.69810000 -5.22130000 10.26880000
2.79700000 -5.84500000 9.20670000
3.02730000 -5.28120000 9.92950000
3.99480000 -5.86020000 8.74710000
4.30530000 -5.29190000 9.41470000
5.12180000 -5.86080000 8.14690000
5.50330000 -5.30010000 8.75310000
6.13370000 -5.86830000 7.38080000
6.59270000 -5.32180000 7.93150000
7.04630000 -5.87930000 6.48820000
7.56380000 -5.34260000 6.96490000
7.81780000 -5.89400000 5.47340000
8.41160000 -5.34790000 5.89590000
8.46560000 -5.90320000 4.39710000
9.11160000 -5.35600000 4.73960000
8.97510000 -5.89680000 3.26020000
9.67530000 -5.33580000 3.50430000
9.29030000 -5.92580000 2.05600000
10.01540000 -5.36470000 2.18260000
9.45860000 -5.94220000 0.80090000
10.16550000 -5.39270000 0.84400000
9.48620000 -5.93530000 -0.45640000
10.19340000 -5.39620000 -0.50180000
9.34990000 -5.93150000 -1.69030000
10.06700000 -5.35690000 -1.81860000
9.04650000 -5.92890000 -2.89500000
9.75710000 -5.34200000 -3.10310000
8.55630000 -5.93990000 -4.06120000
9.24540000 -5.36850000 -4.36250000
7.91940000 -5.93800000 -5.16570000
8.55720000 -5.35470000 -5.54830000
7.14550000 -5.92870000 -6.18160000
7.71610000 -5.34630000 -6.63630000
6.24780000 -5.90680000 -7.08750000
6.74050000 -5.35420000 -7.59690000
5.22980000 -5.91350000 -7.83910000
5.66680000 -5.34670000 -8.42600000
4.14900000 -5.91870000 -8.45170000
4.50410000 -5.31530000 -9.11340000
2.98260000 -5.94880000 -8.87040000
3.25750000 -5.34190000 -9.60270000
1.76940000 -5.95720000 -9.16410000
1.96210000 -5.34350000 -9.92190000
0.52950000 -5.94460000 -9.30510000
0.61930000 -5.34710000 -10.07240000
-0.71120000 -5.94940000 -9.26580000
-0.72490000 -5.35140000 -10.04900000
-1.92080000 -5.95640000 -9.07610000
-2.03600000 -5.35870000 -9.85440000
-3.09800000 -5.94250000 -8.74440000
-3.30670000 -5.34960000 -9.49240000
-4.21790000 -5.91560000 -8.27760000
-4.52610000 -5.34270000 -8.99080000
-5.25810000 -5.90250000 -7.66230000
-5.65640000 -5.33480000 -8.31870000
-6.19880000 -5.88490000 -6.90920000
-6.66350000 -5.31680000 -7.51070000
-7.05940000 -5.84520000 -6.09240000
-7.60270000 -5.27260000 -6.65000000
-7.86790000 -5.74750000 -5.22660000
-8.46980000 -5.16320000 -5.66380000
-8.42850000 -5.73970000 -4.19940000
-9.11490000 -5.13960000 -4.55200000
-8.89180000 -5.71540000 -3.11870000
-9.61510000 -5.13080000 -3.37970000
-9.21010000 -5.71190000 -1.98220000
-9.96590000 -5.10760000 -2.14600000
-9.38070000 -5.70660000 -0.80630000
-10.16130000 -5.10350000 -0.86590000
-9.42040000 -5.68290000 0.39910000
-10.21710000 -5.07590000 0.43040000
-9.33420000 -5.64750000 1.59910000
-10.11160000 -5.03550000 1.73820000
-9.10730000 -5.63240000 2.79100000
-9.83570000 -5.04050000 3.02920000
-8.69100000 -5.64200000 3.93970000
-8.42750000 -6.05070000 2.57800000
-8.06890000 -6.04630000 3.64830000
-7.55110000 -6.06330000 4.66000000
-7.52960000 -6.40970000 3.39120000
-7.06360000 -6.41740000 4.34310000
-6.46700000 -6.42150000 5.23510000
-6.89000000 -6.08460000 5.60530000
-5.74070000 -6.43830000 6.04570000
-6.11760000 -6.09340000 6.47010000
-4.89850000 -6.46750000 6.73320000
-5.22650000 -6.10660000 7.22090000
-3.97600000 -6.49200000 7.29920000
-4.24820000 -6.11930000 7.84270000
-2.99580000 -6.50520000 7.75500000
-3.20150000 -6.13660000 8.32520000
-1.95620000 -6.52110000 8.09690000
-2.08360000 -6.16520000 8.65640000
-0.86300000 -6.52910000 8.28970000
-0.91610000 -6.17950000 8.88560000
0.24290000 -6.55600000 8.34270000
0.26890000 -6.19300000 8.94480000
1.34740000 -6.56610000 8.25070000
1.44800000 -6.21520000 8.83810000
2.44340000 -6.53210000 8.04780000
2.60630000 -6.21640000 8.58930000
3.50330000 -6.50880000 7.68850000
3.73950000 -6.21230000 8.18900000
4.50280000 -6.50260000 7.17710000
4.78990000 -6.21790000 7.63090000
5.42510000 -6.48550000 6.52650000
5.75930000 -6.21040000 6.92710000
6.24030000 -6.48240000 5.73620000
6.62100000 -6.20940000 6.09510000
6.90760000 -6.49800000 4.83670000
7.33650000 -6.22950000 5.13790000
7.49360000 -6.50270000 3.88300000
7.95210000 -6.23690000 4.13080000
7.94950000 -6.50090000 2.88090000
8.41450000 -6.24720000 3.05410000
8.25030000 -6.50670000 1.82520000
8.69060000 -6.27590000 1.92740000
8.40470000 -6.52280000 0.71430000
8.89270000 -6.28680000 0.75550000
8.39760000 -6.54020000 -0.40770000
8.90800000 -6.28530000 -0.42510000
8.23780000 -6.56760000 -1.49880000
8.75200000 -6.29600000 -1.58610000
7.91510000 -6.58760000 -2.55640000
8.41870000 -6.31470000 -2.70930000
7.47070000 -6.60640000 -3.57640000
7.95210000 -6.33440000 -3.79310000
6.90740000 -6.61890000 -4.54220000
7.34360000 -6.34230000 -4.80750000
6.22050000 -6.61250000 -5.42430000
6.64750000 -6.31580000 -5.77660000
5.42090000 -6.61520000 -6.20570000
5.81220000 -6.29340000 -6.63080000
4.52000000 -6.60830000 -6.84920000
4.85540000 -6.29470000 -7.32520000
3.54450000 -6.63000000 -7.34620000
3.82650000 -6.31460000 -7.85970000
2.50550000 -6.67530000 -7.68210000
2.72250000 -6.34900000 -8.21640000
1.43650000 -6.71880000 -7.89160000
1.58630000 -6.35910000 -8.46700000
0.36790000 -6.73580000 -7.97540000
0.44280000 -6.35780000 -8.57090000
-0.69530000 -6.73480000 -7.94040000
-0.70070000 -6.35420000 -8.53170000
-1.73080000 -6.72830000 -7.78710000
-1.81880000 -6.34460000 -8.36970000
-2.72140000 -6.71500000 -7.49170000
-2.89400000 -6.33120000 -8.05760000
-3.66490000 -6.69970000 -7.08140000
-3.91670000 -6.31300000 -7.62600000
-4.55150000 -6.66130000 -6.56980000
-4.87760000 -6.28320000 -7.07700000
-5.38920000 -6.60020000 -5.96810000
-5.77120000 -6.25590000 -6.40280000
-6.15870000 -6.53690000 -5.26490000
-6.58580000 -6.21560000 -5.62050000
-6.80590000 -6.48210000 -4.48140000
-7.30590000 -6.14670000 -4.81160000
-7.31640000 -6.46750000 -3.62460000
-7.84490000 -6.12600000 -3.89810000
-7.67510000 -6.45150000 -2.67720000
-8.25130000 -6.12580000 -2.88520000
-7.95830000 -6.46190000 -1.69980000
-8.52340000 -6.12760000 -1.82640000
-8.13350000 -6.44550000 -0.69510000
-8.69150000 -6.11210000 -0.74190000
-8.16040000 -6.43350000 0.33340000
-8.72730000 -6.08790000 0.36270000
-8.07360000 -6.44020000 1.36570000
-8.65130000 -6.05710000 1.47720000
-7.86650000 -6.42000000 2.38980000
-7.79740000 -6.91070000 1.30090000
-7.59210000 -6.90760000 2.28640000
-7.26180000 -6.90020000 3.25240000
-7.50950000 -7.35220000 2.24080000
-7.17650000 -7.36480000 3.19450000
-6.74400000 -7.36360000 4.09740000
-6.81190000 -6.90410000 4.16520000
-6.17930000 -7.38900000 4.94350000
-6.24000000 -6.90510000 5.02230000
-5.48640000 -7.39120000 5.72570000
-5.54210000 -6.91450000 5.80900000
-4.69010000 -7.40480000 6.39800000
-4.73480000 -6.96050000 6.47930000
-3.82160000 -7.44270000 6.94460000
-3.85110000 -6.98740000 7.02930000
-2.88930000 -7.40450000 7.40310000
-2.90810000 -6.99110000 7.48420000
-1.88780000 -7.41180000 7.73330000
-1.89900000 -6.99230000 7.81840000
-0.85270000 -7.45840000 7.91320000
-0.84650000 -7.00790000 8.00310000
0.19770000 -7.49820000 7.95050000
0.21770000 -7.04880000 8.04310000
1.27020000 -7.49260000 7.84970000
1.29340000 -7.05010000 7.95080000
2.31330000 -7.45640000 7.61740000
2.34320000 -6.98840000 7.72680000
3.29130000 -7.43860000 7.24640000
3.34750000 -6.94010000 7.36200000
4.21960000 -7.39530000 6.73800000
4.29860000 -6.89900000 6.85780000
5.08280000 -7.30860000 6.10540000
5.18590000 -6.84520000 6.23600000
5.84720000 -7.27040000 5.35990000
5.96570000 -6.82590000 5.48110000
6.47750000 -7.28500000 4.51350000
6.60420000 -6.84260000 4.61630000
6.99620000 -7.30590000 3.62050000
7.14570000 -6.83790000 3.70410000
7.41350000 -7.27380000 2.68550000
7.58590000 -6.82060000 2.74970000
7.69990000 -7.24350000 1.69560000
7.88220000 -6.81070000 1.74170000
7.83140000 -7.24430000 0.66080000
7.98770000 -6.79300000 0.67770000
7.82950000 -7.29350000 -0.38110000
8.01060000 -6.85760000 -0.39580000
7.67710000 -7.35670000 -1.40250000
7.85070000 -6.90660000 -1.43290000
7.39710000 -7.42090000 -2.39570000
7.54790000 -6.95690000 -2.44200000
6.98820000 -7.43250000 -3.35800000
7.13180000 -6.99330000 -3.42100000
6.44730000 -7.44320000 -4.26710000
6.58230000 -6.99260000 -4.34160000
5.79150000 -7.45640000 -5.09160000
5.90730000 -7.01450000 -5.17390000
5.02630000 -7.47230000 -5.80970000
5.14090000 -7.02430000 -5.91100000
4.18370000 -7.47740000 -6.42310000
4.28300000 -7.02630000 -6.53180000
3.27240000 -7.52360000 -6.91190000
3.35290000 -7.06100000 -7.02140000
2.30050000 -7.59430000 -7.26800000
2.36620000 -7.13680000 -7.37380000
1.29880000 -7.60670000 -7.50970000
1.34570000 -7.19290000 -7.60060000
0.27640000 -7.63120000 -7.60560000
0.31370000 -7.22030000 -7.69740000
-0.73750000 -7.65350000 -7.56480000
-0.71160000 -7.22710000 -7.66260000
-1.71670000 -7.64600000 -7.41110000
-1.70680000 -7.22590000 -7.50600000
-2.65030000 -7.64400000 -7.13790000
-2.65950000 -7.22500000 -7.22990000
-3.53900000 -7.66470000 -6.74000000
-3.56300000 -7.22330000 -6.83000000
-4.36080000 -7.64220000 -6.24270000
-4.40500000 -7.17530000 -6.32670000
-5.12120000 -7.53620000 -5.64870000
-5.18900000 -7.08220000 -5.73040000
-5.81180000 -7.45080000 -4.97320000
-5.90070000 -6.98760000 -5.04940000
-6.40850000 -7.41980000 -4.21700000
-6.50830000 -6.94510000 -4.28730000
-6.89870000 -7.39560000 -3.39790000
-6.99530000 -6.92850000 -3.45490000
-7.28290000 -7.39350000 -2.52910000
-7.36050000 -6.92360000 -2.56060000
-7.56040000 -7.38930000 -1.62470000
-7.65500000 -6.91910000 -1.63670000
-7.72910000 -7.35620000 -0.67650000
-7.82020000 -6.90300000 -0.67390000
-7.78490000 -7.31890000 0.29260000
-7.86240000 -6.90710000 0.31010000
-7.70890000 -7.35440000 1.26630000
-7.74220000 -7.65500000 0.27900000
-7.66460000 -7.67030000 1.24320000
-7.46330000 -7.71450000 2.20930000
-7.63120000 -7.96910000 1.22460000
-7.43530000 -7.98740000 2.18640000
-7.11270000 -7.98410000 3.13510000
-7.14320000 -7.68500000 3.16350000
-6.67670000 -8.00300000 4.02160000
-6.70730000 -7.72270000 4.05520000
-6.12010000 -8.02250000 4.85960000
-6.15180000 -7.73380000 4.89950000
-5.43670000 -8.04120000 5.64840000
-5.46160000 -7.74770000 5.68500000
-4.65000000 -8.03780000 6.31750000
-4.66900000 -7.74370000 6.35490000
-3.79590000 -8.02580000 6.86750000
-3.80930000 -7.73590000 6.90750000
-2.86770000 -8.01450000 7.30680000
-2.87950000 -7.71670000 7.35840000
-1.88340000 -8.03070000 7.63650000
-1.88540000 -7.73320000 7.68870000
-0.86230000 -8.05260000 7.82190000
-0.85800000 -7.77400000 7.86780000
0.17950000 -8.08680000 7.84450000
0.18770000 -7.80490000 7.89760000
1.24410000 -8.10620000 7.74750000
1.25800000 -7.81640000 7.80380000
2.28490000 -8.09880000 7.51980000
2.29940000 -7.79630000 7.56630000
3.25760000 -8.08650000 7.14870000
3.27210000 -7.80010000 7.19590000
4.15990000 -8.06890000 6.63290000
4.18720000 -7.77200000 6.68310000
4.99500000 -8.04090000 5.98820000
5.03740000 -7.72850000 6.04340000
5.74970000 -8.01440000 5.24730000
5.79620000 -7.67540000 5.29980000
6.38340000 -8.01910000 4.42160000
6.42720000 -7.70470000 4.46110000
6.90580000 -7.99920000 3.55930000
6.94420000 -7.69740000 3.58610000
7.31160000 -7.99700000 2.64430000
7.34950000 -7.70490000 2.66000000
7.57450000 -7.98210000 1.67100000
7.62540000 -7.66140000 1.67830000
7.71370000 -7.96780000 0.65050000
7.77170000 -7.64100000 0.65350000
7.70280000 -7.99990000 -0.37610000
7.75890000 -7.67740000 -0.37570000
7.55490000 -8.04380000 -1.38390000
7.60680000 -7.74260000 -1.39060000
7.28360000 -8.07580000 -2.36520000
7.33600000 -7.77990000 -2.37850000
6.88010000 -8.09490000 -3.31890000
6.92360000 -7.79640000 -3.33440000
6.33990000 -8.10560000 -4.21760000
6.38540000 -7.80820000 -4.23800000
5.67950000 -8.12680000 -5.02760000
5.73030000 -7.81140000 -5.05560000
4.93120000 -8.13410000 -5.74390000
4.97120000 -7.84220000 -5.77180000
4.09760000 -8.13490000 -6.34480000
4.13830000 -7.82380000 -6.38060000
3.19550000 -8.15300000 -6.82890000
3.22880000 -7.86870000 -6.86440000
2.23710000 -8.17170000 -7.19130000
2.26490000 -7.91150000 -7.22440000
1.23870000 -8.18410000 -7.42190000
1.26670000 -7.92000000 -7.46090000
0.22390000 -8.19840000 -7.51970000
0.24920000 -7.94080000 -7.55440000
-0.77530000 -8.19390000 -7.47480000
-0.75700000 -7.93680000 -7.51760000
-1.73330000 -8.18510000 -7.31640000
-1.72500000 -7.92440000 -7.36300000
-2.65140000 -8.19520000 -7.05020000
-2.65020000 -7.94690000 -7.08720000
-3.52640000 -8.19160000 -6.66650000
-3.53150000 -7.93120000 -6.70120000
-4.32840000 -8.18640000 -6.16460000
-4.34510000 -7.92850000 -6.20330000
-5.07360000 -8.15710000 -5.58250000
-5.09520000 -7.86730000 -5.61310000
-5.74020000 -8.10180000 -4.91270000
-5.77230000 -7.80900000 -4.93950000
-6.32710000 -8.06380000 -4.16520000
-6.36440000 -7.76240000 -4.18840000
-6.82130000 -8.05880000 -3.35880000
-6.84790000 -7.77590000 -3.37010000
-7.19890000 -8.04420000 -2.50850000
-7.23040000 -7.76960000 -2.51320000
-7.47350000 -8.00690000 -1.62060000
-7.51090000 -7.73180000 -1.62180000
-7.64660000 -7.97770000 -0.69120000
-7.68780000 -7.69380000 -0.68390000
-7.70010000 -7.97040000 0.26450000
-7.60600000 -8.25090000 -0.69720000
-7.65540000 -8.24640000 0.25220000
-7.58270000 -8.24590000 1.20300000
-7.54960000 -8.48960000 0.23890000
-7.48220000 -8.49610000 1.17310000
-7.28210000 -8.48740000 2.10960000
-7.39440000 -8.25480000 2.15790000
-6.96260000 -8.49340000 3.03040000
-7.06780000 -8.25770000 3.09630000
-6.53340000 -8.50550000 3.90390000
-6.63090000 -8.27100000 3.97750000
-5.97290000 -8.52480000 4.71640000
-6.07240000 -8.29210000 4.80610000
-5.28510000 -8.54030000 5.46980000
-5.38580000 -8.31720000 5.58470000
-4.53110000 -8.54220000 6.13110000
-4.61740000 -8.31480000 6.26070000
-3.70320000 -8.53910000 6.67040000
-3.76990000 -8.30400000 6.80450000
-2.80200000 -8.52830000 7.08850000
-2.84490000 -8.29110000 7.22490000
-1.85060000 -8.53250000 7.41540000
-1.87690000 -8.30660000 7.56290000
-0.85880000 -8.55640000 7.60760000
-0.86530000 -8.32630000 7.75730000
0.16160000 -8.57810000 7.62860000
0.17160000 -8.35130000 7.76910000
1.19880000 -8.58940000 7.52270000
1.22730000 -8.37350000 7.66870000
2.21430000 -8.59050000 7.29260000
2.25980000 -8.36880000 7.43990000
3.16690000 -8.58790000 6.92960000
3.22670000 -8.35840000 7.06980000
4.03390000 -8.57820000 6.41460000
4.11400000 -8.34670000 6.55050000
4.82700000 -8.55530000 5.78170000
4.93260000 -8.32560000 5.90920000
5.57020000 -8.56760000 5.06320000
5.67970000 -8.31530000 5.17210000
6.20180000 -8.56010000 4.28060000
6.32310000 -8.31230000 4.37130000
6.72450000 -8.53770000 3.45340000
6.84430000 -8.28610000 3.52200000
7.11600000 -8.52440000 2.56660000
7.24170000 -8.27690000 2.61520000
7.38060000 -8.52540000 1.63160000
7.50430000 -8.27340000 1.65710000
7.52740000 -8.54070000 0.63680000
7.64600000 -8.27280000 0.64670000
7.51920000 -8.56530000 -0.37420000
7.63190000 -8.29490000 -0.37770000
7.37310000 -8.59720000 -1.35570000
7.49260000 -8.33680000 -1.37500000
7.09920000 -8.61390000 -2.30950000
7.21970000 -8.36200000 -2.34730000
6.70410000 -8.62830000 -3.24370000
6.82770000 -8.38220000 -3.29890000
6.16950000 -8.63670000 -4.12250000
6.28430000 -8.39160000 -4.19100000
5.51910000 -8.64890000 -4.91530000
5.61990000 -8.40920000 -4.99100000
4.78900000 -8.66550000 -5.61610000
4.88240000 -8.41910000 -5.70590000
3.97120000 -8.66380000 -6.19660000
4.05260000 -8.42000000 -6.29940000
3.09910000 -8.67650000 -6.68740000
3.16000000 -8.42840000 -6.78560000
2.15920000 -8.66310000 -7.04710000
2.20560000 -8.42960000 -7.14490000
1.17380000 -8.66920000 -7.27980000
1.20990000 -8.43940000 -7.37340000
0.17190000 -8.66700000 -7.35840000
0.19890000 -8.44800000 -7.47020000
-0.80300000 -8.67060000 -7.30700000
-0.79330000 -8.44670000 -7.42100000
-1.73000000 -8.65620000 -7.14520000
-1.73710000 -8.43570000 -7.25640000
-2.62030000 -8.65670000 -6.87950000
-2.64520000 -8.43980000 -6.99130000
-3.46830000 -8.66010000 -6.50330000
-3.51340000 -8.44310000 -6.61610000
-4.25250000 -8.65410000 -6.01890000
-4.31430000 -8.43960000 -6.12570000
-4.97030000 -8.64570000 -5.44950000
-5.04550000 -8.42420000 -5.54250000
-5.62320000 -8.62430000 -4.80570000
-5.70690000 -8.38750000 -4.88250000
-6.20190000 -8.59890000 -4.08160000
-6.29040000 -8.35180000 -4.14190000
-6.68490000 -8.58360000 -3.29790000
-6.77890000 -8.33650000 -3.34140000
-7.05770000 -8.55050000 -2.47270000
-7.16210000 -8.31160000 -2.50250000
-7.35050000 -8.52240000 -1.60920000
-7.44350000 -8.27730000 -1.62180000
-7.51860000 -8.50160000 -0.69800000
-7.15440000 -8.68460000 -1.57500000
-7.32630000 -8.66910000 -0.68720000
-7.36640000 -8.66840000 0.22320000
-7.08210000 -8.65840000 -0.67160000
-7.11690000 -8.64840000 0.20340000
-7.04290000 -8.62520000 1.07810000
-7.28840000 -8.66760000 1.13110000
-6.85320000 -8.60680000 1.94950000
-7.08220000 -8.62610000 2.03590000
-6.55800000 -8.60870000 2.81870000
-6.78160000 -8.65620000 2.93350000
-6.14480000 -8.60300000 3.64460000
-6.35380000 -8.65430000 3.78390000
-5.61640000 -8.57770000 4.41730000
-5.80510000 -8.66110000 4.57600000
-4.98560000 -8.53580000 5.14060000
-5.13580000 -8.65410000 5.30440000
-4.27390000 -8.51440000 5.75840000
-4.39840000 -8.65230000 5.93960000
-3.49670000 -8.48380000 6.26210000
-3.59400000 -8.64910000 6.45680000
-2.65510000 -8.46920000 6.67370000
-2.72550000 -8.63890000 6.87280000
-1.76020000 -8.47110000 6.99720000
-1.80260000 -8.64150000 7.18890000
-0.82210000 -8.50480000 7.16360000
-0.84160000 -8.66860000 7.36980000
0.14430000 -8.53300000 7.20400000
0.15040000 -8.68760000 7.40260000
1.12730000 -8.56010000 7.10500000
1.15980000 -8.69930000 7.31030000
2.08730000 -8.57930000 6.87140000
2.15000000 -8.71250000 7.08090000
2.97550000 -8.59080000 6.49750000
3.07050000 -8.70860000 6.71120000
3.79200000 -8.58330000 6.02230000
3.91090000 -8.71050000 6.21510000
4.53390000 -8.59520000 5.41980000
4.68390000 -8.70310000 5.60590000
5.23220000 -8.61530000 4.74030000
5.40560000 -8.72830000 4.90670000
5.82040000 -8.64190000 3.99710000
6.02500000 -8.73120000 4.14840000
6.30040000 -8.65630000 3.21780000
6.52960000 -8.71120000 3.34490000
6.67350000 -8.67850000 2.40010000
6.92290000 -8.71350000 2.49360000
6.93680000 -8.70710000 1.53240000
7.19150000 -8.72090000 1.58970000
7.06000000 -8.74260000 0.59400000
7.32060000 -8.73400000 0.61870000
7.05660000 -8.75770000 -0.35280000
7.31210000 -8.75190000 -0.36360000
6.91200000 -8.76550000 -1.27220000
7.16640000 -8.78090000 -1.31970000
6.64530000 -8.77090000 -2.16570000
6.89910000 -8.78660000 -2.24500000
6.26520000 -8.77510000 -3.03950000
6.50780000 -8.79580000 -3.15210000
5.77610000 -8.76330000 -3.87500000
5.99310000 -8.81610000 -4.01190000
5.16470000 -8.77000000 -4.62610000
5.35700000 -8.80270000 -4.78340000
4.47320000 -8.76240000 -5.28490000
4.64050000 -8.81980000 -5.46170000
3.70800000 -8.77100000 -5.83220000
3.84920000 -8.82220000 -6.02620000
2.88790000 -8.78450000 -6.29160000
2.99840000 -8.83240000 -6.50210000
2.00480000 -8.79490000 -6.64390000
2.08880000 -8.82090000 -6.86990000
1.06780000 -8.79860000 -6.85500000
1.12390000 -8.82620000 -7.09140000
0.11860000 -8.77000000 -6.94440000
0.14450000 -8.81280000 -7.16880000
-0.79270000 -8.75050000 -6.89370000
-0.80140000 -8.81880000 -7.11520000
-1.66050000 -8.73930000 -6.73280000
-1.69870000 -8.80170000 -6.95130000
-2.48900000 -8.73950000 -6.46060000
-2.56240000 -8.79030000 -6.68610000
-3.28220000 -8.73150000 -6.09730000
-3.38380000 -8.77990000 -6.31350000
-4.00650000 -8.72210000 -5.63660000
-4.13770000 -8.76080000 -5.83830000
-4.67610000 -8.64850000 -5.10460000
-4.81390000 -8.70510000 -5.26560000
-5.29150000 -8.68570000 -4.50820000
-5.46380000 -8.73300000 -4.65950000
-5.83630000 -8.66270000 -3.83410000
-6.02890000 -8.73920000 -3.96250000
-6.27710000 -8.64960000 -3.10600000
-6.49060000 -8.72480000 -3.20490000
-6.63450000 -8.65340000 -2.33940000
-6.86730000 -8.70720000 -2.41200000
-6.91050000 -8.66100000 -1.52790000
-6.50410000 -8.43690000 -2.30710000
-6.75530000 -8.45850000 -1.50800000
-6.92740000 -8.45550000 -0.66820000
-6.69880000 -8.19530000 -1.51520000
-6.87200000 -8.19790000 -0.67990000
-6.92820000 -8.17300000 0.16540000
-6.98800000 -8.42760000 0.18560000
-6.86020000 -8.13900000 1.00930000
-6.91590000 -8.40220000 1.03970000
-6.68780000 -8.10810000 1.85880000
-6.73760000 -8.37900000 1.89570000
-6.40570000 -8.08290000 2.71210000
-6.44530000 -8.36640000 2.75050000
-6.01340000 -8.07540000 3.53000000
-6.04740000 -8.35590000 3.56970000
-5.51630000 -8.05330000 4.30520000
-5.54420000 -8.32880000 4.34590000
-4.90600000 -8.01060000 5.01690000
-4.93150000 -8.28510000 5.06500000
-4.21170000 -7.97130000 5.62940000
-4.23490000 -8.24930000 5.68530000
-3.44520000 -7.91900000 6.12430000
-3.46380000 -8.21040000 6.18100000
-2.62060000 -7.88920000 6.52930000
-2.63400000 -8.18840000 6.59210000
-1.74120000 -7.91170000 6.85850000
-1.74560000 -8.20100000 6.91190000
-0.81170000 -7.96540000 7.03800000
-0.81530000 -8.23950000 7.08950000
0.14390000 -8.00750000 7.08810000
0.14320000 -8.27780000 7.13020000
1.11950000 -8.02330000 7.01330000
1.12110000 -8.29890000 7.04920000
2.07680000 -8.03910000 6.78510000
2.07540000 -8.31780000 6.80750000
2.96220000 -8.03400000 6.42430000
2.96230000 -8.31820000 6.44830000
3.76640000 -8.02800000 5.93850000
3.76930000 -8.31280000 5.96680000
4.51460000 -8.03580000 5.35080000
4.50680000 -8.32250000 5.36740000
5.19410000 -8.05660000 4.66810000
5.19540000 -8.34330000 4.68890000
5.76780000 -8.08070000 3.93290000
5.76830000 -8.36950000 3.94780000
6.22970000 -8.09030000 3.16320000
6.23960000 -8.38150000 3.17750000
6.58580000 -8.11030000 2.34750000
6.59890000 -8.40570000 2.36350000
6.81000000 -8.15220000 1.47820000
6.82510000 -8.45460000 1.49750000
6.92460000 -8.19350000 0.55660000
6.93760000 -8.49760000 0.57320000
6.89930000 -8.23450000 -0.36570000
6.91690000 -8.53050000 -0.35370000
6.75420000 -8.24510000 -1.26330000
6.78140000 -8.53680000 -1.25700000
6.50350000 -8.24180000 -2.13830000
6.52970000 -8.52900000 -2.13640000
6.13420000 -8.23660000 -2.99590000
6.16740000 -8.52290000 -3.00060000
5.65280000 -8.23770000 -3.81570000
5.67830000 -8.52060000 -3.82010000
5.05530000 -8.26280000 -4.56020000
5.08070000 -8.53300000 -4.56580000
4.36380000 -8.27920000 -5.20200000
4.39350000 -8.53770000 -5.21410000
3.61250000 -8.29480000 -5.74240000
3.64160000 -8.54670000 -5.75710000
2.80310000 -8.30340000 -6.18570000
2.83260000 -8.55720000 -6.21040000
1.93040000 -8.31050000 -6.51110000
1.95880000 -8.56780000 -6.54710000
1.01060000 -8.31200000 -6.71770000
1.03280000 -8.57540000 -6.74650000
0.08070000 -8.31070000 -6.78730000
0.09860000 -8.56010000 -6.82830000
-0.80410000 -8.29320000 -6.73090000
-0.79400000 -8.53970000 -6.77810000
-1.64220000 -8.27650000 -6.56330000
-1.64460000 -8.52360000 -6.62100000
-2.44750000 -8.26360000 -6.29270000
-2.45640000 -8.51920000 -6.34790000
-3.21520000 -8.25470000 -5.92430000
-3.23860000 -8.50860000 -5.99130000
-3.91550000 -8.25070000 -5.47760000
-3.94270000 -8.50350000 -5.53080000
-4.54300000 -8.23170000 -4.94960000
-4.58920000 -8.46720000 -5.00370000
-5.14630000 -8.22510000 -4.39100000
-5.19270000 -8.47800000 -4.42620000
-5.67150000 -8.19160000 -3.73780000
-5.72820000 -8.44430000 -3.76690000
-6.09580000 -8.17410000 -3.03980000
-6.15440000 -8.43230000 -3.05520000
-6.43740000 -8.17960000 -2.29940000
-6.04560000 -7.90770000 -3.02930000
-6.37880000 -7.91410000 -2.29490000
-6.64010000 -7.92100000 -1.52170000
-6.33900000 -7.61830000 -2.30080000
-6.59350000 -7.62460000 -1.53200000
-6.76700000 -7.65400000 -0.71000000
-6.81650000 -7.93580000 -0.69230000
-6.82160000 -7.64750000 0.12430000
-6.87310000 -7.91470000 0.14560000
-6.76990000 -7.58120000 0.95230000
-6.81010000 -7.87000000 0.98060000
-6.59580000 -7.53400000 1.79170000
-6.63960000 -7.83100000 1.82440000
-6.32180000 -7.48420000 2.63070000
-6.36340000 -7.79530000 2.67220000
-5.94920000 -7.47390000 3.44360000
-5.98110000 -7.79570000 3.48970000
-5.46570000 -7.48520000 4.21740000
-5.48990000 -7.77910000 4.26280000
-4.87000000 -7.43400000 4.92830000
-4.88640000 -7.72720000 4.97260000
-4.17960000 -7.36350000 5.52780000
-4.19530000 -7.68600000 5.58110000
-3.42370000 -7.28460000 6.03450000
-3.43150000 -7.61710000 6.07400000
-2.61140000 -7.23430000 6.44240000
-2.61660000 -7.57150000 6.48250000
-1.74370000 -7.28080000 6.77380000
-1.74070000 -7.61500000 6.81330000
-0.81090000 -7.37950000 6.95700000
-0.81090000 -7.68540000 6.99430000
0.14640000 -7.40210000 7.01310000
0.14490000 -7.72840000 7.05340000
1.11670000 -7.42530000 6.92950000
1.11830000 -7.74140000 6.97240000
2.06200000 -7.44080000 6.69990000
2.07090000 -7.76390000 6.74540000
2.94470000 -7.41360000 6.34040000
2.95430000 -7.74070000 6.38500000
3.75140000 -7.40130000 5.85680000
3.75800000 -7.73450000 5.90000000
4.49220000 -7.41000000 5.26720000
4.50680000 -7.74200000 5.31530000
5.15790000 -7.43630000 4.59710000
5.17880000 -7.76030000 4.63560000
5.73330000 -7.45600000 3.88160000
5.75440000 -7.78780000 3.90940000
6.18910000 -7.45420000 3.11640000
6.21270000 -7.79600000 3.14410000
6.52820000 -7.45410000 2.29570000
6.56130000 -7.79180000 2.32510000
6.74940000 -7.48710000 1.42750000
6.78100000 -7.82340000 1.45280000
6.86200000 -7.54290000 0.52290000
6.89550000 -7.88040000 0.53900000
6.84170000 -7.59160000 -0.38380000
6.87360000 -7.92490000 -0.37630000
6.69900000 -7.61960000 -1.27490000
6.72520000 -7.94380000 -1.26930000
6.44250000 -7.63750000 -2.14080000
6.47520000 -7.94700000 -2.14000000
6.06770000 -7.62460000 -2.98830000
6.10230000 -7.94400000 -2.99160000
5.59370000 -7.64710000 -3.80090000
5.62440000 -7.94990000 -3.80850000
4.98900000 -7.68160000 -4.53050000
5.01970000 -7.98090000 -4.54350000
4.30460000 -7.73660000 -5.17710000
4.33380000 -8.01310000 -5.18830000
3.55720000 -7.78100000 -5.71500000
3.58320000 -8.03980000 -5.72610000
2.74440000 -7.77790000 -6.14590000
2.77490000 -8.04580000 -6.16610000
1.87670000 -7.77320000 -6.46310000
1.90400000 -8.04370000 -6.48710000
0.96250000 -7.77260000 -6.65840000
0.98810000 -8.04470000 -6.69280000
0.04500000 -7.78320000 -6.72050000
0.06260000 -8.05350000 -6.75460000
-0.82640000 -7.77200000 -6.65550000
-0.81580000 -8.04150000 -6.69500000
-1.65160000 -7.75280000 -6.47620000
-1.64660000 -8.02190000 -6.51880000
-2.44420000 -7.73440000 -6.20710000
-2.44360000 -8.00130000 -6.24720000
-3.19700000 -7.70440000 -5.84100000
-3.20130000 -7.98890000 -5.87350000
-3.88640000 -7.71410000 -5.41230000
-3.89410000 -7.99670000 -5.43830000
-4.51500000 -7.72140000 -4.91930000
-4.51770000 -7.97940000 -4.92130000
-5.08630000 -7.69310000 -4.35040000
-5.11080000 -7.96320000 -4.36650000
-5.59350000 -7.66430000 -3.71120000
-5.62690000 -7.93060000 -3.72000000
-6.00840000 -7.62950000 -3.02560000
-5.55390000 -7.32910000 -3.70180000
-5.96990000 -7.30530000 -3.02640000
-6.29510000 -7.29840000 -2.30550000
-5.89100000 -6.95870000 -3.00740000
-6.21300000 -6.95230000 -2.29790000
-6.46330000 -6.95460000 -1.54580000
-6.54920000 -7.30820000 -1.54370000
-6.64230000 -6.95270000 -0.75380000
-6.71540000 -7.32010000 -0.73140000
-6.69390000 -6.94780000 0.06630000
-6.77070000 -7.32010000 0.09760000
-6.63920000 -6.89590000 0.88860000
-6.72930000 -7.26630000 0.92400000
-6.45820000 -6.84550000 1.70710000
-6.54900000 -7.19560000 1.75540000
-6.18600000 -6.81260000 2.51870000
-6.28190000 -7.15040000 2.58630000
-5.81110000 -6.79010000 3.30180000
-5.90920000 -7.13330000 3.38990000
-5.34140000 -6.76490000 4.04540000
-5.43570000 -7.12370000 4.15790000
-4.76550000 -6.72820000 4.73190000
-4.84670000 -7.09190000 4.86310000
-4.09100000 -6.65730000 5.33170000
-4.15710000 -7.01950000 5.46050000
-3.33300000 -6.59750000 5.82640000
-3.40680000 -6.92500000 5.98120000
-2.52510000 -6.59170000 6.20160000
-2.59130000 -6.89150000 6.37880000
-1.68610000 -6.60280000 6.48730000
-1.73050000 -6.93000000 6.68810000
-0.78450000 -6.62540000 6.67280000
-0.80710000 -6.99220000 6.88830000
0.14530000 -6.65100000 6.72240000
0.14850000 -7.01570000 6.94750000
1.07960000 -6.66680000 6.64590000
1.10820000 -7.04330000 6.85460000
1.99130000 -6.66810000 6.43400000
2.04420000 -7.04880000 6.62610000
2.84620000 -6.68270000 6.07330000
2.92660000 -7.04070000 6.27220000
3.63510000 -6.67540000 5.60220000
3.73240000 -7.02910000 5.78870000
4.34310000 -6.68190000 5.02110000
4.46180000 -7.03360000 5.19360000
4.96480000 -6.69420000 4.37580000
5.12580000 -7.06540000 4.54400000
5.49310000 -6.70910000 3.67950000
5.68420000 -7.07530000 3.83200000
5.93330000 -6.71220000 2.94370000
6.13210000 -7.08000000 3.06410000
6.25550000 -6.73330000 2.16210000
6.46400000 -7.08300000 2.25260000
6.48010000 -6.75840000 1.34120000
6.68960000 -7.11260000 1.39760000
6.60170000 -6.80170000 0.48900000
6.79870000 -7.17380000 0.50830000
6.62760000 -6.82820000 -0.38390000
6.80320000 -7.22540000 -0.39080000
6.51540000 -6.87110000 -1.25840000
6.64980000 -7.26490000 -1.27580000
6.27470000 -6.90280000 -2.11540000
6.39730000 -7.27810000 -2.14190000
5.90600000 -6.92000000 -2.94090000
6.02050000 -7.28200000 -2.98080000
5.44110000 -6.93480000 -3.73310000
5.55180000 -7.29460000 -3.79060000
4.86260000 -6.97960000 -4.46030000
4.94800000 -7.34250000 -4.51500000
4.20130000 -7.05260000 -5.10810000
4.26790000 -7.41880000 -5.15850000
3.46000000 -7.12420000 -5.64340000
3.52310000 -7.48010000 -5.69740000
2.65110000 -7.13100000 -6.06650000
2.71010000 -7.47670000 -6.12730000
1.79100000 -7.13640000 -6.37540000
1.83760000 -7.45970000 -6.42860000
0.90020000 -7.16590000 -6.55150000
0.93430000 -7.48160000 -6.61850000
0.00940000 -7.18460000 -6.61050000
0.02870000 -7.50110000 -6.68040000
-0.84750000 -7.18820000 -6.55880000
-0.83820000 -7.48920000 -6.61470000
-1.66250000 -7.14550000 -6.37890000
-1.65830000 -7.46610000 -6.43490000
-2.44670000 -7.08200000 -6.11430000
-2.44960000 -7.41460000 -6.17150000
-3.17490000 -7.05350000 -5.75060000
-3.19290000 -7.38860000 -5.80990000
-3.83480000 -7.03390000 -5.31690000
-3.87550000 -7.38860000 -5.38490000
-4.45160000 -7.01340000 -4.84240000
-4.49790000 -7.38680000 -4.89610000
-4.99400000 -6.99900000 -4.28200000
-5.05370000 -7.37090000 -4.32830000
-5.48190000 -6.97200000 -3.67060000
-4.83140000 -6.68950000 -4.14550000
-5.29570000 -6.67480000 -3.56090000
-5.69390000 -6.66920000 -2.92590000
-4.98920000 -6.58350000 -3.36150000
-5.36530000 -6.56720000 -2.76970000
-5.66350000 -6.55350000 -2.12800000
-6.01330000 -6.65750000 -2.24260000
-5.88260000 -6.53910000 -1.44880000
-6.25310000 -6.64450000 -1.51760000
-6.01060000 -6.53190000 -0.73510000
-6.41270000 -6.62340000 -0.75590000
-6.05330000 -6.50830000 0.00730000
-6.45870000 -6.60880000 0.03360000
-6.00660000 -6.49820000 0.75270000
-6.40860000 -6.58130000 0.83130000
-5.85910000 -6.48050000 1.49830000
-6.22900000 -6.56450000 1.62470000
-5.60220000 -6.47220000 2.22680000
-5.95630000 -6.55010000 2.39780000
-5.24920000 -6.46130000 2.92220000
-5.59010000 -6.52920000 3.14360000
-4.80140000 -6.44890000 3.56600000
-5.11730000 -6.51020000 3.83770000
-4.27600000 -6.44510000 4.16740000
-4.55210000 -6.48650000 4.47770000
-3.66690000 -6.44190000 4.70810000
-3.89840000 -6.45690000 5.04710000
-2.98180000 -6.44870000 5.15810000
-3.17440000 -6.45050000 5.52260000
-2.24760000 -6.46790000 5.48140000
-2.39840000 -6.46780000 5.87240000
-1.48880000 -6.48970000 5.67330000
-1.59250000 -6.48810000 6.10750000
-0.69040000 -6.50880000 5.78810000
-0.73930000 -6.49610000 6.24740000
0.12150000 -6.51830000 5.81330000
0.13450000 -6.51480000 6.29560000
0.93290000 -6.51650000 5.74480000
1.00970000 -6.51460000 6.22610000
1.72440000 -6.51000000 5.55260000
1.86720000 -6.51710000 6.01760000
2.47130000 -6.51170000 5.23550000
2.67850000 -6.52230000 5.70030000
3.15860000 -6.51110000 4.82050000
3.41890000 -6.52080000 5.24430000
3.77030000 -6.51710000 4.30680000
4.08060000 -6.53170000 4.68860000
4.30230000 -6.52010000 3.73110000
