0.67140000 -0.77040000 0.05280000
0.63230000 -0.76960000 0.04980000
0.63430000 -0.76960000 -0.00000000
0.63230000 -0.76960000 -0.04980000
0.67140000 -0.77040000 -0.05280000
0.58330000 -0.77040000 -0.04590000
0.57790000 -0.77040000 -0.09150000
0.62640000 -0.76960000 -0.09920000
0.66520000 -0.77040000 -0.10540000
0.46680000 -0.77410000 -0.03670000
0.52720000 -0.77210000 -0.04150000
0.46250000 -0.77410000 -0.07330000
0.52230000 -0.77210000 -0.08270000
0.51420000 -0.77210000 -0.12350000
0.45530000 -0.77410000 -0.10930000
0.56890000 -0.77040000 -0.13660000
0.65490000 -0.77040000 -0.15720000
0.61670000 -0.76960000 -0.14810000
0.21660000 -0.78030000 -0.07040000
0.16830000 -0.78200000 -0.05470000
0.16600000 -0.78180000 -0.06920000
0.21160000 -0.78020000 -0.08790000
0.12230000 -0.78370000 -0.03970000
0.12480000 -0.78340000 -0.05430000
0.13470000 -0.78290000 -0.06870000
0.16280000 -0.78170000 -0.08290000
0.20550000 -0.78020000 -0.10470000
0.07550000 -0.78560000 -0.02450000
0.00000000 -0.78830000 -0.00000000
0.06420000 -0.78560000 -0.04670000
0.08680000 -0.78490000 -0.04420000
0.10400000 -0.78370000 -0.07560000
0.11720000 -0.78340000 -0.06910000
0.18420000 -0.78030000 -0.13390000
0.19550000 -0.78020000 -0.11950000
0.15360000 -0.78180000 -0.09360000
0.14320000 -0.78200000 -0.10400000
0.13650000 -0.78180000 -0.11710000
0.17410000 -0.78020000 -0.14900000
0.10190000 -0.78340000 -0.09020000
0.10690000 -0.78290000 -0.10690000
0.12920000 -0.78170000 -0.12920000
0.16300000 -0.78020000 -0.16300000
0.04670000 -0.78560000 -0.06420000
0.06890000 -0.78490000 -0.06890000
0.07560000 -0.78370000 -0.10400000
0.09020000 -0.78340000 -0.10190000
0.13390000 -0.78030000 -0.18430000
0.14900000 -0.78020000 -0.17410000
0.11710000 -0.78180000 -0.13650000
0.10400000 -0.78200000 -0.14320000
0.09360000 -0.78180000 -0.15360000
0.11950000 -0.78020000 -0.19550000
0.06910000 -0.78340000 -0.11720000
0.06870000 -0.78290000 -0.13470000
0.08290000 -0.78170000 -0.16280000
0.10470000 -0.78020000 -0.20550000
0.02450000 -0.78560000 -0.07550000
0.04420000 -0.78490000 -0.08680000
0.03970000 -0.78370000 -0.12230000
0.05430000 -0.78340000 -0.12480000
0.07040000 -0.78030000 -0.21660000
0.08790000 -0.78020000 -0.21160000
0.06920000 -0.78180000 -0.16600000
0.05470000 -0.78200000 -0.16830000
0.04160000 -0.78180000 -0.17500000
0.05330000 -0.78020000 -0.22290000
0.02940000 -0.78340000 -0.13280000
0.02370000 -0.78290000 -0.14940000
0.02860000 -0.78170000 -0.18040000
0.03610000 -0.78020000 -0.22770000
0.00000000 -0.78560000 -0.07940000
0.01520000 -0.78490000 -0.09630000
0.00000000 -0.78370000 -0.12860000
0.01300000 -0.78340000 -0.13540000
0.00000000 -0.78030000 -0.22770000
0.01820000 -0.78020000 -0.22840000
0.01460000 -0.78180000 -0.17930000
0.00000000 -0.78200000 -0.17700000
-0.01460000 -0.78180000 -0.17930000
-0.01820000 -0.78020000 -0.22840000
-0.01300000 -0.78340000 -0.13540000
-0.02370000 -0.78290000 -0.14940000
-0.02860000 -0.78170000 -0.18040000
-0.03610000 -0.78020000 -0.22770000
-0.02450000 -0.78560000 -0.07550000
-0.01520000 -0.78490000 -0.09630000
-0.03970000 -0.78370000 -0.12230000
-0.02940000 -0.78340000 -0.13280000
-0.07040000 -0.78030000 -0.21660000
-0.05330000 -0.78020000 -0.22290000
-0.04160000 -0.78180000 -0.17500000
-0.05470000 -0.78200000 -0.16830000
-0.06920000 -0.78180000 -0.16600000
-0.08790000 -0.78020000 -0.21160000
-0.05430000 -0.78340000 -0.12480000
-0.06870000 -0.78290000 -0.13470000
-0.08290000 -0.78170000 -0.16280000
-0.10470000 -0.78020000 -0.20550000
-0.04670000 -0.78560000 -0.06420000
-0.04420000 -0.78490000 -0.08680000
-0.07560000 -0.78370000 -0.10400000
-0.06910000 -0.78340000 -0.11720000
-0.13390000 -0.78030000 -0.18430000
-0.11950000 -0.78020000 -0.19550000
-0.09360000 -0.78180000 -0.15360000
-0.10400000 -0.78200000 -0.14320000
-0.11710000 -0.78180000 -0.13650000
-0.14900000 -0.78020000 -0.17410000
-0.09020000 -0.78340000 -0.10190000
-0.10690000 -0.78290000 -0.10690000
-0.12920000 -0.78170000 -0.12920000
-0.16300000 -0.78020000 -0.16300000
-0.06420000 -0.78560000 -0.04670000
-0.06890000 -0.78490000 -0.06890000
-0.10400000 -0.78370000 -0.07560000
-0.10190000 -0.78340000 -0.09020000
-0.18430000 -0.78030000 -0.13390000
-0.17410000 -0.78020000 -0.14900000
-0.13650000 -0.78180000 -0.11710000
-0.14320000 -0.78200000 -0.10400000
-0.15360000 -0.78180000 -0.09360000
-0.19550000 -0.78020000 -0.11950000
-0.11720000 -0.78340000 -0.06910000
-0.13470000 -0.78290000 -0.06870000
-0.16280000 -0.78170000 -0.08290000
-0.20550000 -0.78020000 -0.10470000
-0.07550000 -0.78560000 -0.02450000
-0.08680000 -0.78490000 -0.04420000
-0.12230000 -0.78370000 -0.03970000
-0.12480000 -0.78340000 -0.05430000
-0.21660000 -0.78030000 -0.07040000
-0.21160000 -0.78020000 -0.08790000
-0.16600000 -0.78180000 -0.06920000
-0.16830000 -0.78200000 -0.05470000
-0.17500000 -0.78180000 -0.04160000
-0.22290000 -0.78020000 -0.05330000
-0.13280000 -0.78340000 -0.02940000
-0.14940000 -0.78290000 -0.02370000
-0.18040000 -0.78170000 -0.02860000
-0.22770000 -0.78020000 -0.03610000
-0.07940000 -0.78560000 -0.00000000
-0.09630000 -0.78490000 -0.01520000
-0.12860000 -0.78370000 -0.00000000
-0.13540000 -0.78340000 -0.01300000
-0.22770000 -0.78030000 -0.00000000
-0.22840000 -0.78020000 -0.01820000
-0.17930000 -0.78180000 -0.01460000
-0.17700000 -0.78200000 -0.00000000
-0.17930000 -0.78180000 0.01460000
-0.22840000 -0.78020000 0.01820000
-0.13540000 -0.78340000 0.01300000
-0.14940000 -0.78290000 0.02370000
-0.18040000 -0.78170000 0.02860000
-0.22770000 -0.78020000 0.03610000
-0.07550000 -0.78560000 0.02450000
-0.09630000 -0.78490000 0.01520000
-0.12230000 -0.78370000 0.03970000
-0.13280000 -0.78340000 0.02940000
-0.21660000 -0.78030000 0.07040000
-0.22290000 -0.78020000 0.05330000
-0.17500000 -0.78180000 0.04160000
-0.16830000 -0.78200000 0.05470000
-0.16600000 -0.78180000 0.06920000
-0.21160000 -0.78020000 0.08790000
-0.12480000 -0.78340000 0.05430000
-0.13470000 -0.78290000 0.06870000
-0.16280000 -0.78170000 0.08290000
-0.20550000 -0.78020000 0.10470000
-0.06420000 -0.78560000 0.04670000
-0.08680000 -0.78490000 0.04420000
-0.10400000 -0.78370000 0.07560000
-0.11720000 -0.78340000 0.06910000
-0.18430000 -0.78030000 0.13390000
-0.19550000 -0.78020000 0.11950000
-0.15360000 -0.78180000 0.09360000
-0.14320000 -0.78200000 0.10400000
-0.13650000 -0.78180000 0.11710000
-0.17410000 -0.78020000 0.14900000
-0.10190000 -0.78340000 0.09020000
-0.10690000 -0.78290000 0.10690000
-0.12920000 -0.78170000 0.12920000
-0.16300000 -0.78020000 0.16300000
-0.04670000 -0.78560000 0.06420000
-0.06890000 -0.78490000 0.06890000
-0.07560000 -0.78370000 0.10400000
-0.09020000 -0.78340000 0.10190000
-0.13390000 -0.78030000 0.18420000
-0.14900000 -0.78020000 0.17410000
-0.11710000 -0.78180000 0.13650000
-0.10400000 -0.78200000 0.14320000
-0.09360000 -0.78180000 0.15360000
-0.11950000 -0.78020000 0.19550000
-0.06910000 -0.78340000 0.11720000
-0.06870000 -0.78290000 0.13470000
-0.08290000 -0.78170000 0.16280000
-0.10470000 -0.78020000 0.20550000
-0.02450000 -0.78560000 0.07550000
-0.04420000 -0.78490000 0.08680000
-0.03970000 -0.78370000 0.12230000
-0.05430000 -0.78340000 0.12480000
-0.07040000 -0.78030000 0.21660000
-0.08790000 -0.78020000 0.21160000
-0.06920000 -0.78180000 0.16600000
-0.05470000 -0.78200000 0.16830000
-0.04160000 -0.78180000 0.17500000
-0.05330000 -0.78020000 0.22290000
-0.02940000 -0.78340000 0.13280000
-0.02370000 -0.78290000 0.14940000
-0.02860000 -0.78170000 0.18040000
-0.03610000 -0.78020000 0.22770000
0.00000000 -0.78560000 0.07940000
-0.01520000 -0.78490000 0.09630000
0.00000000 -0.78370000 0.12860000
-0.01300000 -0.78340000 0.13540000
0.00000000 -0.78030000 0.22770000
-0.01820000 -0.78020000 0.22840000
-0.01460000 -0.78180000 0.17930000
0.00000000 -0.78200000 0.17700000
0.01460000 -0.78180000 0.17930000
0.01820000 -0.78020000 0.22840000
0.01300000 -0.78340000 0.13540000
0.02370000 -0.78290000 0.14940000
0.02860000 -0.78170000 0.18040000
0.03610000 -0.78020000 0.22770000
0.02450000 -0.78560000 0.07550000
0.01520000 -0.78490000 0.09630000
0.03970000 -0.78370000 0.12230000
0.02940000 -0.78340000 0.13280000
0.07040000 -0.78030000 0.21660000
0.05330000 -0.78020000 0.22290000
0.04160000 -0.78180000 0.17500000
0.05470000 -0.78200000 0.16830000
0.06920000 -0.78180000 0.16600000
0.08790000 -0.78020000 0.21160000
0.05430000 -0.78340000 0.12480000
0.06870000 -0.78290000 0.13470000
0.08290000 -0.78170000 0.16280000
0.10470000 -0.78020000 0.20550000
0.04670000 -0.78560000 0.06420000
0.04420000 -0.78490000 0.08680000
0.07560000 -0.78370000 0.10400000
0.06910000 -0.78340000 0.11720000
0.13390000 -0.78030000 0.18420000
0.11950000 -0.78020000 0.19550000
0.09360000 -0.78180000 0.15360000
0.10400000 -0.78200000 0.14320000
0.11710000 -0.78180000 0.13650000
0.14900000 -0.78020000 0.17410000
0.09020000 -0.78340000 0.10190000
0.10690000 -0.78290000 0.10690000
0.12920000 -0.78170000 0.12920000
0.16300000 -0.78020000 0.16300000
0.06420000 -0.78560000 0.04670000
0.06890000 -0.78490000 0.06890000
0.10400000 -0.78370000 0.07560000
0.10190000 -0.78340000 0.09020000
0.18420000 -0.78030000 0.13390000
0.17410000 -0.78020000 0.14900000
0.13650000 -0.78180000 0.11710000
0.14320000 -0.78200000 0.10400000
0.15360000 -0.78180000 0.09360000
0.19550000 -0.78020000 0.11950000
0.11720000 -0.78340000 0.06910000
0.13470000 -0.78290000 0.06870000
0.16280000 -0.78170000 0.08290000
0.20550000 -0.78020000 0.10470000
0.07550000 -0.78560000 0.02450000
0.08680000 -0.78490000 0.04420000
0.12230000 -0.78370000 0.03970000
0.12480000 -0.78340000 0.05430000
0.21660000 -0.78030000 0.07040000
0.21160000 -0.78020000 0.08790000
0.16600000 -0.78180000 0.06920000
0.16830000 -0.78200000 0.05470000
0.17500000 -0.78180000 0.04160000
0.22290000 -0.78020000 0.05330000
0.13280000 -0.78340000 0.02940000
0.14940000 -0.78290000 0.02370000
0.18040000 -0.78170000 0.02860000
0.22770000 -0.78020000 0.03610000
0.07940000 -0.78560000 -0.00000000
0.09630000 -0.78490000 0.01520000
0.12860000 -0.78370000 -0.00000000
0.13540000 -0.78340000 0.01300000
0.22770000 -0.78030000 -0.00000000
0.22840000 -0.78020000 0.01820000
0.17930000 -0.78180000 0.01460000
0.17700000 -0.78200000 -0.00000000
0.17930000 -0.78180000 -0.01460000
0.22840000 -0.78020000 -0.01820000
0.13540000 -0.78340000 -0.01300000
0.14940000 -0.78290000 -0.02370000
0.18040000 -0.78170000 -0.02860000
0.22770000 -0.78020000 -0.03610000
0.09630000 -0.78490000 -0.01520000
0.13280000 -0.78340000 -0.02940000
0.22290000 -0.78020000 -0.05330000
0.17500000 -0.78180000 -0.04160000
-0.38620000 -0.77580000 0.12550000
-0.37510000 -0.77580000 0.15540000
-0.32720000 -0.77730000 0.10630000
-0.31800000 -0.77730000 0.13170000
-0.30680000 -0.77730000 0.15630000
-0.36180000 -0.77580000 0.18430000
-0.27010000 -0.77880000 0.08780000
-0.26290000 -0.77870000 0.10900000
-0.25410000 -0.77870000 0.12950000
-0.22980000 -0.77880000 0.16690000
-0.24270000 -0.77870000 0.14860000
-0.27840000 -0.77730000 0.20220000
-0.29350000 -0.77730000 0.17980000
-0.34620000 -0.77580000 0.21220000
-0.32850000 -0.77580000 0.23870000
-0.30880000 -0.77580000 0.26370000
-0.26170000 -0.77730000 0.22360000
-0.24350000 -0.77730000 0.24350000
-0.28710000 -0.77580000 0.28710000
-0.21630000 -0.77870000 0.18490000
-0.20160000 -0.77870000 0.20160000
-0.16690000 -0.77880000 0.22980000
-0.18490000 -0.77870000 0.21630000
-0.20220000 -0.77730000 0.27840000
-0.22360000 -0.77730000 0.26170000
-0.26370000 -0.77580000 0.30880000
-0.23870000 -0.77580000 0.32850000
-0.21220000 -0.77580000 0.34620000
-0.17980000 -0.77730000 0.29350000
-0.15630000 -0.77730000 0.30680000
-0.18430000 -0.77580000 0.36180000
-0.14860000 -0.77870000 0.24270000
-0.12950000 -0.77870000 0.25410000
-0.08780000 -0.77880000 0.27010000
-0.10900000 -0.77870000 0.26290000
-0.10630000 -0.77730000 0.32720000
-0.13170000 -0.77730000 0.31800000
-0.15540000 -0.77580000 0.37510000
-0.12550000 -0.77580000 0.38620000
-0.09480000 -0.77580000 0.39480000
-0.08030000 -0.77730000 0.33470000
-0.05390000 -0.77730000 0.34010000
-0.06350000 -0.77580000 0.40110000
-0.06640000 -0.77870000 0.27670000
-0.04460000 -0.77870000 0.28160000
0.00000000 -0.77880000 0.28400000
-0.02240000 -0.77870000 0.28370000
0.00000000 -0.77730000 0.34410000
-0.02700000 -0.77730000 0.34310000
-0.03190000 -0.77580000 0.40480000
0.00000000 -0.77580000 0.40610000
0.03190000 -0.77580000 0.40480000
0.02700000 -0.77730000 0.34310000
0.05390000 -0.77730000 0.34010000
0.06350000 -0.77580000 0.40110000
0.02240000 -0.77870000 0.28370000
0.04460000 -0.77870000 0.28160000
0.08780000 -0.77880000 0.27010000
0.06640000 -0.77870000 0.27670000
0.10630000 -0.77730000 0.32720000
0.08030000 -0.77730000 0.33470000
0.09480000 -0.77580000 0.39480000
0.12550000 -0.77580000 0.38620000
0.15540000 -0.77580000 0.37510000
0.13170000 -0.77730000 0.31800000
0.15630000 -0.77730000 0.30680000
0.18430000 -0.77580000 0.36180000
0.10900000 -0.77870000 0.26290000
0.12950000 -0.77870000 0.25410000
0.16690000 -0.77880000 0.22980000
0.14860000 -0.77870000 0.24270000
0.20220000 -0.77730000 0.27840000
0.17980000 -0.77730000 0.29350000
0.21220000 -0.77580000 0.34620000
0.23870000 -0.77580000 0.32850000
0.26370000 -0.77580000 0.30880000
0.22360000 -0.77730000 0.26170000
0.24350000 -0.77730000 0.24350000
0.28710000 -0.77580000 0.28710000
0.18490000 -0.77870000 0.21630000
0.20160000 -0.77870000 0.20160000
0.22980000 -0.77880000 0.16690000
0.21630000 -0.77870000 0.18490000
0.27840000 -0.77730000 0.20220000
0.26170000 -0.77730000 0.22360000
0.30880000 -0.77580000 0.26370000
0.32850000 -0.77580000 0.23870000
0.34620000 -0.77580000 0.21220000
0.29350000 -0.77730000 0.17980000
0.30680000 -0.77730000 0.15630000
0.36180000 -0.77580000 0.18430000
0.24270000 -0.77870000 0.14860000
0.25410000 -0.77870000 0.12950000
0.27010000 -0.77880000 0.08780000
0.26290000 -0.77870000 0.10900000
0.32720000 -0.77730000 0.10630000
0.31800000 -0.77730000 0.13170000
0.37510000 -0.77580000 0.15540000
0.38620000 -0.77580000 0.12550000
0.39480000 -0.77580000 0.09480000
0.33470000 -0.77730000 0.08030000
0.34010000 -0.77730000 0.05390000
0.40110000 -0.77580000 0.06350000
0.27670000 -0.77870000 0.06640000
0.28160000 -0.77870000 0.04460000
0.28400000 -0.77880000 -0.00000000
0.28370000 -0.77870000 0.02240000
0.34410000 -0.77730000 -0.00000000
0.34310000 -0.77730000 0.02700000
0.40480000 -0.77580000 0.03190000
0.40610000 -0.77580000 -0.00000000
0.40480000 -0.77580000 -0.03190000
0.34310000 -0.77730000 -0.02700000
0.34010000 -0.77730000 -0.05390000
0.40110000 -0.77580000 -0.06350000
0.28370000 -0.77870000 -0.02240000
0.28160000 -0.77870000 -0.04460000
0.27010000 -0.77880000 -0.08780000
0.27670000 -0.77870000 -0.06640000
0.32720000 -0.77730000 -0.10630000
0.33470000 -0.77730000 -0.08030000
0.39480000 -0.77580000 -0.09480000
0.38620000 -0.77580000 -0.12550000
0.37520000 -0.77580000 -0.15540000
0.31800000 -0.77730000 -0.13170000
0.30680000 -0.77730000 -0.15630000
0.36180000 -0.77580000 -0.18430000
0.26290000 -0.77870000 -0.10900000
0.25410000 -0.77870000 -0.12950000
0.22980000 -0.77880000 -0.16690000
0.24270000 -0.77870000 -0.14860000
0.27840000 -0.77730000 -0.20220000
0.29350000 -0.77730000 -0.17980000
0.34620000 -0.77580000 -0.21220000
0.32850000 -0.77580000 -0.23870000
0.30880000 -0.77580000 -0.26370000
0.26170000 -0.77730000 -0.22360000
0.24350000 -0.77730000 -0.24350000
0.28710000 -0.77580000 -0.28710000
0.21630000 -0.77870000 -0.18490000
0.20160000 -0.77870000 -0.20160000
0.16690000 -0.77880000 -0.22980000
0.18490000 -0.77870000 -0.21630000
0.20220000 -0.77730000 -0.27840000
0.22360000 -0.77730000 -0.26170000
0.26370000 -0.77580000 -0.30880000
0.23870000 -0.77580000 -0.32850000
0.21220000 -0.77580000 -0.34620000
0.17980000 -0.77730000 -0.29350000
0.15630000 -0.77730000 -0.30680000
0.18430000 -0.77580000 -0.36180000
0.14860000 -0.77870000 -0.24270000
0.12950000 -0.77870000 -0.25410000
0.08780000 -0.77880000 -0.27010000
0.10900000 -0.77870000 -0.26290000
0.10630000 -0.77730000 -0.32720000
0.13170000 -0.77730000 -0.31800000
0.15540000 -0.77580000 -0.37520000
0.12550000 -0.77580000 -0.38620000
0.09480000 -0.77580000 -0.39480000
0.08030000 -0.77730000 -0.33470000
0.05390000 -0.77730000 -0.34010000
0.06350000 -0.77580000 -0.40110000
0.06640000 -0.77870000 -0.27670000
0.04460000 -0.77870000 -0.28160000
0.00000000 -0.77880000 -0.28400000
0.02240000 -0.77870000 -0.28370000
0.00000000 -0.77730000 -0.34410000
0.02700000 -0.77730000 -0.34310000
0.03190000 -0.77580000 -0.40480000
0.00000000 -0.77580000 -0.40610000
-0.03190000 -0.77580000 -0.40480000
-0.02700000 -0.77730000 -0.34310000
-0.05390000 -0.77730000 -0.34010000
-0.06350000 -0.77580000 -0.40110000
-0.02240000 -0.77870000 -0.28370000
-0.04460000 -0.77870000 -0.28160000
-0.08780000 -0.77880000 -0.27010000
-0.06640000 -0.77870000 -0.27670000
-0.10630000 -0.77730000 -0.32720000
-0.08030000 -0.77730000 -0.33470000
-0.09480000 -0.77580000 -0.39480000
-0.12550000 -0.77580000 -0.38620000
-0.15540000 -0.77580000 -0.37520000
-0.13170000 -0.77730000 -0.31800000
-0.15630000 -0.77730000 -0.30680000
-0.18430000 -0.77580000 -0.36180000
-0.10900000 -0.77870000 -0.26290000
-0.12950000 -0.77870000 -0.25410000
-0.16690000 -0.77880000 -0.22980000
-0.14860000 -0.77870000 -0.24270000
-0.20220000 -0.77730000 -0.27840000
-0.17980000 -0.77730000 -0.29350000
-0.21220000 -0.77580000 -0.34620000
-0.23870000 -0.77580000 -0.32850000
-0.26370000 -0.77580000 -0.30880000
-0.22360000 -0.77730000 -0.26170000
-0.24350000 -0.77730000 -0.24350000
-0.28710000 -0.77580000 -0.28710000
-0.18490000 -0.77870000 -0.21630000
-0.20160000 -0.77870000 -0.20160000
-0.22980000 -0.77880000 -0.16690000
-0.21630000 -0.77870000 -0.18490000
-0.27840000 -0.77730000 -0.20220000
-0.26170000 -0.77730000 -0.22360000
-0.30880000 -0.77580000 -0.26370000
-0.32850000 -0.77580000 -0.23870000
-0.34620000 -0.77580000 -0.21220000
-0.29350000 -0.77730000 -0.17980000
-0.30680000 -0.77730000 -0.15630000
-0.36180000 -0.77580000 -0.18430000
-0.24270000 -0.77870000 -0.14860000
-0.25410000 -0.77870000 -0.12950000
-0.27010000 -0.77880000 -0.08780000
-0.26290000 -0.77870000 -0.10900000
-0.32720000 -0.77730000 -0.10630000
-0.31800000 -0.77730000 -0.13170000
-0.37510000 -0.77580000 -0.15540000
-0.38620000 -0.77580000 -0.12550000
-0.39480000 -0.77580000 -0.09480000
-0.33470000 -0.77730000 -0.08030000
-0.34010000 -0.77730000 -0.05390000
-0.40110000 -0.77580000 -0.06350000
-0.27670000 -0.77870000 -0.06640000
-0.28160000 -0.77870000 -0.04460000
-0.28400000 -0.77880000 -0.00000000
-0.28370000 -0.77870000 -0.02240000
-0.34410000 -0.77730000 -0.00000000
-0.34310000 -0.77730000 -0.02700000
-0.40480000 -0.77580000 -0.03190000
-0.40610000 -0.77580000 -0.00000000
-0.40480000 -0.77580000 0.03190000
-0.34310000 -0.77730000 0.02700000
-0.34010000 -0.77730000 0.05390000
-0.40110000 -0.77580000 0.06350000
-0.28370000 -0.77870000 0.02240000
-0.28160000 -0.77870000 0.04460000
-0.27670000 -0.77870000 0.06640000
-0.33470000 -0.77730000 0.08030000
-0.39480000 -0.77580000 0.09480000
1.84850000 0.99980000 -1.34300000
1.94820000 0.99980000 -1.19380000
1.84630000 1.01390000 -1.34140000
1.94580000 1.01390000 -1.19240000
2.03330000 1.01390000 -1.03600000
2.03580000 0.99980000 -1.03730000
1.83520000 1.02290000 -1.33330000
1.93410000 1.02290000 -1.18520000
1.94060000 1.02100000 -1.18920000
1.84140000 1.02100000 -1.33790000
2.02110000 1.02290000 -1.02980000
2.02790000 1.02100000 -1.03330000
2.15740000 1.02290000 -0.70100000
2.16470000 1.02100000 -0.70340000
2.10280000 1.02100000 -0.87100000
2.09570000 1.02290000 -0.86810000
2.17040000 1.01390000 -0.70520000
2.10840000 1.01390000 -0.87330000
2.11090000 0.99980000 -0.87440000
2.17310000 0.99980000 -0.70610000
1.34300000 0.99980000 -1.84850000
1.48390000 0.99980000 -1.73740000
1.34140000 1.01390000 -1.84630000
1.48210000 1.01390000 -1.73530000
1.61370000 1.01390000 -1.61370000
1.61560000 0.99980000 -1.61560000
1.33330000 1.02290000 -1.83520000
1.47320000 1.02290000 -1.72490000
1.47820000 1.02100000 -1.73070000
1.33790000 1.02100000 -1.84140000
1.60400000 1.02290000 -1.60400000
1.60940000 1.02100000 -1.60940000
1.73070000 1.02100000 -1.47820000
1.72490000 1.02290000 -1.47320000
1.73530000 1.01390000 -1.48210000
1.73740000 0.99980000 -1.48390000
0.70610000 0.99980000 -2.17310000
0.87440000 0.99980000 -2.11090000
0.70520000 1.01390000 -2.17040000
0.87330000 1.01390000 -2.10840000
1.03600000 1.01390000 -2.03330000
1.03730000 0.99980000 -2.03580000
0.70100000 1.02290000 -2.15740000
0.86810000 1.02290000 -2.09570000
0.87100000 1.02100000 -2.10280000
0.70340000 1.02100000 -2.16470000
1.02980000 1.02290000 -2.02110000
1.03330000 1.02100000 -2.02790000
1.18920000 1.02100000 -1.94060000
1.18520000 1.02290000 -1.93410000
1.19240000 1.01390000 -1.94580000
1.19380000 0.99980000 -1.94820000
0.00000000 0.99980000 -2.28490000
0.17930000 0.99980000 -2.27780000
0.00000000 1.01390000 -2.28210000
0.17900000 1.01390000 -2.27500000
0.35700000 1.01390000 -2.25400000
0.35740000 0.99980000 -2.25670000
0.00000000 1.02290000 -2.26840000
0.17800000 1.02290000 -2.26140000
0.17860000 1.02100000 -2.26900000
0.00000000 1.02100000 -2.27610000
0.35480000 1.02290000 -2.24040000
0.35600000 1.02100000 -2.24800000
0.53130000 1.02100000 -2.21320000
0.52950000 1.02290000 -2.20570000
0.53270000 1.01390000 -2.21900000
0.53340000 0.99980000 -2.22170000
-0.70610000 0.99980000 -2.17310000
-0.53340000 0.99980000 -2.22170000
-0.70520000 1.01390000 -2.17040000
-0.53270000 1.01390000 -2.21900000
-0.35700000 1.01390000 -2.25400000
-0.35740000 0.99980000 -2.25670000
-0.70100000 1.02290000 -2.15740000
-0.52950000 1.02290000 -2.20570000
-0.53130000 1.02100000 -2.21320000
-0.70340000 1.02100000 -2.16470000
-0.35480000 1.02290000 -2.24040000
-0.35600000 1.02100000 -2.24800000
-0.17860000 1.02100000 -2.26900000
-0.17800000 1.02290000 -2.26140000
-0.17900000 1.01390000 -2.27500000
-0.17930000 0.99980000 -2.27780000
-1.34300000 0.99980000 -1.84850000
-1.19380000 0.99980000 -1.94820000
-1.34140000 1.01390000 -1.84630000
-1.19240000 1.01390000 -1.94580000
-1.03600000 1.01390000 -2.03330000
-1.03730000 0.99980000 -2.03580000
-1.33330000 1.02290000 -1.83520000
-1.18520000 1.02290000 -1.93410000
-1.18920000 1.02100000 -1.94060000
-1.33790000 1.02100000 -1.84140000
-1.02980000 1.02290000 -2.02110000
-1.03330000 1.02100000 -2.02790000
-0.87100000 1.02100000 -2.10280000
-0.86810000 1.02290000 -2.09570000
-0.87330000 1.01390000 -2.10840000
-0.87440000 0.99980000 -2.11090000
-1.84850000 0.99980000 -1.34300000
-1.73740000 0.99980000 -1.48390000
-1.84630000 1.01390000 -1.34140000
-1.73530000 1.01390000 -1.48210000
-1.61370000 1.01390000 -1.61370000
-1.61560000 0.99980000 -1.61560000
-1.83520000 1.02290000 -1.33330000
-1.72490000 1.02290000 -1.47320000
-1.73070000 1.02100000 -1.47820000
-1.84140000 1.02100000 -1.33790000
-1.60400000 1.02290000 -1.60400000
-1.60940000 1.02100000 -1.60940000
-1.47820000 1.02100000 -1.73070000
-1.47320000 1.02290000 -1.72490000
-1.48210000 1.01390000 -1.73530000
-1.48390000 0.99980000 -1.73740000
-2.17310000 0.99980000 -0.70610000
-2.11090000 0.99980000 -0.87440000
-2.17040000 1.01390000 -0.70520000
-2.10840000 1.01390000 -0.87330000
-2.03330000 1.01390000 -1.03600000
-2.03580000 0.99980000 -1.03730000
-2.15740000 1.02290000 -0.70100000
-2.09570000 1.02290000 -0.86810000
-2.10280000 1.02100000 -0.87100000
-2.16470000 1.02100000 -0.70340000
-2.02110000 1.02290000 -1.02980000
-2.02790000 1.02100000 -1.03330000
-1.94060000 1.02100000 -1.18920000
-1.93410000 1.02290000 -1.18520000
-1.94580000 1.01390000 -1.19240000
-1.94820000 0.99980000 -1.19380000
-2.28490000 0.99980000 -0.00000000
-2.27780000 0.99980000 -0.17930000
-2.28210000 1.01390000 -0.00000000
-2.27500000 1.01390000 -0.17900000
-2.25400000 1.01390000 -0.35700000
-2.25670000 0.99980000 -0.35740000
-2.26840000 1.02290000 -0.00000000
-2.26140000 1.02290000 -0.17800000
-2.26900000 1.02100000 -0.17860000
-2.27610000 1.02100000 -0.00000000
-2.24040000 1.02290000 -0.35480000
-2.24800000 1.02100000 -0.35600000
-2.21320000 1.02100000 -0.53130000
-2.20570000 1.02290000 -0.52950000
-2.21900000 1.01390000 -0.53270000
-2.22170000 0.99980000 -0.53340000
-2.17310000 0.99980000 0.70610000
-2.22170000 0.99980000 0.53340000
-2.17040000 1.01390000 0.70520000
-2.21900000 1.01390000 0.53270000
-2.25400000 1.01390000 0.35700000
-2.25670000 0.99980000 0.35740000
-2.15740000 1.02290000 0.70100000
-2.20570000 1.02290000 0.52950000
-2.21320000 1.02100000 0.53130000
-2.16470000 1.02100000 0.70340000
-2.24040000 1.02290000 0.35480000
-2.24800000 1.02100000 0.35600000
-2.26900000 1.02100000 0.17860000
-2.26140000 1.02290000 0.17800000
-2.27500000 1.01390000 0.17900000
-2.27780000 0.99980000 0.17930000
-1.84850000 0.99980000 1.34300000
-1.94820000 0.99980000 1.19380000
-1.84630000 1.01390000 1.34140000
-1.94580000 1.01390000 1.19240000
-2.03330000 1.01390000 1.03600000
-2.03580000 0.99980000 1.03730000
-1.83520000 1.02290000 1.33330000
-1.93410000 1.02290000 1.18520000
-1.94060000 1.02100000 1.18920000
-1.84140000 1.02100000 1.33790000
-2.02110000 1.02290000 1.02980000
-2.02790000 1.02100000 1.03330000
-2.10280000 1.02100000 0.87100000
-2.09570000 1.02290000 0.86810000
-2.10840000 1.01390000 0.87330000
-2.11090000 0.99980000 0.87440000
-1.34300000 0.99980000 1.84850000
-1.48390000 0.99980000 1.73740000
-1.34140000 1.01390000 1.84630000
-1.48210000 1.01390000 1.73530000
-1.61370000 1.01390000 1.61370000
-1.61560000 0.99980000 1.61560000
-1.33330000 1.02290000 1.83520000
-1.47320000 1.02290000 1.72490000
-1.47820000 1.02100000 1.73070000
-1.33790000 1.02100000 1.84140000
-1.60400000 1.02290000 1.60400000
-1.60940000 1.02100000 1.60940000
-1.73070000 1.02100000 1.47820000
-1.72490000 1.02290000 1.47320000
-1.73530000 1.01390000 1.48210000
-1.73740000 0.99980000 1.48390000
-0.70610000 0.99980000 2.17310000
-0.87440000 0.99980000 2.11090000
-0.70520000 1.01390000 2.17040000
-0.87330000 1.01390000 2.10840000
-1.03600000 1.01390000 2.03330000
-1.03730000 0.99980000 2.03580000
-0.70100000 1.02290000 2.15740000
-0.86810000 1.02290000 2.09570000
-0.87100000 1.02100000 2.10280000
-0.70340000 1.02100000 2.16470000
-1.02980000 1.02290000 2.02110000
-1.03330000 1.02100000 2.02790000
-1.18920000 1.02100000 1.94060000
-1.18520000 1.02290000 1.93410000
-1.19240000 1.01390000 1.94580000
-1.19380000 0.99980000 1.94820000
0.00000000 0.99980000 2.28490000
-0.17930000 0.99980000 2.27780000
0.00000000 1.01390000 2.28210000
-0.17900000 1.01390000 2.27500000
-0.35700000 1.01390000 2.25400000
-0.35740000 0.99980000 2.25670000
0.00000000 1.02290000 2.26840000
-0.17800000 1.02290000 2.26140000
-0.17860000 1.02100000 2.26900000
0.00000000 1.02100000 2.27610000
-0.35480000 1.02290000 2.24040000
-0.35600000 1.02100000 2.24800000
-0.53130000 1.02100000 2.21320000
-0.52950000 1.02290000 2.20570000
-0.53270000 1.01390000 2.21900000
-0.53340000 0.99980000 2.22170000
0.70610000 0.99980000 2.17310000
0.53340000 0.99980000 2.22170000
0.70520000 1.01390000 2.17040000
0.53270000 1.01390000 2.21900000
0.35700000 1.01390000 2.25400000
0.35740000 0.99980000 2.25670000
0.70100000 1.02290000 2.15740000
0.52950000 1.02290000 2.20570000
0.53130000 1.02100000 2.21320000
0.70340000 1.02100000 2.16470000
0.35480000 1.02290000 2.24040000
0.35600000 1.02100000 2.24800000
0.17860000 1.02100000 2.26900000
0.17800000 1.02290000 2.26140000
0.17900000 1.01390000 2.27500000
0.17930000 0.99980000 2.27780000
1.34300000 0.99980000 1.84850000
1.19380000 0.99980000 1.94820000
1.34140000 1.01390000 1.84630000
1.19240000 1.01390000 1.94580000
1.03600000 1.01390000 2.03330000
1.03730000 0.99980000 2.03580000
1.33330000 1.02290000 1.83520000
1.18520000 1.02290000 1.93410000
1.18920000 1.02100000 1.94060000
1.33790000 1.02100000 1.84140000
1.02980000 1.02290000 2.02110000
1.03330000 1.02100000 2.02790000
0.87100000 1.02100000 2.10280000
0.86810000 1.02290000 2.09570000
0.87330000 1.01390000 2.10840000
0.87440000 0.99980000 2.11090000
1.84850000 0.99980000 1.34300000
1.73740000 0.99980000 1.48390000
1.84630000 1.01390000 1.34140000
1.73530000 1.01390000 1.48210000
1.61370000 1.01390000 1.61370000
1.61560000 0.99980000 1.61560000
1.83520000 1.02290000 1.33330000
1.72490000 1.02290000 1.47320000
1.73070000 1.02100000 1.47820000
1.84140000 1.02100000 1.33790000
1.60400000 1.02290000 1.60400000
1.60940000 1.02100000 1.60940000
1.47820000 1.02100000 1.73070000
1.47320000 1.02290000 1.72490000
1.48210000 1.01390000 1.73530000
1.48390000 0.99980000 1.73740000
2.17310000 0.99980000 0.70610000
2.11090000 0.99980000 0.87440000
2.17040000 1.01390000 0.70520000
2.10840000 1.01390000 0.87330000
2.03330000 1.01390000 1.03600000
2.03580000 0.99980000 1.03730000
2.15740000 1.02290000 0.70100000
2.09570000 1.02290000 0.86810000
2.10280000 1.02100000 0.87100000
2.16470000 1.02100000 0.70340000
2.02110000 1.02290000 1.02980000
2.02790000 1.02100000 1.03330000
1.94060000 1.02100000 1.18920000
1.93410000 1.02290000 1.18520000
1.94580000 1.01390000 1.19240000
1.94820000 0.99980000 1.19380000
2.28490000 0.99980000 -0.00000000
2.27780000 0.99980000 0.17930000
2.28210000 1.01390000 -0.00000000
2.27500000 1.01390000 0.17900000
2.25400000 1.01390000 0.35700000
2.25670000 0.99980000 0.35740000
2.26840000 1.02290000 -0.00000000
2.26140000 1.02290000 0.17800000
2.26900000 1.02100000 0.17860000
2.27610000 1.02100000 -0.00000000
2.24040000 1.02290000 0.35480000
2.24800000 1.02100000 0.35600000
2.21320000 1.02100000 0.53130000
2.20570000 1.02290000 0.52950000
2.21900000 1.01390000 0.53270000
2.22170000 0.99980000 0.53340000
2.22170000 0.99980000 -0.53340000
2.21900000 1.01390000 -0.53270000
2.25400000 1.01390000 -0.35700000
2.25670000 0.99980000 -0.35740000
2.20570000 1.02290000 -0.52950000
2.21320000 1.02100000 -0.53130000
2.24040000 1.02290000 -0.35480000
2.24800000 1.02100000 -0.35600000
2.26900000 1.02100000 -0.17860000
2.26140000 1.02290000 -0.17800000
2.27500000 1.01390000 -0.17900000
2.27780000 0.99980000 -0.17930000
1.80520000 0.97990000 -1.31160000
1.79390000 0.95010000 -1.30340000
1.89060000 0.95010000 -1.15860000
1.90250000 0.97990000 -1.16590000
1.78090000 0.91300000 -1.29390000
1.87690000 0.91300000 -1.15020000
1.96140000 0.91300000 -0.99940000
1.97560000 0.95010000 -1.00660000
1.98810000 0.97990000 -1.01300000
1.75160000 0.82430000 -1.27260000
1.84600000 0.82430000 -1.13120000
1.86190000 0.87040000 -1.14100000
1.76670000 0.87040000 -1.28360000
1.92900000 0.82430000 -0.98290000
1.94570000 0.87040000 -0.99140000
2.05910000 0.82430000 -0.66910000
2.07690000 0.87040000 -0.67480000
2.01750000 0.87040000 -0.83570000
2.00020000 0.82430000 -0.82850000
2.09360000 0.91300000 -0.68030000
2.03370000 0.91300000 -0.84240000
2.12220000 0.97990000 -0.68950000
2.06150000 0.97990000 -0.85390000
2.04860000 0.95010000 -0.84850000
2.10890000 0.95010000 -0.68520000
1.31160000 0.97990000 -1.80520000
1.30340000 0.95010000 -1.79390000
1.44010000 0.95010000 -1.68610000
1.44910000 0.97990000 -1.69670000
1.29390000 0.91300000 -1.78090000
1.42960000 0.91300000 -1.67390000
1.55650000 0.91300000 -1.55650000
1.56790000 0.95010000 -1.56790000
1.57780000 0.97990000 -1.57780000
1.27260000 0.82430000 -1.75160000
1.40610000 0.82430000 -1.64630000
1.41820000 0.87040000 -1.66050000
1.28360000 0.87040000 -1.76670000
1.53090000 0.82430000 -1.53090000
1.54410000 0.87040000 -1.54410000
1.66050000 0.87040000 -1.41820000
1.64630000 0.82430000 -1.40610000
1.67390000 0.91300000 -1.42960000
1.69670000 0.97990000 -1.44910000
1.68610000 0.95010000 -1.44010000
0.68950000 0.97990000 -2.12220000
0.68520000 0.95010000 -2.10890000
0.84850000 0.95010000 -2.04860000
0.85390000 0.97990000 -2.06150000
0.68030000 0.91300000 -2.09360000
0.84240000 0.91300000 -2.03370000
0.99940000 0.91300000 -1.96140000
1.00660000 0.95010000 -1.97560000
1.01300000 0.97990000 -1.98810000
0.66910000 0.82430000 -2.05910000
0.82850000 0.82430000 -2.00020000
0.83570000 0.87040000 -2.01750000
0.67480000 0.87040000 -2.07690000
0.98290000 0.82430000 -1.92900000
0.99140000 0.87040000 -1.94570000
1.14100000 0.87040000 -1.86190000
1.13120000 0.82430000 -1.84600000
1.15020000 0.91300000 -1.87690000
1.16590000 0.97990000 -1.90250000
1.15860000 0.95010000 -1.89060000
0.00000000 0.97990000 -2.23140000
0.00000000 0.95010000 -2.21740000
0.17400000 0.95010000 -2.21050000
0.17510000 0.97990000 -2.22450000
0.00000000 0.91300000 -2.20140000
0.17270000 0.91300000 -2.19450000
0.34440000 0.91300000 -2.17420000
0.34690000 0.95010000 -2.19000000
0.34910000 0.97990000 -2.20390000
0.00000000 0.82430000 -2.16510000
0.16990000 0.82430000 -2.15840000
0.17130000 0.87040000 -2.17700000
0.00000000 0.87040000 -2.18380000
0.33870000 0.82430000 -2.13840000
0.34160000 0.87040000 -2.15680000
0.50980000 0.87040000 -2.12340000
0.50540000 0.82430000 -2.10520000
0.51390000 0.91300000 -2.14050000
0.52090000 0.97990000 -2.16970000
0.51760000 0.95010000 -2.15610000
-0.68950000 0.97990000 -2.12220000
-0.68520000 0.95010000 -2.10890000
-0.51760000 0.95010000 -2.15610000
-0.52090000 0.97990000 -2.16970000
-0.68030000 0.91300000 -2.09360000
-0.51390000 0.91300000 -2.14050000
-0.34440000 0.91300000 -2.17420000
-0.34690000 0.95010000 -2.19000000
-0.34910000 0.97990000 -2.20390000
-0.66910000 0.82430000 -2.05910000
-0.50540000 0.82430000 -2.10520000
-0.50980000 0.87040000 -2.12340000
-0.67480000 0.87040000 -2.07690000
-0.33870000 0.82430000 -2.13840000
-0.34160000 0.87040000 -2.15680000
-0.17130000 0.87040000 -2.17700000
-0.16990000 0.82430000 -2.15840000
-0.17270000 0.91300000 -2.19450000
-0.17510000 0.97990000 -2.22450000
-0.17400000 0.95010000 -2.21050000
-1.31160000 0.97990000 -1.80520000
-1.30340000 0.95010000 -1.79390000
-1.15860000 0.95010000 -1.89060000
-1.16590000 0.97990000 -1.90250000
-1.29390000 0.91300000 -1.78090000
-1.15020000 0.91300000 -1.87690000
-0.99940000 0.91300000 -1.96140000
-1.00660000 0.95010000 -1.97560000
-1.01300000 0.97990000 -1.98810000
-1.27260000 0.82430000 -1.75160000
-1.13120000 0.82430000 -1.84600000
-1.14100000 0.87040000 -1.86190000
-1.28360000 0.87040000 -1.76670000
-0.98290000 0.82430000 -1.92900000
-0.99140000 0.87040000 -1.94570000
-0.83570000 0.87040000 -2.01750000
-0.82850000 0.82430000 -2.00020000
-0.84240000 0.91300000 -2.03370000
-0.85390000 0.97990000 -2.06150000
-0.84850000 0.95010000 -2.04860000
-1.80520000 0.97990000 -1.31160000
-1.79390000 0.95010000 -1.30340000
-1.68610000 0.95010000 -1.44010000
-1.69670000 0.97990000 -1.44910000
-1.78090000 0.91300000 -1.29390000
-1.67390000 0.91300000 -1.42960000
-1.55650000 0.91300000 -1.55650000
-1.56790000 0.95010000 -1.56790000
-1.57780000 0.97990000 -1.57780000
-1.75160000 0.82430000 -1.27260000
-1.64630000 0.82430000 -1.40610000
-1.66050000 0.87040000 -1.41820000
-1.76670000 0.87040000 -1.28360000
-1.53090000 0.82430000 -1.53090000
-1.54410000 0.87040000 -1.54410000
-1.41820000 0.87040000 -1.66050000
-1.40610000 0.82430000 -1.64630000
-1.42960000 0.91300000 -1.67390000
-1.44910000 0.97990000 -1.69670000
-1.44010000 0.95010000 -1.68610000
-2.12220000 0.97990000 -0.68950000
-2.10890000 0.95010000 -0.68520000
-2.04860000 0.95010000 -0.84850000
-2.06150000 0.97990000 -0.85390000
-2.09360000 0.91300000 -0.68030000
-2.03370000 0.91300000 -0.84240000
-1.96140000 0.91300000 -0.99940000
-1.97560000 0.95010000 -1.00660000
-1.98810000 0.97990000 -1.01300000
-2.05910000 0.82430000 -0.66910000
-2.00020000 0.82430000 -0.82850000
-2.01750000 0.87040000 -0.83570000
-2.07690000 0.87040000 -0.67480000
-1.92900000 0.82430000 -0.98290000
-1.94570000 0.87040000 -0.99140000
-1.86190000 0.87040000 -1.14100000
-1.84600000 0.82430000 -1.13120000
-1.87690000 0.91300000 -1.15020000
-1.90250000 0.97990000 -1.16590000
-1.89060000 0.95010000 -1.15860000
-2.23140000 0.97990000 -0.00000000
-2.21740000 0.95010000 -0.00000000
-2.21050000 0.95010000 -0.17400000
-2.22450000 0.97990000 -0.17510000
-2.20140000 0.91300000 -0.00000000
-2.19450000 0.91300000 -0.17270000
-2.17420000 0.91300000 -0.34440000
-2.19000000 0.95010000 -0.34690000
-2.20390000 0.97990000 -0.34910000
-2.16510000 0.82430000 -0.00000000
-2.15840000 0.82430000 -0.16990000
-2.17700000 0.87040000 -0.17130000
-2.18380000 0.87040000 -0.00000000
-2.13840000 0.82430000 -0.33870000
-2.15680000 0.87040000 -0.34160000
-2.12340000 0.87040000 -0.50980000
-2.10520000 0.82430000 -0.50540000
-2.14050000 0.91300000 -0.51390000
-2.16970000 0.97990000 -0.52090000
-2.15610000 0.95010000 -0.51760000
-2.12220000 0.97990000 0.68950000
-2.10890000 0.95010000 0.68520000
-2.15610000 0.95010000 0.51760000
-2.16970000 0.97990000 0.52090000
-2.09360000 0.91300000 0.68030000
-2.14050000 0.91300000 0.51390000
-2.17420000 0.91300000 0.34440000
-2.19000000 0.95010000 0.34690000
-2.20390000 0.97990000 0.34910000
-2.05910000 0.82430000 0.66910000
-2.10520000 0.82430000 0.50540000
-2.12340000 0.87040000 0.50980000
-2.07690000 0.87040000 0.67480000
-2.13840000 0.82430000 0.33870000
-2.15680000 0.87040000 0.34160000
-2.17700000 0.87040000 0.17130000
-2.15840000 0.82430000 0.16990000
-2.19450000 0.91300000 0.17270000
-2.22450000 0.97990000 0.17510000
-2.21050000 0.95010000 0.17400000
-1.80520000 0.97990000 1.31160000
-1.79390000 0.95010000 1.30340000
-1.89060000 0.95010000 1.15860000
-1.90250000 0.97990000 1.16590000
-1.78090000 0.91300000 1.29390000
-1.87690000 0.91300000 1.15020000
-1.96140000 0.91300000 0.99940000
-1.97560000 0.95010000 1.00660000
-1.98810000 0.97990000 1.01300000
-1.75160000 0.82430000 1.27260000
-1.84600000 0.82430000 1.13120000
-1.86190000 0.87040000 1.14100000
-1.76670000 0.87040000 1.28360000
-1.92900000 0.82430000 0.98290000
-1.94570000 0.87040000 0.99140000
-2.01750000 0.87040000 0.83570000
-2.00020000 0.82430000 0.82850000
-2.03370000 0.91300000 0.84240000
-2.06150000 0.97990000 0.85390000
-2.04860000 0.95010000 0.84850000
-1.31160000 0.97990000 1.80520000
-1.30340000 0.95010000 1.79390000
-1.44010000 0.95010000 1.68610000
-1.44910000 0.97990000 1.69670000
-1.29390000 0.91300000 1.78090000
-1.42960000 0.91300000 1.67390000
-1.55650000 0.91300000 1.55650000
-1.56790000 0.95010000 1.56790000
-1.57780000 0.97990000 1.57780000
-1.27260000 0.82430000 1.75160000
-1.40610000 0.82430000 1.64630000
-1.41820000 0.87040000 1.66050000
-1.28360000 0.87040000 1.76670000
-1.53090000 0.82430000 1.53090000
-1.54410000 0.87040000 1.54410000
-1.66050000 0.87040000 1.41820000
-1.64630000 0.82430000 1.40610000
-1.67390000 0.91300000 1.42960000
-1.69670000 0.97990000 1.44910000
-1.68610000 0.95010000 1.44010000
-0.68950000 0.97990000 2.12220000
-0.68520000 0.95010000 2.10890000
-0.84850000 0.95010000 2.04860000
-0.85390000 0.97990000 2.06150000
-0.68030000 0.91300000 2.09360000
-0.84240000 0.91300000 2.03370000
-0.99940000 0.91300000 1.96140000
-1.00660000 0.95010000 1.97560000
-1.01300000 0.97990000 1.98810000
-0.66910000 0.82430000 2.05910000
-0.82850000 0.82430000 2.00020000
-0.83570000 0.87040000 2.01750000
-0.67480000 0.87040000 2.07690000
-0.98290000 0.82430000 1.92900000
-0.99140000 0.87040000 1.94570000
-1.14100000 0.87040000 1.86190000
-1.13120000 0.82430000 1.84600000
-1.15020000 0.91300000 1.87690000
-1.16590000 0.97990000 1.90250000
-1.15860000 0.95010000 1.89060000
0.00000000 0.97990000 2.23140000
0.00000000 0.95010000 2.21740000
-0.17400000 0.95010000 2.21050000
-0.17510000 0.97990000 2.22450000
0.00000000 0.91300000 2.20140000
-0.17270000 0.91300000 2.19450000
-0.34440000 0.91300000 2.17420000
-0.34690000 0.95010000 2.19000000
-0.34910000 0.97990000 2.20390000
0.00000000 0.82430000 2.16510000
-0.16990000 0.82430000 2.15840000
-0.17130000 0.87040000 2.17700000
0.00000000 0.87040000 2.18380000
-0.33870000 0.82430000 2.13840000
-0.34160000 0.87040000 2.15680000
-0.50980000 0.87040000 2.12340000
-0.50540000 0.82430000 2.10520000
-0.51390000 0.91300000 2.14050000
-0.52090000 0.97990000 2.16970000
-0.51760000 0.95010000 2.15610000
0.68950000 0.97990000 2.12220000
0.68520000 0.95010000 2.10890000
0.51760000 0.95010000 2.15610000
0.52090000 0.97990000 2.16970000
0.68030000 0.91300000 2.09360000
0.51390000 0.91300000 2.14050000
0.34440000 0.91300000 2.17420000
0.34690000 0.95010000 2.19000000
0.34910000 0.97990000 2.20390000
0.66910000 0.82430000 2.05910000
0.50540000 0.82430000 2.10520000
0.50980000 0.87040000 2.12340000
0.67480000 0.87040000 2.07690000
0.33870000 0.82430000 2.13840000
0.34160000 0.87040000 2.15680000
0.17130000 0.87040000 2.17700000
0.16990000 0.82430000 2.15840000
0.17270000 0.91300000 2.19450000
0.17510000 0.97990000 2.22450000
0.17400000 0.95010000 2.21050000
1.31160000 0.97990000 1.80520000
1.30340000 0.95010000 1.79390000
1.15860000 0.95010000 1.89060000
1.16590000 0.97990000 1.90250000
1.29390000 0.91300000 1.78090000
1.15020000 0.91300000 1.87690000
0.99940000 0.91300000 1.96140000
1.00660000 0.95010000 1.97560000
1.01300000 0.97990000 1.98810000
1.27260000 0.82430000 1.75160000
1.13120000 0.82430000 1.84600000
1.14100000 0.87040000 1.86190000
1.28360000 0.87040000 1.76670000
0.98290000 0.82430000 1.92900000
0.99140000 0.87040000 1.94570000
0.83570000 0.87040000 2.01750000
0.82850000 0.82430000 2.00020000
0.84240000 0.91300000 2.03370000
0.85390000 0.97990000 2.06150000
0.84850000 0.95010000 2.04860000
1.80520000 0.97990000 1.31160000
1.79390000 0.95010000 1.30340000
1.68610000 0.95010000 1.44010000
1.69670000 0.97990000 1.44910000
1.78090000 0.91300000 1.29390000
1.67390000 0.91300000 1.42960000
1.55650000 0.91300000 1.55650000
1.56790000 0.95010000 1.56790000
1.57780000 0.97990000 1.57780000
1.75160000 0.82430000 1.27260000
1.64630000 0.82430000 1.40610000
1.66050000 0.87040000 1.41820000
1.76670000 0.87040000 1.28360000
1.53090000 0.82430000 1.53090000
1.54410000 0.87040000 1.54410000
1.41820000 0.87040000 1.66050000
1.40610000 0.82430000 1.64630000
1.42960000 0.91300000 1.67390000
1.44910000 0.97990000 1.69670000
1.44010000 0.95010000 1.68610000
2.12220000 0.97990000 0.68950000
2.10890000 0.95010000 0.68520000
2.04860000 0.95010000 0.84850000
2.06150000 0.97990000 0.85390000
2.09360000 0.91300000 0.68030000
2.03370000 0.91300000 0.84240000
1.96140000 0.91300000 0.99940000
1.97560000 0.95010000 1.00660000
1.98810000 0.97990000 1.01300000
2.05910000 0.82430000 0.66910000
2.00020000 0.82430000 0.82850000
2.01750000 0.87040000 0.83570000
2.07690000 0.87040000 0.67480000
1.92900000 0.82430000 0.98290000
1.94570000 0.87040000 0.99140000
1.86190000 0.87040000 1.14100000
1.84600000 0.82430000 1.13120000
1.87690000 0.91300000 1.15020000
1.90250000 0.97990000 1.16590000
1.89060000 0.95010000 1.15860000
2.23140000 0.97990000 -0.00000000
2.21740000 0.95010000 -0.00000000
2.21050000 0.95010000 0.17400000
2.22450000 0.97990000 0.17510000
2.20140000 0.91300000 -0.00000000
2.19450000 0.91300000 0.17270000
2.17420000 0.91300000 0.34440000
2.19000000 0.95010000 0.34690000
2.20390000 0.97990000 0.34910000
2.16510000 0.82430000 -0.00000000
2.15840000 0.82430000 0.16990000
2.17700000 0.87040000 0.17130000
2.18380000 0.87040000 -0.00000000
2.13840000 0.82430000 0.33870000
2.15680000 0.87040000 0.34160000
2.12340000 0.87040000 0.50980000
2.10520000 0.82430000 0.50540000
2.14050000 0.91300000 0.51390000
2.16970000 0.97990000 0.52090000
2.15610000 0.95010000 0.51760000
2.15610000 0.95010000 -0.51760000
2.16970000 0.97990000 -0.52090000
2.14050000 0.91300000 -0.51390000
2.17420000 0.91300000 -0.34440000
2.19000000 0.95010000 -0.34690000
2.20390000 0.97990000 -0.34910000
2.10520000 0.82430000 -0.50540000
2.12340000 0.87040000 -0.50980000
2.13840000 0.82430000 -0.33870000
2.15680000 0.87040000 -0.34160000
2.17700000 0.87040000 -0.17130000
2.15840000 0.82430000 -0.16990000
2.19450000 0.91300000 -0.17270000
2.22450000 0.97990000 -0.17510000
2.21050000 0.95010000 -0.17400000
0.64160000 -0.59670000 -0.46620000
0.57600000 -0.60760000 -0.41850000
0.60710000 -0.60760000 -0.37200000
0.67620000 -0.59670000 -0.41440000
0.50970000 -0.61660000 -0.37030000
0.53750000 -0.61660000 -0.32930000
0.56190000 -0.61660000 -0.28630000
0.63440000 -0.60760000 -0.32320000
0.70660000 -0.59670000 -0.36000000
0.44210000 -0.62380000 -0.32120000
0.37280000 -0.62940000 -0.27090000
0.39580000 -0.62940000 -0.24200000
0.46710000 -0.62380000 -0.28600000
0.41610000 -0.62930000 -0.21200000
0.48920000 -0.62380000 -0.24920000
0.42840000 -0.62940000 -0.17800000
0.43820000 -0.62940000 -0.14240000
0.51980000 -0.62380000 -0.16890000
0.50600000 -0.62380000 -0.20980000
0.59920000 -0.61660000 -0.19470000
0.58230000 -0.61660000 -0.24130000
0.75430000 -0.59670000 -0.24510000
0.73270000 -0.59670000 -0.30350000
0.65780000 -0.60760000 -0.27250000
0.67720000 -0.60760000 -0.22000000
0.46620000 -0.59670000 -0.64160000
0.41850000 -0.60760000 -0.57600000
0.46240000 -0.60760000 -0.54140000
0.51510000 -0.59670000 -0.60310000
0.37030000 -0.61660000 -0.50970000
0.40940000 -0.61660000 -0.47930000
0.44590000 -0.61660000 -0.44590000
0.50350000 -0.60760000 -0.50350000
0.56080000 -0.59670000 -0.56080000
0.32120000 -0.62380000 -0.44210000
0.27090000 -0.62940000 -0.37280000
0.30160000 -0.62940000 -0.35240000
0.35590000 -0.62380000 -0.41640000
0.33020000 -0.62930000 -0.33020000
0.38820000 -0.62380000 -0.38820000
0.35240000 -0.62940000 -0.30160000
0.41640000 -0.62380000 -0.35590000
0.47930000 -0.61660000 -0.40940000
0.60310000 -0.59670000 -0.51510000
0.54140000 -0.60760000 -0.46240000
0.24510000 -0.59670000 -0.75430000
0.22000000 -0.60760000 -0.67720000
0.27250000 -0.60760000 -0.65780000
0.30350000 -0.59670000 -0.73270000
0.19470000 -0.61660000 -0.59920000
0.24130000 -0.61660000 -0.58230000
0.28630000 -0.61660000 -0.56190000
0.32320000 -0.60760000 -0.63440000
0.36000000 -0.59670000 -0.70660000
0.16890000 -0.62380000 -0.51980000
0.14240000 -0.62940000 -0.43820000
0.17800000 -0.62940000 -0.42840000
0.20980000 -0.62380000 -0.50600000
0.21200000 -0.62930000 -0.41610000
0.24920000 -0.62380000 -0.48920000
0.24200000 -0.62940000 -0.39580000
0.28600000 -0.62380000 -0.46710000
0.32930000 -0.61660000 -0.53750000
0.41440000 -0.59670000 -0.67620000
0.37200000 -0.60760000 -0.60710000
0.00000000 -0.59670000 -0.79310000
0.00000000 -0.60760000 -0.71200000
0.05590000 -0.60760000 -0.70980000
0.06220000 -0.59670000 -0.79060000
0.00000000 -0.61660000 -0.63010000
0.04950000 -0.61660000 -0.62840000
0.09870000 -0.61660000 -0.62290000
0.11140000 -0.60760000 -0.70320000
0.12410000 -0.59670000 -0.78330000
0.00000000 -0.62380000 -0.54650000
0.00000000 -0.62940000 -0.46080000
0.03690000 -0.62940000 -0.46240000
0.04320000 -0.62380000 -0.54610000
0.07310000 -0.62930000 -0.46130000
0.08590000 -0.62380000 -0.54220000
0.10780000 -0.62940000 -0.45120000
0.12770000 -0.62380000 -0.53270000
0.14710000 -0.61660000 -0.61290000
0.18510000 -0.59670000 -0.77120000
0.16620000 -0.60760000 -0.69230000
-0.24510000 -0.59670000 -0.75430000
-0.22000000 -0.60760000 -0.67720000
-0.16620000 -0.60760000 -0.69230000
-0.18510000 -0.59670000 -0.77120000
-0.19470000 -0.61660000 -0.59920000
-0.14710000 -0.61660000 -0.61290000
-0.09870000 -0.61660000 -0.62290000
-0.11140000 -0.60760000 -0.70320000
-0.12410000 -0.59670000 -0.78330000
-0.16890000 -0.62380000 -0.51980000
-0.14240000 -0.62940000 -0.43820000
-0.10780000 -0.62940000 -0.45120000
-0.12770000 -0.62380000 -0.53270000
-0.07310000 -0.62930000 -0.46130000
-0.08590000 -0.62380000 -0.54220000
-0.03690000 -0.62940000 -0.46240000
-0.04320000 -0.62380000 -0.54610000
-0.04950000 -0.61660000 -0.62840000
-0.06220000 -0.59670000 -0.79060000
-0.05590000 -0.60760000 -0.70980000
-0.46620000 -0.59670000 -0.64160000
-0.41850000 -0.60760000 -0.57600000
-0.37200000 -0.60760000 -0.60710000
-0.41440000 -0.59670000 -0.67620000
-0.37030000 -0.61660000 -0.50970000
-0.32930000 -0.61660000 -0.53750000
-0.28630000 -0.61660000 -0.56190000
-0.32320000 -0.60760000 -0.63440000
-0.36000000 -0.59670000 -0.70660000
-0.32120000 -0.62380000 -0.44210000
-0.27090000 -0.62940000 -0.37280000
-0.24200000 -0.62940000 -0.39580000
-0.28600000 -0.62380000 -0.46710000
-0.21200000 -0.62930000 -0.41610000
-0.24920000 -0.62380000 -0.48920000
-0.17800000 -0.62940000 -0.42840000
-0.20980000 -0.62380000 -0.50600000
-0.24130000 -0.61660000 -0.58230000
-0.30350000 -0.59670000 -0.73270000
-0.27250000 -0.60760000 -0.65780000
-0.64160000 -0.59670000 -0.46620000
-0.57600000 -0.60760000 -0.41850000
-0.54140000 -0.60760000 -0.46240000
-0.60310000 -0.59670000 -0.51510000
-0.50970000 -0.61660000 -0.37030000
-0.47930000 -0.61660000 -0.40940000
