157.91260000 86.12760000 -48.96980000
133.90560000 77.22060000 -97.13510000
148.15100000 85.06000000 -68.70750000
152.64140000 85.31700000 -58.90040000
140.31130000 86.04820000 -90.14360000
136.79810000 85.77570000 -96.70480000
141.25400000 85.55120000 -90.40720000
139.10410000 86.10210000 -89.97190000
142.16710000 85.58600000 -82.07980000
-55.18260000 80.19580000 -158.59150000
-43.75780000 80.56960000 -162.28210000
-48.68600000 79.07410000 -160.25870000
-52.50670000 82.66760000 -159.25430000
-4.42440000 83.76150000 -168.31220000
-0.82850000 82.66710000 -168.27550000
-7.26860000 81.91930000 -168.20420000
-32.30920000 76.25780000 -161.71660000
-23.08880000 78.86140000 -165.56100000
-25.30870000 75.43650000 -161.77630000
0.97630000 79.97970000 -167.86060000
-7.78080000 79.21810000 -167.21420000
-9.19890000 83.38420000 -168.69120000
-8.85940000 74.56560000 -162.63080000
-29.49140000 80.37950000 -165.44950000
-18.23820000 80.79420000 -167.11450000
-28.27870000 82.25610000 -166.11510000
-39.73190000 74.85310000 -158.38760000
-50.44570000 69.89850000 -150.90880000
-48.57910000 76.88580000 -158.36860000
-34.38440000 82.24660000 -164.62710000
-18.51060000 83.38030000 -167.37820000
-16.72100000 82.61300000 -167.43950000
-29.99460000 83.47640000 -165.67780000
-43.25010000 82.60260000 -162.33650000
-23.41030000 71.92030000 -158.47930000
-39.90050000 71.36720000 -154.88780000
-43.07850000 83.65510000 -162.05270000
-7.71700000 83.94360000 -168.24890000
-3.01230000 84.40130000 -167.71920000
-37.62790000 79.44270000 -163.34230000
-9.99630000 84.62260000 -166.33810000
-20.53930000 84.04190000 -166.44830000
-39.38190000 83.64240000 -158.13690000
-50.60020000 78.18160000 -149.13840000
-37.14820000 80.21370000 -154.83190000
-36.91750000 83.36550000 -164.09210000
-28.76600000 84.24640000 -161.33930000
-24.40480000 81.44080000 -158.56530000
-53.84840000 83.87460000 -157.97900000
-23.46430000 84.71570000 -164.28350000
-15.21150000 84.75890000 -164.24000000
-52.90510000 83.53290000 -154.31710000
-42.99870000 84.32650000 -160.35190000
-30.49890000 84.30770000 -164.15170000
-14.32580000 83.78340000 -162.31840000
-44.92850000 84.41640000 -158.60450000
-36.60970000 66.97950000 -152.10410000
59.06230000 80.58150000 -157.64410000
70.66560000 80.11820000 -152.60990000
66.30660000 78.28130000 -153.07800000
62.89210000 81.90060000 -156.38580000
86.58540000 53.50440000 -122.48690000
89.92830000 41.25970000 -114.96650000
79.42160000 40.63980000 -122.01930000
60.53780000 83.13380000 -157.06070000
68.55660000 83.21970000 -153.54820000
61.45370000 83.64720000 -156.28710000
64.90260000 84.42190000 -154.96500000
124.03790000 13.63970000 -40.91580000
118.67480000 9.59210000 -51.20790000
50.04500000 67.38750000 -148.99040000
53.18400000 73.41200000 -152.79400000
62.81260000 67.84120000 -144.42490000
120.65850000 32.98650000 -62.90260000
112.60280000 6.16640000 -60.67730000
85.20820000 60.20550000 -127.03640000
98.62290000 62.68320000 -118.60260000
53.13930000 84.64940000 -159.59770000
55.29560000 83.76700000 -159.06500000
47.24410000 83.51890000 -161.27870000
52.50430000 81.71110000 -160.03100000
50.45320000 79.76940000 -160.06220000
124.02150000 28.27150000 -52.84710000
65.97200000 74.43600000 -149.14450000
51.61730000 76.83710000 -157.04330000
87.15900000 65.84030000 -129.59640000
85.52750000 73.11200000 -137.68460000
96.21200000 70.54490000 -127.62860000
58.84460000 84.54370000 -157.53650000
-1.94440000 57.28050000 -150.70650000
9.82760000 58.07910000 -150.89530000
3.16200000 49.56150000 -147.67900000
56.18140000 85.66750000 -157.64590000
76.57010000 62.91500000 -133.94570000
62.72040000 85.31470000 -155.09810000
58.97250000 85.67150000 -155.46480000
67.78810000 85.63620000 -152.10590000
60.77400000 85.63430000 -153.36840000
76.85230000 66.49570000 -136.69080000
52.36680000 83.60850000 -153.29730000
64.83280000 84.70440000 -149.68210000
1.06850000 62.74220000 -153.89920000
11.50840000 64.40140000 -154.71360000
50.52250000 85.27070000 -159.42360000
95.68460000 65.48170000 -122.93360000
-5.17070000 45.53060000 -146.01940000
-6.00890000 51.71880000 -148.51470000
51.01260000 85.70190000 -157.93730000
126.87070000 28.67870000 -64.86090000
118.92900000 15.86750000 -71.64040000
120.85000000 30.39650000 -76.13370000
-12.49620000 47.78590000 -146.28510000
-17.94480000 54.56180000 -148.39520000
36.34530000 83.87590000 -164.14000000
42.15570000 81.35780000 -163.03400000
86.63090000 65.34300000 -119.72630000
92.60080000 73.17340000 -121.65450000
82.64890000 70.30870000 -126.09140000
30.40210000 81.36290000 -165.69160000
33.13010000 80.15730000 -164.70860000
17.75630000 79.55130000 -166.61850000
27.96710000 77.69080000 -163.81880000
-9.33100000 59.74380000 -151.73540000
-6.76720000 67.63430000 -156.96510000
24.95430000 83.09270000 -166.28850000
29.89270000 84.36270000 -165.06750000
0.18210000 69.96240000 -150.30270000
-7.55130000 61.63720000 -145.29950000
5.45110000 63.73460000 -146.38670000
65.16860000 2.20220000 -116.94220000
78.57110000 5.29370000 -109.43010000
4.18450000 56.87850000 -143.17510000
111.69200000 34.64410000 -78.17860000
113.36260000 20.20430000 -67.88250000
37.02180000 73.78960000 -157.96200000
17.83400000 49.49210000 -146.79390000
18.45360000 61.90360000 -144.41240000
10.23510000 48.06760000 -139.61760000
39.38050000 68.39230000 -152.75140000
120.05960000 46.45720000 -72.49810000
62.59420000 10.69690000 -121.36750000
68.72020000 9.78330000 -117.73780000
105.04670000 12.72770000 -76.22500000
42.90270000 78.10730000 -160.93740000
77.65810000 18.36260000 -114.94750000
14.67710000 69.06210000 -148.90340000
44.67260000 84.61230000 -161.68660000
64.80470000 9.54930000 -110.77110000
73.66900000 11.50390000 -106.10880000
72.17950000 29.25240000 -113.55830000
0.36900000 38.75810000 -136.88680000
35.91940000 84.88820000 -159.75100000
38.61090000 85.45190000 -160.70270000
-9.33560000 49.88280000 -140.38350000
91.89070000 24.63970000 -106.80760000
49.13260000 74.03010000 -145.09580000
57.46470000 77.77300000 -145.40660000
67.26880000 27.66810000 -124.40720000
38.34570000 78.03620000 -151.95110000
21.74210000 36.30650000 -134.47850000
35.17420000 16.89250000 -125.30930000
33.92420000 34.44720000 -131.31230000
22.01640000 73.42670000 -160.28380000
24.03280000 69.14320000 -156.57420000
64.22690000 24.55980000 -116.53900000
78.80060000 26.46570000 -108.11760000
118.90960000 52.39960000 -91.51550000
109.89250000 51.95260000 -101.25520000
114.52220000 58.76030000 -100.49070000
42.69620000 70.44670000 -144.42360000
32.48390000 68.35870000 -145.70070000
-6.26940000 -5.72570000 -130.16870000
26.87870000 75.15720000 -151.92310000
-5.07850000 6.70510000 -134.19760000
-12.84780000 -3.45860000 -130.31740000
108.70300000 73.31120000 -119.91920000
114.44640000 69.42920000 -109.81940000
104.91260000 66.82610000 -116.54890000
36.03750000 83.36750000 -157.85930000
108.15900000 65.11140000 -111.68980000
116.90780000 63.91710000 -101.94110000
121.32210000 63.35320000 -95.81410000
126.23360000 61.74510000 -88.17280000
124.11780000 67.27140000 -96.28170000
51.18350000 0.52300000 -122.60250000
56.99460000 7.68700000 -122.95230000
59.71850000 0.90010000 -119.29100000
18.72870000 84.51770000 -162.41980000
123.35290000 52.06780000 -85.27850000
-14.17480000 12.58210000 -135.33880000
36.73710000 85.11960000 -163.34760000
31.63540000 85.28660000 -163.47820000
23.59090000 85.14590000 -163.76710000
-16.84630000 4.66680000 -124.08910000
-6.60780000 8.95480000 -126.98390000
42.67020000 85.45880000 -161.11340000
-10.14670000 20.52440000 -130.47420000
119.48660000 72.30320000 -107.80060000
128.77880000 73.04720000 -97.21410000
75.97670000 73.35470000 -143.33180000
46.25140000 2.39540000 -125.49880000
48.34850000 13.23410000 -128.18840000
-25.05530000 9.18340000 -132.37540000
78.72500000 77.57400000 -146.60390000
80.82980000 81.23360000 -147.96190000
99.86550000 50.24360000 -110.84220000
101.77710000 41.16740000 -104.70900000
108.65590000 39.09510000 -96.47750000
-21.46070000 18.55890000 -135.65050000
-11.22640000 20.08580000 -137.69830000
77.55440000 83.78240000 -149.01470000
70.40060000 84.82960000 -152.47470000
77.05060000 85.28040000 -148.62630000
78.86090000 85.75380000 -146.09830000
73.28060000 85.60590000 -147.65480000
69.50810000 79.22860000 -141.62030000
73.88220000 84.48220000 -145.17490000
-22.71470000 21.49900000 -136.70300000
-17.83290000 30.26170000 -140.31450000
-5.28070000 28.99830000 -140.83760000
85.78530000 84.41000000 -138.33320000
57.72540000 13.18870000 -115.77700000
-27.89940000 30.67830000 -138.68640000
82.26350000 78.59860000 -133.99050000
98.12250000 56.40480000 -115.34510000
99.87160000 53.53310000 -101.81560000
98.10980000 40.45340000 -97.16910000
108.65000000 54.04720000 -92.66840000
51.73950000 1.79630000 -114.13660000
-0.76530000 19.40280000 -130.69620000
88.21050000 41.94160000 -106.90170000
93.03570000 55.15510000 -108.97410000
63.25300000 71.62010000 -137.66630000
71.49720000 67.14250000 -130.28840000
72.91440000 72.49180000 -133.48250000
41.63460000 2.08360000 -118.02620000
46.19000000 13.61360000 -120.82850000
-19.34450000 33.31960000 -133.54860000
56.96120000 30.36630000 -130.31750000
117.16000000 39.87970000 -86.48110000
50.29670000 34.19800000 -134.20060000
-29.34300000 -2.72510000 -127.62550000
-35.16330000 6.48140000 -129.01180000
107.29410000 42.76400000 -88.13820000
115.68890000 52.13570000 -82.70630000
-41.60220000 -6.33540000 -122.52700000
-44.47150000 8.78850000 -126.87200000
56.81840000 65.50580000 -136.23630000
49.63560000 67.08550000 -139.89210000
96.19840000 22.12580000 -91.15800000
100.29830000 14.45620000 -83.09560000
54.44780000 43.72750000 -127.71200000
48.04300000 37.56020000 -128.08440000
45.92440000 29.40860000 -126.19180000
42.96470000 21.56000000 -132.50640000
124.30670000 80.57420000 -113.37150000
119.52170000 77.08900000 -114.53320000
117.72050000 80.05400000 -119.90410000
118.71480000 82.02030000 -119.70020000
130.52620000 82.13060000 -106.69540000
128.16230000 84.20010000 -108.47720000
122.65560000 84.64180000 -114.34540000
115.96060000 84.13990000 -121.21580000
116.48560000 85.53220000 -119.94650000
121.71190000 85.55260000 -115.03100000
114.30250000 86.00020000 -120.53520000
123.26270000 85.98530000 -112.24570000
-29.70710000 17.50990000 -126.11630000
106.77720000 79.39820000 -129.39580000
113.02580000 77.53850000 -121.78270000
-34.25100000 6.58800000 -120.99110000
109.53050000 81.33440000 -128.10170000
106.79740000 61.20980000 -110.24170000
101.49030000 76.25720000 -129.83740000
-48.14570000 -7.48530000 -119.42790000
-44.23330000 -4.59660000 -112.83120000
-46.03220000 8.49870000 -117.60250000
116.27020000 76.38160000 -103.21790000
124.05380000 83.49670000 -103.80120000
112.36460000 79.60410000 -111.41110000
-33.42800000 19.44140000 -133.70200000
107.86010000 83.84560000 -128.69980000
112.92210000 83.72960000 -124.73670000
112.39970000 85.26270000 -124.60610000
110.93480000 85.66580000 -125.17150000
106.19210000 85.11280000 -129.63890000
105.09000000 85.79140000 -129.69930000
-37.87430000 29.38240000 -135.40990000
106.45630000 85.26960000 -124.67780000
120.94200000 85.79310000 -111.74940000
117.94790000 84.89600000 -112.89990000
109.39240000 66.05660000 -100.24560000
105.19980000 74.19470000 -112.18530000
102.81510000 65.20840000 -106.37530000
103.68140000 80.07920000 -120.05040000
98.55370000 68.53730000 -112.86540000
84.37810000 60.04780000 -118.16190000
84.10970000 52.30980000 -114.59050000
94.42360000 61.36030000 -111.17340000
101.20690000 59.64750000 -103.99570000
55.67800000 61.06430000 -142.61400000
53.86020000 55.39410000 -140.51010000
42.61970000 59.49880000 -146.31300000
35.83550000 56.85780000 -146.75720000
43.93390000 51.47040000 -142.29670000
126.49970000 85.90820000 -109.53580000
131.28420000 85.48220000 -104.05150000
131.36250000 86.09110000 -102.07810000
-47.22530000 29.32100000 -124.64660000
-40.45210000 45.50280000 -132.70990000
132.37950000 85.58560000 -97.09730000
31.64420000 63.71760000 -151.42320000
37.16800000 62.40990000 -141.12850000
110.35930000 61.75700000 -95.71430000
66.23040000 46.61360000 -131.71780000
74.11890000 44.73270000 -126.78140000
118.52340000 62.54260000 -86.07300000
121.58260000 67.50460000 -86.53940000
116.38750000 69.74030000 -95.68060000
-21.20400000 39.31870000 -142.48760000
125.15600000 75.91940000 -91.60930000
132.26520000 82.92190000 -92.15240000
-25.41270000 51.22380000 -145.81770000
-34.07020000 43.01210000 -140.92350000
-26.43330000 46.05490000 -136.57730000
-16.13510000 55.49270000 -141.89980000
74.64530000 47.92720000 -118.98480000
94.04290000 80.61830000 -128.29690000
128.04170000 49.28020000 -75.60570000
96.83280000 84.64650000 -131.18490000
131.50330000 60.59410000 -78.91260000
66.23780000 42.33420000 -121.59020000
134.74270000 57.70340000 -70.19570000
139.60850000 83.19150000 -80.99950000
-18.92410000 65.02460000 -154.08360000
-24.90990000 61.33100000 -150.71120000
64.17560000 52.36530000 -126.54060000
130.28260000 75.42890000 -83.41370000
139.96730000 50.40700000 -51.20750000
131.99100000 21.49110000 -47.84720000
132.81670000 34.47400000 -56.50860000
134.86830000 52.29970000 -65.10320000
137.06830000 74.49480000 -69.88860000
141.73530000 60.32300000 -57.63470000
76.37750000 54.86230000 -129.90840000
63.62970000 54.75310000 -136.31540000
68.17180000 60.89570000 -137.31850000
-16.83390000 64.66400000 -146.14150000
131.80760000 48.73900000 -50.83120000
136.62340000 61.75560000 -52.30610000
130.50210000 61.53910000 -65.70450000
145.55530000 80.86510000 -64.14670000
133.83340000 67.06030000 -81.72320000
136.84660000 63.32990000 -72.05900000
-28.39380000 56.33340000 -140.06090000
-31.06330000 60.56510000 -148.73840000
19.37590000 -1.06280000 -130.67260000
28.67100000 11.00540000 -132.78990000
17.34970000 17.16190000 -136.60300000
11.03520000 8.40010000 -134.32440000
27.16110000 27.75300000 -138.20880000
-28.94170000 62.49080000 -142.95430000
-31.46950000 69.82250000 -147.01550000
18.04910000 28.24040000 -139.80240000
64.89930000 59.81790000 -129.49630000
126.25990000 67.19380000 -79.28160000
13.89330000 28.86770000 -133.10600000
23.25900000 10.85170000 -125.94930000
124.18380000 59.77060000 -75.28000000
131.69270000 69.08590000 -72.08270000
75.75660000 60.78770000 -124.20550000
-45.92570000 37.65030000 -135.61660000
-44.83580000 54.04550000 -142.12030000
142.20940000 69.86290000 -70.43260000
145.57740000 68.76860000 -59.81020000
10.92790000 15.03860000 -128.99840000
8.50460000 4.21200000 -125.24540000
-35.79910000 54.66550000 -144.89570000
-40.85420000 62.44210000 -147.85690000
-42.82850000 63.47560000 -139.87950000
-43.78850000 70.78020000 -144.50340000
-40.61700000 57.83640000 -137.64320000
142.90950000 74.44260000 -56.65620000
137.96500000 68.16270000 -57.87310000
127.09730000 49.36200000 -61.81920000
-45.34930000 59.46510000 -144.48170000
6.84550000 21.62480000 -138.75960000
-48.71940000 62.14570000 -145.04030000
14.99790000 76.33340000 -164.07010000
17.61630000 81.50000000 -167.32810000
20.69400000 83.91140000 -166.84640000
6.59680000 73.05520000 -161.29850000
43.72350000 49.65750000 -133.65280000
7.16470000 81.36770000 -168.06200000
7.10900000 83.12760000 -168.00620000
14.21610000 83.83250000 -167.31890000
2.51720000 77.66580000 -166.16360000
5.07630000 35.53460000 -142.87320000
3.20700000 84.35240000 -163.44730000
17.46730000 80.67820000 -158.36580000
2.81110000 76.81780000 -155.68270000
51.93340000 56.36440000 -133.62680000
42.97200000 57.55440000 -137.11110000
14.16590000 73.53020000 -152.17160000
100.69810000 11.45320000 -92.89880000
87.08720000 8.73270000 -94.28790000
15.54430000 84.69000000 -166.94280000
20.98490000 84.76110000 -166.29930000
38.98820000 4.26620000 -128.03330000
16.20640000 85.19160000 -165.27960000
13.96880000 84.68130000 -166.48670000
10.63540000 84.47430000 -167.59130000
11.72450000 85.05800000 -166.42000000
11.21180000 85.16740000 -165.10390000
3.30550000 84.29910000 -168.01610000
2.93890000 84.95170000 -165.85530000
87.12430000 23.92490000 -100.55200000
102.36550000 21.75730000 -95.47790000
80.44840000 10.41300000 -100.71790000
0.78340000 83.48080000 -168.67760000
-2.15080000 82.26580000 -161.06390000
106.94090000 13.69690000 -87.33680000
107.82420000 5.92460000 -82.40240000
111.33450000 12.50450000 -81.18650000
-9.45580000 73.90080000 -153.07750000
-21.02270000 75.02150000 -152.82240000
109.94340000 22.02140000 -87.14840000
-19.48920000 69.99430000 -149.11750000
24.24030000 51.94890000 -139.40300000
-34.37010000 75.12210000 -150.49140000
30.41130000 45.02990000 -143.36350000
25.07150000 49.86780000 -146.16590000
-50.85430000 67.32610000 -139.74080000
97.63130000 79.63950000 -136.60110000
100.73100000 81.64250000 -135.30270000
100.50990000 84.15390000 -133.96740000
99.35310000 85.93260000 -132.56610000
91.98350000 80.77210000 -141.21160000
90.77250000 82.14100000 -142.02100000
21.95450000 61.69210000 -151.68530000
88.65270000 77.40240000 -140.64700000
121.74450000 11.09330000 -63.59230000
86.15380000 79.50890000 -144.15940000
87.56450000 84.73050000 -142.86290000
88.08450000 85.54030000 -141.64270000
87.77030000 85.65200000 -139.31850000
93.93650000 85.83350000 -137.14490000
26.01400000 57.46760000 -148.79500000
30.51370000 58.34080000 -140.84590000
96.29660000 83.92930000 -137.47510000
94.35520000 85.17830000 -138.60940000
98.28320000 85.43880000 -135.00650000
97.31710000 84.27480000 -136.02130000
158.85620000 82.15540000 -54.91240000
160.49020000 80.82180000 -47.86870000
163.39780000 81.96890000 -38.69300000
164.32790000 80.67390000 -30.58340000
154.31150000 75.05710000 -50.40880000
159.02360000 84.95950000 -52.65860000
161.84920000 83.05870000 -45.26200000
164.28210000 83.76350000 -34.54700000
161.23780000 85.19380000 -44.25620000
160.94260000 85.98300000 -42.86010000
163.16780000 85.54340000 -36.97490000
165.91990000 82.58920000 -25.91820000
166.92420000 81.78870000 -16.23650000
159.48070000 78.63590000 -44.98350000
156.50120000 85.86160000 -57.80380000
165.15630000 85.02190000 -27.27210000
155.96120000 85.35450000 -61.62280000
164.68450000 86.05940000 -23.22770000
159.58030000 76.19230000 -34.48120000
157.10560000 84.59960000 -40.99770000
159.44710000 85.72270000 -38.36210000
167.38330000 83.21160000 -14.42050000
111.36020000 41.83020000 95.69350000
115.14120000 45.33680000 93.49090000
105.46320000 42.72710000 102.97590000
115.02400000 50.00200000 95.99700000
109.94100000 49.91800000 89.75710000
118.70720000 54.01720000 80.15250000
111.72870000 34.81480000 79.31870000
155.75020000 67.54300000 -17.88810000
154.76770000 64.45190000 -9.31820000
151.72310000 61.35000000 -23.83780000
118.90000000 60.61620000 84.70520000
114.53010000 62.71440000 92.41640000
119.43850000 44.29330000 86.92050000
150.38120000 70.64360000 -13.64110000
146.57750000 63.95190000 -14.95160000
147.27690000 64.02860000 -6.01920000
115.70410000 25.24750000 68.00680000
111.61270000 52.14310000 100.77290000
121.04610000 56.89550000 92.11480000
158.91250000 71.19700000 -9.81590000
115.44840000 58.46810000 100.51600000
139.58480000 38.66920000 -40.33870000
145.55860000 50.00050000 -31.00590000
138.09330000 23.27830000 -28.10050000
144.29360000 40.23800000 -19.97220000
108.22190000 59.44590000 108.65590000
157.46650000 68.66690000 1.61790000
157.60630000 80.08410000 -13.77280000
153.84730000 74.67810000 -3.68350000
125.34330000 43.98470000 61.61510000
133.60660000 14.90500000 -36.49640000
151.44270000 74.89130000 -27.62980000
135.06190000 13.07300000 -29.69430000
98.26610000 32.00560000 105.16410000
126.89120000 38.86900000 72.00080000
162.25500000 84.65500000 -7.86720000
158.90840000 80.87600000 3.99290000
162.18580000 75.29960000 -7.71730000
165.52190000 79.47230000 -13.83860000
165.07410000 78.26460000 2.08710000
167.49510000 81.41130000 -2.34450000
125.53600000 41.74460000 76.12500000
166.51350000 80.45190000 9.93320000
167.35250000 84.64460000 -9.55480000
167.88050000 84.27320000 3.46870000
167.94700000 82.98940000 -5.07460000
167.91160000 82.63230000 6.55910000
167.36780000 85.31680000 -0.89930000
167.34740000 85.29820000 10.30950000
166.58340000 85.95530000 5.59840000
161.55640000 74.56710000 5.16220000
128.59240000 16.54910000 -28.10990000
129.97310000 37.08660000 45.14930000
153.69590000 61.41460000 -1.28380000
159.27690000 72.61720000 15.28760000
155.09220000 66.02010000 13.31350000
163.66750000 78.64040000 23.42220000
131.63180000 37.81750000 -40.91430000
164.61680000 85.85940000 -0.70820000
162.53860000 84.82550000 9.42920000
135.27550000 46.24570000 59.73700000
138.18370000 16.95250000 -17.96440000
167.05130000 81.99280000 15.88020000
164.75250000 86.00830000 13.18420000
167.58890000 83.78100000 12.42210000
100.46580000 47.01750000 109.87790000
165.95640000 85.72120000 19.29540000
89.64050000 32.30910000 112.83130000
160.77940000 83.76500000 15.46340000
156.40190000 79.08810000 17.90750000
89.29710000 41.07410000 116.48080000
137.48480000 54.39430000 62.97260000
140.67770000 53.35160000 53.16010000
141.47880000 28.64120000 -18.62990000
132.71640000 52.49820000 71.17160000
148.24710000 49.97300000 -16.02290000
150.14570000 53.64160000 -9.15610000
146.65660000 43.25980000 -3.13130000
141.90990000 27.23240000 -6.22420000
110.62200000 37.47960000 95.21260000
143.84020000 57.44830000 -14.46020000
139.27360000 43.74940000 -12.08410000
143.41720000 54.50170000 -3.01490000
148.67510000 48.84010000 -0.11480000
150.08690000 53.46460000 -0.61150000
137.53630000 41.24050000 -20.97770000
132.85700000 21.79640000 -11.62320000
98.36930000 50.28370000 102.56900000
152.96430000 60.72650000 8.51450000
106.16220000 54.48350000 96.75840000
120.85940000 46.95600000 72.22520000
135.29630000 28.58660000 -2.66530000
106.87880000 61.75710000 100.52600000
87.08920000 52.05560000 113.34640000
128.17360000 56.95010000 65.97960000
143.97400000 56.26590000 4.62780000
148.78250000 66.79690000 0.23650000
91.48940000 59.52060000 113.81450000
139.82640000 44.11330000 -0.35340000
147.34800000 45.28860000 6.43200000
128.26660000 55.27790000 80.36460000
146.16430000 45.16470000 19.57300000
149.84470000 55.93070000 20.61640000
135.06700000 39.76050000 -30.73990000
96.34260000 53.78920000 116.41940000
146.16760000 62.71550000 12.58830000
141.05280000 60.46560000 35.73820000
139.77620000 52.61830000 27.99140000
135.91090000 50.99110000 40.82690000
137.87360000 61.91520000 48.69440000
155.71600000 68.25970000 20.12410000
134.93950000 28.59690000 9.60210000
141.16480000 50.89150000 15.40020000
148.11690000 60.83390000 40.03170000
145.71820000 62.54840000 50.42240000
142.13680000 58.94940000 56.19260000
122.42100000 61.70260000 93.74200000
129.03620000 62.91530000 84.94040000
121.33020000 63.75020000 95.98840000
143.72490000 50.68080000 40.50900000
129.53750000 68.42280000 89.57040000
124.65930000 68.71330000 96.55950000
143.17660000 58.40260000 21.22240000
143.25220000 33.01140000 -13.77240000
118.21320000 68.89150000 92.93680000
124.92090000 64.41220000 78.62290000
146.79010000 67.38860000 24.97580000
146.41550000 70.28780000 35.41840000
124.29180000 71.23090000 87.16920000
142.32060000 68.07320000 45.29200000
150.69370000 70.50730000 7.75370000
132.56890000 53.75770000 53.28500000
115.41050000 73.46920000 101.55100000
105.97110000 68.54800000 106.76200000
122.58550000 73.43860000 104.52000000
130.70560000 74.04830000 94.52810000
136.64490000 78.26830000 93.13890000
129.34410000 77.53560000 102.35810000
152.26860000 73.81410000 15.83990000
147.53610000 70.11310000 56.42750000
151.47250000 68.39290000 40.81500000
116.26960000 69.56190000 107.36730000
127.73470000 74.95520000 86.79380000
119.46860000 79.23920000 104.16090000
151.80680000 73.89380000 52.01050000
123.69900000 77.35210000 109.01120000
113.43560000 64.46000000 106.25530000
143.74880000 66.76650000 60.76620000
141.40060000 63.88750000 62.53970000
139.15700000 60.21880000 64.74100000
108.81200000 75.98070000 111.77180000
118.04810000 75.77390000 112.62900000
134.45110000 63.51950000 59.41240000
132.01340000 81.62260000 91.47610000
126.51910000 84.18100000 104.15230000
135.38020000 84.31660000 92.08800000
123.96480000 83.05280000 104.33120000
136.07350000 68.23350000 61.32740000
143.26550000 33.49760000 14.10620000
139.09660000 71.77710000 60.46870000
133.82300000 83.54290000 103.06620000
126.91080000 83.35460000 111.22470000
130.55800000 82.21730000 106.70350000
130.44000000 84.44370000 106.19800000
133.14760000 80.81820000 102.10740000
122.73440000 81.38460000 115.12640000
130.86760000 19.85940000 22.95790000
120.85410000 84.38020000 116.98820000
124.38930000 84.85380000 110.47470000
139.92290000 68.78210000 71.80870000
117.08220000 84.30020000 115.68000000
112.21740000 77.50110000 120.83340000
110.17540000 83.01180000 119.17210000
154.68800000 82.20400000 42.75660000
147.58780000 74.31390000 42.18430000
145.26060000 76.22280000 54.67330000
155.77880000 76.32170000 47.21190000
153.50810000 78.11890000 60.21190000
105.86090000 68.23910000 116.57500000
132.84070000 33.08950000 31.47190000
99.35830000 61.41120000 117.87760000
149.39970000 82.75870000 60.71560000
157.02260000 84.98620000 46.55400000
146.89270000 84.04540000 70.10560000
152.14100000 85.14200000 62.64760000
106.32510000 72.01690000 119.78320000
141.21330000 78.42830000 69.31570000
96.68410000 64.87680000 112.78080000
134.52880000 75.14770000 75.90070000
136.69090000 39.78720000 22.23250000
135.21160000 62.70660000 74.37590000
95.46690000 67.89740000 125.32300000
93.18420000 63.28330000 124.13150000
128.89950000 63.31190000 70.70470000
97.74420000 72.86140000 118.45440000
98.24170000 72.30250000 126.81630000
129.86700000 68.56420000 74.73090000
100.15050000 80.37910000 124.93370000
142.28010000 43.71490000 37.19980000
142.66610000 52.10570000 -45.12140000
166.84760000 83.12170000 21.11050000
166.16410000 84.65940000 23.53720000
164.10960000 85.92540000 26.11300000
165.56780000 81.79470000 26.81930000
145.47940000 73.62380000 67.84270000
161.68960000 85.51560000 29.15730000
165.13390000 85.30220000 28.65020000
136.87300000 73.47890000 83.82810000
145.31760000 76.20620000 73.51890000
164.62060000 83.62690000 34.33920000
157.25510000 81.49540000 58.69800000
151.76240000 80.44990000 70.10430000
151.54970000 62.66350000 28.65010000
153.80600000 82.89260000 68.59640000
154.41430000 69.48060000 30.82670000
145.89920000 61.18380000 -48.23110000
137.68230000 54.99190000 -40.71500000
80.76040000 27.74050000 117.72350000
149.87770000 82.61180000 76.72330000
141.39280000 62.72320000 -39.18520000
159.11030000 83.17630000 54.97420000
154.78510000 84.00440000 66.19460000
157.17640000 84.65290000 59.90620000
146.49690000 56.31730000 -37.02080000
151.91630000 84.70530000 71.95300000
154.21440000 85.40020000 62.87180000
152.77270000 84.15890000 71.42000000
145.52990000 84.97280000 82.71170000
140.83220000 55.84760000 -29.66230000
147.25760000 50.56890000 -22.67470000
159.29330000 74.65020000 26.86020000
144.46520000 78.36660000 80.69250000
146.09930000 80.38550000 81.57870000
139.09280000 76.43740000 85.40250000
144.86340000 63.67080000 -26.43920000
141.82930000 81.52130000 90.07830000
147.54460000 83.65200000 81.31920000
155.18520000 72.59370000 37.14560000
153.75730000 77.65560000 26.94450000
143.97530000 84.90280000 80.35210000
147.18150000 84.23240000 81.71050000
158.94910000 76.69260000 37.73540000
79.75800000 34.96940000 120.80620000
162.65310000 79.81020000 35.44470000
71.99140000 34.11030000 125.25110000
157.20680000 81.99840000 30.20400000
160.22530000 84.63820000 28.36550000
151.33040000 69.34660000 -44.51280000
78.05450000 47.42270000 117.97600000
133.86290000 68.66130000 82.80190000
162.58950000 81.89910000 41.63910000
163.11650000 85.58750000 37.76830000
160.75220000 85.79440000 40.82710000
150.82980000 80.47720000 -49.20060000
88.89240000 52.41550000 121.50790000
142.92030000 68.11090000 -43.94050000
78.27300000 49.68630000 127.27940000
147.48160000 73.41580000 -40.67980000
159.62480000 79.69200000 47.46040000
152.32560000 65.50760000 -31.72260000
161.46830000 84.08330000 47.24530000
162.38370000 85.06550000 42.99890000
160.50580000 85.25370000 47.70150000
154.56350000 69.68330000 -33.31320000
76.71550000 59.27620000 124.43990000
159.12200000 73.63470000 -24.64150000
83.65900000 57.25850000 127.45950000
85.08610000 63.43830000 129.67130000
155.35140000 80.76190000 -33.09180000
163.46670000 78.04540000 -21.65260000
160.07360000 84.78190000 51.65810000
147.71430000 69.80270000 -29.01000000
139.29850000 83.23080000 82.98060000
64.45760000 32.80950000 128.67870000
137.27950000 85.00280000 93.54550000
52.32810000 20.74580000 130.12310000
138.80080000 84.47420000 94.79470000
140.36760000 83.74950000 93.33950000
137.71510000 83.11970000 97.40040000
68.38220000 50.37720000 125.27670000
135.70100000 84.91750000 98.09880000
78.07930000 61.64130000 132.79090000
69.79650000 51.72090000 132.89640000
66.26810000 62.77730000 132.17410000
139.16820000 45.84510000 50.06530000
59.73420000 53.01690000 130.83040000
57.96130000 34.98240000 132.45470000
58.08020000 46.15070000 136.04090000
161.09510000 84.71620000 -22.11910000
164.26100000 86.05590000 -15.24330000
166.51810000 85.50430000 -15.20830000
65.26040000 58.00850000 137.76960000
58.97900000 58.87250000 140.78140000
166.07160000 85.98430000 -6.89330000
81.66850000 65.69620000 124.97570000
89.21690000 69.39730000 122.22920000
90.57790000 76.68090000 128.19450000
115.78910000 36.81150000 87.89570000
79.17250000 68.50430000 136.94340000
80.02240000 72.30500000 130.96110000
75.15220000 64.74480000 136.19690000
71.34080000 68.01940000 132.89260000
65.22200000 62.65540000 139.83890000
75.93610000 76.87500000 137.63790000
65.09460000 71.62950000 138.69150000
104.21660000 83.87870000 126.73380000
95.99900000 83.38240000 132.18540000
103.83880000 80.09850000 131.52360000
112.69860000 81.38110000 125.06670000
101.79360000 81.94570000 134.59180000
121.04820000 83.20760000 117.93890000
92.19520000 84.14180000 137.39250000
98.44190000 83.76740000 136.71140000
102.03020000 82.96880000 134.68620000
108.40020000 83.65970000 129.28810000
73.69990000 66.45400000 138.67840000
77.06270000 73.91730000 142.85410000
98.48430000 84.24870000 135.73770000
81.53700000 81.73950000 139.02140000
61.22980000 71.93390000 149.03720000
89.72500000 80.29390000 141.81600000
92.84800000 82.61890000 140.91600000
67.97150000 80.47430000 145.16140000
88.61650000 73.28030000 134.91050000
81.61190000 83.11350000 141.03800000
101.89610000 76.66310000 128.72270000
89.46550000 77.82980000 139.19130000
86.52030000 83.80800000 144.41010000
114.23750000 83.24770000 124.43960000
115.39300000 83.97580000 122.92560000
85.24480000 84.10970000 143.61510000
64.62810000 75.87160000 151.31440000
79.71010000 79.39070000 147.06420000
110.30270000 84.65870000 125.18440000
82.30060000 82.92170000 147.32990000
70.15600000 78.70490000 151.88210000
75.03750000 80.23490000 150.58640000
109.95570000 84.45540000 126.81690000
110.04540000 82.49790000 128.29840000
68.77480000 79.73190000 154.05830000
73.41790000 81.56340000 151.96060000
65.08440000 80.44910000 155.56060000
81.56060000 81.75680000 147.76020000
77.43010000 83.65510000 149.17160000
70.38590000 83.05280000 147.10510000
69.72710000 83.66480000 148.95780000
58.41100000 83.58070000 153.81610000
65.41610000 83.62890000 153.50890000
71.18040000 82.80180000 152.90460000
64.49100000 65.74310000 142.39140000
-32.17560000 -82.57160000 -70.53920000
-29.26390000 -78.19390000 -72.53430000
-36.71030000 -83.75020000 -67.27140000
-70.47130000 -44.01730000 -55.80180000
-66.65550000 -41.83220000 -65.36790000
-75.61040000 -40.00140000 -58.90100000
-64.64890000 -51.47530000 -31.12650000
-47.87090000 -53.85520000 -37.33030000
-58.00690000 -51.07320000 -43.62880000
-35.72120000 -77.13560000 -69.59860000
-98.74350000 -53.98610000 1.65530000
-102.76820000 -50.66240000 1.21360000
-105.23930000 -48.33400000 -1.36800000
-100.41860000 -52.36190000 -8.56280000
-26.79880000 -82.60860000 -62.73510000
-29.90600000 -83.52590000 -62.21480000
-78.41450000 -43.48450000 -46.41310000
-31.13740000 -81.94860000 -60.63310000
-28.48580000 -80.58870000 -62.15440000
-31.67380000 -79.52180000 -60.04410000
-31.97450000 -75.84590000 -59.55610000
-40.76240000 -84.78020000 -62.51020000
-56.11380000 -48.63180000 -56.58570000
-68.64010000 -46.70300000 -49.70980000
-68.24060000 -49.41080000 -38.12290000
-42.66340000 -79.34780000 -64.97910000
-102.00840000 -51.14610000 8.27510000
-47.01080000 -84.87740000 -55.00550000
-42.61040000 -83.15270000 -64.28040000
-34.32980000 -83.16890000 -59.23290000
-35.66380000 -82.40600000 -57.88390000
-34.42830000 -80.74210000 -58.86330000
-100.30380000 -37.92860000 -4.41580000
-102.58270000 -35.02760000 -11.71570000
-106.65060000 -31.79390000 -1.81660000
-41.99730000 -84.41570000 -56.03820000
-77.30740000 -58.59850000 -48.03480000
-71.55530000 -62.16160000 -45.12620000
-83.38330000 -58.18270000 -38.50210000
-55.66470000 -54.15890000 -23.99890000
-64.14740000 -52.82080000 -19.03730000
-39.47160000 -80.94210000 -55.18220000
-41.91500000 -82.63270000 -53.26430000
-84.43380000 -48.72480000 -61.76560000
-77.70820000 -51.77390000 -64.88270000
-80.54510000 -53.42180000 -57.27530000
-77.27790000 -49.18970000 -19.10150000
-91.60960000 -44.23020000 8.01870000
-96.62200000 -40.95310000 -2.59310000
-97.34940000 -40.31050000 11.56850000
-47.07150000 -82.43260000 -61.36320000
-103.85220000 -34.92670000 5.33720000
-49.81260000 -83.87750000 -57.70270000
-53.59530000 -83.16070000 -55.05450000
-52.01340000 -78.96540000 -57.60480000
-102.62240000 -35.74560000 13.31460000
-47.38310000 -76.39680000 -62.15370000
-42.18210000 -83.58190000 -54.27680000
-90.56250000 -44.40380000 -59.20160000
-82.55620000 -44.48060000 -69.83590000
-44.22150000 -56.00240000 -18.17800000
-90.05970000 -48.21490000 -54.17380000
-40.12380000 -78.63550000 -54.31990000
-45.50440000 -79.87860000 -50.05880000
-50.92700000 -84.61790000 -54.82790000
-104.35410000 -48.28470000 15.12710000
-50.40610000 -84.66060000 -49.22110000
-108.46090000 -44.55380000 -0.24030000
-108.42840000 -44.81810000 7.56730000
-50.27290000 -83.61380000 -46.48340000
-48.46530000 -82.71810000 -47.13230000
-54.51300000 -55.11760000 -8.59870000
-41.97730000 -75.56850000 -52.63640000
-110.23420000 -40.82580000 16.36920000
-112.35410000 -39.70110000 -1.84190000
-110.50410000 -41.73680000 -8.74700000
-57.89730000 -84.63380000 -47.19000000
-49.65400000 -80.52900000 -45.83810000
-112.46070000 -38.88970000 5.70890000
-115.21940000 -33.43360000 -13.76570000
-116.17020000 -33.35680000 -2.00760000
-61.23050000 -83.34410000 -45.78580000
-57.28230000 -82.67810000 -51.55510000
-59.44560000 -84.88200000 -40.24610000
-57.58020000 -84.39340000 -39.18360000
-67.77390000 -77.58300000 -37.85770000
-70.59920000 -78.69560000 -31.60040000
-72.73130000 -67.09260000 -31.80040000
-117.72110000 -30.92520000 5.30750000
-58.00430000 -75.84070000 -52.19560000
-75.77580000 -67.12190000 -23.20430000
-91.07120000 -51.12620000 -45.13610000
-86.89890000 -54.65500000 -43.52640000
-63.22660000 -77.52270000 -44.95300000
-74.09930000 -72.37500000 -25.57550000
-64.70930000 -84.61850000 -37.02810000
-76.39780000 -46.59240000 -38.59310000
-75.88390000 -72.22060000 -19.66370000
-63.87300000 -82.09820000 -43.00590000
-77.29480000 -76.95320000 8.77570000
-78.77140000 -69.45950000 4.02750000
-78.06400000 -74.25340000 3.91370000
-79.44780000 -66.54780000 7.32290000
-80.78500000 -64.90600000 -1.20400000
-79.38830000 -67.31480000 -1.46240000
-81.16150000 -64.33960000 4.41800000
-72.87010000 -63.94330000 -36.11140000
-80.25810000 -61.64370000 -29.68450000
-77.04710000 -70.79740000 16.18260000
-78.01280000 -67.20710000 15.11430000
-75.47470000 -64.08690000 -29.85140000
-70.54240000 -66.37940000 -37.01630000
-78.90340000 -65.13090000 15.89930000
-49.29510000 -75.39970000 -45.52160000
-85.51930000 -39.07960000 -46.48260000
-76.19580000 -65.01060000 -25.24770000
-89.16360000 -59.26950000 12.91880000
-87.41090000 -60.95110000 1.31590000
-82.77330000 -63.06060000 4.31210000
-56.39960000 -82.85780000 -37.12910000
-53.46390000 -81.28900000 -41.36350000
-87.53500000 -40.53180000 -38.61980000
-79.10410000 -64.07030000 19.80890000
-54.13970000 -79.67470000 -39.82950000
-82.90590000 -44.05060000 -36.56580000
-53.33190000 -72.94140000 -40.03780000
-55.63270000 -75.70500000 -37.19420000
-76.50860000 -67.23100000 21.66610000
-74.53990000 -74.34530000 23.66380000
-57.56420000 -81.00480000 -35.18000000
-76.51240000 -64.45810000 27.10060000
-78.31600000 -65.29760000 -17.42620000
-82.57690000 -61.77750000 22.73780000
-60.63630000 -83.05580000 -29.97280000
-59.62660000 -74.91870000 -29.97380000
-90.59390000 -56.39480000 -27.17040000
-93.95950000 -53.05570000 -32.20300000
-60.47780000 -80.23350000 -29.55220000
-66.96510000 -84.93860000 -28.69530000
-67.82510000 -82.98810000 -35.81800000
-62.77130000 -84.50840000 -30.34610000
-95.02070000 -47.37320000 -46.13660000
-79.40630000 -63.68310000 -19.41720000
-99.95720000 -41.85600000 -46.59060000
-69.91750000 -83.92730000 -29.55580000
-70.76330000 -82.54390000 -30.06790000
-87.27030000 -59.87150000 -16.62300000
-96.53330000 -40.48710000 -55.34750000
-90.82190000 -56.58780000 26.80700000
-73.94750000 -66.34540000 30.07720000
-63.13850000 -82.45160000 -23.07890000
-73.78130000 -64.11010000 34.78740000
-62.53720000 -80.24180000 -24.60250000
-62.74480000 -70.38220000 -20.42070000
-64.67970000 -70.70200000 -13.38400000
-64.60520000 -75.94770000 -16.93820000
-71.56100000 -70.60170000 33.29800000
-69.30730000 -66.07410000 40.05360000
-65.82850000 -73.88390000 -10.07670000
-65.21990000 -83.62690000 -19.35850000
-66.51880000 -84.58610000 -21.00700000
-71.30920000 -84.65950000 -21.49560000
-64.05440000 -67.64180000 -9.51000000
-63.35120000 -68.52970000 -16.06970000
-69.86850000 -64.09150000 41.74830000
-68.61760000 -71.88810000 38.70840000
-59.91410000 -65.59060000 -9.93550000
-61.76920000 -66.77650000 -16.68140000
-59.53350000 -66.05140000 -20.18700000
-65.02900000 -82.52720000 -17.20370000
-63.51060000 -66.56170000 -5.06250000
-64.92810000 -80.58730000 -17.36630000
-65.59630000 -69.66320000 -5.08650000
-76.50720000 -34.93320000 -86.23220000
-64.98280000 -35.95110000 -94.30500000
-67.07000000 -44.76920000 -84.81990000
-62.68070000 -74.72770000 -22.99790000
-62.18290000 -65.87190000 -0.82010000
-66.76900000 -75.63710000 -2.13820000
-69.89900000 -84.82050000 -14.29180000
-65.51310000 -29.96720000 -98.71340000
-65.81640000 -69.61030000 2.04210000
-80.14300000 -26.73310000 -89.31750000
-69.36860000 -24.12310000 -99.57260000
-64.61770000 -67.37660000 0.93440000
-59.30850000 -52.48250000 36.97260000
-72.26420000 -50.50980000 28.22660000
-67.43950000 -50.10030000 41.81410000
-73.07560000 -83.54600000 -22.12870000
-73.52230000 -82.38190000 -22.75030000
-72.96460000 -80.66920000 -24.82160000
-77.77620000 -61.69730000 36.22810000
-76.87030000 -75.30580000 -12.87970000
-78.40420000 -67.39730000 -12.09870000
-80.23980000 -35.35170000 -82.90590000
-84.97260000 -27.48270000 -84.34900000
-75.55660000 -82.85170000 -13.21080000
-73.83760000 -84.46340000 -12.90090000
-78.27000000 -71.29690000 -6.22640000
-75.07650000 -80.87580000 -17.48180000
-85.59180000 -57.39190000 37.24420000
-79.50450000 -66.04450000 -8.38870000
-81.35680000 -63.64220000 -10.01530000
-89.97000000 -33.39830000 -73.53530000
-83.65140000 -17.65760000 -91.86030000
-75.26700000 -59.44990000 49.29760000
-67.11060000 -83.31200000 -8.31410000
-68.68810000 -84.37090000 -8.40940000
-73.89210000 -84.87220000 4.22850000
-70.54240000 -84.85590000 -2.33920000
-74.48570000 -18.77070000 -99.04780000
-82.65350000 -56.73990000 46.07050000
-68.06390000 -83.68130000 1.17840000
-67.31500000 -82.89060000 -1.04250000
-66.53300000 -82.51270000 -8.86600000
-67.36910000 -81.44100000 -1.73390000
-67.12220000 -81.02700000 5.17940000
-81.91760000 -48.71580000 6.92140000
-71.78050000 -51.73820000 9.17980000
-73.30750000 -51.26510000 -6.31060000
-66.78510000 -81.48610000 -8.13650000
-66.14470000 -79.17790000 -10.73610000
-75.97240000 -20.24810000 -83.72390000
-65.31530000 -17.52440000 -94.08560000
-75.53130000 -12.99170000 -89.61360000
-78.70260000 -47.38080000 -29.30990000
-69.72840000 -14.81970000 -104.35130000
-77.75810000 -8.78170000 -101.60860000
-67.09440000 -79.63230000 0.79980000
-84.74390000 -8.31920000 -96.12230000
-81.07660000 -47.84240000 25.86300000
-75.73930000 -83.70030000 -7.93920000
-76.01450000 -83.81930000 1.55860000
-68.98810000 -84.61070000 8.58810000
-88.13970000 -45.34030000 20.65530000
-71.17130000 -85.03750000 8.72770000
-93.98690000 -42.12790000 18.13190000
-76.82630000 -82.81860000 -1.84200000
-86.68280000 -45.95350000 -14.66900000
-77.20460000 -79.77510000 -2.99030000
-93.34180000 -17.36060000 -82.50760000
-88.92360000 -14.48950000 -88.58350000
-87.33590000 -43.88100000 -26.49300000
-91.79420000 -7.05830000 -89.60950000
-67.02190000 -82.82300000 5.84170000
-85.94240000 -13.58190000 -79.57560000
-84.72760000 -2.69420000 -87.86920000
-78.14440000 -46.82480000 40.27710000
-67.26200000 -83.64720000 10.51780000
-92.27610000 -39.51980000 -30.88700000
-66.43130000 -82.24110000 11.57320000
-65.10680000 -82.78220000 17.89200000
-65.92330000 -80.38000000 14.11100000
-65.94800000 -85.26970000 30.80330000
-64.30270000 -80.67140000 20.68890000
-92.80530000 -24.02260000 -78.27450000
-66.80520000 -84.82280000 23.38950000
-65.57690000 -83.78720000 19.50900000
-96.03210000 -55.54590000 11.17800000
-98.47100000 -52.77160000 17.58670000
-66.64210000 -74.83790000 4.63160000
-63.35160000 -53.68420000 -2.89640000
-65.61080000 -75.44940000 13.48400000
-65.75600000 -71.16080000 9.06500000
-97.03300000 -13.80630000 -79.98080000
-63.97250000 -76.47800000 20.68570000
-100.16970000 -50.32070000 26.02250000
-93.08620000 -53.63050000 33.87440000
-64.49690000 -70.32280000 15.16610000
-99.94340000 -47.00750000 36.70010000
-62.56270000 -70.55960000 22.25920000
-63.49270000 -84.83000000 30.94990000
-62.39410000 -83.13400000 26.62430000
-62.21110000 -80.21670000 26.55170000
-81.20700000 -48.78910000 -7.10290000
-60.22190000 -81.58310000 31.28670000
-100.89970000 -17.77920000 -72.47240000
-57.03020000 -82.70200000 37.04990000
-101.01260000 -2.42050000 -81.81800000
-58.35720000 -74.57220000 33.61520000
-58.24050000 -80.53330000 34.77120000
-91.62240000 -51.94560000 42.89220000
-55.67340000 -78.73620000 38.75080000
-58.82950000 -83.95870000 36.70500000
-57.42000000 -85.26430000 43.95630000
-73.43060000 -43.88780000 -80.42210000
-77.58360000 -40.40290000 -79.75660000
-61.78840000 -73.95990000 26.16020000
-68.52480000 -34.19000000 -75.77380000
-72.50510000 -37.61830000 -66.93370000
-61.68760000 -40.05670000 -73.17850000
-58.80680000 -70.35230000 31.06800000
-58.89660000 -68.33620000 28.90150000
-59.36520000 -36.63250000 -80.07460000
-94.74390000 -47.58210000 47.65190000
-52.58850000 -72.65130000 42.01800000
-54.67980000 -70.36510000 38.24870000
-76.80110000 -31.15970000 -71.52970000
-42.82030000 -43.20300000 -101.17860000
-44.52210000 -46.46640000 -97.58580000
-41.22700000 -50.05260000 -95.22550000
-46.01300000 -56.31400000 1.14280000
-25.36520000 -57.40400000 -8.28690000
-71.34340000 -28.24120000 -80.25530000
-63.78480000 -26.09710000 -88.29170000
-91.98160000 -42.23580000 26.95340000
-53.41640000 -44.38150000 -94.69700000
-55.85530000 -47.64790000 -89.91790000
-49.66930000 -52.65460000 -87.39780000
-77.76930000 -25.58010000 -77.04820000
-38.00620000 -56.87010000 11.91520000
-82.02870000 -37.64200000 -78.73430000
-59.46920000 -43.49100000 -91.96360000
-98.62660000 -37.24380000 26.49600000
-37.69490000 -62.60580000 -75.48220000
-35.93440000 -60.34910000 -81.26450000
-85.85440000 -37.95800000 -73.96650000
-29.46500000 -68.70720000 -74.04980000
-106.09100000 -44.54680000 24.26360000
-83.82350000 -32.39560000 -61.54110000
-27.48150000 -73.20330000 -61.63940000
-29.85190000 -69.11980000 -59.29700000
-31.31640000 -66.22880000 -74.16190000
-110.32190000 -39.19520000 25.27870000
-35.45330000 -64.79050000 -73.21650000
-85.57960000 -26.56160000 -67.37110000
-87.10950000 -20.22380000 -72.45200000
-102.80470000 -46.11540000 32.47920000
-27.51520000 -66.13880000 -57.36650000
-28.84100000 -67.37950000 -58.67710000
-59.20820000 -54.45960000 9.41070000
-105.72640000 -30.91020000 23.57630000
-48.61900000 -55.60840000 20.01970000
-34.66230000 -71.63350000 -57.29630000
-35.47620000 -67.81120000 -55.02790000
-39.78210000 -70.06430000 -53.16600000
-37.93900000 -67.32750000 -70.38470000
-42.16050000 -67.76390000 -67.70230000
-85.61740000 -44.54680000 34.65830000
-44.70160000 -63.12250000 -70.39140000
-44.28650000 -64.84650000 -68.11120000
-89.95020000 -41.51780000 36.36760000
-34.11660000 -66.44010000 -54.21420000
-16.08110000 -65.36280000 26.01210000
-24.68980000 -65.46690000 44.39630000
-39.10770000 -65.18440000 9.81240000
-40.42560000 -56.76540000 -85.69290000
-39.49760000 -53.23160000 -91.78090000
-80.75930000 -43.15970000 49.56590000
-24.71400000 -57.09200000 24.72690000
-19.32340000 -57.66020000 10.30980000
-87.56270000 -38.92070000 49.42590000
-92.86260000 -37.58890000 42.31870000
-94.24440000 -37.05810000 -63.64620000
-37.49400000 -45.49520000 -78.58910000
-99.21440000 -42.56270000 48.84380000
-44.69860000 -55.31080000 -86.53340000
-99.50900000 -33.74680000 36.58100000
-54.35160000 -56.29190000 -78.18330000
-104.70320000 -28.31010000 36.47280000
-46.99280000 -59.87510000 -76.43990000
-91.62540000 -29.39770000 -54.87130000
-98.58320000 -31.15950000 45.67540000
-49.27550000 -42.66830000 -77.83800000
-99.81050000 -34.88380000 -24.26430000
-95.72370000 -35.07770000 -35.67930000
-38.41520000 -55.54190000 35.94720000
-99.07970000 -26.22050000 -67.91150000
-28.13380000 -54.06060000 -51.72170000
-59.68270000 -65.59990000 9.22520000
-100.28670000 -34.85230000 -56.48810000
-104.55280000 -28.19720000 -29.62300000
-64.44950000 -68.08540000 9.56990000
-63.36520000 -66.54870000 6.76670000
-62.21050000 -66.59530000 13.88930000
-38.64370000 -48.09210000 -71.53600000
-107.06850000 -28.47340000 -19.28070000
-33.90480000 -51.34260000 -62.35680000
-60.00340000 -66.44180000 20.89530000
-108.09540000 -21.68010000 -34.79250000
-110.70550000 -21.65210000 -26.15910000
-115.61180000 -29.60730000 -24.97320000
-111.40470000 -32.93490000 -33.58810000
-111.22760000 -37.60810000 -21.66170000
-45.46620000 -49.96720000 -60.54710000
-49.64490000 -46.29750000 -69.56150000
-85.18220000 -35.99160000 -53.48550000
-108.45840000 -28.85530000 -9.42210000
-47.26150000 -68.42060000 -63.82000000
-54.33030000 -67.37120000 -58.19470000
-63.05240000 -68.23180000 17.39520000
-91.64650000 -34.79160000 -44.96770000
-98.34100000 -30.29200000 -40.79470000
-113.78190000 -14.61910000 -30.76560000
-44.92450000 -72.23320000 -49.44530000
-113.36200000 -20.52560000 -17.55110000
-58.05480000 -54.12970000 21.63980000
-52.05210000 -65.36400000 -61.52810000
-53.14400000 -63.86470000 -62.68250000
-52.51630000 -60.01320000 -72.02510000
-94.54990000 -21.26440000 -61.79440000
-99.85380000 -19.50270000 -55.71400000
-118.74640000 -27.02730000 -17.79410000
-56.75740000 -66.11610000 26.39730000
-50.31230000 -65.76870000 33.05170000
-93.41150000 -14.29270000 -70.42910000
-59.85290000 -60.34940000 -64.60580000
-121.74620000 -23.24200000 -8.90580000
-49.77090000 -66.15440000 38.53790000
-119.62550000 -22.47740000 -25.13750000
-115.88280000 -25.87600000 -32.54050000
-92.65380000 -5.39590000 -77.96220000
-61.17420000 -63.97940000 -54.17040000
-62.83020000 -64.65720000 -50.65950000
-121.87120000 -20.89010000 -17.32970000
-58.46370000 -52.35350000 -81.91360000
-112.54890000 -24.03840000 -6.68260000
-48.62330000 -53.99680000 39.43470000
-115.93600000 -18.40410000 -9.11980000
-61.14450000 -67.49570000 21.82140000
-56.10260000 -67.11250000 32.00710000
-55.24600000 -44.20920000 -70.50930000
-98.53070000 -13.88010000 -63.90140000
-54.06340000 -68.44860000 37.61340000
-113.26110000 -23.67440000 4.20720000
-100.03280000 -1.30640000 -71.50980000
-67.09380000 -53.27490000 -72.95570000
-106.28940000 -9.54850000 -70.64880000
-110.30040000 -2.31760000 -68.88150000
-109.26770000 -28.79820000 10.11980000
-68.61650000 -48.93430000 -78.44200000
-27.04660000 -65.52430000 -54.85950000
-111.39830000 -24.41520000 20.41670000
-76.83850000 -82.59760000 5.74550000
-116.87320000 -17.84630000 0.94030000
-75.32860000 -84.09930000 9.59220000
