-34.11560000 -40.41990000 0.81160000
-34.20080000 -36.94630000 3.60740000
-34.27020000 -36.94630000 0.81030000
-34.38730000 -32.79800000 3.61990000
-34.45710000 -32.79800000 0.80680000
-34.15030000 -31.05040000 3.59850000
-34.21960000 -31.05040000 0.80470000
-33.42330000 -29.61680000 3.53660000
-33.49110000 -29.61680000 0.80270000
-31.67270000 -28.56750000 3.39010000
-31.73700000 -28.56750000 0.80110000
-29.78260000 -28.19610000 3.23290000
-29.84290000 -28.19610000 0.80050000
-26.38510000 -28.17020000 2.95120000
-26.43840000 -28.17020000 0.80040000
-4.38130000 -18.81730000 0.77980000
-29.22740000 -19.06090000 0.78040000
-4.37300000 -18.81730000 1.10700000
-29.16830000 -19.06090000 3.16500000
-50.43880000 -14.99990000 0.76810000
-50.33630000 -14.99990000 4.91200000
-62.54170000 -7.39670000 0.74000000
-62.41440000 -7.39670000 5.89470000
-71.14960000 1.78300000 0.69690000
-71.00470000 1.78300000 6.57950000
-77.96150000 12.47520000 0.63400000
-77.80270000 12.47520000 7.10500000
-83.52350000 24.42720000 0.54770000
-83.35330000 24.42720000 7.51510000
-87.28790000 36.21080000 7.78470000
-87.46620000 36.21080000 0.44680000
-88.99170000 41.31480000 7.89980000
-89.17340000 41.31480000 0.39820000
-89.26790000 41.54830000 0.39590000
-89.08600000 41.54830000 7.90640000
-89.48770000 41.74690000 0.39400000
-89.30530000 41.74690000 7.92380000
-89.63400000 41.85800000 0.39280000
-89.45130000 41.85800000 7.93550000
-90.03350000 41.62530000 0.39510000
-89.85000000 41.62520000 7.97060000
-87.61870000 40.87940000 22.94440000
-89.02250000 40.87940000 15.49910000
-87.39770000 38.89980000 22.88420000
-88.79800000 38.89980000 15.46490000
-84.99620000 24.43670000 14.85000000
-83.65600000 24.43670000 21.90530000
-80.09590000 14.13670000 20.98830000
-81.37880000 14.13670000 14.26040000
-75.09240000 2.73570000 19.71170000
-76.29470000 2.73570000 13.42760000
-67.98890000 -8.81010000 17.90870000
-69.07680000 -8.81010000 12.23790000
-60.14740000 -16.94270000 15.92270000
-61.10900000 -16.94270000 10.91740000
-54.03160000 -21.33550000 14.37470000
-54.89480000 -21.33550000 9.88490000
-41.68080000 -28.66080000 7.68650000
-41.02720000 -28.66080000 11.08410000
-39.38610000 -29.82530000 10.66910000
-40.01330000 -29.82530000 7.40920000
-38.65980000 -30.58640000 10.48560000
-39.27530000 -30.58640000 7.28670000
-39.07970000 -30.95860000 7.25440000
-38.46730000 -30.95860000 10.43700000
-37.59090000 -34.90490000 10.21700000
-38.18920000 -34.90490000 7.10840000
-36.65080000 -40.09400000 9.98010000
-37.23390000 -40.09400000 6.95080000
-35.53370000 -41.64040000 9.69740000
-36.09890000 -41.64040000 6.76150000
-34.85190000 -41.85800000 9.52470000
-35.40600000 -41.85800000 6.64590000
-34.25000000 -41.75990000 9.37230000
-34.79450000 -41.75990000 6.54390000
-33.61460000 -41.60450000 9.21140000
-34.14880000 -41.60450000 6.43610000
-33.98720000 -41.53360000 6.40910000
-33.45550000 -41.53360000 9.17110000
-33.12980000 -40.41990000 9.08860000
-33.65630000 -40.41990000 6.35380000
-33.80890000 -36.94630000 6.37840000
-33.28000000 -36.94630000 9.12600000
-33.46140000 -32.79800000 9.17010000
-33.99320000 -32.79800000 6.40680000
-33.23080000 -31.05040000 9.11060000
-33.75890000 -31.05040000 6.36630000
-32.52360000 -29.61680000 8.93050000
-33.04040000 -29.61680000 6.24500000
-30.82070000 -28.56750000 8.49820000
-31.31010000 -28.56750000 5.95500000
-28.98220000 -28.19610000 8.03210000
-29.44190000 -28.19610000 5.64270000
-25.67730000 -28.17020000 7.19470000
-26.08380000 -28.17020000 5.08210000
-4.32730000 -18.81730000 1.43160000
-28.83460000 -19.06090000 5.52710000
-4.26540000 -18.81730000 1.75300000
-28.38430000 -19.06090000 7.86930000
-49.75670000 -14.99990000 9.01660000
-48.97490000 -14.99990000 13.08680000
-61.69440000 -7.39670000 10.99960000
-60.72340000 -7.39670000 16.06220000
-70.18490000 1.78300000 12.40430000
-69.07930000 1.78300000 18.18090000
-76.90390000 12.47520000 13.51070000
-75.69180000 12.47520000 19.86370000
-82.39000000 24.42720000 14.40960000
-81.09110000 24.42720000 21.24770000
-86.27900000 36.21080000 15.04250000
-84.91850000 36.21080000 22.24140000
-87.96310000 41.31480000 15.31780000
-86.57600000 41.31480000 22.67580000
-88.05640000 41.54830000 15.33320000
-86.66780000 41.54830000 22.69990000
-88.27310000 41.74690000 15.36970000
-86.88110000 41.74690000 22.75530000
-88.41740000 41.85800000 15.39410000
-87.02320000 41.85800000 22.79220000
-88.81150000 41.62520000 15.46170000
-87.41100000 41.62520000 22.89200000
-82.79490000 40.87940000 37.26100000
-85.38080000 40.87940000 30.16310000
-82.58610000 38.89980000 37.15170000
-85.16550000 38.89980000 30.07820000
-79.05110000 24.43670000 35.48010000
-81.51960000 24.43670000 28.75020000
-75.68800000 14.13670000 33.93690000
-78.05090000 14.13670000 27.51760000
-70.96150000 2.73570000 31.80930000
-73.17590000 2.73570000 25.81200000
-64.25140000 -8.81010000 28.82770000
-66.25500000 -8.81010000 23.41480000
-56.84390000 -16.94270000 25.56130000
-58.61490000 -16.94270000 20.78320000
-51.06670000 -21.33550000 23.02090000
-52.65620000 -21.33550000 18.73480000
-39.98560000 -28.66080000 14.38390000
-38.78180000 -28.66080000 17.62740000
-37.23160000 -29.82530000 16.94730000
-38.38670000 -29.82530000 13.83520000
-36.54550000 -30.58640000 16.64630000
-37.67900000 -30.58640000 13.59250000
-37.49150000 -30.95860000 13.52820000
-36.36370000 -30.95860000 16.56660000
-35.53590000 -34.90490000 16.20390000
-36.63770000 -34.90490000 13.23620000
-34.64780000 -40.09400000 15.81470000
-35.72160000 -40.09400000 12.92250000
-33.59250000 -41.64040000 15.35180000
-34.63330000 -41.64040000 12.54900000
-32.94840000 -41.85800000 15.06930000
-33.96890000 -41.85800000 12.32090000
-32.37990000 -41.75990000 14.81990000
-33.38250000 -41.75990000 12.11960000
-31.77960000 -41.60450000 14.55660000
-32.76340000 -41.60450000 11.90710000
-32.60840000 -41.53360000 11.85380000
-31.62930000 -41.53360000 14.49070000
-31.32170000 -40.41990000 14.35570000
-32.29110000 -40.41990000 11.74490000
-32.43740000 -36.94630000 11.79460000
-31.46350000 -36.94630000 14.41770000
-31.63470000 -32.79800000 14.49210000
-32.61410000 -32.79800000 11.85400000
-31.41680000 -31.05040000 14.39610000
-32.38940000 -31.05040000 11.77610000
-30.74870000 -29.61680000 14.10250000
-31.70030000 -29.61680000 11.53880000
-29.14000000 -28.56750000 13.39620000
-30.04110000 -28.56750000 10.96830000
-27.40310000 -28.19610000 12.63380000
-28.24970000 -28.19610000 10.35280000
-24.28110000 -28.17020000 11.26380000
-25.02970000 -28.17020000 9.24690000
-4.16700000 -18.81730000 2.06560000
-27.66700000 -19.06090000 10.14420000
-4.05300000 -18.81730000 2.37240000
-26.83780000 -19.06090000 12.38020000
-47.72900000 -14.99990000 17.03940000
-46.28920000 -14.99990000 20.92490000
-59.17580000 -7.39670000 20.97770000
-57.38750000 -7.39670000 25.81010000
-67.31710000 1.78300000 23.78890000
-65.28080000 1.78300000 29.30210000
-73.75970000 12.47520000 26.02950000
-71.52720000 12.47520000 32.09150000
-79.02030000 24.42720000 27.88210000
-76.62770000 24.42720000 34.40490000
-82.74970000 36.21080000 29.22270000
-80.24360000 36.21080000 36.08700000
-84.36470000 41.31480000 29.80990000
-81.80960000 41.31480000 36.82460000
-84.45410000 41.54830000 29.84230000
-81.89630000 41.54830000 36.86520000
-84.66210000 41.74690000 29.91600000
-82.09800000 41.74690000 36.95690000
-84.80040000 41.85800000 29.96500000
-82.23210000 41.85800000 37.01780000
-85.17840000 41.62520000 30.09610000
-82.59860000 41.62520000 37.17960000
-75.72180000 40.87940000 50.55560000
-79.42010000 40.87940000 43.99700000
-75.53110000 38.89980000 50.40180000
-79.22000000 38.89980000 43.86520000
-72.29990000 24.43670000 48.09240000
-75.82990000 24.43670000 41.87060000
-69.22600000 14.13670000 45.97070000
-72.60480000 14.13670000 40.03440000
-64.90590000 2.73570000 43.05470000
-68.07230000 2.73570000 37.50750000
-58.77260000 -8.81010000 38.97910000
-61.63740000 -8.81010000 33.97160000
-52.00160000 -16.94270000 34.52310000
-54.53360000 -16.94270000 30.10250000
-46.72050000 -21.33550000 31.06030000
-48.99310000 -21.33550000 27.09470000
-37.21160000 -28.66080000 20.71060000
-35.49060000 -28.66080000 23.71170000
-34.07350000 -29.82530000 22.78500000
-35.72490000 -29.82530000 19.90560000
-33.44640000 -30.58640000 22.37490000
-35.06700000 -30.58640000 19.54930000
-34.89260000 -30.95860000 19.45490000
-33.28010000 -30.95860000 22.26620000
-32.52360000 -34.90490000 21.77090000
-34.09880000 -34.90490000 19.02500000
-31.71180000 -40.09400000 21.24000000
-33.24710000 -40.09400000 18.56400000
-30.74720000 -41.64040000 20.60960000
-32.23510000 -41.64040000 18.01630000
-30.15830000 -41.85800000 20.22500000
-31.61740000 -41.85800000 17.68200000
-29.63860000 -41.75990000 19.88540000
-31.07210000 -41.75990000 17.38690000
-29.08980000 -41.60450000 19.52690000
-30.49640000 -41.60450000 17.07540000
-30.35220000 -41.53360000 16.99730000
-28.95240000 -41.53360000 19.43710000
-28.67120000 -40.41990000 19.25340000
-30.05720000 -40.41990000 16.83770000
-30.19320000 -36.94630000 16.91120000
-28.80080000 -36.94630000 19.33820000
-30.35730000 -32.79800000 16.99990000
-28.95720000 -32.79800000 19.44080000
-28.75790000 -31.05040000 19.31080000
-30.14830000 -31.05040000 16.88670000
-28.14710000 -29.61680000 18.91180000
-29.50760000 -29.61680000 16.53970000
-26.67630000 -28.56750000 17.95060000
-27.96470000 -28.56750000 15.70430000
-25.08850000 -28.19610000 16.91280000
-26.29890000 -28.19610000 14.80230000
-22.23440000 -28.17020000 15.04730000
-23.30470000 -28.17020000 13.18120000
-3.90460000 -18.81730000 2.66460000
-25.75630000 -19.06090000 14.50570000
-3.74170000 -18.81730000 2.94840000
-24.57090000 -19.06090000 16.57450000
-44.41090000 -14.99990000 24.61780000
-42.35240000 -14.99990000 28.21260000
-55.05440000 -7.39670000 30.40230000
-52.49750000 -7.39670000 34.87280000
-62.62410000 1.78300000 34.54050000
-59.71250000 1.78300000 39.64020000
-68.61430000 12.47520000 37.85000000
-65.42200000 12.47520000 43.45610000
-73.50550000 24.42720000 40.59900000
-70.08400000 24.42720000 46.62950000
-76.97310000 36.21080000 42.60270000
-73.38910000 36.21080000 48.94670000
-78.47500000 41.31480000 43.48160000
-74.82070000 41.31480000 49.96330000
-78.55820000 41.54830000 43.53000000
-74.90000000 41.54830000 50.01920000
-78.75160000 41.74690000 43.63870000
-75.08440000 41.74690000 50.14450000
-78.88030000 41.85790000 43.71080000
-75.20710000 41.85790000 50.22750000
-79.23180000 41.62520000 43.90180000
-75.54230000 41.62520000 50.44690000
-66.58990000 40.87940000 62.47010000
-71.30100000 40.87940000 56.62740000
-66.42260000 38.89980000 62.27700000
-71.12160000 38.89980000 56.45360000
-63.58510000 24.43670000 59.40080000
-68.08110000 24.43670000 53.85550000
-60.88520000 14.13670000 56.76310000
-65.18830000 14.13670000 51.47090000
-57.09040000 2.73570000 53.14200000
-61.12250000 2.73570000 48.19560000
-51.70190000 -8.81010000 48.08650000
-55.34980000 -8.81010000 43.62080000
-45.75240000 -16.94270000 42.56380000
-48.97650000 -16.94270000 38.62110000
-41.11170000 -21.33550000 38.27360000
-44.00540000 -21.33550000 34.73670000
-33.43460000 -28.66080000 26.49420000
-31.24320000 -28.66080000 29.17100000
-29.99790000 -29.82530000 28.02310000
-32.10070000 -29.82530000 25.45480000
-29.44690000 -30.58640000 27.51500000
-31.51040000 -30.58640000 24.99480000
-31.35390000 -30.95860000 24.87280000
-29.30080000 -30.95860000 27.38030000
-28.63620000 -34.90490000 26.76600000
-30.64180000 -34.90490000 24.31690000
-27.92290000 -40.09400000 26.10800000
-29.87780000 -40.09400000 23.72120000
-27.07520000 -41.64040000 25.32740000
-28.96970000 -41.64040000 23.01430000
-26.55770000 -41.85800000 24.85100000
-28.41540000 -41.85800000 22.58290000
-26.10100000 -41.75990000 24.43050000
-27.92620000 -41.75990000 22.20210000
-25.61870000 -41.60450000 23.98660000
-27.40960000 -41.60450000 21.80000000
-27.28030000 -41.53360000 21.69940000
-25.49790000 -41.53360000 23.87550000
-25.25080000 -40.41990000 23.64800000
-27.01550000 -40.41990000 21.49330000
-27.13750000 -36.94630000 21.58860000
-25.36460000 -36.94630000 23.75330000
-27.28460000 -32.79800000 21.70400000
-25.50180000 -32.79800000 23.88110000
-25.32660000 -31.05040000 23.72060000
-27.09700000 -31.05040000 21.55850000
-24.78960000 -29.61680000 23.22700000
-26.52190000 -29.61680000 21.11130000
-23.49700000 -28.56750000 22.03720000
-25.13740000 -28.56750000 20.03360000
-22.10150000 -28.19610000 20.75220000
-23.64270000 -28.19610000 18.86980000
-19.59330000 -28.17020000 18.44230000
-20.95600000 -28.17020000 16.77780000
-3.54740000 -18.81730000 3.21210000
-23.15480000 -19.06090000 18.49270000
-3.33990000 -18.81730000 3.46520000
-21.64540000 -19.06090000 20.33790000
-39.89300000 -14.99990000 31.54520000
-37.27180000 -14.99990000 34.75130000
-49.44250000 -7.39670000 39.01660000
-46.18660000 -7.39670000 43.00340000
-56.23360000 1.78300000 44.36650000
-52.52590000 1.78300000 48.91400000
-61.60730000 12.47520000 48.65070000
-57.54190000 12.47520000 53.64880000
-65.99490000 24.42720000 52.21560000
-61.63710000 24.42720000 57.59060000
-69.10520000 36.21080000 54.82090000
-64.54000000 36.21080000 60.47340000
-70.45250000 41.31480000 55.96390000
-65.79750000 41.31480000 61.73820000
-70.52710000 41.54830000 56.02680000
-65.86710000 41.54830000 61.80770000
-70.70070000 41.74690000 56.16730000
-66.02920000 41.74690000 61.96290000
-70.81630000 41.85790000 56.26050000
-66.13710000 41.85800000 62.06580000
-71.13190000 41.62520000 56.50620000
-66.43190000 41.62520000 62.33680000
-55.64530000 40.87940000 72.68480000
-61.24220000 40.87940000 67.71470000
-55.50650000 38.89980000 72.45860000
-61.08880000 38.89980000 67.50460000
-53.14270000 24.43670000 69.10000000
-58.48290000 24.43670000 64.38080000
-50.89210000 14.13670000 66.02150000
-56.00250000 14.13670000 61.51680000
-47.72730000 2.73570000 61.79710000
-52.51560000 2.73570000 57.58600000
-43.23180000 -8.81010000 55.90190000
-47.56340000 -8.81010000 52.09950000
-38.26650000 -16.94270000 49.46420000
-42.09490000 -16.94270000 46.10700000
-34.39310000 -21.33550000 44.46420000
-37.82910000 -21.33550000 41.45240000
-28.75750000 -28.66080000 31.57690000
-26.15560000 -28.66080000 33.85630000
-25.11610000 -29.82530000 32.51870000
-27.61280000 -29.82530000 30.33160000
-24.65610000 -30.58640000 31.92650000
-27.10620000 -30.58640000 29.78040000
-26.97200000 -30.95860000 29.63420000
-24.53420000 -30.95860000 31.76940000
-23.97970000 -34.90490000 31.05310000
-26.36110000 -34.90490000 28.96750000
-23.38450000 -40.09400000 30.28600000
-25.70560000 -40.09400000 28.25350000
-22.67670000 -41.64040000 29.37650000
-24.92630000 -41.64040000 27.40670000
-22.24470000 -41.85800000 28.82140000
-24.45050000 -41.85800000 26.88990000
-21.86340000 -41.75990000 28.33150000
-24.03060000 -41.75990000 26.43380000
-21.46080000 -41.60450000 27.81420000
-23.58730000 -41.60450000 25.95220000
-23.47630000 -41.53360000 25.83160000
-21.36000000 -41.53360000 27.68470000
-21.15360000 -40.41990000 27.41960000
-23.24910000 -40.41990000 25.58490000
-23.35360000 -36.94630000 25.69920000
-21.24850000 -36.94630000 27.54260000
-23.47960000 -32.79800000 25.83810000
-21.36280000 -32.79800000 27.69200000
-21.21630000 -31.05040000 27.50540000
-23.31840000 -31.05040000 25.66420000
-20.76790000 -29.61680000 26.93050000
-22.82470000 -29.61680000 25.12880000
-19.68860000 -28.56750000 25.54450000
-21.63640000 -28.56750000 23.83830000
-18.52360000 -28.19610000 24.04740000
-20.35350000 -28.19610000 22.44440000
-16.42960000 -28.17020000 21.35590000
-18.04760000 -28.17020000 19.93860000
-3.10500000 -18.81730000 3.69330000
-19.93330000 -19.06090000 21.99650000
-2.85870000 -18.81730000 3.90880000
-18.14100000 -19.06090000 23.56770000
-34.29840000 -14.99990000 37.63270000
-31.18590000 -14.99990000 40.36280000
-42.49280000 -7.39670000 46.58610000
-38.62660000 -7.39670000 49.98070000
-48.31940000 1.78300000 52.99980000
-43.91660000 1.78300000 56.87130000
-52.92900000 12.47520000 58.13870000
-48.10090000 12.47520000 62.39330000
-56.69180000 24.42720000 62.41780000
-51.51590000 24.42720000 66.99210000
-59.35830000 36.21080000 65.54800000
-53.93510000 36.21080000 70.35700000
-60.51340000 41.31480000 66.92120000
-54.98320000 41.31480000 71.83310000
-60.57740000 41.54830000 66.99670000
-55.04130000 41.54830000 71.91420000
-60.72640000 41.74690000 67.16510000
-55.17660000 41.74690000 72.09500000
-60.82560000 41.85800000 67.27670000
-55.26660000 41.85800000 72.21480000
-61.09670000 41.62530000 67.57040000
-55.51300000 41.62530000 72.53010000
-43.18370000 40.87940000 80.92640000
-49.51510000 40.87940000 76.96170000
-43.07760000 38.89980000 80.67390000
-49.39240000 38.89980000 76.72190000
-41.25590000 24.43670000 76.92840000
-47.29540000 24.43670000 73.16260000
-39.51810000 14.13670000 73.49550000
-45.29710000 14.13670000 69.90020000
-37.07170000 2.73570000 68.78510000
-42.48570000 2.73570000 65.42360000
-33.59300000 -8.81010000 62.21270000
-38.49050000 -8.81010000 59.17710000
-29.74820000 -16.94270000 55.03650000
-34.07640000 -16.94270000 52.35620000
-26.74790000 -21.33550000 49.46330000
-30.63250000 -21.33550000 47.05870000
-23.30790000 -28.66080000 35.82020000
-20.36630000 -28.66080000 37.64000000
-19.56110000 -29.82530000 36.14910000
-22.38370000 -29.82530000 34.40300000
-19.20470000 -30.58640000 35.48900000
-21.97470000 -30.58640000 33.77550000
-21.86630000 -30.95860000 33.60910000
-19.11040000 -30.95860000 35.31390000
-18.68110000 -34.90490000 34.51520000
-21.37340000 -34.90490000 32.85010000
-18.22020000 -40.09400000 33.65990000
-20.84430000 -40.09400000 32.03720000
-17.67190000 -41.64040000 32.64630000
-20.21500000 -41.64040000 31.07370000
-17.33710000 -41.85800000 32.02770000
-19.83080000 -41.85800000 30.48560000
-17.04160000 -41.75990000 31.48170000
-19.49170000 -41.75990000 29.96660000
-16.72960000 -41.60450000 30.90520000
-19.13370000 -41.60450000 29.41860000
-19.04400000 -41.53360000 29.28140000
-16.65150000 -41.53360000 30.76090000
-16.49160000 -40.41990000 30.46550000
-18.86050000 -40.41990000 29.00060000
-18.94480000 -36.94630000 29.13090000
-16.56500000 -36.94630000 30.60260000
-19.04620000 -32.79800000 29.28940000
-16.65310000 -32.79800000 30.76960000
-16.53940000 -31.05040000 30.56180000
-18.91580000 -31.05040000 29.09180000
-16.19160000 -29.61680000 29.92130000
-18.51690000 -29.61680000 28.48290000
-15.35510000 -28.56750000 28.37680000
-17.55710000 -28.56750000 27.01460000
-14.45220000 -28.19610000 26.70840000
-16.52100000 -28.19610000 25.42860000
-12.82960000 -28.17020000 23.70890000
-14.65890000 -28.17020000 22.57730000
-2.58950000 -18.81730000 4.09500000
-16.17960000 -19.06090000 24.92160000
-2.31110000 -18.81730000 4.26700000
-14.15350000 -19.06090000 26.17600000
-27.77940000 -14.99990000 42.71460000
-24.26070000 -14.99990000 44.89420000
-34.39480000 -7.39670000 52.90470000
-30.02370000 -7.39670000 55.61470000
-39.09700000 1.78300000 60.20570000
-34.11880000 1.78300000 63.29620000
-42.81520000 12.47520000 66.05680000
-37.35570000 12.47520000 69.45260000
-45.84850000 24.42720000 70.93000000
-39.99480000 24.42720000 74.58030000
-47.99580000 36.21080000 74.49580000
-41.86140000 36.21080000 78.33250000
-48.92590000 41.31480000 76.05990000
-42.66990000 41.31480000 79.97810000
-48.97750000 41.54830000 76.14580000
-42.71470000 41.54830000 80.06850000
-49.09780000 41.74690000 76.33730000
-42.81950000 41.74690000 80.26990000
-49.17780000 41.85800000 76.46430000
-42.88920000 41.85800000 80.40340000
-49.39710000 41.62530000 76.79800000
-43.08040000 41.62530000 80.75430000
-29.54220000 40.87940000 86.97500000
-36.43680000 40.87940000 84.12150000
-29.47260000 38.89980000 86.70350000
-36.34880000 38.89980000 83.85890000
-28.24740000 24.43670000 82.67540000
-34.82220000 24.43670000 79.96420000
-27.07260000 14.13670000 78.98310000
-33.36290000 14.13670000 76.39430000
-25.41350000 2.73570000 73.91640000
-31.30590000 2.73570000 71.49580000
-23.04830000 -8.81010000 66.84720000
-28.37800000 -8.81010000 64.66090000
-20.42970000 -16.94270000 59.12880000
-25.13970000 -16.94270000 57.19830000
-18.38470000 -21.33550000 53.13470000
-22.61190000 -21.33550000 51.40290000
-17.23450000 -28.66080000 39.10820000
-14.03350000 -28.66080000 40.41890000
-13.48440000 -29.82530000 38.81530000
-16.55590000 -29.82530000 37.55770000
-13.24150000 -30.58640000 38.10550000
-16.25570000 -30.58640000 36.87140000
-16.17620000 -30.95860000 36.68930000
-13.17720000 -30.95860000 37.91710000
-12.88510000 -34.90490000 37.05780000
-15.81470000 -34.90490000 35.85860000
-12.57110000 -40.09400000 36.13790000
-15.42650000 -40.09400000 34.96920000
-12.19700000 -41.64040000 35.04780000
-14.96440000 -41.64040000 33.91510000
-11.96870000 -41.85800000 34.38250000
-14.68220000 -41.85800000 33.27190000
-11.76710000 -41.75990000 33.79530000
-14.43320000 -41.75990000 32.70410000
-11.55420000 -41.60450000 33.17540000
-14.17020000 -41.60450000 32.10470000
-14.10440000 -41.53360000 31.95460000
-11.50090000 -41.53360000 33.02010000
-11.39180000 -40.41990000 32.70250000
-13.96960000 -40.41990000 31.64750000
-14.03130000 -36.94630000 31.79010000
-11.44170000 -36.94630000 32.85010000
-14.10530000 -32.79800000 31.96380000
-11.50120000 -32.79800000 33.02980000
-11.42320000 -31.05040000 32.80650000
-14.00930000 -31.05040000 31.74780000
-11.18570000 -29.61680000 32.11790000
-13.71600000 -29.61680000 31.08190000
-10.61470000 -28.56750000 30.45700000
-13.01080000 -28.56750000 29.47590000
-9.99870000 -28.19610000 28.66270000
-12.24980000 -28.19610000 27.74100000
-8.89170000 -28.17020000 25.43690000
-10.88220000 -28.17020000 24.62200000
-2.01510000 -18.81730000 4.40630000
-11.99630000 -19.06090000 27.18810000
-1.71220000 -18.81730000 4.53010000
-9.79140000 -19.06090000 28.09150000
-20.51400000 -14.99990000 46.65230000
-16.68490000 -14.99990000 48.22210000
-25.36910000 -7.39670000 57.80040000
-20.61220000 -7.39670000 59.75220000
-28.81740000 1.78300000 65.78850000
-23.39950000 1.78300000 68.01410000
-31.54100000 12.47520000 72.19070000
-25.59850000 12.47520000 74.63590000
-33.75910000 24.42720000 77.52300000
-27.38660000 24.42720000 80.15100000
-35.32520000 36.21080000 81.42470000
-28.64590000 36.21080000 84.18640000
-36.00330000 41.31480000 83.13580000
-29.19080000 41.31480000 85.95590000
-36.04100000 41.54830000 83.22970000
-29.22110000 41.54830000 86.05300000
-36.12910000 41.74690000 83.43910000
-29.29230000 41.74690000 86.26950000
-36.18780000 41.85800000 83.57790000
-29.33980000 41.85790000 86.41300000
-36.34920000 41.62530000 83.94270000
-29.47070000 41.62530000 86.79020000
-15.09080000 40.87940000 90.66980000
-22.36150000 40.87940000 89.00320000
-15.06020000 38.89980000 90.38660000
-22.31130000 38.89980000 88.72520000
-14.47060000 24.43670000 86.18650000
-21.40210000 24.43670000 84.60270000
-13.89410000 14.13670000 82.33600000
-20.52460000 14.13670000 80.82360000
-13.07020000 2.73570000 77.05200000
-19.28060000 2.73570000 75.63760000
-11.88510000 -8.81010000 69.67920000
-17.50180000 -8.81010000 68.40180000
-10.56500000 -16.94270000 61.62950000
-15.52840000 -16.94270000 60.50160000
-9.53160000 -21.33550000 55.37830000
-13.98610000 -21.33550000 54.36650000
-10.70280000 -28.66080000 41.35130000
-7.32980000 -28.66080000 42.11710000
-7.05190000 -29.82530000 40.44480000
-10.28850000 -29.82530000 39.71000000
-6.92900000 -30.58640000 39.70440000
-10.10520000 -30.58640000 38.98340000
-10.05680000 -30.95860000 38.79060000
-6.89660000 -30.95860000 39.50790000
-6.74960000 -34.90490000 38.61170000
-9.83670000 -34.90490000 37.91100000
-6.59120000 -40.09400000 37.65220000
-9.60010000 -40.09400000 36.96940000
-6.40160000 -41.64040000 36.51540000
-9.31770000 -41.64040000 35.85370000
-6.28580000 -41.85800000 35.82160000
-9.14530000 -41.85800000 35.17270000
-6.18370000 -41.75990000 35.20930000
-8.99310000 -41.75990000 34.57170000
-6.07580000 -41.60450000 34.56270000
-8.83240000 -41.60450000 33.93720000
-8.79210000 -41.53360000 33.77830000
-6.04880000 -41.53360000 34.40080000
-5.99340000 -40.41990000 34.06960000
-8.70970000 -40.41990000 33.45320000
-8.74720000 -36.94630000 33.60420000
-6.01830000 -36.94630000 34.22350000
-8.79170000 -32.79800000 33.78830000
-6.04760000 -32.79800000 34.41110000
-6.00750000 -31.05040000 34.17830000
-8.73250000 -31.05040000 33.55970000
-5.88650000 -29.61680000 33.46020000
-8.55290000 -29.61680000 32.85500000
-5.59670000 -28.56750000 31.72810000
-8.12160000 -28.56750000 31.15500000
-5.28420000 -28.19610000 29.85710000
-7.65640000 -28.19610000 29.31860000
-4.72300000 -28.17020000 26.49300000
-6.82060000 -28.17020000 26.01690000
-1.39730000 -18.81730000 4.61860000
-7.49720000 -19.06090000 28.73430000
-1.07810000 -18.81730000 4.69090000
-5.17380000 -19.06090000 29.26220000
-12.70020000 -14.99990000 49.33850000
-8.66500000 -14.99990000 50.25570000
-15.66170000 -7.39670000 61.14010000
-10.64860000 -7.39670000 62.28050000
-17.76060000 1.78300000 69.59670000
-12.05050000 1.78300000 70.89710000
-19.41290000 12.47520000 76.37440000
-13.14930000 12.47520000 77.80300000
-20.75210000 24.42720000 82.01930000
-14.03410000 24.42720000 83.55450000
-21.69030000 36.21080000 86.14940000
-14.64720000 36.21080000 87.76240000
-22.09560000 41.31480000 87.96020000
-14.91140000 41.31480000 89.60730000
-22.11820000 41.54830000 88.05970000
-14.92620000 41.54830000 89.70860000
-22.17180000 41.74690000 88.28120000
-14.96190000 41.74690000 89.93430000
-22.20740000 41.85790000 88.42810000
-14.98570000 41.85790000 90.08390000
-22.30660000 41.62530000 88.81400000
-15.05260000 41.62530000 90.47710000
-0.22220000 40.87940000 91.91230000
-7.67150000 40.87940000 91.47690000
-0.23250000 38.89980000 91.62530000
-7.66130000 38.89980000 91.19120000
-0.30060000 24.43670000 87.36740000
-7.40000000 24.43670000 86.95360000
-0.34160000 14.13670000 83.46380000
-7.13170000 14.13670000 83.06860000
-0.37840000 2.73570000 78.10660000
-6.73740000 2.73570000 77.73700000
-0.40780000 -8.81010000 70.63180000
-6.15830000 -8.81010000 70.29800000
-0.42320000 -16.94270000 62.47080000
-5.50470000 -16.94270000 62.17610000
-0.42990000 -21.33550000 56.13310000
-4.99020000 -21.33550000 55.86870000
-3.89110000 -28.66080000 42.48830000
-0.43800000 -28.66080000 42.68830000
-0.43890000 -29.82530000 40.99290000
-3.75240000 -29.82530000 40.80100000
-0.43950000 -30.58640000 40.24220000
-3.69110000 -30.58640000 40.05390000
-3.67500000 -30.95860000 39.85570000
-0.43980000 -30.95860000 40.04310000
-0.44200000 -34.90490000 39.13440000
-3.60250000 -34.90490000 38.95150000
-0.44360000 -40.09400000 38.16170000
-3.52390000 -40.09400000 37.98340000
-0.44370000 -41.64040000 37.00910000
-3.42900000 -41.64040000 36.83630000
-0.44370000 -41.85800000 36.30570000
-3.37100000 -41.85800000 36.13630000
-0.44370000 -41.75990000 35.68490000
-3.31980000 -41.75990000 35.51850000
-0.44370000 -41.60450000 35.02940000
-3.26570000 -41.60450000 34.86610000
-3.25220000 -41.53360000 34.70270000
-0.44370000 -41.53360000 34.86520000
-0.44360000 -40.41990000 34.52940000
-3.22440000 -40.41990000 34.36850000
-3.23650000 -36.94630000 34.52380000
-0.44290000 -36.94630000 34.68550000
-3.25020000 -32.79800000 34.71310000
-0.44100000 -32.79800000 34.87570000
-0.43990000 -31.05040000 34.63970000
-3.22960000 -31.05040000 34.47820000
-0.43880000 -29.61680000 33.91180000
-3.16840000 -29.61680000 33.75370000
-0.43790000 -28.56750000 32.15580000
-3.02270000 -28.56750000 32.00610000
-0.43750000 -28.19610000 30.25880000
-2.86600000 -28.19610000 30.11830000
-0.43750000 -28.17020000 26.84830000
-2.58490000 -28.17020000 26.72400000
-0.75300000 -18.81730000 4.72630000
-2.80520000 -19.06090000 29.51810000
-0.42630000 -18.81730000 4.74490000
-0.42660000 -19.06090000 29.65590000
-4.55110000 -14.99990000 50.70020000
-0.41990000 -14.99990000 50.93980000
-5.53730000 -7.39670000 62.83300000
-0.40470000 -7.39670000 63.13100000
-6.22800000 1.78300000 71.52700000
-0.38130000 1.78300000 71.86680000
-6.76140000 12.47520000 78.49490000
-0.34730000 12.47520000 78.86830000
-7.18140000 24.42720000 84.29800000
-0.30060000 24.42720000 84.69920000
-7.46120000 36.21080000 88.54360000
-0.24610000 36.21080000 88.96510000
-7.58040000 41.31480000 90.40500000
-0.21990000 41.31480000 90.83530000
-7.58720000 41.54830000 90.50710000
-0.21860000 41.54830000 90.93800000
-7.60460000 41.74690000 90.73480000
-0.21760000 41.74690000 91.16670000
-7.61620000 41.85790000 90.88580000
-0.21700000 41.85790000 91.31840000
-7.65040000 41.62530000 91.28250000
-0.21820000 41.62530000 91.71700000
14.65850000 40.87940000 90.66970000
7.23370000 40.87940000 91.47690000
14.60670000 38.89980000 90.38660000
7.20250000 38.89980000 91.19120000
6.80250000 24.43670000 86.95350000
13.87630000 24.43670000 86.18650000
13.21540000 14.13670000 82.33600000
6.45080000 14.13670000 83.06860000
12.31600000 2.73570000 77.05190000
5.98170000 2.73570000 77.73700000
11.07070000 -8.81010000 69.67920000
5.34310000 -8.81010000 70.29800000
9.71910000 -16.94270000 61.62950000
4.65820000 -16.94270000 62.17610000
8.67210000 -21.33550000 55.37830000
4.13030000 -21.33550000 55.86870000
3.01490000 -28.66080000 42.48830000
6.45390000 -28.66080000 42.11710000
6.17410000 -29.82530000 40.44470000
2.87420000 -29.82530000 40.80100000
6.05010000 -30.58640000 39.70440000
2.81180000 -30.58640000 40.05390000
2.79510000 -30.95860000 39.85570000
6.01710000 -30.95860000 39.50790000
5.86550000 -34.90490000 38.61170000
2.71800000 -34.90490000 38.95150000
5.70410000 -40.09400000 37.65220000
2.63640000 -40.09400000 37.98340000
5.51430000 -41.64040000 36.51540000
2.54120000 -41.64040000 36.83630000
5.39850000 -41.85800000 35.82160000
2.48320000 -41.85800000 36.13630000
5.29630000 -41.75990000 35.20930000
2.43200000 -41.75990000 35.51840000
5.18840000 -41.60450000 34.56270000
2.37790000 -41.60450000 34.86610000
2.36440000 -41.53360000 34.70270000
5.16140000 -41.53360000 34.40080000
5.10620000 -40.41990000 34.06960000
2.33680000 -40.41990000 34.36850000
2.35030000 -36.94630000 34.52380000
5.13260000 -36.94630000 34.22350000
2.36790000 -32.79800000 34.71310000
5.16560000 -32.79800000 34.41110000
5.12780000 -31.05040000 34.17830000
2.34950000 -31.05040000 34.47820000
5.00910000 -29.61680000 33.46020000
2.29060000 -29.61680000 33.75370000
4.72100000 -28.56750000 31.72810000
2.14660000 -28.56750000 32.00620000
4.40910000 -28.19610000 29.85700000
1.99060000 -28.19610000 30.11820000
3.84800000 -28.17020000 26.49300000
1.70950000 -28.17020000 26.72400000
-0.09980000 -18.81730000 4.72630000
1.95170000 -19.06090000 29.51810000
0.22560000 -18.81730000 4.69090000
4.32060000 -19.06090000 29.26220000
3.71110000 -14.99990000 50.70020000
7.82560000 -14.99990000 50.25570000
4.72810000 -7.39670000 62.83300000
9.84020000 -7.39670000 62.28050000
5.46620000 1.78300000 71.52700000
11.28990000 1.78300000 70.89700000
6.06880000 12.47520000 78.49490000
12.45860000 12.47520000 77.80300000
6.58350000 24.42720000 84.29800000
13.43940000 24.42720000 83.55450000
6.97450000 36.21080000 88.54360000
14.16510000 36.21080000 87.76240000
7.14720000 41.31480000 90.40500000
14.48360000 41.31480000 89.60730000
7.15650000 41.54830000 90.50710000
14.50100000 41.54830000 89.70860000
7.17610000 41.74690000 90.73480000
14.53890000 41.74690000 89.93420000
7.18890000 41.85790000 90.88580000
14.56400000 41.85790000 90.08390000
7.22060000 41.62530000 91.28250000
14.62850000 41.62530000 90.47710000
29.14480000 40.87940000 86.97500000
21.94730000 40.87940000 89.00320000
29.05200000 38.89970000 86.70340000
21.87480000 38.89970000 88.72520000
20.81810000 24.43670000 84.60270000
27.67320000 24.43670000 82.67540000
26.40680000 14.13670000 78.98310000
19.85240000 14.13670000 80.82360000
24.66650000 2.73570000 73.91650000
18.52990000 2.73570000 75.63760000
22.23720000 -8.81010000 66.84710000
16.68880000 -8.81010000 68.40180000
19.58520000 -16.94270000 59.12880000
14.68290000 -16.94270000 60.50160000
17.52610000 -21.33550000 53.13470000
13.12670000 -21.33550000 54.36640000
9.82670000 -28.66080000 41.35130000
13.15780000 -28.66080000 40.41890000
12.60680000 -29.82530000 38.81530000
9.41040000 -29.82530000 39.71000000
12.36260000 -30.58640000 38.10550000
9.22590000 -30.58640000 38.98340000
9.17690000 -30.95860000 38.79050000
12.29780000 -30.95860000 37.91710000
12.00110000 -34.90490000 37.05790000
8.95230000 -34.90490000 37.91110000
11.68400000 -40.09400000 36.13790000
8.71260000 -40.09400000 36.96940000
11.30970000 -41.64040000 35.04780000
8.42990000 -41.64040000 35.85360000
11.08130000 -41.85800000 34.38250000
8.25750000 -41.85800000 35.17270000
10.87970000 -41.75990000 33.79530000
8.10530000 -41.75990000 34.57170000
10.66690000 -41.60450000 33.17540000
7.94460000 -41.60450000 33.93720000
7.90440000 -41.53360000 33.77830000
10.61360000 -41.53360000 33.02010000
10.50460000 -40.41990000 32.70250000
7.82210000 -40.41990000 33.45320000
7.86100000 -36.94630000 33.60420000
10.55590000 -36.94630000 32.85010000
7.90940000 -32.79800000 33.78830000
10.61930000 -32.79800000 33.02990000
10.54370000 -31.05040000 32.80650000
7.85250000 -31.05040000 33.55970000
10.30830000 -29.61680000 32.11790000
7.67510000 -29.61680000 32.85490000
9.73910000 -28.56750000 30.45690000
7.24560000 -28.56750000 31.15500000
9.12370000 -28.19610000 28.66280000
6.78100000 -28.19610000 29.31860000
8.01670000 -28.17020000 25.43690000
5.94520000 -28.17020000 26.01690000
0.54440000 -18.81730000 4.61860000
6.64390000 -19.06100000 28.73430000
0.85970000 -18.81730000 4.53010000
8.93850000 -19.06100000 28.09150000
11.86100000 -14.99990000 49.33850000
15.84650000 -14.99990000 48.22210000
14.85440000 -7.39670000 61.14010000
19.80650000 -7.39670000 59.75220000
17.00280000 1.78300000 69.59670000
22.64470000 1.78300000 68.01410000
18.72770000 12.47520000 76.37440000
24.91880000 12.47520000 74.63590000
20.16710000 24.42720000 82.01930000
26.81080000 24.42720000 80.15100000
21.22310000 36.21080000 86.14940000
28.19290000 36.21080000 84.18640000
21.68560000 41.31480000 87.96020000
28.79750000 41.31480000 85.95590000
21.71100000 41.54830000 88.05960000
28.83060000 41.54830000 86.05300000
21.76690000 41.74690000 88.28120000
28.90450000 41.74690000 86.26950000
21.80400000 41.85790000 88.42810000
28.95340000 41.85790000 86.41300000
21.90070000 41.62520000 88.81400000
29.08190000 41.62520000 86.79020000
42.84030000 40.87940000 80.92640000
36.06710000 40.87940000 84.12150000
42.70820000 38.89970000 80.67390000
35.95430000 38.89970000 83.85890000
34.26390000 24.43670000 79.96420000
40.71300000 24.43670000 76.92840000
38.87250000 14.13670000 73.49550000
32.70730000 14.13670000 76.39430000
36.33600000 2.73570000 68.78510000
30.56450000 2.73570000 71.49580000
32.78690000 -8.81010000 62.21270000
27.56920000 -8.81010000 64.66090000
28.90600000 -16.94270000 55.03650000
24.29600000 -16.94270000 57.19830000
25.89050000 -21.33550000 49.46330000
21.75350000 -21.33550000 51.40290000
16.35860000 -28.66080000 39.10820000
19.49100000 -28.66080000 37.64000000
18.68360000 -29.82530000 36.14910000
15.67800000 -29.82530000 37.55770000
18.32610000 -30.58640000 35.48900000
15.37650000 -30.58640000 36.87140000
15.29650000 -30.95860000 36.68920000
18.23110000 -30.95860000 35.31390000
17.79720000 -34.90490000 34.51520000
14.93040000 -34.90490000 35.85860000
17.33320000 -40.09400000 33.66000000
14.53910000 -40.09400000 34.96920000
16.78450000 -41.64040000 32.64630000
14.07660000 -41.64040000 33.91510000
16.44970000 -41.85800000 32.02770000
13.79440000 -41.85800000 33.27190000
16.15430000 -41.75990000 31.48170000
13.54540000 -41.75990000 32.70410000
15.84220000 -41.60450000 30.90520000
13.28240000 -41.60450000 32.10470000
13.21660000 -41.53360000 31.95460000
15.76410000 -41.53360000 30.76090000
15.60440000 -40.41990000 30.46550000
13.08200000 -40.41990000 31.64750000
13.14520000 -36.94630000 31.79010000
15.67920000 -36.94630000 30.60260000
13.22310000 -32.79800000 31.96380000
15.77130000 -32.79800000 30.76960000
15.65990000 -31.05040000 30.56180000
13.12940000 -31.05040000 31.74780000
15.31440000 -29.61680000 29.92130000
12.83830000 -29.61680000 31.08190000
14.47970000 -28.56750000 28.37680000
12.13490000 -28.56750000 29.47590000
13.57740000 -28.19610000 26.70840000
11.37450000 -28.19610000 27.74100000
11.95480000 -28.17020000 23.70890000
10.00690000 -28.17020000 24.62200000
1.16220000 -18.81730000 4.40630000
11.14320000 -19.06100000 27.18810000
1.45860000 -18.81730000 4.26700000
13.30100000 -19.06090000 26.17600000
19.67630000 -14.99990000 46.65230000
23.42410000 -14.99990000 44.89420000
24.56540000 -7.39670000 57.80040000
29.22240000 -7.39670000 55.61470000
28.06700000 1.78300000 65.78850000
33.37310000 1.78300000 63.29620000
30.86970000 12.47520000 72.19070000
36.69300000 12.47520000 69.45260000
33.19820000 24.42720000 77.52300000
39.44830000 24.42720000 74.58030000
34.89520000 36.21080000 81.42470000
41.45340000 36.21080000 78.33250000
35.63730000 41.31480000 83.13580000
42.32990000 41.31480000 79.97810000
35.67800000 41.54830000 83.22970000
42.37800000 41.54830000 80.06850000
35.76910000 41.74690000 83.43910000
42.48590000 41.74690000 80.26990000
35.82940000 41.85790000 83.57790000
42.55740000 41.85790000 80.40340000
35.98860000 41.62520000 83.94270000
42.74650000 41.62520000 80.75430000
55.36920000 40.87940000 72.68470000
49.20620000 40.87940000 76.96170000
55.20060000 38.89980000 72.45860000
49.05550000 38.89970000 76.72190000
46.77220000 24.43670000 73.16260000
52.63870000 24.43670000 69.10000000
50.27150000 14.13670000 66.02150000
44.66410000 14.13670000 69.90020000
47.00570000 2.73570000 61.79710000
41.75700000 2.73570000 65.42360000
42.43200000 -8.81010000 55.90190000
37.68730000 -8.81010000 59.17710000
37.42710000 -16.94270000 49.46420000
33.23520000 -16.94270000 52.35620000
33.53710000 -21.33550000 44.46420000
29.77540000 -21.33550000 47.05870000
22.43240000 -28.66080000 35.82010000
25.28050000 -28.66080000 33.85630000
24.23890000 -29.82530000 32.51870000
21.50600000 -29.82530000 34.40290000
23.77770000 -30.58640000 31.92650000
21.09570000 -30.58640000 33.77550000
20.98680000 -30.95860000 33.60910000
23.65520000 -30.95860000 31.76940000
23.09580000 -34.90490000 31.05310000
20.48910000 -34.90490000 32.85010000
22.49740000 -40.09400000 30.28590000
19.95680000 -40.09400000 32.03720000
21.78940000 -41.64040000 29.37650000
19.32720000 -41.64040000 31.07370000
21.35740000 -41.85800000 28.82140000
18.94300000 -41.85800000 30.48560000
20.97610000 -41.75990000 28.33150000
18.60390000 -41.75990000 29.96660000
20.57340000 -41.60450000 27.81420000
18.24590000 -41.60450000 29.41860000
18.15620000 -41.53360000 29.28140000
20.47260000 -41.53360000 27.68470000
20.26640000 -40.41990000 27.41960000
17.97290000 -40.41990000 29.00060000
18.05870000 -36.94630000 29.13090000
20.36280000 -36.94630000 27.54260000
18.16410000 -32.79800000 29.28940000
20.48110000 -32.79800000 27.69200000
20.33700000 -31.05040000 27.50540000
18.03610000 -31.05040000 29.09180000
19.89090000 -29.61680000 26.93050000
17.63940000 -29.61680000 28.48290000
18.81340000 -28.56750000 25.54450000
16.68140000 -28.56750000 27.01460000
17.64890000 -28.19610000 24.04740000
15.64590000 -28.19610000 25.42860000
15.55490000 -28.17020000 21.35590000
13.78380000 -28.17020000 22.57730000
1.73670000 -18.81730000 4.09500000
15.32710000 -19.06090000 24.92150000
2.00620000 -18.81730000 3.90880000
17.28910000 -19.06100000 23.56770000
26.94360000 -14.99990000 42.71460000
30.35150000 -14.99990000 40.36280000
33.59610000 -7.39670000 52.90470000
37.83080000 -7.39670000 49.98070000
38.35680000 1.78300000 60.20570000
43.18220000 1.78300000 56.87140000
42.16320000 12.47520000 66.05680000
47.45940000 12.47520000 62.39320000
45.32060000 24.42720000 70.93000000
51.00590000 24.42720000 66.99210000
47.61640000 36.21080000 74.49580000
53.58310000 36.21080000 70.35700000
48.61990000 41.31480000 76.05990000
54.70950000 41.31480000 71.83310000
48.67500000 41.54830000 76.14580000
54.77150000 41.54830000 71.91420000
54.91060000 41.74690000 72.09500000
48.79880000 41.74690000 76.33730000
48.88090000 41.85790000 76.46430000
55.00280000 41.85790000 72.21480000
49.09800000 41.62520000 76.79800000
55.24720000 41.62520000 72.53010000
61.00360000 40.87940000 67.71470000
60.81840000 38.89970000 67.50460000
66.38690000 40.87940000 62.47010000
66.18590000 38.89970000 62.27700000
58.00030000 24.43670000 64.38080000
63.12320000 24.43670000 59.40090000
60.29180000 14.13670000 56.76310000
55.39570000 14.13670000 61.51680000
56.38390000 2.73570000 53.14200000
51.80150000 2.73570000 57.58600000
50.90890000 -8.81010000 48.08650000
46.76680000 -8.81010000 52.09950000
44.91590000 -16.94270000 42.56380000
41.25660000 -16.94270000 46.10700000
40.25730000 -21.33550000 38.27360000
36.97360000 -21.33550000 41.45240000
27.88230000 -28.66080000 31.57690000
30.36860000 -28.66080000 29.17100000
29.12110000 -29.82530000 28.02310000
26.73540000 -29.82530000 30.33160000
28.56870000 -30.58640000 27.51500000
26.22750000 -30.58640000 29.78040000
26.09270000 -30.95860000 29.63420000
28.42200000 -30.95860000 27.38030000
27.75240000 -34.90490000 26.76600000
25.47690000 -34.90490000 28.96750000
27.03590000 -40.09400000 26.10800000
24.81810000 -40.09400000 28.25350000
26.18780000 -41.64040000 25.32750000
24.03850000 -41.64040000 27.40670000
25.67030000 -41.85800000 24.85100000
23.56280000 -41.85800000 26.88990000
25.21360000 -41.75990000 24.43060000
23.14290000 -41.75990000 26.43380000
24.73130000 -41.60450000 23.98660000
22.69950000 -41.60450000 25.95220000
22.58850000 -41.53360000 25.83160000
24.61050000 -41.53360000 23.87550000
24.36350000 -40.41990000 23.64800000
22.36140000 -40.41990000 25.58490000
22.46750000 -36.94630000 25.69920000
24.47890000 -36.94630000 23.75330000
22.59760000 -32.79800000 25.83810000
24.62020000 -32.79800000 23.88110000
24.44740000 -31.05040000 23.72060000
22.43880000 -31.05040000 25.66420000
23.91280000 -29.61680000 23.22700000
21.94740000 -29.61680000 25.12880000
22.62200000 -28.56750000 22.03720000
20.76090000 -28.56750000 23.83830000
21.22710000 -28.19610000 20.75220000
19.47860000 -28.19610000 22.44440000
18.71880000 -28.17020000 18.44220000
17.17270000 -28.17020000 19.93860000
2.25210000 -18.81730000 3.69330000
19.08130000 -19.06090000 21.99650000
2.48740000 -18.81730000 3.46520000
20.79400000 -19.06090000 20.33790000
33.46480000 -14.99990000 37.63270000
36.43980000 -14.99990000 34.75130000
41.69970000 -7.39670000 46.58610000
45.39660000 -7.39670000 43.00350000
47.59110000 1.78300000 52.99980000
51.80380000 1.78300000 48.91400000
52.29910000 12.47520000 58.13870000
56.92330000 12.47520000 53.64880000
56.20210000 24.42720000 62.41780000
61.16680000 24.42720000 57.59070000
59.03750000 36.21080000 65.54800000
64.24890000 36.21080000 60.47340000
60.27680000 41.31480000 66.92120000
65.59600000 41.31480000 61.73820000
60.34500000 41.54830000 66.99670000
65.67010000 41.54830000 61.80770000
65.83670000 41.74690000 61.96290000
60.49810000 41.74690000 67.16500000
60.59970000 41.85790000 67.27660000
65.94720000 41.85790000 62.06580000
60.86900000 41.62520000 67.57040000
66.24030000 41.62520000 62.33680000
75.59000000 40.87940000 50.55560000
71.13470000 40.87940000 56.62740000
75.36170000 38.89970000 50.40180000
70.91960000 38.89970000 56.45360000
67.64030000 24.43670000 53.85550000
71.87920000 24.43670000 48.09240000
68.65910000 14.13670000 45.97070000
64.60840000 14.13670000 51.47090000
64.21440000 2.73570000 43.05470000
60.42350000 2.73570000 48.19560000
57.98630000 -8.81020000 38.97910000
54.55990000 -8.81010000 43.62080000
51.16810000 -16.94270000 34.52310000
48.14120000 -16.94270000 38.62110000
45.86780000 -21.33550000 31.06030000
43.15150000 -21.33550000 34.73670000
32.55980000 -28.66080000 26.49420000
34.61630000 -28.66080000 23.71170000
33.19690000 -29.82530000 22.78510000
31.22360000 -29.82530000 25.45490000
32.56840000 -30.58640000 22.37490000
30.63190000 -30.58640000 24.99480000
30.47490000 -30.95860000 24.87280000
32.40160000 -30.95860000 22.26620000
31.63990000 -34.90490000 21.77090000
29.75770000 -34.90490000 24.31690000
30.82480000 -40.09400000 21.24000000
28.99030000 -40.09400000 23.72120000
29.85980000 -41.64040000 20.60960000
28.08200000 -41.64040000 23.01430000
29.27090000 -41.85800000 20.22500000
27.52770000 -41.85800000 22.58290000
28.75120000 -41.75990000 19.88540000
27.03840000 -41.75990000 22.20210000
28.20250000 -41.60450000 19.52690000
26.52180000 -41.60450000 21.80000000
26.39250000 -41.53360000 21.69940000
28.06500000 -41.53360000 19.43710000
27.78400000 -40.41990000 19.25340000
26.12790000 -40.41990000 21.49340000
26.25140000 -36.94630000 21.58860000
27.91510000 -36.94630000 19.33820000
26.40270000 -32.79800000 21.70410000
28.07570000 -32.79800000 19.44080000
27.87900000 -31.05040000 19.31080000
26.21750000 -31.05040000 21.55850000
27.27050000 -29.61680000 18.91180000
25.64480000 -29.61680000 21.11130000
25.80150000 -28.56750000 17.95070000
24.26210000 -28.56750000 20.03360000
24.21430000 -28.19610000 16.91280000
22.76800000 -28.19610000 18.86980000
21.36010000 -28.17020000 15.04730000
20.08120000 -28.17020000 16.77780000
2.69450000 -18.81730000 3.21210000
22.30340000 -19.06090000 18.49270000
2.88920000 -18.81730000 2.94840000
23.72010000 -19.06100000 16.57450000
39.06180000 -14.99990000 31.54520000
41.52260000 -14.99990000 28.21260000
48.65520000 -7.39670000 39.01660000
51.71330000 -7.39670000 34.87280000
55.51740000 1.78300000 44.36650000
59.00230000 1.78300000 39.64020000
61.00010000 12.47520000 48.65070000
64.82590000 12.47520000 43.45610000
65.54440000 24.42720000 52.21560000
69.65230000 24.42720000 46.62950000
68.84470000 36.21080000 54.82090000
73.15730000 36.21080000 48.94670000
70.28730000 41.31480000 55.96390000
74.68950000 41.31480000 49.96330000
70.36660000 41.54830000 56.02680000
74.77380000 41.54830000 50.01920000
74.96340000 41.74680000 50.14450000
70.54510000 41.74690000 56.16730000
70.66350000 41.85790000 56.26050000
75.08920000 41.85790000 50.22760000
70.97750000 41.62520000 56.50610000
75.42290000 41.62530000 50.44690000
82.72450000 40.87940000 37.26100000
79.32030000 40.87940000 43.99700000
82.47490000 38.89970000 37.15180000
79.08080000 38.89970000 43.86520000
75.42760000 24.43670000 41.87060000
78.66580000 24.43670000 35.48010000
75.14400000 14.13670000 33.93690000
72.04970000 14.13670000 40.03440000
70.28270000 2.73570000 31.80930000
67.38710000 2.73570000 37.50750000
63.47080000 -8.81020000 28.82770000
60.85370000 -8.81020000 33.97160000
56.01300000 -16.94270000 25.56130000
53.70110000 -16.94270000 30.10250000
50.21530000 -21.33550000 23.02090000
48.14070000 -21.33550000 27.09470000
36.33720000 -28.66080000 20.71060000
37.90790000 -28.66080000 17.62740000
36.35530000 -29.82530000 16.94730000
34.84810000 -29.82530000 19.90560000
35.66780000 -30.58640000 16.64640000
34.18880000 -30.58640000 19.54930000
34.01380000 -30.95860000 19.45490000
35.48530000 -30.95860000 16.56660000
34.65230000 -34.90490000 16.20390000
33.21480000 -34.90490000 19.02500000
33.76070000 -40.09400000 15.81470000
32.35970000 -40.09400000 18.56400000
32.70520000 -41.64040000 15.35190000
31.34730000 -41.64040000 18.01630000
32.06100000 -41.85800000 15.06930000
30.72960000 -41.85800000 17.68200000
31.49250000 -41.75990000 14.81990000
30.18430000 -41.75990000 17.38690000
30.89220000 -41.60450000 14.55660000
29.60860000 -41.60450000 17.07540000
29.46450000 -41.53360000 16.99740000
30.74190000 -41.53360000 14.49070000
30.43440000 -40.41990000 14.35570000
29.16960000 -40.41990000 16.83770000
29.30720000 -36.94630000 16.91120000
30.57790000 -36.94630000 14.41770000
29.47560000 -32.79800000 16.99990000
30.75340000 -32.79800000 14.49210000
30.53800000 -31.05040000 14.39610000
29.26910000 -31.05040000 16.88670000
29.87230000 -29.61680000 14.10260000
28.63070000 -29.61680000 16.53970000
28.26540000 -28.56750000 13.39620000
27.08960000 -28.56750000 15.70430000
26.52900000 -28.19610000 12.63380000
25.42440000 -28.19610000 14.80230000
23.40680000 -28.17020000 11.26380000
22.43010000 -28.17020000 13.18120000
3.05180000 -18.81730000 2.66460000
24.90540000 -19.06100000 14.50570000
3.20050000 -18.81730000 2.37240000
25.98750000 -19.06100000 12.38020000
43.58190000 -14.99990000 24.61780000
45.46140000 -14.99990000 20.92490000
