-0.63900000 9.32850000 -12.93720000
1.03580000 9.34360000 -12.80880000
-0.35250000 9.22410000 -12.66740000
-11.70610000 1.48520000 -0.23070000
-11.96240000 2.26830000 -0.66320000
-11.96280000 2.22400000 -0.12470000
-12.31190000 3.83910000 -0.88760000
-12.18560000 3.20440000 0.19100000
-12.01760000 2.51850000 0.60160000
-12.12360000 3.21500000 1.20600000
-12.04490000 3.25930000 1.83680000
-12.42770000 4.38600000 0.55240000
-12.46620000 4.48930000 -0.15870000
-10.95290000 1.74980000 -0.30950000
-11.26290000 2.59090000 -0.44770000
-11.05110000 2.02890000 0.24920000
-11.26040000 2.63660000 0.23000000
-11.35530000 2.99750000 -1.31600000
-11.42890000 3.13260000 -0.79580000
-11.63070000 3.97670000 -1.15430000
-11.29750000 2.80870000 0.65150000
-11.57050000 3.96100000 1.11080000
-11.29550000 3.10820000 1.45830000
-11.50160000 3.38270000 -0.38360000
-11.51460000 3.42060000 0.24490000
-11.62680000 3.82220000 -0.83280000
-11.49240000 3.46110000 -0.03230000
-11.58560000 3.71830000 -0.22630000
-11.63170000 3.92580000 0.45960000
-11.59640000 3.74140000 0.05430000
-11.72510000 4.10910000 -0.33130000
-11.78350000 4.45130000 0.08250000
-12.18010000 3.64810000 -1.85510000
-12.51810000 5.26700000 -1.59160000
-12.36060000 5.17860000 -2.47390000
-12.55250000 5.03720000 -0.68460000
-12.69350000 5.96350000 -1.04100000
-12.72380000 6.52220000 -1.62840000
-11.39090000 3.60180000 -2.24960000
-11.47360000 3.64020000 -1.90590000
-11.60580000 4.21620000 -1.96230000
-11.57210000 4.38470000 -2.41720000
-11.69370000 4.33970000 -1.63940000
-11.46730000 4.08360000 -2.64040000
-11.43470000 4.53320000 -3.15520000
-12.22940000 5.47340000 -3.23300000
-11.43400000 4.90330000 -3.29570000
-11.60900000 4.69170000 -2.43740000
-11.60020000 5.18260000 -2.85690000
-11.63440000 4.43620000 -2.08450000
-11.72600000 4.76410000 -2.01260000
-11.66330000 5.12830000 -2.48770000
-11.76000000 4.32480000 -0.74280000
-11.78350000 4.57540000 -1.28640000
-11.87450000 5.28550000 -1.57720000
-11.76320000 4.86990000 -1.75440000
-11.82210000 4.55920000 -0.48340000
-11.89580000 5.19660000 -1.07330000
-11.85450000 4.81900000 -0.23100000
-11.89500000 5.04960000 -0.62550000
-11.78830000 5.38510000 -2.22460000
-12.09740000 6.06690000 -1.00790000
-11.99660000 5.91590000 -1.82560000
-12.03670000 6.18420000 -1.74770000
-12.40520000 4.55690000 1.24390000
-12.22740000 4.48350000 2.26780000
-12.63650000 5.63730000 0.85260000
-12.48760000 5.65430000 2.02540000
-11.45000000 3.97410000 1.86350000
-11.74380000 4.54340000 0.95560000
-11.61300000 4.43220000 1.69480000
-11.77160000 4.80840000 0.97540000
-11.44610000 4.47590000 2.38450000
-12.05290000 4.79330000 3.18800000
-11.14270000 4.58620000 3.43340000
-11.36160000 5.13190000 3.11970000
-11.53700000 5.17210000 2.59120000
-11.61020000 4.66710000 1.84610000
-11.79170000 5.18930000 1.46020000
-11.69780000 5.23340000 1.99620000
-12.33610000 5.77960000 2.83370000
-11.76680000 5.85420000 2.39450000
-11.90420000 5.87280000 1.75010000
-12.70200000 5.82120000 0.23160000
-12.81560000 6.52940000 -0.50460000
-12.76080000 6.68330000 1.42590000
-12.91340000 7.15770000 0.07140000
-12.94110000 7.49370000 0.59170000
-11.88450000 4.98610000 0.26260000
-11.95770000 5.28050000 -0.20350000
-12.03640000 5.64820000 -0.76020000
-11.95550000 5.36980000 0.43410000
-11.96250000 5.58580000 0.97810000
-12.07460000 5.77670000 0.01990000
-12.19390000 6.69200000 -1.10640000
-12.18000000 6.38510000 -0.21960000
-12.27750000 6.88780000 -0.23520000
-12.29930000 7.17210000 -0.89780000
-12.06940000 5.96920000 0.68830000
-12.22640000 6.71350000 0.29650000
-12.08080000 6.39740000 1.26440000
-12.37550000 7.60820000 -0.60490000
-12.36410000 7.52600000 -0.10800000
-12.22960000 6.87360000 0.75380000
-12.33570000 7.45020000 0.45600000
-12.41570000 8.01470000 0.03940000
-12.46470000 5.84270000 -2.56530000
-12.69580000 7.27900000 -2.39210000
-11.47510000 5.36940000 -3.46950000
-11.52220000 5.80860000 -3.67570000
-11.67510000 5.56240000 -2.95220000
-11.71800000 6.11140000 -3.21520000
-11.59510000 6.27980000 -3.67150000
-11.53790000 6.11180000 -3.85080000
-11.67920000 6.30430000 -3.39430000
-11.91290000 6.93270000 -4.80940000
-12.26340000 7.23880000 -3.99530000
-11.42500000 6.22420000 -4.17120000
-11.48710000 6.80220000 -4.25490000
-11.70030000 6.66660000 -3.57840000
-12.49470000 6.97570000 -3.07940000
-11.83470000 5.85400000 -2.57110000
-11.97020000 6.48680000 -2.40660000
-11.83770000 6.96470000 -3.25790000
-12.10580000 7.20360000 -2.32710000
-11.65860000 7.64380000 -4.18560000
-11.82260000 7.70710000 -3.69830000
-12.03820000 7.51860000 -2.87710000
-12.57000000 8.24770000 -3.41080000
-12.00880000 8.13190000 -3.21530000
-11.82770000 7.93140000 -5.34270000
-11.67020000 8.26120000 -5.76990000
-12.09520000 8.22000000 -4.78650000
-12.31840000 8.08190000 -4.13830000
-11.35950000 7.60130000 -4.91770000
-11.46680000 8.27630000 -6.15630000
-11.19690000 7.77750000 -5.35830000
-10.82110000 7.90100000 -6.10440000
-10.92830000 8.03190000 -5.92190000
-11.12920000 8.36380000 -5.66380000
-11.62660000 8.23370000 -4.43060000
-11.98910000 8.76590000 -5.20360000
-11.22350000 8.82130000 -6.70110000
-11.04580000 8.69310000 -5.86390000
-11.33770000 8.55600000 -5.24660000
-11.55430000 9.03930000 -6.20870000
-11.88500000 9.11390000 -5.55930000
-11.35710000 9.19400000 -6.53380000
-10.81740000 9.00520000 -6.34840000
-11.22250000 9.08180000 -5.63040000
-10.91020000 9.19920000 -6.27350000
-11.89730000 8.47640000 -3.78340000
-12.30800000 8.76600000 -4.37110000
-11.66480000 9.01440000 -4.61310000
-11.97150000 8.90460000 -3.70320000
-12.18260000 9.12040000 -4.86350000
-12.14500000 9.21640000 -4.83770000
-11.81900000 9.23410000 -5.57860000
-12.17460000 9.29930000 -4.30950000
-11.40060000 9.29080000 -6.26060000
-12.47300000 9.01620000 -4.04920000
-12.17320000 9.30900000 -3.88950000
-11.78670000 9.30090000 -4.86870000
-12.48820000 9.12530000 -4.03940000
-12.34850000 9.22420000 -4.28980000
-11.49000000 9.18530000 -5.13550000
-11.45790000 9.24710000 -5.32330000
-11.27960000 9.32980000 -6.25400000
-11.15970000 9.29950000 -6.07170000
-11.76190000 9.18120000 -4.47890000
-12.05950000 9.12490000 -3.45110000
-11.99500000 9.23250000 -3.87350000
-12.83210000 7.75200000 -1.96720000
-12.88940000 7.37350000 -1.14890000
-13.01570000 8.02770000 -0.35080000
-13.02050000 8.46760000 -1.08820000
-13.08830000 8.74000000 -0.52460000
-13.08370000 8.96670000 -1.18170000
-12.19060000 6.91910000 -1.62870000
-12.26800000 7.52230000 -1.75180000
-12.35930000 7.79260000 -1.11890000
-12.30320000 7.89630000 -1.60720000
-12.18560000 8.02530000 -2.44690000
-12.21800000 8.39970000 -2.47470000
-12.33290000 8.21860000 -1.77830000
-12.85360000 8.85640000 -2.55890000
-12.38550000 8.33980000 -1.30640000
-12.40940000 8.09020000 -0.73380000
-12.47510000 8.49460000 -0.47580000
-12.45050000 8.42880000 0.24230000
-12.39550000 8.87680000 -1.70710000
-12.96330000 8.80700000 -1.90260000
-12.38000000 8.88160000 -1.99700000
-12.22270000 8.73990000 -2.74040000
-12.28820000 9.04090000 -2.55770000
-12.32420000 9.19580000 -2.54950000
-12.44890000 9.14550000 -1.62690000
-12.49850000 9.26410000 -1.87370000
-12.48450000 8.91200000 -1.08980000
-12.52410000 9.10920000 -0.76250000
-12.98070000 9.10370000 -2.05670000
-13.09420000 9.15290000 -1.17170000
-12.97770000 9.22060000 -1.77300000
-12.71980000 9.31890000 -0.66190000
-12.57200000 9.31070000 -2.25440000
-13.05380000 9.25710000 -0.86890000
-12.93020000 9.31720000 -0.62410000
-12.80000000 9.29660000 -2.08920000
-12.56830000 9.23970000 -0.99620000
-12.60750000 8.75510000 -3.46500000
-12.74720000 9.07830000 -3.14360000
-12.53540000 9.20300000 -3.79900000
-12.62100000 9.27180000 -3.20490000
-12.37050000 9.29110000 -2.79200000
-12.75590000 9.20260000 -2.98250000
-11.17340000 5.01790000 3.57590000
-11.27140000 5.47820000 3.64450000
-11.09110000 5.73840000 4.24510000
-11.58120000 5.62990000 2.86990000
-11.75630000 6.55860000 2.88050000
-12.63650000 6.67480000 2.22630000
-11.92320000 6.46670000 2.18530000
-11.57070000 6.22880000 3.25780000
-11.45190000 6.37980000 3.65500000
-11.99310000 6.25660000 4.19350000
-11.92220000 6.82500000 4.57850000
-10.81030000 5.54230000 4.75640000
-10.98560000 6.17050000 4.63760000
-10.82890000 5.93730000 4.88490000
-11.32700000 6.51640000 4.03230000
-10.78710000 6.61590000 5.20530000
-11.11320000 6.91860000 4.68740000
-12.27070000 6.78520000 3.64200000
-12.53760000 7.21180000 2.92220000
-11.79800000 7.28670000 3.14680000
-11.63120000 7.17510000 3.59010000
-11.40280000 7.02640000 4.09780000
-12.00250000 7.53380000 4.61260000
-12.33520000 8.03940000 3.87740000
-11.56890000 7.65760000 3.89250000
-12.84480000 7.71040000 1.75730000
-12.98850000 8.13220000 0.98750000
-12.09960000 7.10330000 1.94660000
-12.26870000 7.48200000 1.19910000
-12.02920000 7.34110000 2.38060000
-12.20140000 7.51570000 1.69210000
-12.24610000 7.95140000 1.63240000
-12.20110000 8.25560000 2.00060000
-12.39920000 7.97920000 0.52980000
-12.32940000 7.84870000 1.07890000
-12.39810000 8.15470000 0.45990000
-12.37640000 8.38540000 0.98870000
-11.95950000 7.67710000 2.73510000
-12.75700000 8.09260000 2.43580000
-12.66940000 8.60610000 2.97110000
-11.88760000 8.05560000 3.12800000
-11.58900000 7.88670000 3.85750000
-11.81970000 8.47340000 3.40990000
-12.00050000 8.48020000 2.87040000
-12.11420000 8.52400000 2.46310000
-11.89440000 8.45140000 3.14430000
-12.27090000 8.90480000 2.02060000
-13.03920000 8.80770000 1.12990000
-12.90560000 8.87700000 2.07850000
-12.39690000 8.78400000 1.31500000
-12.35520000 8.92360000 1.53900000
-12.70160000 9.06910000 3.02830000
-12.11990000 9.01280000 2.67810000
-13.06950000 9.09940000 1.28200000
-12.83280000 9.17790000 2.51760000
-13.03580000 9.19340000 1.42740000
-12.92390000 9.28210000 1.78630000
-12.77740000 9.37360000 1.28880000
-12.38180000 9.41830000 3.11060000
-12.31680000 9.41290000 2.78850000
-12.68770000 9.36700000 2.46120000
-12.37960000 9.20060000 1.59860000
-12.19780000 9.19690000 2.40550000
-12.30460000 9.31660000 2.20110000
-11.65400000 6.78280000 5.17170000
-11.43960000 7.14590000 5.66700000
-11.81290000 7.58540000 5.02630000
-11.44720000 7.75000000 5.82250000
-11.08600000 7.19230000 4.86010000
-10.67870000 7.14520000 5.57130000
-10.93790000 7.37790000 5.15740000
-10.31320000 7.43790000 6.25230000
-10.70290000 7.59450000 5.63820000
-12.18270000 8.48260000 4.37920000
-11.80940000 8.40990000 5.23190000
-11.55160000 8.56470000 5.74910000
-11.28090000 7.45740000 4.52250000
-11.27270000 7.89650000 4.62830000
-10.99800000 7.62330000 5.11530000
-11.48300000 8.05960000 4.20690000
-11.38320000 8.16860000 4.42360000
-10.88590000 7.93400000 5.37620000
-11.15230000 7.90120000 4.83430000
-11.23010000 8.53910000 4.83250000
-11.00860000 8.30140000 5.21440000
-10.46420000 7.96420000 6.09210000
-10.12840000 7.89960000 6.59030000
-10.50730000 8.16980000 6.00200000
-10.20100000 8.13160000 6.48610000
-11.02260000 8.56170000 6.63550000
-10.51400000 8.53700000 6.12760000
-10.16910000 8.32240000 6.57800000
-10.77180000 8.35680000 5.63120000
-11.87730000 9.18140000 5.18960000
-11.22250000 8.96740000 4.96400000
-10.88820000 8.78160000 5.53100000
-11.02000000 9.16280000 5.34800000
-10.56140000 9.01950000 6.11960000
-10.20780000 8.74950000 6.58540000
-11.54590000 9.13770000 5.85060000
-11.49190000 9.26400000 5.89940000
-10.67350000 9.25300000 5.95660000
-10.38200000 9.46690000 7.01080000
-11.17910000 9.43160000 5.41480000
-11.60700000 9.45960000 4.90080000
-10.71850000 9.35360000 5.97390000
-10.31260000 9.41410000 6.73070000
-11.95600000 9.06460000 3.14480000
-11.80780000 8.92370000 3.57270000
-12.43090000 9.09920000 3.88880000
-12.22990000 9.21920000 4.37640000
-12.56290000 9.22440000 3.45160000
-12.20680000 9.34950000 4.23030000
-12.14680000 9.40150000 4.13290000
-12.56370000 9.31530000 3.24110000
-11.77740000 9.44670000 4.81680000
-11.57480000 8.85910000 4.12930000
-11.71200000 9.20220000 3.82730000
-11.47470000 9.22110000 4.41980000
-11.56850000 9.35570000 4.37220000
-11.93780000 9.31080000 3.37330000
-11.76240000 9.42580000 4.20620000
-12.07250000 9.24070000 2.84160000
-12.14950000 9.38890000 3.08730000
-11.89460000 9.33540000 5.02320000
-11.44130000 9.14880000 4.53230000
-11.16640000 9.18220000 5.03680000
-11.19810000 9.30380000 5.04490000
-11.52300000 9.39550000 5.63640000
-11.09060000 9.46140000 6.12950000
-13.08540000 8.69000000 0.22340000
-13.14600000 9.06000000 -0.41770000
-13.15050000 9.09710000 0.34720000
-13.13910000 9.17860000 -0.28280000
-13.11880000 9.19530000 0.62480000
-12.53070000 8.94690000 -0.05770000
-12.47120000 8.79090000 0.65590000
-12.48510000 9.05810000 0.66640000
-12.54840000 9.16930000 -0.21080000
-12.52920000 9.19930000 0.60710000
-12.59780000 9.28050000 0.41640000
-13.07110000 9.26940000 0.23120000
-12.66790000 9.34340000 0.75730000
-12.95090000 9.32460000 0.95010000
-12.49360000 9.28980000 1.28660000
-10.40560000 9.10440000 7.56510000
-10.66020000 9.19470000 7.23280000
-10.55990000 9.34600000 7.23810000
-10.95930000 9.31570000 6.71910000
-11.06610000 9.14540000 6.65380000
-11.08610000 9.40930000 6.36760000
-10.54480000 9.44530000 7.02280000
-10.44680000 9.05780000 -6.93780000
-11.17310000 9.10290000 -6.88520000
-9.85410000 8.75120000 7.07870000
-10.31040000 9.07730000 6.53620000
-10.07330000 9.22550000 6.84730000
-9.59920000 9.18040000 7.44480000
-9.19520000 8.93320000 7.90870000
-9.01420000 9.11340000 8.11020000
-9.64270000 9.30700000 7.43260000
-9.69230000 9.39450000 7.50520000
-10.00730000 9.26840000 8.00350000
-9.95270000 9.38500000 7.91960000
-10.27610000 9.32280000 6.61700000
6.22400000 -9.38910000 0.24350000
5.73340000 -9.41750000 1.29100000
5.90520000 -9.39290000 0.13790000
5.62080000 -9.38190000 1.00630000
6.46990000 -9.30240000 1.15060000
6.53850000 -9.32300000 0.16130000
6.59760000 -9.22890000 0.76260000
5.33620000 -9.39530000 1.88380000
5.22260000 -9.43440000 2.42900000
5.29830000 -9.45370000 3.03030000
5.86220000 -9.41820000 2.38570000
5.04730000 -9.29460000 2.21360000
4.96780000 -9.11160000 2.24590000
5.32440000 -9.30160000 1.59830000
5.24770000 -9.12810000 1.57730000
5.46040000 -9.28350000 1.06610000
5.49820000 -9.20520000 0.59300000
5.44050000 -9.05800000 0.78690000
5.25870000 -8.68400000 1.42930000
4.81480000 -9.37630000 2.80700000
4.63440000 -9.14990000 2.85050000
4.61610000 -8.83640000 2.83580000
5.02120000 -8.77240000 2.09270000
5.11150000 -8.30070000 1.76400000
4.16370000 -9.39830000 3.73550000
4.42100000 -9.44460000 3.65750000
4.60600000 -9.28640000 2.98530000
4.26330000 -9.11830000 3.37560000
4.16800000 -9.31440000 3.58360000
3.74010000 -9.30860000 4.04000000
5.14340000 -9.44680000 3.62400000
4.26260000 -9.44270000 4.67920000
3.93110000 -9.16210000 3.74930000
3.78550000 -8.56470000 3.85850000
4.18460000 -8.34090000 3.38440000
5.66280000 -9.33840000 3.22680000
5.96930000 -9.33370000 2.63930000
6.06950000 -9.23260000 2.60600000
5.65080000 -9.22110000 3.40570000
5.97210000 -9.08620000 2.85200000
5.05410000 -9.40610000 3.95730000
5.36110000 -9.32110000 3.72820000
5.58840000 -9.06880000 3.51840000
5.84260000 -8.85150000 2.99660000
5.09970000 -9.29020000 4.11640000
5.25140000 -9.15850000 3.95920000
4.29460000 -9.37620000 4.87100000
4.79580000 -9.34790000 4.41200000
4.82560000 -9.23560000 4.48980000
5.21880000 -8.89240000 3.98380000
5.56760000 -8.84740000 3.47220000
5.02110000 -8.45010000 3.96940000
5.48010000 -8.46580000 3.31120000
4.65060000 -8.20770000 2.69830000
4.79210000 -7.71510000 2.27910000
5.86790000 -8.45530000 2.61710000
5.52540000 -7.76600000 2.82790000
5.08500000 -7.91290000 3.59800000
4.40970000 -7.38020000 2.85720000
6.33060000 -9.37820000 0.99520000
6.22120000 -9.33960000 1.94900000
6.37000000 -9.26200000 1.76980000
6.51790000 -9.12390000 1.40050000
6.34230000 -9.15590000 1.99420000
6.42750000 -8.92760000 1.66060000
6.62360000 -9.09380000 0.87940000
6.56990000 -8.86950000 1.03900000
6.67620000 -8.95550000 0.44550000
6.38250000 -8.41820000 1.04890000
6.17930000 -8.90390000 2.33900000
6.05140000 -8.12640000 1.88160000
6.23720000 -8.60630000 1.87580000
5.75190000 -7.62170000 2.29540000
4.42880000 -9.27790000 4.87520000
3.85500000 -9.29700000 5.35380000
4.07290000 -9.17670000 5.23460000
3.78350000 -9.07390000 5.47140000
4.03310000 -8.95010000 5.24420000
4.68000000 -9.08270000 4.64840000
4.68090000 -8.81910000 4.55570000
4.12100000 -8.68350000 5.04600000
4.45620000 -8.41110000 4.57270000
3.95370000 -8.20270000 4.95410000
4.27380000 -7.68890000 4.47350000
3.57110000 -7.54010000 3.88290000
4.00340000 -7.53560000 3.43050000
3.57800000 -6.69950000 3.66850000
4.72170000 -7.64170000 3.97610000
5.25370000 -7.27930000 3.12420000
4.94600000 -7.15520000 3.55270000
4.46960000 -6.99650000 4.07840000
4.70290000 -6.25810000 3.44710000
3.55260000 -7.84390000 5.15960000
3.88580000 -7.16250000 4.70310000
3.54510000 -6.37820000 4.72360000
3.90710000 -6.17050000 4.32800000
4.25070000 -6.09940000 3.93520000
5.42050000 -9.30930000 -2.22050000
5.40620000 -9.32620000 -2.96270000
5.73790000 -9.35550000 -1.67460000
4.97800000 -9.28350000 -3.18070000
6.33860000 -9.18470000 -2.37440000
6.06840000 -9.25620000 -2.85010000
6.14300000 -9.16380000 -2.94630000
6.37910000 -9.32270000 -1.37380000
6.02840000 -9.33520000 -2.15860000
6.36130000 -9.06050000 -2.49960000
6.44130000 -8.88070000 -2.26290000
6.19610000 -8.93030000 -3.00350000
4.87710000 -9.24710000 -4.59110000
3.82250000 -9.21800000 -5.61730000
3.83670000 -9.18230000 -5.72830000
3.67570000 -9.11190000 -5.95230000
4.16650000 -9.03440000 -5.66040000
3.61130000 -8.77780000 -6.08710000
4.14160000 -8.90420000 -5.71640000
4.26330000 -8.69670000 -5.57390000
4.57600000 -9.19240000 -5.11170000
4.33620000 -9.11790000 -5.46050000
4.77430000 -9.09920000 -5.07320000
4.65210000 -8.90320000 -5.26910000
4.28310000 -9.27660000 -4.32630000
4.24360000 -9.23240000 -4.17510000
3.70380000 -9.13000000 -4.57510000
3.84910000 -9.04930000 -4.39670000
5.24360000 -9.17750000 -4.43760000
5.24610000 -9.09010000 -4.55410000
5.01640000 -8.98410000 -4.88310000
4.85210000 -8.68350000 -5.01530000
5.33080000 -8.83840000 -4.48770000
4.07470000 -8.31820000 -5.52240000
4.53380000 -8.23460000 -5.05410000
4.62320000 -7.88670000 -4.74030000
5.07010000 -8.56460000 -4.69520000
4.36170000 -9.17140000 -3.88890000
4.35650000 -9.08140000 -3.81630000
3.69630000 -8.66660000 -4.48220000
4.19630000 -8.69390000 -3.96180000
4.52210000 -8.95780000 -3.55120000
4.57700000 -8.46660000 -3.40470000
4.80450000 -9.19140000 -3.25330000
5.61420000 -9.28330000 -3.55490000
5.64400000 -9.20930000 -3.80330000
5.75930000 -9.11090000 -3.77320000
5.61980000 -8.94510000 -4.10000000
5.96730000 -9.02700000 -3.47460000
5.66390000 -8.70810000 -3.96860000
5.28630000 -8.37910000 -4.26930000
5.89780000 -8.81960000 -3.61040000
5.41530000 -8.09750000 -3.86540000
5.11340000 -9.21860000 -2.66070000
5.02870000 -9.07640000 -2.68560000
4.88640000 -8.76920000 -2.91650000
5.74020000 -8.28520000 -3.47100000
4.02180000 -8.39120000 -4.11210000
3.60440000 -7.93690000 -4.38960000
3.94590000 -7.68720000 -3.96680000
4.30710000 -7.93840000 -3.62830000
4.80600000 -7.57160000 -4.36890000
4.30310000 -7.23920000 -4.75690000
4.47960000 -6.78140000 -4.39180000
5.14670000 -7.36170000 -3.80970000
6.12890000 -8.69530000 -3.03340000
6.35510000 -8.64230000 -2.33400000
5.86390000 -8.11900000 -3.02860000
3.54680000 -8.19860000 -5.83090000
3.83760000 -7.60130000 -5.29970000
3.29430000 -6.97560000 -5.48830000
3.20680000 -7.19120000 -4.49210000
3.79460000 -7.08710000 -5.15450000
3.59290000 -6.55570000 -5.09840000
4.09160000 -6.85940000 -4.82930000
3.90740000 -6.09370000 -4.61190000
5.64200000 -9.32640000 -1.24040000
5.54170000 -9.15690000 -0.46350000
5.51000000 -9.14430000 -0.97740000
5.50820000 -9.20000000 -1.19010000
5.50610000 -8.84570000 -0.41850000
5.61300000 -9.27320000 -0.38170000
5.74900000 -9.36500000 -0.00980000
5.41400000 -9.22750000 -1.78280000
5.25420000 -9.10040000 -2.11540000
5.16000000 -8.63000000 -2.30110000
5.24380000 -8.38180000 -1.94850000
5.37040000 -8.95870000 -1.62150000
5.45490000 -8.74400000 -1.12280000
5.34910000 -8.34760000 -1.50900000
5.52550000 -9.11360000 0.19830000
5.61400000 -9.29850000 0.27330000
5.45210000 -8.51570000 0.37390000
5.41640000 -8.26130000 -1.03670000
5.41680000 -8.03350000 -0.47950000
5.23810000 -7.69070000 -1.42630000
5.31440000 -7.67790000 -0.90970000
5.34650000 -7.68660000 -0.07350000
6.51060000 -9.25780000 -1.38160000
6.58910000 -9.27940000 -0.60000000
6.66570000 -9.14330000 -0.93420000
6.67130000 -9.19760000 -0.22470000
6.70570000 -9.03110000 -0.35840000
6.65540000 -9.01300000 -1.21670000
6.67940000 -8.82240000 -0.51040000
6.55740000 -9.15840000 -1.58970000
6.56440000 -9.05230000 -1.75930000
6.55590000 -8.78810000 -1.69030000
6.62330000 -8.75430000 -1.13430000
6.15510000 -7.60600000 -1.51860000
6.47600000 -8.38670000 -1.10600000
6.32750000 -8.29470000 -1.84740000
6.69290000 -9.12880000 0.23300000
6.62370000 -8.72580000 0.24960000
6.43650000 -8.15650000 -0.32230000
6.46580000 -8.30640000 0.20610000
6.26040000 -7.63570000 -0.87810000
6.15340000 -7.11840000 -0.41900000
4.87770000 -8.29130000 -2.84120000
4.51860000 -7.65010000 -3.20490000
4.81530000 -7.54720000 -2.61110000
5.03600000 -8.10610000 -2.41830000
5.05670000 -7.61530000 -2.02970000
3.59770000 -7.16510000 -4.13750000
3.80710000 -6.88100000 -3.79270000
4.15030000 -7.05890000 -3.47850000
3.84880000 -6.12200000 -3.30630000
4.15390000 -6.27120000 -2.97480000
5.67050000 -7.50220000 -2.95120000
5.44360000 -6.93920000 -3.09040000
5.06200000 -6.87810000 -3.70630000
4.45930000 -6.95640000 -2.96600000
4.81340000 -6.91250000 -2.19950000
4.98400000 -7.07380000 -1.86230000
5.01690000 -6.85140000 -1.47500000
5.13290000 -6.83940000 -0.76870000
4.76070000 -6.29110000 -1.66240000
4.52000000 -6.64430000 -2.63380000
4.45480000 -6.06120000 -2.24160000
4.88520000 -5.80500000 -3.25280000
5.31540000 -6.18960000 -2.76530000
4.58470000 -5.79600000 -1.64550000
3.95180000 -5.62220000 -2.88300000
5.04050000 -5.36050000 -2.60520000
5.37340000 -5.77390000 -2.20100000
6.08960000 -8.23710000 -2.59420000
5.99070000 -7.65890000 -2.24250000
5.70780000 -6.96460000 -2.54000000
5.91700000 -7.01720000 -1.91480000
5.66180000 -6.29160000 -1.92720000
6.08080000 -7.03900000 -1.15450000
5.72560000 -6.09110000 -1.32000000
5.33220000 -8.25450000 0.99390000
5.26650000 -7.60690000 0.64480000
5.04750000 -7.54810000 1.55440000
5.23320000 -7.11940000 -0.17820000
5.13370000 -6.89490000 0.57840000
5.09150000 -6.62550000 0.13010000
5.48270000 -6.90090000 2.50260000
4.78630000 -6.86210000 1.88080000
4.36990000 -6.71550000 2.67040000
4.53230000 -6.46830000 2.17370000
5.02830000 -6.86770000 1.11600000
4.91580000 -6.38110000 0.86230000
4.86360000 -6.09150000 0.40770000
4.81400000 -6.46510000 1.41120000
4.33180000 -5.79290000 2.03860000
4.63880000 -5.85250000 1.19960000
4.61630000 -5.51600000 1.03090000
4.53110000 -5.86550000 1.57400000
6.21700000 -7.79520000 0.91860000
6.23340000 -7.57280000 0.36840000
5.96140000 -7.40630000 1.56070000
6.13510000 -7.02840000 0.13630000
6.06030000 -7.07460000 0.84680000
5.80290000 -6.33370000 0.91450000
5.84080000 -6.17100000 0.19880000
5.76490000 -5.91500000 -0.19500000
5.85830000 -7.08820000 1.67680000
5.38940000 -6.28200000 2.23710000
5.51260000 -6.04420000 1.65500000
5.52730000 -5.53310000 0.79950000
5.28690000 -5.51410000 1.72670000
4.84960000 -6.14660000 -1.02210000
5.00790000 -6.38690000 -0.32000000
4.78180000 -5.84690000 -0.80910000
4.80630000 -5.76510000 -0.28650000
4.41730000 -5.23990000 -1.69660000
4.20410000 -5.56650000 -2.41610000
4.23480000 -5.13980000 -2.05860000
4.58480000 -5.27140000 -1.18640000
4.69670000 -5.44460000 -0.85410000
4.37810000 -4.75210000 -1.23070000
4.22130000 -4.76360000 -1.67500000
4.48980000 -4.77060000 -0.72950000
4.75750000 -5.67560000 0.27540000
4.65100000 -5.17740000 0.47890000
4.64420000 -5.03370000 -0.00420000
4.52050000 -4.73160000 0.42070000
4.63370000 -5.06800000 -0.56870000
4.18050000 -4.37190000 -1.58840000
4.33140000 -4.18760000 -0.98040000
4.46990000 -4.38240000 -0.39570000
4.51300000 -4.64340000 -0.17820000
4.46400000 -4.23660000 0.13570000
4.38380000 -4.01400000 -0.42860000
5.78230000 -6.03850000 -0.78690000
5.60340000 -5.54390000 -0.60890000
5.36750000 -5.34010000 -1.69150000
5.13750000 -4.76140000 -1.83260000
5.34210000 -4.82030000 -1.09350000
5.43510000 -4.91350000 -0.50470000
5.43740000 -4.91170000 0.06940000
5.33890000 -4.61020000 0.43030000
5.29790000 -4.89720000 1.07600000
5.12550000 -4.13020000 -1.21440000
5.20680000 -4.07380000 -0.63080000
5.25430000 -4.15670000 -0.10610000
5.06760000 -3.79180000 -1.20960000
3.29110000 -6.53210000 -4.11700000
3.34310000 -5.55490000 -4.79020000
3.44710000 -5.93740000 -3.65120000
4.67140000 -6.13540000 -3.79650000
4.27650000 -5.96660000 -4.18140000
4.31530000 -5.32540000 -3.73380000
3.92990000 -5.32540000 -4.16080000
3.05200000 -5.12160000 -3.64440000
3.52960000 -5.18180000 -3.17770000
3.95770000 -5.09470000 -2.53270000
3.35510000 -4.76850000 -3.11460000
4.50230000 -4.95770000 -3.26780000
4.76110000 -4.72240000 -2.67970000
4.15980000 -4.68900000 -3.55700000
3.42970000 -4.87190000 -4.39110000
3.77340000 -4.73300000 -4.00940000
3.42020000 -4.28920000 -4.15300000
3.05200000 -4.62240000 -4.58380000
2.65100000 -4.14000000 -4.64800000
3.02860000 -4.10220000 -4.39830000
2.96370000 -4.76190000 -3.50790000
2.83480000 -4.44650000 -3.58160000
3.91010000 -4.13950000 -3.62380000
3.31530000 -3.88210000 -4.12730000
2.85260000 -3.52430000 -4.45370000
3.83960000 -2.39190000 -6.88210000
4.69010000 -2.52170000 -5.68930000
3.96350000 -2.48710000 -5.85310000
4.25590000 -2.53650000 -4.75620000
5.55070000 -2.52830000 -5.15450000
6.15810000 -2.41730000 -5.50950000
6.62250000 -2.48440000 -4.57430000
7.08820000 -2.30160000 -5.18690000
4.95210000 -2.24740000 -7.01320000
5.38820000 -2.42230000 -6.05850000
6.11050000 -2.21350000 -6.51500000
5.53590000 -2.58860000 -3.96160000
6.88740000 -2.17280000 -5.98090000
6.46070000 -2.10530000 -6.58250000
5.88250000 -2.09050000 -7.07370000
6.88820000 -1.59330000 -6.99730000
7.24180000 -1.81210000 -6.27480000
7.39290000 -2.07330000 -5.61340000
3.72930000 -4.82730000 -2.66280000
3.57740000 -4.51990000 -2.76490000
3.82380000 -4.32710000 -2.31320000
3.40370000 -3.66440000 -2.70960000
3.99120000 -4.75820000 -2.17980000
4.95230000 -4.23130000 -1.94100000
4.28170000 -4.11820000 -3.16270000
4.62790000 -4.19060000 -2.62930000
3.92700000 -3.92140000 -1.92090000
3.66700000 -3.78310000 -2.32610000
4.77320000 -4.02050000 -2.25100000
4.46810000 -3.84410000 -2.79930000
4.61460000 -3.66780000 -2.52510000
4.76610000 -3.54230000 -2.25210000
3.19530000 -4.31630000 -3.18760000
2.95440000 -3.81180000 -3.25520000
3.75610000 -3.74450000 -3.70320000
3.17850000 -3.53110000 -4.23950000
3.51960000 -3.53210000 -3.95380000
2.76450000 -3.07150000 -3.27220000
3.03680000 -3.13390000 -3.03370000
4.19700000 -3.70330000 -3.19270000
4.20340000 -3.48320000 -3.21950000
3.78210000 -3.33250000 -3.76990000
4.55180000 -3.33370000 -2.79120000
3.91470000 -3.11040000 -3.74250000
4.25650000 -3.28260000 -3.25640000
4.32720000 -3.11470000 -3.27130000
4.45220000 -2.92220000 -3.36600000
4.05420000 -2.93210000 -3.77040000
4.64030000 -3.12150000 -2.81180000
4.61420000 -2.82780000 -3.30940000
4.06060000 -3.71920000 -1.44300000
3.83010000 -3.36270000 -1.85170000
4.91860000 -3.76590000 -1.78560000
4.24010000 -3.73920000 -0.72660000
4.16480000 -3.39940000 -0.79490000
4.02050000 -3.17010000 -1.30750000
3.59300000 -3.25230000 -2.30510000
3.39270000 -2.97980000 -2.55270000
3.01890000 -2.85180000 -2.91770000
3.49010000 -2.74880000 -2.20490000
3.20330000 -2.76570000 -2.63260000
2.74570000 -2.68010000 -2.98240000
3.15840000 -2.61950000 -2.39810000
2.57560000 -2.35890000 -1.76640000
3.15770000 -2.45010000 -1.51260000
3.53250000 -2.59950000 -1.79350000
3.81380000 -2.94850000 -1.77760000
4.83120000 -3.37610000 -2.23600000
4.85920000 -3.09270000 -2.46920000
3.73150000 -2.77260000 -1.81450000
4.00340000 -2.80010000 -1.15590000
3.85870000 -2.65070000 -1.26830000
5.11770000 -2.64450000 -3.26670000
5.15240000 -2.73160000 -2.82020000
4.87930000 -2.75880000 -3.12050000
6.30570000 -2.59690000 -3.70210000
6.75160000 -2.60840000 -2.83730000
7.27240000 -2.52510000 -3.21140000
4.99690000 -3.55180000 -1.56900000
4.99340000 -3.33140000 -1.80860000
5.12010000 -3.62620000 -0.88800000
5.14370000 -3.39100000 -1.07080000
5.15990000 -3.64880000 -0.34760000
5.17430000 -3.51020000 -0.27750000
5.24500000 -3.04110000 -1.58880000
5.10700000 -3.05080000 -2.01230000
5.23000000 -3.21690000 -1.02980000
5.35700000 -3.06720000 -0.78390000
5.44770000 -2.84570000 -1.65500000
5.63390000 -2.76710000 -1.46940000
5.77370000 -2.73200000 -0.80280000
5.87600000 -2.69570000 -1.18820000
6.33480000 -2.64840000 -1.84200000
6.24680000 -2.63980000 -0.94890000
7.15760000 -2.61770000 -1.37100000
7.11490000 -2.55640000 0.34820000
5.00040000 -2.93380000 -2.52230000
5.24250000 -2.84090000 -2.30520000
5.71860000 -2.68120000 -2.13650000
5.46930000 -2.74620000 -2.14340000
5.42600000 -2.68750000 -2.68710000
5.68310000 -2.62180000 -2.97300000
6.50160000 -1.60850000 -0.76520000
7.07870000 -1.58050000 -1.13310000
6.17630000 -1.63320000 -1.56790000
2.94890000 -3.17440000 -4.49310000
3.30670000 -3.16920000 -4.23540000
3.09720000 -2.97220000 -4.49560000
3.47030000 -2.98180000 -4.23930000
2.61240000 -2.88550000 -4.81850000
2.73850000 -2.72290000 -4.92730000
3.11980000 -2.64360000 -4.85040000
2.43270000 -2.76340000 -3.35330000
4.36860000 -2.61100000 -4.15360000
3.64170000 -2.57940000 -4.71730000
3.84300000 -2.73480000 -4.25240000
4.18600000 -2.70820000 -3.99390000
3.89950000 -1.61000000 -4.67530000
3.54070000 -1.54910000 -3.76430000
3.93320000 -1.59840000 -5.31680000
4.35850000 -1.54710000 -5.76100000
5.22160000 -1.59380000 -4.56840000
5.51390000 -1.63320000 -3.71300000
2.84380000 -1.40950000 -2.63290000
4.30990000 -1.55710000 -2.18530000
7.62340000 -2.37430000 -3.81830000
5.45480000 -1.54720000 -5.02580000
6.43070000 -1.63120000 -3.29130000
5.80650000 -1.43800000 -5.16720000
5.01720000 -1.44180000 -5.89400000
6.44930000 -1.15200000 -5.28170000
5.89200000 -1.14600000 -5.87960000
7.09780000 -1.09960000 -4.59830000
7.02850000 -0.80670000 -5.81050000
6.36850000 -1.53120000 -4.22440000
6.85240000 -1.33490000 -4.16830000
5.59980000 -1.64510000 -2.24060000
6.89310000 -1.59680000 -3.00780000
6.65280000 -1.59900000 -3.56370000
7.70200000 -1.20170000 -3.08490000
6.87020000 -1.49110000 -3.66060000
7.82800000 -1.26060000 -2.41980000
7.21660000 -1.56320000 -1.97460000
7.42200000 -1.48220000 -2.12020000
7.61430000 -2.20440000 -4.94250000
7.92580000 -1.75520000 -5.51290000
7.92760000 -1.44280000 -6.10400000
8.39470000 -1.28890000 -5.73390000
8.14500000 -1.02950000 -6.46140000
8.33060000 -1.67650000 -5.05080000
8.24680000 -2.38700000 -2.27270000
8.16360000 -2.22100000 -3.84730000
8.65350000 -2.12660000 -3.14010000
8.48600000 -2.24650000 -3.03690000
8.83830000 -2.12980000 -2.47900000
8.48120000 -2.07120000 -3.71770000
9.15160000 -1.59320000 -3.54080000
7.79440000 -2.54940000 -1.40190000
8.35220000 -2.43850000 -1.13940000
8.77820000 -2.26640000 -1.77680000
8.86310000 -2.27550000 -0.89680000
9.02280000 -2.14180000 -1.55410000
9.20120000 -1.68820000 -3.07270000
9.37300000 -1.78780000 -1.92980000
9.65260000 -1.37740000 -2.76450000
9.37280000 -1.89760000 -1.22170000
9.86270000 -1.30820000 -2.15140000
10.36840000 -0.86690000 -1.69460000
10.28890000 -0.81640000 -2.43170000
8.03470000 -2.10690000 -4.50550000
8.79990000 -1.60020000 -4.30550000
8.90970000 -1.09830000 -5.21990000
9.54540000 -0.96830000 -4.26870000
9.85630000 -0.84650000 -3.82200000
9.76620000 -1.13000000 -3.21810000
7.67820000 -1.02450000 -4.02800000
7.98560000 -0.86230000 -4.28390000
8.51320000 -0.72370000 -3.84350000
7.72740000 -0.76750000 -5.05690000
8.59710000 -0.29670000 -4.89280000
8.16050000 -0.35560000 -5.44520000
8.75290000 -0.62700000 -6.30970000
9.31840000 -0.52140000 -5.58370000
9.32820000 -0.80870000 -5.06100000
9.89860000 -0.36030000 -4.73420000
9.04540000 -0.15840000 -4.41690000
9.21410000 0.09080000 -4.67550000
8.44290000 -0.90590000 -3.12480000
8.78580000 -0.91390000 -1.95470000
9.01570000 -0.68470000 -2.72620000
9.47170000 -0.48860000 -1.91700000
9.60910000 -0.16400000 -2.97420000
9.02510000 -0.42730000 -3.66110000
9.58350000 0.14750000 -3.96000000
9.69630000 -0.03500000 -5.58310000
10.24840000 -0.49500000 -3.62100000
10.23750000 0.23460000 -4.87800000
10.34620000 -0.11310000 -4.09580000
10.72720000 0.05930000 -3.27790000
10.46420000 -0.53190000 -2.80070000
10.69140000 -0.39670000 -2.22720000
10.88850000 -0.04520000 -2.38980000
9.51340000 0.48680000 -4.72470000
10.64750000 0.44750000 -4.11990000
10.46430000 0.78270000 -4.94680000
10.85180000 1.14620000 -4.37030000
9.88270000 0.18140000 -3.24760000
10.07140000 0.47640000 -3.32030000
9.86310000 0.64360000 -4.16390000
10.27270000 0.89430000 -3.40960000
10.99990000 0.62540000 -3.30570000
11.26110000 1.34320000 -3.37920000
11.18260000 1.58020000 -3.89290000
4.08350000 -6.79600000 3.14560000
4.00720000 -6.42490000 3.04760000
5.04090000 -6.20330000 2.89020000
4.16660000 -6.13810000 2.59810000
4.85460000 -5.63270000 2.79570000
3.72580000 -5.86600000 3.06810000
4.05630000 -5.78910000 2.55100000
4.32690000 -5.19230000 1.78800000
4.06000000 -5.16740000 2.34140000
5.17010000 -5.62460000 2.15920000
4.73290000 -4.95320000 2.62750000
4.91480000 -4.83720000 2.20330000
5.14040000 -4.90750000 1.67840000
3.33080000 -5.89690000 3.54150000
3.67640000 -5.56910000 4.26710000
3.28280000 -5.38330000 3.45080000
3.89200000 -4.84920000 3.79800000
3.61270000 -4.93760000 4.12070000
4.29740000 -5.35480000 3.51050000
3.67490000 -5.48890000 3.02400000
3.69170000 -5.04560000 2.87680000
2.77330000 -5.03180000 3.82510000
3.19500000 -4.99760000 3.43520000
3.51910000 -4.66900000 2.91120000
3.87470000 -4.70130000 2.41210000
3.40760000 -4.17940000 2.95900000
3.70230000 -4.29360000 2.60850000
3.20630000 -4.64180000 3.25930000
3.17520000 -4.33930000 3.25420000
2.88060000 -4.57820000 3.56140000
4.52230000 -5.15260000 3.10350000
4.44620000 -4.41510000 2.87360000
4.26470000 -4.73210000 3.26370000
3.99170000 -4.34290000 3.51260000
4.27220000 -4.00940000 2.94780000
4.45060000 -5.07920000 1.38600000
4.52710000 -4.99430000 0.96630000
4.38040000 -4.70940000 1.21840000
4.44610000 -4.43040000 0.79350000
4.21280000 -4.70930000 1.75780000
4.83400000 -4.29820000 2.05980000
4.34850000 -4.30490000 1.21320000
4.18240000 -4.30250000 1.74130000
4.18170000 -3.95720000 1.49510000
4.39620000 -3.99720000 0.48070000
4.30260000 -3.66500000 0.02100000
4.25930000 -3.55770000 0.44560000
4.32190000 -3.94820000 0.94670000
4.20350000 -3.61480000 0.94810000
4.22990000 -3.31050000 -0.04250000
4.17450000 -3.23560000 0.68090000
4.21470000 -2.89730000 0.32700000
4.21620000 -2.93390000 -0.16400000
3.33770000 -3.75960000 2.85910000
3.67690000 -3.84250000 2.45200000
3.21360000 -3.52790000 2.88240000
3.67020000 -3.51800000 2.26200000
3.96540000 -4.35810000 2.20610000
3.95350000 -3.96620000 2.05050000
4.60740000 -3.78590000 2.25230000
4.89520000 -4.00910000 1.67540000
3.92610000 -3.54550000 1.79510000
4.09200000 -3.54920000 1.34600000
4.44740000 -3.56590000 2.52840000
3.94280000 -3.99180000 3.40530000
3.69930000 -3.27030000 2.13970000
4.82650000 -3.55940000 1.66210000
4.71030000 -3.43520000 2.05700000
4.72060000 -3.21970000 2.12470000
5.02130000 -3.23830000 1.24340000
4.22850000 -3.46190000 2.92050000
4.04230000 -3.27570000 1.31850000
4.03310000 -2.92990000 1.39110000
4.16040000 -2.79700000 0.87420000
3.89230000 -3.17450000 1.74640000
3.73800000 -2.89890000 2.09550000
3.84040000 -2.56400000 1.99920000
3.58550000 -2.32560000 0.89740000
4.03400000 -2.39730000 0.73760000
3.78560000 -2.37330000 1.80210000
3.95260000 -2.49000000 1.74100000
4.05970000 -2.61720000 1.45290000
4.00180000 -2.42430000 1.46120000
4.12870000 -2.51980000 1.08980000
4.12750000 -2.46280000 0.89060000
5.18020000 -4.44680000 1.14280000
5.15740000 -3.86160000 0.37160000
5.08510000 -3.95070000 0.94350000
5.12100000 -3.60400000 0.43100000
5.22060000 -3.34910000 -0.31310000
5.17200000 -3.37160000 0.27230000
5.00170000 -3.58810000 1.06330000
5.15510000 -3.28020000 0.61620000
5.42430000 -2.98880000 -0.31000000
5.32530000 -3.03260000 0.35490000
5.28490000 -2.97090000 0.79000000
5.53350000 -2.85600000 -0.01280000
5.59490000 -2.73360000 0.63510000
5.70680000 -2.74510000 -0.22110000
4.57330000 -3.12240000 2.48790000
5.00340000 -2.89760000 1.92420000
4.57370000 -2.95430000 2.68740000
5.01140000 -3.06430000 1.53750000
5.29300000 -2.81920000 1.37300000
5.59450000 -2.64410000 1.34350000
5.89790000 -2.63760000 0.29050000
6.11940000 -2.60810000 0.08110000
5.64000000 -2.55460000 2.39450000
5.02830000 -2.69610000 2.46120000
6.39990000 -2.55950000 0.82500000
6.52350000 -2.53790000 1.97060000
7.49580000 -2.48350000 1.84170000
7.01990000 -2.52950000 2.26160000
3.02760000 -5.28550000 4.70950000
3.32010000 -4.59850000 4.29130000
2.93370000 -4.69170000 4.59530000
3.55110000 -4.29710000 3.98960000
2.64500000 -4.32670000 3.73080000
2.63450000 -3.83220000 3.58930000
2.94410000 -3.93770000 3.36070000
2.82890000 -4.26470000 4.59420000
3.57060000 -3.93180000 3.83710000
3.07980000 -3.92610000 4.29620000
3.66310000 -3.48460000 3.68330000
2.98550000 -3.52400000 4.32200000
3.46470000 -3.26430000 3.93110000
3.92730000 -3.62020000 3.35890000
2.62710000 -3.19940000 4.61750000
3.08770000 -3.11210000 4.31450000
3.26790000 -2.87070000 4.34540000
2.83520000 -2.80710000 4.72440000
3.55980000 -2.67260000 4.40640000
3.74870000 -2.52730000 4.93780000
2.98040000 -2.59830000 5.00830000
4.51920000 -2.53560000 4.13240000
6.23240000 -2.50680000 3.92980000
4.49000000 -2.49610000 5.79530000
5.06740000 -2.50770000 4.26200000
5.47070000 -2.47590000 5.52370000
6.65000000 -2.47130000 4.26850000
6.81810000 -2.40120000 4.63570000
7.41070000 -2.31970000 4.21380000
6.20980000 -2.39420000 5.33460000
6.58710000 -2.26910000 5.61510000
7.31040000 -2.05750000 5.39750000
7.55630000 -2.19200000 4.64760000
2.85790000 -3.42750000 3.22770000
3.44280000 -3.21900000 2.53920000
3.09380000 -3.18140000 2.94150000
3.29290000 -2.90130000 2.76640000
2.47020000 -3.20470000 3.50290000
2.93100000 -2.81490000 3.15510000
3.29230000 -2.51120000 2.90880000
3.47250000 -2.61800000 2.62990000
2.85060000 -2.48380000 3.29510000
3.13990000 -2.43780000 3.05910000
2.98810000 -2.37910000 3.13430000
3.96050000 -3.19090000 3.36910000
4.21330000 -3.08780000 3.09220000
4.17220000 -2.89030000 3.35720000
4.69740000 -2.82290000 2.69700000
3.79680000 -3.01860000 3.68550000
4.50910000 -2.66630000 3.40910000
3.90990000 -2.75800000 3.89630000
3.44770000 -2.34940000 2.30680000
2.90660000 -2.33760000 2.99200000
3.31610000 -2.39580000 2.83860000
3.54310000 -2.45450000 2.52850000
3.70060000 -2.42020000 2.20880000
3.42440000 -1.41690000 2.07670000
3.84230000 -1.50940000 3.19710000
4.56210000 -1.53340000 1.47940000
3.47550000 -2.96500000 4.07060000
3.72430000 -2.60200000 4.46860000
4.60420000 -2.58270000 3.61100000
3.02220000 -1.38980000 1.57550000
5.07020000 -2.61040000 2.77880000
7.17180000 -2.47540000 3.12440000
5.34200000 -1.61150000 2.99930000
6.07340000 -1.63470000 1.49150000
5.62930000 -1.61350000 0.68730000
4.93660000 -1.55010000 4.52950000
6.02900000 -1.57720000 3.00290000
6.65950000 -1.59230000 1.27310000
6.86800000 -1.57010000 2.94660000
7.21440000 -1.58730000 1.73770000
3.81070000 -1.56200000 4.72540000
6.31740000 -1.54760000 4.04750000
6.71970000 -1.40220000 4.21230000
5.90110000 -1.48120000 4.89720000
7.23920000 -1.45100000 3.05330000
7.85290000 -2.50750000 0.05290000
8.35770000 -2.35430000 0.91640000
7.77370000 -2.37130000 2.91180000
8.28520000 -2.27350000 2.47550000
7.62290000 -1.49390000 1.42000000
7.40720000 -1.58360000 0.89620000
8.51890000 -1.12020000 0.92860000
8.41720000 -1.11740000 1.88740000
8.90000000 -2.19170000 0.65010000
8.98940000 -2.08420000 1.46100000
9.28550000 -1.95510000 0.47530000
9.63760000 -1.69870000 0.31470000
9.55710000 -1.68170000 1.37450000
8.65340000 -2.18590000 2.07750000
9.05150000 -1.93750000 2.13930000
9.40440000 -1.65810000 2.30110000
9.93480000 -1.26020000 2.00370000
9.97830000 -1.35190000 1.20150000
10.38300000 -0.88890000 1.59830000
10.34620000 -1.02820000 0.67220000
8.08580000 -1.91960000 4.60630000
7.69370000 -1.74660000 5.62160000
8.13740000 -1.49220000 5.61330000
8.67620000 -1.56010000 4.56940000
8.60950000 -2.14100000 2.60160000
8.11080000 -2.21120000 3.51700000
8.61740000 -2.00680000 3.19110000
8.19270000 -2.08310000 3.89140000
9.05270000 -1.78980000 2.92680000
8.64010000 -1.81900000 3.84240000
9.19630000 -1.53440000 3.51690000
9.69860000 -1.31400000 2.77480000
9.54780000 -1.26790000 3.41720000
8.00760000 -1.18900000 2.71770000
9.06130000 -0.85480000 1.65630000
8.68120000 -0.87960000 3.09900000
8.93700000 -0.73080000 3.07790000
9.23290000 -0.67260000 2.27470000
9.74140000 -0.33120000 1.78940000
9.40190000 -0.41970000 2.82440000
7.39560000 -1.20630000 3.98950000
8.21130000 -0.94840000 3.85360000
8.04570000 -0.81720000 4.70530000
9.19090000 -1.28140000 4.25880000
9.87730000 -0.94220000 3.46210000
8.83750000 -1.19320000 5.14730000
9.52610000 -0.88380000 4.51390000
8.57430000 -0.77810000 3.84590000
8.55440000 -0.59650000 4.43060000
9.14120000 -0.30870000 3.92710000
10.29920000 -0.74130000 2.65640000
10.67470000 -0.53630000 1.70930000
10.85130000 -0.10520000 2.26500000
10.50430000 -0.34020000 3.06970000
10.12460000 -0.51820000 3.82890000
10.04990000 -0.29800000 4.41050000
9.80090000 -0.10230000 2.68130000
10.08450000 0.17460000 2.52510000
9.85700000 0.18200000 3.32060000
9.55920000 0.27720000 4.24000000
10.06830000 0.63250000 3.53380000
10.79360000 0.16470000 3.11750000
10.51940000 0.14930000 3.93830000
9.48810000 -0.05580000 3.78210000
10.30450000 0.72220000 2.93890000
11.13800000 0.43010000 2.22080000
10.94280000 0.71440000 3.42860000
4.14840000 -2.92200000 -0.70070000
4.12940000 -2.63560000 -0.42050000
4.20960000 -2.59840000 0.25000000
4.14810000 -2.48160000 0.21120000
3.83590000 -2.48940000 -0.70150000
3.26700000 -2.34060000 -0.69500000
3.85320000 -2.36550000 0.13000000
2.75910000 -2.26790000 -0.51020000
4.04630000 -2.45280000 -0.09020000
3.33660000 -1.40540000 -0.80130000
2.80820000 -1.35140000 -0.40810000
4.18490000 -1.48200000 -0.72330000
3.94780000 -1.43730000 0.59180000
2.41280000 -1.32180000 -1.04910000
2.89510000 -1.35180000 0.59120000
2.62750000 -1.28590000 0.49460000
5.57650000 -2.84180000 -0.84510000
5.15580000 -1.57740000 0.03760000
8.42150000 -2.40180000 -0.55310000
9.17750000 -2.06820000 -0.64730000
9.67870000 -1.64710000 -0.70660000
7.55400000 -1.53780000 -0.14130000
7.81340000 -1.43030000 -0.56170000
8.29960000 -1.17790000 -1.12320000
9.04470000 -0.86110000 -1.26950000
9.01090000 -0.92170000 -0.24630000
9.33730000 -0.73120000 -0.61540000
9.78090000 -0.33520000 -1.19790000
8.34800000 -1.20610000 0.07070000
9.28800000 -0.78900000 0.58490000
9.76260000 -0.42630000 0.56820000
9.49210000 -0.61120000 1.20950000
10.18010000 -1.17330000 -0.92560000
10.09430000 -1.30050000 0.01070000
10.61090000 -0.73600000 -0.70830000
10.05630000 -1.23950000 -1.44250000
10.71440000 -0.52450000 -1.56880000
10.99060000 -0.09410000 -1.60360000
10.04230000 -0.16560000 -0.36590000
9.98140000 -0.05100000 -2.01490000
10.82340000 -0.48720000 -0.66460000
10.77260000 -0.58020000 0.31090000
10.77070000 -0.51390000 1.14070000
11.00270000 -0.23750000 -0.46310000
11.12730000 -0.02560000 0.30020000
11.06140000 -0.04640000 1.13860000
11.29830000 0.41000000 1.07780000
11.37060000 0.45860000 0.24080000
10.22510000 0.00000000 0.42360000
10.35850000 0.21140000 -0.90500000
10.53160000 0.40600000 0.02400000
10.39900000 0.24070000 0.74560000
10.57050000 0.54110000 -0.98150000
10.84450000 1.01800000 -0.48010000
11.19260000 0.14200000 -1.10490000
11.27290000 0.24890000 -0.47620000
11.52250000 0.95670000 -1.25540000
11.56600000 0.95440000 -0.46910000
11.67490000 1.26920000 0.35000000
10.28070000 0.27460000 -1.91360000
10.06970000 0.15120000 -2.50800000
10.41060000 0.61420000 -2.33870000
11.13180000 0.34590000 -2.24720000
11.31290000 0.87690000 -2.44400000
11.54870000 1.26540000 -1.91010000
10.72840000 0.91500000 -1.41790000
10.66320000 1.11110000 -2.34280000
10.61170000 1.34720000 -2.96240000
10.41920000 1.47440000 -3.75980000
11.61700000 1.92830000 -2.63150000
10.66340000 2.12310000 -3.76200000
10.97660000 2.26820000 -2.86850000
10.90850000 1.77680000 -2.48160000
11.47350000 1.98170000 -3.30420000
10.90210000 1.40150000 -1.68330000
11.79900000 1.74780000 -1.10000000
11.14730000 1.76780000 -0.75210000
11.23970000 2.23890000 -1.36160000
11.80500000 1.99090000 -1.61360000
11.10210000 2.19120000 -2.22910000
11.27490000 2.72080000 -1.95540000
11.32510000 3.28230000 -2.32900000
10.07150000 -0.06280000 1.58480000
10.37330000 0.35890000 1.67760000
10.56050000 0.55340000 1.10210000
11.40380000 0.99420000 1.98540000
11.53810000 1.02680000 1.08870000
10.79650000 0.97190000 0.79120000
10.95480000 1.26330000 0.20470000
11.83670000 1.76190000 -0.24290000
11.02150000 1.63710000 1.26000000
10.68820000 0.95730000 1.70480000
11.81680000 1.80600000 0.73130000
11.27550000 2.23050000 0.67710000
10.43540000 0.67380000 2.31870000
10.74390000 1.36760000 2.34060000
10.59950000 1.33040000 2.90150000
11.32250000 1.43910000 3.05490000
11.02020000 1.99320000 2.10230000
11.63410000 1.59990000 1.84240000
11.75100000 2.03860000 1.78830000
11.54180000 1.95820000 2.74890000
11.21710000 2.63480000 1.99450000
11.25280000 2.04940000 -0.36500000
11.43400000 2.74080000 -0.31340000
11.49340000 3.19490000 -0.88360000
11.37160000 2.52380000 0.27240000
11.57380000 3.51320000 -0.04340000
11.42380000 3.21630000 1.47420000
11.73370000 2.92180000 -3.03040000
12.05820000 3.69710000 -2.16710000
12.02770000 2.93560000 -1.28420000
12.18620000 3.69560000 1.08810000
12.13170000 3.27360000 0.48590000
12.11360000 3.76150000 1.80040000
11.95140000 2.29980000 -0.64100000
12.23830000 3.81800000 -0.40290000
11.50500000 3.60170000 -1.53890000
12.19890000 4.08670000 -1.65220000
12.39210000 4.79730000 -1.41420000
11.63950000 4.03110000 0.77800000
11.71490000 4.30510000 -0.30360000
11.62680000 4.13010000 -1.19800000
11.81710000 4.99100000 -1.29740000
12.65890000 5.71950000 -0.56420000
12.60420000 5.45640000 0.38310000
11.85010000 4.79040000 0.05290000
11.87300000 5.00710000 -0.60730000
4.07190000 -2.44650000 6.84650000
3.13820000 -2.39590000 7.52790000
3.53950000 -2.24800000 7.92010000
4.12200000 -2.37650000 7.20540000
4.60480000 -2.25090000 7.39370000
5.26410000 -2.40270000 6.27570000
3.67760000 -2.11220000 8.15160000
5.24560000 -2.08290000 7.34030000
4.37860000 -2.03730000 7.97950000
2.97720000 -1.35780000 7.15180000
3.77120000 -1.49350000 6.30370000
4.82620000 -1.50550000 5.69640000
3.98610000 -1.43650000 6.48830000
5.05730000 -1.42330000 5.87470000
5.16040000 -1.11610000 6.73530000
4.21560000 -1.08150000 7.38660000
5.35600000 -2.28620000 6.75280000
6.22700000 -1.08320000 5.95420000
6.56340000 -2.14850000 6.01700000
6.72830000 -1.95810000 6.32460000
7.11710000 -1.80810000 6.17030000
5.82100000 -2.16970000 6.70240000
5.90530000 -1.84770000 7.28320000
6.64640000 -1.70000000 6.88990000
7.36500000 -1.60760000 6.36040000
4.87870000 -1.92380000 7.89310000
5.42280000 -1.62560000 7.97850000
4.54040000 -1.74680000 8.28660000
6.77870000 -1.38060000 7.35150000
6.37340000 -1.35440000 7.73170000
7.22640000 -1.21020000 7.20430000
6.57610000 -0.90520000 8.19360000
5.64290000 -0.83660000 7.23190000
6.33330000 -0.69520000 7.01380000
6.78440000 -0.74140000 6.50550000
6.27520000 -0.38020000 7.57170000
6.95290000 -0.41620000 6.92340000
7.00050000 -1.05510000 5.22230000
2.62980000 -1.91040000 8.86830000
3.19590000 -1.91960000 8.68460000
2.82340000 -1.75670000 8.95380000
3.62610000 -1.72590000 8.72480000
2.89970000 -1.52860000 9.22710000
4.07180000 -1.90560000 8.34590000
4.08180000 -1.48920000 8.88150000
4.81650000 -1.55390000 8.44610000
4.76830000 -0.78110000 7.91220000
3.85420000 -0.79580000 8.35130000
2.93830000 -0.76290000 8.75780000
4.40180000 -0.59290000 8.45170000
3.59430000 -0.53220000 8.90520000
3.45740000 -1.14160000 9.57020000
2.70030000 -0.47910000 9.28350000
2.41530000 -0.64590000 10.37740000
2.97300000 -0.97570000 9.91380000
3.42440000 -0.68480000 10.08510000
2.21990000 -0.05930000 9.88870000
2.83880000 -0.09820000 9.69710000
4.68940000 -1.17720000 9.03550000
4.71570000 -0.80280000 9.48290000
