-3.55609400 16.21529400 15.46685300
0.07703700 16.21529400 15.88603400
15.51379200 16.21529400 3.57980800
15.11526600 16.13099700 3.46123800
15.52115900 16.13099700 -0.05672100
15.11526600 16.13099700 -3.57468200
13.95989400 16.13099700 -6.80369100
12.14694400 16.13099700 -9.65368300
9.76883800 16.13099700 -12.03178900
6.91884200 16.13099700 -13.84473600
3.68983300 16.13099700 -15.00011300
0.17187400 16.13099700 -15.40600400
-3.34608800 16.13099700 -15.00011300
-6.57509600 16.13099700 -13.84473900
-9.42508900 16.13099700 -12.03178900
-11.80319600 16.13099700 -9.65368300
-13.61614200 16.13099700 -6.80368900
-14.77151800 16.13099700 -3.57468000
-15.17740800 16.13099700 -0.05672000
-14.77151800 16.13099700 3.46124200
-13.61614400 16.13099700 6.69025000
-11.80319400 16.13099700 9.54024400
-9.42508900 16.13099700 11.91835000
-6.56616700 16.13099700 13.73697500
-3.33551500 16.13099700 15.05472700
0.16785300 16.13099700 15.45893400
3.79606300 16.13099700 14.97901500
6.94097400 16.13099700 13.66506500
9.80333800 16.13099700 11.84424400
12.14803600 16.13099700 9.53852600
13.95989100 16.13099700 6.69024700
-2.38511200 8.32957000 11.94760100
0.40220300 8.32957000 12.26950900
3.27007300 8.32957000 11.89782800
5.77882500 8.32957000 10.87362900
8.05351600 8.32956800 9.42524100
9.92330600 8.32956800 7.58001500
11.36433000 8.32956800 5.31238500
12.28331100 8.32956800 2.74134500
12.60592000 8.32956800 -0.05831400
12.28334300 8.32956800 -2.85797400
11.36439400 8.32957000 -5.42901600
9.92268100 8.32957000 -7.69777300
8.03194300 8.32957000 -9.59058800
5.76573600 8.32956800 -11.03379800
3.19746800 8.32956800 -11.95374300
0.40068000 8.32956800 -12.27676200
-2.39603500 8.32956800 -11.95374600
-4.96450900 8.32956800 -11.03380100
-7.23110000 8.32957000 -9.59058700
-9.12205500 8.32957000 -7.69777300
-10.56377600 8.32957000 -5.42901300
-11.48281000 8.32956800 -2.85797100
-11.80558500 8.32956800 -0.05831300
-11.48283800 8.32956800 2.74134700
-10.56383300 8.32956800 5.31238700
-9.12213400 8.32956800 7.58114500
-7.23119900 8.32956800 9.47396000
-4.95873300 8.32957000 10.92090500
-1.71288800 4.33658000 8.38335900
0.25156700 4.33658000 8.61022400
2.26076200 4.33658000 8.35558200
4.03663700 4.33658000 7.64920200
5.63802000 4.33658000 6.62963300
6.95835400 4.33658000 5.32298500
7.97371500 4.33658000 3.72537000
8.62131600 4.33658000 1.91379000
8.84854000 4.33658000 -0.05786900
8.62134600 4.33658000 -2.02952800
7.97377200 4.33658000 -3.84110900
6.95803800 4.33658000 -5.43935200
5.62616500 4.33658000 -6.77255700
4.02958100 4.33658000 -7.78923700
2.21981200 4.33658000 -8.43744000
0.25003600 4.33658000 -8.66492500
-1.71966000 4.33658000 -8.43744000
-3.52952300 4.33658000 -7.78923900
-5.12631100 4.33658000 -6.77255600
-6.45824700 4.33658000 -5.43935200
-7.47389500 4.33658000 -3.84110600
-8.12146500 4.33658000 -2.02952600
-8.34879500 4.33658000 -0.05786800
-8.12149300 4.33658000 1.91379100
-7.47395100 4.33658000 3.72537200
-6.45832400 4.33658000 5.32361600
-5.12640700 4.33658000 6.65682000
-3.52634300 4.33658000 7.67558400
-2.87136900 12.23048600 13.81999700
0.34902000 12.23048600 14.19160000
3.67491100 12.23048600 13.75580700
6.57043500 12.23048600 12.55927800
9.19991600 12.23048500 10.88620700
11.35694400 12.23048500 8.76186300
13.02195400 12.23048500 6.14370600
14.08372500 12.23048500 3.17542800
14.45662500 12.23048600 -0.05772100
14.08372800 12.23048600 -3.29087100
13.02196500 12.23048600 -6.25915100
11.35603000 12.23048600 -8.87876000
9.17091100 12.23048600 -11.06447600
6.55197000 12.23048500 -12.73087300
3.58435100 12.23048500 -13.79295500
0.35180400 12.23048600 -14.16598700
-2.88082900 12.23048500 -13.79295700
-5.84873500 12.23048500 -12.73087500
-8.46809200 12.23048600 -11.06447600
-10.65364000 12.23048600 -8.87876000
-12.31993600 12.23048600 -6.25914700
-13.38196900 12.23048500 -3.29086800
-13.75498800 12.23048500 -0.05771900
-13.38196900 12.23048600 3.17543100
-12.31993700 12.23048600 6.14370900
-10.65364400 12.23048500 8.76331900
-8.46809600 12.23048600 10.94903700
-5.84116800 12.23048600 12.62024600
-6.89254800 16.21529400 -14.29626300
-9.83672600 16.21529400 -12.42339800
-12.29304400 16.21529400 -9.96708300
-14.16590300 16.21529400 -7.02290300
-15.35972100 16.21529400 -3.68645100
-15.77890200 16.21529400 -0.05332100
-15.35972100 16.21529400 3.57981100
-14.16590400 16.21529400 6.91626300
-12.29304000 16.21529400 9.86044200
-9.83672400 16.21529400 12.31675700
-6.89254500 16.21529400 14.18961800
3.77147200 16.21529400 15.42809600
7.06301200 16.21529400 14.15311400
10.00719000 16.21529400 12.28024800
12.44711400 16.21529400 9.86043900
14.31997400 16.21529400 6.91626100
8.20345300 -0.00000000 1.99000300
7.55822000 -0.00000000 3.79328500
6.54597900 -0.00000000 5.38455000
5.21839200 -0.00000000 6.71213700
3.62712500 -0.00000000 7.72438100
1.82384400 -0.00000000 8.36961300
-0.13978700 -0.00000000 8.59617100
-2.10341700 -0.00000000 8.36961500
-3.90669900 -0.00000000 7.72438000
-5.49796500 -0.00000000 6.71214000
-6.82555100 -0.00000000 5.38455200
-7.83779400 -0.00000000 3.79328500
-8.48302800 -0.00000000 1.99000500
-8.70958700 -0.00000000 0.02637400
-8.48302800 0.00000000 -1.93725600
-7.83779400 0.00000000 -3.74053700
-6.82555200 0.00000000 -5.33180400
-5.49796700 0.00000000 -6.65939100
-3.90670100 0.00000000 -7.67163400
-2.10341900 0.00000000 -8.31686700
-0.13978800 0.00000000 -8.54342700
1.82384200 0.00000000 -8.31686600
3.62712400 0.00000000 -7.67163200
5.21839000 0.00000000 -6.65939100
6.54597700 0.00000000 -5.33180500
7.55822200 0.00000000 -3.74054000
8.20345100 0.00000000 -1.93725800
8.43000900 -0.00000000 0.02637300
-13.75158700 8.14918700 4.47969200
-14.38078300 8.14918700 1.27326700
-14.26857000 8.14918700 -2.02824600
-13.43199600 8.14918700 -5.15524900
-11.94772700 8.14918800 -7.95642200
-9.90261600 8.14918800 -10.34490100
-7.38353400 8.14918400 -12.23382000
-4.47734900 8.14918400 -13.53631300
-1.27092500 8.14918400 -14.16551100
2.03058900 8.14918400 -14.05329300
4.26441500 8.14918700 -13.53631300
7.17060100 8.14918400 -12.23382000
9.68968200 8.14918800 -10.34490200
11.73479000 8.14918800 -7.95642500
13.21906700 8.14918700 -5.15525300
14.05563800 8.14918400 -2.02824900
-12.44909700 8.14918400 7.38587700
-10.56017500 8.14918400 9.90495800
-8.17169700 8.14918800 11.95006700
-5.37052400 8.14918800 13.43434000
-1.27092300 8.14918800 14.38313000
2.03059100 8.14918800 14.27091100
5.15759400 8.14918800 13.43434000
7.95876800 8.14918800 11.95006700
10.34724600 8.14918700 9.90495700
12.23616400 8.14918400 7.38587300
13.53865400 8.14918700 4.47968900
14.16785400 8.14918700 1.27326500
3.19504600 8.14918400 -13.91894200
-13.69603000 12.22378200 7.36536400
-11.76884000 12.22378200 10.16550000
-9.28656900 12.22378200 12.47282900
-6.34271000 12.22378200 14.19384900
-0.66364000 12.22378200 15.50818300
2.89005000 12.22378200 15.23506600
6.20199300 12.22378200 14.19385200
9.14585300 12.22378200 12.47282600
11.62812300 12.22378200 10.16549600
13.55531000 12.22378200 7.36536200
14.83390800 12.22378200 4.16592300
15.37042200 12.22378200 0.66068100
-14.97462900 12.22378200 4.16592400
-15.51113900 12.22378200 0.66068300
-15.23802800 12.22378200 -2.89300500
-14.19680800 12.22378200 -6.20495000
-12.47578700 12.22378200 -9.14880800
-10.16845900 12.22378200 -11.63107900
-7.36832300 12.22378200 -13.55826900
-4.16888500 12.22378200 -14.83686800
-0.66364100 12.22378200 -15.37338000
2.89004700 12.22378200 -15.10026600
4.02816200 12.22378200 -14.83686800
7.22760200 12.22378200 -13.55826900
10.02773600 12.22378200 -11.63108300
12.33506500 12.22378200 -9.14881100
14.05609300 12.22378200 -6.20495300
15.09730800 12.22378100 -2.89300800
3.48332700 12.22378200 -15.03181300
-11.38113900 4.07459200 4.37625600
-12.05513200 4.07459200 1.73425800
-12.11731500 4.07459200 -1.04314700
-11.55822700 4.07459200 -3.72915500
-10.43640700 4.07459200 -6.15891300
-8.82492600 4.07459400 -8.25934400
-6.79686400 4.07459200 -9.95737200
-4.42529400 4.07459200 -11.17992300
-1.78329600 4.07459200 -11.85391800
0.99410900 4.07459200 -11.91609700
4.17503900 4.07459200 -11.17992100
6.54660800 4.07459200 -9.95737200
8.57467200 4.07459400 -8.25934500
10.18615300 4.07459200 -6.15891600
11.30797200 4.07459200 -3.72915800
11.86705900 4.07459200 -1.04314900
2.65227700 4.07459200 -11.72478200
-10.15859000 4.07459200 6.74782600
-8.46056000 4.07459200 8.77589000
-6.36013000 4.07459200 10.38737000
-3.93037100 4.07459200 11.50919100
-1.78329400 4.07459400 12.00609700
0.99411000 4.07459200 12.06827800
3.68011900 4.07459200 11.50919100
6.10987700 4.07459200 10.38737000
8.21030900 4.07459200 8.77588700
9.90833900 4.07459200 6.74782300
11.13088500 4.07459200 4.37625400
11.80488100 4.07459200 1.73425600
-9.70111200 2.03729600 4.12360800
-10.36710800 2.03729600 1.87946500
-10.51287700 2.03729600 -0.51398800
-10.11625200 2.03729600 -2.86130000
-9.22417800 2.03729600 -4.99829600
-7.89962400 2.03729600 -6.86200500
-6.20556600 2.03729600 -8.38944900
-4.20497800 2.03729600 -9.51765500
-1.96083400 2.03729600 -10.18365100
0.43261900 2.03729600 -10.32941600
3.94015000 2.03729600 -9.51765500
5.94073900 2.03729600 -8.38944900
7.63479700 2.03729600 -6.86200500
8.95935100 2.03729600 -4.99830000
9.85142600 2.03729600 -2.86130200
10.24804700 2.03729600 -0.51398900
2.26103900 2.03729600 -10.11845700
-8.57290600 2.03729600 6.12419700
-7.04546100 2.03729400 7.81825400
-5.18175500 2.03729400 9.14280800
-3.04475700 2.03729600 10.03488500
-1.96083200 2.03729600 10.28574200
0.43262000 2.03729600 10.43150600
2.77993300 2.03729600 10.03488500
4.91693000 2.03729400 9.14280900
6.78063700 2.03729600 7.81825200
8.30808200 2.03729400 6.12419400
9.43628600 2.03729600 4.12360700
10.10228400 2.03729600 1.87946300
-11.40148400 6.11188900 7.13381000
-9.59158000 6.11188900 9.42700200
-7.32680500 6.11189000 11.27088900
-4.68783100 6.11189000 12.58478900
-1.54371900 6.11189200 13.31244700
1.52261200 6.11189000 13.28802600
4.45510500 6.11189000 12.58479100
7.09408000 6.11189000 11.27088800
9.35885600 6.11189000 9.42700100
11.16875800 6.11188900 7.13380800
12.44310400 6.11189000 4.47198500
13.10122200 6.11189000 1.52221200
-12.67583200 6.11189000 4.47198700
-13.33394800 6.11189000 1.52221400
-13.30953700 6.11189000 -1.54411600
-12.60629400 6.11189000 -4.47660900
-11.29239600 6.11189000 -7.11558200
-9.44850900 6.11189200 -9.38035800
-7.15531500 6.11188900 -11.19026200
-4.49349400 6.11188900 -12.46461200
-1.54372000 6.11188900 -13.12272900
1.52261000 6.11188900 -13.09831200
4.26076400 6.11188900 -12.46461000
6.92258700 6.11188900 -11.19026200
9.21578100 6.11189200 -9.38036200
11.05966800 6.11189000 -7.11558600
12.37356800 6.11189000 -4.47661200
13.07680700 6.11188900 -1.54411900
2.94996600 6.11188900 -12.93362900
-14.50347600 10.18648400 4.37337200
-15.09196600 10.18648500 0.98507100
-14.89744300 10.18648400 -2.47569300
-13.94946000 10.18648400 -5.72631400
-12.33131000 10.18648500 -8.62662200
-10.13403400 10.18648500 -11.08555800
-7.44869300 10.18648400 -13.01207400
-4.36634500 10.18648400 -14.31510500
-0.97804400 10.18648400 -14.90360100
2.48271900 10.18648400 -14.70907000
4.18500200 10.18648500 -14.31510500
7.26735200 10.18648400 -13.01207400
9.95269000 10.18648500 -11.08556200
12.14996300 10.18648500 -8.62662600
13.76812100 10.18648400 -5.72631800
14.71610000 10.18648400 -2.47569500
3.37009100 10.18648400 -14.60668800
-13.20044300 10.18648400 7.45572100
-11.27392800 10.18648200 10.14106100
-8.81499200 10.18648500 12.33833500
-5.91468300 10.18648500 13.95648700
-0.97804300 10.18648500 15.09899900
2.48272200 10.18648500 14.90446500
5.73334400 10.18648500 13.95649100
8.63365200 10.18648500 12.33833300
11.09259000 10.18648500 10.14106100
13.01910100 10.18648400 7.45571800
14.32213000 10.18648500 4.37337000
14.91062800 10.18648400 0.98506900
-14.05749100 14.26107800 7.19660600
-12.14673300 14.26107800 10.08452500
-9.66358400 14.26107900 12.47935500
-6.70311100 14.26107900 14.28602900
-0.34607200 14.26107900 15.75726600
3.26726200 14.26107900 15.40948000
6.60999100 14.26107900 14.28603200
9.57046600 14.26107900 12.47935100
12.05361400 14.26107900 10.08452000
13.96436900 14.26107800 7.19660300
15.20765800 14.26107800 3.91067300
15.68841600 14.26107800 0.32179800
-15.30078400 14.26107800 3.91067500
-15.78153800 14.26107900 0.32179900
-15.43375700 14.26107800 -3.29153300
-14.31030400 14.26107800 -6.63426200
-12.50362800 14.26107900 -9.59473600
-10.10879500 14.26107900 -12.07788500
-7.22088000 14.26107800 -13.98864300
-3.93494900 14.26107800 -15.23193200
-0.34607300 14.26107800 -15.71269200
3.26726000 14.26107800 -15.36490500
3.84182300 14.26107900 -15.23193200
7.12775600 14.26107800 -13.98864300
10.01567200 14.26107900 -12.07788600
12.41050200 14.26107900 -9.59473800
14.21718400 14.26107800 -6.63426500
15.34063300 14.26107800 -3.29153600
3.56677000 14.26107800 -15.33035000
-0.88718500 2.22980500 5.31168700
0.34277500 2.22980500 5.45369300
1.59313200 2.22980500 5.29902400
2.71057200 2.22980400 4.86684500
3.71198700 2.22980400 4.22941400
4.54014400 2.22980400 3.40749800
5.17565500 2.22980500 2.40780100
5.58103800 2.22980500 1.27408300
5.72320800 2.22980500 0.04083900
5.58105100 2.22980400 -1.19240600
5.17568200 2.22980500 -2.32612400
4.53999900 2.22980400 -3.32610700
3.70658300 2.22980500 -4.16013100
2.70735500 2.22980500 -4.79624600
1.57446400 2.22980500 -5.20190100
0.34207800 2.22980500 -5.34419100
-0.89027200 2.22980400 -5.20190100
-2.02320700 2.22980500 -4.79624600
-3.02252700 2.22980500 -4.16013100
-3.85597200 2.22980500 -3.32610700
-4.49161600 2.22980500 -2.32612200
-4.89698300 2.22980500 -1.19240500
-5.03920100 2.22980400 0.04083900
-4.89699700 2.22980500 1.27408400
-4.49164100 2.22980500 2.40780100
-3.85600700 2.22980500 3.40778500
-3.02257100 2.22980500 4.24180900
-2.02175700 2.22980400 4.87887300
-8.01105100 1.01864900 3.62621800
-8.60882900 1.01864900 1.78102800
-8.77857100 1.01864900 -0.20533400
-8.49446600 1.01864900 -2.17065900
-7.79362000 1.01864900 -3.96700100
-6.72829100 1.01864900 -5.54209800
-5.35074700 1.01864900 -6.84368600
-3.71324800 1.01864900 -7.81950000
-1.86805800 1.01864900 -8.41727900
0.11830400 1.01864900 -8.58701900
3.43466800 1.01864900 -7.81950000
5.07216800 1.01864900 -6.84368600
6.44971200 1.01864900 -5.54209900
7.51504100 1.01864900 -3.96700500
8.21588400 1.01864900 -2.17066200
8.49998800 1.01864900 -0.20533500
1.84707100 1.01864900 -8.38755800
-7.03523600 1.01864900 5.26371800
-5.73364800 1.01864800 6.64126300
-4.15855200 1.01864800 7.70658900
-2.36220900 1.01864900 8.40743800
-1.86805600 1.01864900 8.52180200
0.11830500 1.01864900 8.69154000
2.08363100 1.01864900 8.40743800
3.87997500 1.01864800 7.70659100
5.45507100 1.01864900 6.64126100
6.75665800 1.01864800 5.26371500
7.73247000 1.01864900 3.62621700
8.33025100 1.01864900 1.78102600
