38.22455597 17.06339073 19.35437202
16.88429642 -5.19669342 -22.62660408
-10.59682560 -15.28268623 -1.34474754
-15.80864143 15.36119080 -44.49693298
-41.62667465 19.34765053 -25.38869667
26.67948532 17.29139900 31.91158104
-8.04011345 11.30605316 35.65092087
14.09144306 -13.14650059 -11.34227657
-14.08809853 9.40306377 -40.76959229
15.62250900 -16.04080582 10.21183205
14.75537395 -13.33239937 -19.65215683
-6.69590425 -4.78417587 -27.78756142
16.57868576 -21.31751823 -6.41949320
4.96496201 -23.86590576 -13.61593723
48.35965347 20.87273216 -17.85797501
37.60673523 21.65603447 -35.64719009
-4.30826759 -22.15047646 -7.62114334
14.56488228 -28.62549400 -0.15789440
10.39100742 -26.43082428 -15.30311966
-40.65327454 19.17425346 -20.32267952
31.33246040 8.05725574 -25.29997826
47.40370560 18.40004921 -13.78577518
-41.79606628 13.54025364 -15.16498852
-31.74874687 14.79610443 -33.60455704
44.58626938 21.08084869 18.81008339
-36.01716232 18.04395676 27.03488541
-2.47666693 -19.75630379 11.79357052
-0.68537617 -9.09852123 -24.23161125
3.08558774 -15.39074516 -2.24632502
7.35231686 -9.83646107 21.16220474
-7.53637266 4.67690802 -36.66770554
-19.19085884 -13.47142982 -9.89545536
-0.70484120 1.68288124 -37.65296936
29.76136208 1.87751782 12.83909416
29.90866089 -1.99583185 2.10445976
13.24956989 -18.51428795 8.41760540
-37.80873108 8.63526154 11.03862095
-37.01902008 7.81475210 11.44420338
14.77999687 5.00131321 32.01779556
-26.23857880 -5.66181135 -13.79845905
3.17228317 12.22314644 -42.82047653
2.09475493 -12.20834923 -25.52660942
25.30640221 22.76860809 -44.11464310
44.27093887 11.95382404 1.54921556
7.44240141 -16.25352669 6.13115501
16.98393631 -7.04669380 -19.86747169
33.21501160 13.50695419 -33.21398544
-9.86231709 16.59815598 38.77484512
13.83547878 3.16473579 -33.76903534
24.87967682 -2.77607465 -23.15310669
43.76706696 17.44763565 7.32796526
13.10510254 -13.37776947 -12.16348171
-13.55566788 12.18589497 -43.12970352
-17.14172173 17.52067947 36.99644470
-23.71169853 -1.25560224 19.57162285
-36.30385208 3.49278688 -3.17082667
19.81104469 15.20840073 37.57205963
26.86507988 22.17237854 -41.62411118
16.56236649 11.41409111 -41.89031601
9.20671177 7.39187860 35.65821457
7.17018604 -28.78196716 -16.58318138
37.63523865 6.83652401 -9.17512989
-11.75524235 -19.08779144 5.66770315
-35.87466812 21.07525063 28.03598022
-9.68959713 1.06811547 -32.75891113
-4.83070421 -28.97152519 9.61576557
-8.20906639 2.22183037 28.27055550
-0.90526533 -0.11664581 -36.22054672
1.12951767 -6.88114929 24.63453484
-8.42115593 -29.36827278 -12.64917946
-35.04680634 2.32423139 2.26734972
24.54917908 1.33849597 -24.29197693
-31.41948318 4.40022564 10.71119118
25.82055855 5.66788912 22.89042091
17.56441879 -10.78214741 7.04294586
-15.71534348 16.26510048 -45.16420746
-2.21812797 -15.50508595 -0.89238876
16.33768463 -12.17363930 -10.49331570
6.16837358 6.74483776 -41.03775787
34.61798096 19.83793831 26.77179146
13.55459881 -14.40034008 2.21938586
15.78006268 -24.68862343 -8.62817097
25.15827560 21.48479080 38.06250381
-0.15073739 1.41737831 31.84867668
3.08463883 -8.10269165 23.45166969
9.97386169 -16.11979675 -8.90050697
45.03559113 21.17812920 -19.72003365
24.98700714 20.02016258 38.76127625
-21.02844620 9.58637047 -34.62278748
-20.20109940 6.38730335 26.66067696
-26.66283607 13.02933216 -36.71628571
-17.49884224 -15.96077538 -5.11087704
-10.91685867 -15.44769859 -18.08428383
10.12393284 -27.59755898 6.47124386
-5.92159271 -29.16525078 -13.58788109
-29.21150208 -4.26388216 -6.79049921
3.49565744 -21.52326584 4.23196411
20.58830261 -8.15654182 -12.89547348
34.84240723 3.29564142 -7.78053999
42.26063156 21.74764061 -27.47985077
-9.93356609 -26.60099220 0.53582937
21.19138336 1.53195155 21.91767883
-5.94259310 -14.58399773 7.43882704
-0.54719180 -16.29834747 6.68077946
50.45783615 20.45715141 -2.17176533
-40.00207520 16.00796318 18.32323837
33.59465027 1.21008027 -16.47854805
22.36629105 2.71272182 -28.12166405
21.31525803 21.15778923 38.47111893
4.99054241 -0.96167272 29.54992294
5.96026468 -28.61155319 -17.03359222
-45.69617844 21.45249939 9.82408810
-32.82160187 18.28803444 -31.63197517
-13.76302624 -5.38104296 -23.81754684
-7.84730244 -28.59272575 -11.03335285
18.01912117 -11.76234627 2.61599350
43.77685928 20.29094315 -20.53934288
3.39023018 -22.42720604 -17.89390182
28.24649811 6.42881823 -26.87182236
14.05812550 -12.07813549 -14.20644283
33.69467926 5.29135036 -17.28085709
8.97918129 -27.23055267 -16.10510635
-8.76215839 -16.16562843 -0.14725709
-14.50994873 -18.79351807 -4.57611370
13.29914856 -0.74268347 -30.03129959
-12.16178989 6.73503590 34.03018188
11.28774071 -15.60797787 13.69863319
31.78707123 -2.00680232 -13.33063412
10.39717293 5.48428822 -36.95843124
-38.69899750 14.32003784 -17.00916672
-30.96244240 -0.28747416 -14.08391762
6.92289591 -3.01651287 -33.39459991
-26.72932053 0.75599808 -23.56239510
-39.65782166 19.96837807 18.00518227
-31.17713356 9.16482735 23.13139534
44.19679260 12.49285507 -10.91116333
25.45551300 -5.57052326 13.32109070
-38.12352371 12.59102631 -22.46080017
-42.63428879 14.38183975 -14.23294449
28.37072945 -8.15343761 -2.67985487
16.80778885 -0.97910619 21.83136940
-28.20938683 11.10338497 24.21036911
-15.30146217 -5.01677513 -27.42549896
24.86612511 -0.85650593 -25.81531143
-11.86422443 -10.62225533 -23.45615578
34.23679352 4.03011131 14.40771484
28.47912407 7.74494219 25.91464043
3.44473910 -0.06160348 -33.36784363
33.74388504 10.19033146 18.88265610
17.25779915 9.62154770 -37.62256622
28.27917099 3.60210896 17.73965645
33.03612518 9.54582787 -24.95551872
-3.05245066 -16.20394135 -13.66176987
-8.92243195 9.67367172 -42.45119476
16.12685394 -6.29344511 -21.69188499
13.20499229 -12.98784256 -21.16937637
-4.58268118 -8.21390533 18.24290276
24.04825783 14.44811440 31.76568794
37.32432175 18.00497437 -33.65648651
-4.02654505 -27.22879982 -16.63427544
-13.53501606 7.87503242 -37.29167938
7.72198534 -15.81758690 6.59070349
16.09325981 3.08042312 -35.51224899
13.79249763 19.58896828 -45.22674179
-2.71251011 -16.14398003 6.52415228
26.28746223 17.15835381 -37.99158096
37.00550842 7.96967268 9.15715694
9.22637844 -5.64779377 -30.47315216
39.75856781 8.95295238 -3.36025500
10.58670235 -17.27266312 12.01596642
-4.92835331 -8.21731853 -24.54195023
-11.15013027 -29.28515053 -8.51035309
21.99198341 3.48543191 23.62199783
-16.93483543 -11.91816235 12.15466404
1.58195817 11.50339603 -42.43075180
3.35830688 -7.20055008 24.21021271
39.80518341 19.39557457 24.35340500
-35.78630066 12.15076923 14.45519352
-42.17488098 11.43250656 1.25850797
-4.32898188 16.96590233 40.06088257
-28.75073242 21.96153831 -41.64475250
22.30922508 18.42890549 35.53309631
-20.08424377 20.62782860 -47.11992645
-1.65063632 -6.28924322 -27.27144623
7.08499622 1.31632054 -36.82386398
25.04907608 1.09386921 -23.33732414
-2.23305607 -28.01971054 9.49323940
-42.15488434 21.53280067 -21.43693352
-11.81657124 -12.93568611 4.84322500
11.33053398 -12.76910591 9.58396339
-32.99140930 1.17667925 -11.81624794
-47.53634262 20.73743248 -11.83829880
48.08500671 21.73303032 -11.67927837
-37.55796432 12.63030720 18.50756073
-13.90278912 -9.58189583 -16.96639442
16.33064270 -13.07111549 -18.48869324
-43.60702133 21.67774963 -22.93439102
-29.10931396 6.57968330 22.62401581
46.77574921 19.19949150 -18.79561424
10.46362972 -8.66176987 16.56723595
37.67488098 9.43152523 16.23599243
38.94499207 11.87159824 11.26342487
-9.88948345 -25.51720428 -3.44830918
17.80500221 -6.87142181 -19.30651474
-31.02509880 -1.32351577 -10.89606857
40.02738571 18.18776703 -31.87271118
5.94872713 16.53059387 39.72532272
19.38942719 -3.13986254 -27.80003929
17.66992760 -7.90013266 -17.96741486
15.76932526 3.46909237 27.29119110
-27.94367027 10.42424297 -33.26482391
-40.75907898 14.46042442 -9.12839699
4.78175783 -22.23920631 -5.74051094
19.38727951 -12.40006161 -15.27149868
38.36684418 20.06086922 22.32564354
-43.64910889 13.47250843 -2.20962310
-22.32858849 1.39896703 19.38357544
-21.38453293 -12.94941330 -2.91534114
-20.72295570 -8.85182190 12.29725266
-1.12241805 -22.20103073 1.15546250
43.95595169 15.51601505 -0.99915469
17.76459885 -1.18805027 25.09374237
-7.46252918 -25.80914307 4.78901291
-23.42150879 13.08924675 33.72298431
6.82995987 -15.85120487 1.91553056
-30.47740364 20.71700478 34.21871185
29.04887390 -6.98761082 2.26153302
-47.10126877 21.72784615 -5.97544098
23.61207962 8.37065506 -32.93994904
-26.33546257 -0.90372622 -15.93919754
15.79801941 -6.45768023 16.16243362
-1.72649860 -17.99418259 -19.48058701
5.63105917 19.90192223 -49.78869629
23.13399887 2.83081079 -31.21112633
-8.74064541 -3.70995712 -31.74687386
-45.09342575 20.68841934 -6.26129818
-39.20697784 12.32086945 -10.36362839
14.43980789 -28.84624290 1.36195457
38.31617737 21.92764854 -32.55031967
-4.95923805 -8.83085537 -23.74132729
16.91956139 20.61530113 42.58447647
32.54072952 12.19992447 -28.39020157
23.92740631 0.19105195 -27.85600281
-36.53416061 5.88650560 8.55954742
-6.76225090 -14.08726788 16.40810585
-24.62291718 11.77639675 -33.88115311
6.28337479 9.46997070 35.13903046
-16.25593758 18.94939804 -46.53111267
28.33744621 18.72426033 31.70239258
-27.53219032 17.79565239 -39.82584763
30.09411049 -6.31536961 -1.62631547
-40.97821426 17.38691330 10.48907948
40.27635193 5.95743132 -4.19714308
16.25256729 -16.38220406 -13.75035191
3.67830253 -22.29146004 -17.84387970
-8.81652737 -4.98380661 20.76238251
-34.61585999 4.82796240 -3.67053175
42.00454330 14.05552197 6.06203032
4.64313602 -26.51657486 9.04874992
26.18953514 6.09494352 -28.55371666
27.76807404 -8.70444202 -3.78313231
48.02143478 20.10249901 -18.97125053
-31.40470123 4.66308260 -16.98704338
-37.36688614 16.66721916 17.70791817
-1.42707407 0.43996301 30.97839165
-1.99408722 -22.42624855 11.67677402
-16.65332603 22.54071808 -47.31222153
-9.85099030 -22.48444557 7.34165621
-30.13962746 16.11313057 26.86381912
-44.07225418 14.30535316 0.03000328
-8.97779179 5.03918791 -36.58962250
5.01299143 -24.73543930 11.80389500
20.04810143 21.47891808 40.33240891
5.27758026 -15.86926079 3.07606363
-32.64195251 0.35219139 -10.45266151
-31.10227013 0.75743604 -2.38112664
9.36036301 -29.05720329 -15.38201904
6.18841171 -13.10080624 -24.05609703
26.80316353 -9.74147511 -0.43079939
-14.54545879 4.48507738 31.22090340
37.89902878 21.45139694 25.00391579
13.54719734 -9.59627342 13.57641411
15.06326962 -13.08751774 -9.72335911
-9.13962936 -25.70787048 -13.26705742
-43.41305923 21.93919373 -21.08573532
-6.44863081 -5.22814798 -27.41052628
-17.94252205 -9.19388580 5.62671661
-28.04037666 5.87797308 -24.45602798
-20.22505188 10.93033123 33.72472382
-5.21120024 18.70813179 -48.93960190
33.61927414 1.71240342 -6.28292847
-3.69642115 15.70255184 42.00815582
-17.90806961 -8.33343315 -14.29944897
38.81562424 19.57762146 -33.27478027
33.65681076 9.69510841 -24.24660683
-16.72676849 -0.46957108 -27.66365051
-21.56991959 20.31234550 -46.12119675
-9.57981682 -6.60081100 -28.89744186
22.76204109 17.91330338 -40.60897827
18.20724106 11.89290333 33.28331375
-20.76071167 15.03783989 -42.06872940
-28.39580536 1.62969291 11.35280895
-8.58158302 17.90461159 42.71662140
37.50198746 9.36514473 -22.95644569
49.88941193 20.59482002 -11.63243961
-46.47901154 18.28636742 3.10559106
-8.12653255 15.14758015 -46.42636108
-25.90338135 20.29136276 34.58869934
-9.07337570 10.17850208 -40.40218735
44.69797134 14.21281052 -13.53530121
42.42042542 9.33515263 -8.16350079
17.12823105 -19.70994186 0.43969610
-2.23002672 -13.18120766 11.50183392
22.19757462 -3.95805430 -18.61348152
-12.80333710 -13.35345364 -8.23376656
-22.22747803 18.95096588 35.48880768
9.06031036 -16.46341515 3.51870632
45.55949402 20.64457512 17.09328270
23.40434456 3.02094173 -27.56652641
2.41656733 -15.42886925 -2.32997274
-40.07786179 15.74685097 9.90831280
-7.73428154 -2.46743989 -29.78773499
0.44248897 8.72786427 -42.81354904
7.71676350 -19.46564865 -17.04972458
-17.43182945 18.48727417 41.38132095
-12.71070766 19.50157928 43.93959045
-17.22050285 -2.83567572 -28.46084213
13.85412502 -12.85994434 -12.61816692
-32.97473526 6.33690166 -16.78940582
-20.40771103 -7.50381947 5.21960592
5.98753262 -23.48423958 -12.98992920
13.62961006 -10.05169010 12.80822849
12.30100822 -5.50021219 23.60807991
18.54882431 -3.53008270 -23.30997658
23.64876175 19.33480835 -44.03572083
-30.60433960 4.68359232 -23.57347679
-8.37734032 -1.66455293 -30.47271729
-0.50583285 -29.17893600 -16.75656319
-30.15876579 2.14352655 -14.30523872
-39.27974701 21.90416145 -27.89958572
28.04686165 18.81151390 35.27361298
-9.43944740 10.93403721 35.07870865
-11.85751629 -9.69201374 -24.55814552
-25.30584908 19.50870323 34.03602982
35.85709763 11.89643383 -23.66106033
-37.91959381 18.57527924 -24.94832420
37.68093109 7.08494520 12.54971981
39.15580750 21.14388847 -30.05368042
16.12030220 -16.09316635 9.52372456
-12.83763218 -1.27330160 26.85923195
-17.85987473 -8.41955185 7.91414738
-36.55719376 11.59930992 18.69306374
30.41653252 7.02531052 -25.21260071
27.12733078 21.05161095 -40.41810989
40.49672699 10.28033543 0.95175618
16.77593422 -26.73888016 -1.30109179
-12.07656574 21.24003601 -49.99540710
34.77615356 1.17021501 7.74141932
12.59834671 3.60691071 31.69036865
8.82776356 19.92461967 44.70090485
2.68264699 2.11355543 32.38862610
19.52841377 12.93231869 -41.82646942
-10.75674820 -28.87979889 -10.70277023
19.94076920 -10.15297413 13.68999481
25.97903252 11.93024826 28.60651779
47.86932755 21.31747055 -2.47427273
0.93522215 -6.94689989 -30.54926491
1.16603529 -9.00137615 22.77376938
26.03951645 12.14536953 -34.43310928
19.02881432 19.64846611 41.43813324
-22.27490044 -11.90461826 -5.58973932
25.07510185 19.88118744 38.59363556
47.63557434 21.74934959 -15.05054760
23.67025757 9.24997425 28.21108437
5.43807507 10.71986103 -44.00527954
14.17170238 -14.61886883 -0.69505525
47.23341370 21.81876183 11.13282204
-31.96490097 1.97289038 0.79095203
-4.94642925 1.39197099 31.43149948
9.01990414 -21.88326073 -8.44488239
-11.05475521 0.08242571 25.23456001
27.40459251 17.64411545 34.79593658
29.38841248 -1.40412080 13.94581127
2.94620156 -21.65665817 8.01910210
28.96718025 5.92188644 -25.49373817
10.65880013 -12.29457760 -23.38631821
18.14179802 -9.42043304 9.47519207
-0.74930245 -14.25986671 -17.23094368
-22.59832573 -7.02382088 -2.84255099
17.45073318 -0.34372747 -28.16286278
-9.02870750 -13.61355877 -13.74262714
24.75206757 19.61204147 38.39146042
-36.71858215 6.78983927 10.12858295
-10.13032436 6.10987616 34.14817429
-8.41162014 -21.94082451 -3.51842141
-42.00523376 12.64284039 7.13081837
-44.51442337 20.94578934 -21.80952072
14.80706787 7.92671919 -39.81693649
-13.43630219 -20.81311226 0.29976711
-19.68820190 10.94309235 -39.55981827
25.64441872 14.81678295 33.91873550
-3.01751232 -18.94308281 12.26154137
-2.81546712 -28.51248550 -16.92457390
31.56484032 -4.68671799 -1.56203806
-26.04620361 -1.63536978 -14.85106468
24.78247833 20.30986595 -44.62497711
-7.54509592 -16.18462563 0.09483005
-31.94927025 19.15656853 -37.00153351
-29.52401924 18.82304001 -38.85410690
0.54938126 20.98542595 43.67277145
14.74565697 6.54482841 30.60423470
18.41285515 -18.11942291 -0.18447851
-13.50275326 3.87307119 28.04546547
-16.08786011 -8.40257072 -16.71260071
-6.27632093 -14.51961422 -14.53633404
-43.31893539 19.13814163 -11.59463024
-2.18417811 -27.32864952 -14.35461807
27.56248093 3.79588866 -28.46498489
-16.95595741 21.93862534 -48.15687180
-36.36182785 17.86984444 26.24550056
39.75888062 9.17421341 -6.33015156
-44.03825378 15.96569729 7.46892738
41.52906036 21.79754257 22.67047691
4.29501343 -15.32776928 1.01406550
9.61108875 -28.81163597 9.46476936
-15.18135357 17.77332687 -43.44659424
-8.03502464 6.78792858 -40.48680496
24.51169395 -11.56947708 2.69535542
16.39228058 -28.64507866 0.03133502
47.63925552 17.58999252 -9.69769001
-8.93164444 -14.44064903 -20.72812080
-17.39945412 17.73149490 40.10289001
12.63330364 22.63493156 -49.57431030
-11.02157211 -15.09746647 -2.40100265
10.95485115 -13.01000404 9.26646614
-7.54441214 -15.21417904 -12.30855465
23.84516907 -0.32950357 -22.50303078
12.38012314 -7.71612597 16.72711372
8.10538197 15.01265430 38.41598129
-6.12161827 -1.08863437 25.60785294
-25.30813026 -8.56144428 -7.30718613
-19.92212296 -13.67994595 2.23597622
15.39744949 -26.39562225 3.16404009
7.13091183 18.57883453 40.88446426
24.48298836 -12.14899063 -2.92731142
-25.84255028 12.70924568 -33.66045380
-32.34609222 -0.67657232 -7.42483425
-25.31364441 20.64131737 37.97669220
43.62310791 11.24757099 -9.27338886
-4.44935417 -16.20309830 4.21006489
31.44701195 21.60644913 32.31171799
-6.79592991 19.74258614 45.08528137
-7.65730000 21.01515388 43.91738892
-32.12693787 -0.16519453 5.93509865
17.69512939 -7.84290075 18.31581688
-30.66297150 0.03808875 10.61819649
3.32828832 -10.68453789 -22.11599731
-13.83208275 -19.59841347 -4.24721479
9.61594677 -7.40941000 -28.79704285
15.83067322 -20.53140640 -8.66690922
28.38313675 4.61128473 -24.43612099
24.06557274 2.37180233 20.55378914
14.15609264 -13.50556183 -19.90913391
-13.60065174 21.88094902 -46.84922409
36.07560730 19.38528824 28.74314880
14.47422791 -19.16921616 6.63703299
0.01783671 -20.17162514 -18.06109428
-17.25668335 -10.57118607 1.59601831
-39.00952911 16.14038658 -19.32782555
-6.31827974 5.95814991 -40.19194794
37.17303848 2.67477822 3.81816435
-36.25432587 7.65050602 3.23160863
-32.35716629 4.64725399 8.99828529
39.06624222 15.51159382 -22.74210358
37.71022034 6.61035776 -7.68421888
22.76018906 -8.26501942 -18.18847084
16.34668732 -13.21438980 -1.28873181
1.81408632 17.07862282 -45.69175720
27.72148132 21.65532494 35.55636597
-14.95348549 -8.61819172 -17.70957565
-24.68846893 2.30851531 18.01403809
28.29549217 -8.15196419 0.18557733
-35.56204987 16.71385002 20.76887321
-21.31256676 7.06517839 26.50943375
-18.28813362 -3.04008269 17.38273621
-14.18956757 11.75941658 34.11114883
1.67202628 -10.05581474 16.78735161
-31.25619507 5.14092922 18.08059120
13.71701431 -12.11577034 -14.49036694
46.62526703 21.86378670 12.66782188
43.64812469 15.73438644 3.07250810
0.72601360 -16.93476295 -21.00778961
-13.46746922 -26.89584160 -3.60631323
-15.93280888 10.97235775 35.80749893
18.36700249 -11.90631866 0.28463680
-23.88365555 -1.88931096 12.49552441
-27.86248398 -6.04674244 -6.54340029
-7.32119846 -15.85939598 3.43127918
-9.55739117 -14.51600552 -11.12185001
-37.43503571 6.65129757 -12.08333588
28.86215210 18.25275612 -40.61999512
-12.55468750 -12.02210712 -13.04910946
-29.47940445 -4.20161104 -5.30109262
-35.01493835 10.26082897 -18.97870636
45.16834259 20.06175041 17.28370476
0.58956379 -15.42618656 -1.65989184
9.13146496 -16.04751015 -10.94322300
-4.54444265 -9.82953453 -22.65278625
29.44780159 9.12329960 -32.31604385
-12.81031609 12.58979607 38.18429184
-8.56850338 3.87423635 -38.22310257
-34.66922379 14.29698467 24.63870049
-35.21263504 3.23281860 -10.17935753
11.67073917 17.16822052 -44.36856461
-20.88088226 -13.15000343 -6.84916592
-35.69683075 3.37461638 3.42970085
41.38256454 7.80314159 1.48762631
14.48585415 -11.65033913 -14.57275391
6.43200302 -0.34958449 -35.62286758
-42.06691742 16.63607216 4.05037165
-36.42762375 6.07433319 9.30884361
-3.21945620 -28.59271240 9.60466480
-42.06353378 16.81236839 15.27781200
-42.14213181 14.69948959 -16.49357033
0.73786682 22.14791107 -48.90089417
12.01959801 6.31771851 34.06718826
-9.07778645 20.80692863 -47.04464722
-37.89208603 11.45441246 -13.39802361
23.15353012 4.01317453 -32.35629272
5.25690079 -15.70778084 2.43772054
42.45049286 18.80299759 -27.48063087
20.08515549 13.10620022 36.02049637
3.91184306 -15.87665176 15.64133263
-27.19960594 16.29815483 -38.94360733
-43.96644592 18.85502815 0.06350651
11.86168003 -12.10882664 10.61564541
-33.32567215 6.62336302 -16.39412498
-33.28268051 0.40133280 2.94434190
-31.99830437 -1.63182521 -2.88760900
-13.35490799 -25.36988068 -4.42049742
3.97703886 22.80455971 -50.56131363
-13.07656002 16.71894264 37.97398376
18.32197571 -7.66264057 -17.61666679
9.54454517 -17.30012703 12.63931465
-34.46398926 11.64158249 -22.07550621
11.19320679 -11.78489399 -17.38664436
22.14130020 -5.10396385 -16.52123451
21.27973366 -3.77866673 -20.17335892
30.68513680 2.31013513 17.48506737
29.84582138 -1.47469890 -18.34201813
4.97540569 0.04729592 30.39325142
-16.11804962 -8.07561111 11.27766800
-2.73849463 -28.04010010 -16.99462891
32.42254639 -2.09839845 -11.28120327
-24.85848808 5.63682413 -31.25838280
-12.08189487 -14.58114624 -18.36768532
-10.06678486 10.34037209 37.27082443
-0.55745190 -26.99104691 -17.48211670
-10.37750149 -26.56823158 -3.26364446
10.30552959 -15.64296150 -11.34749985
33.63998795 4.52162647 16.12191200
42.41384125 13.37074947 -8.07768345
2.66535068 -15.37517548 -3.75473666
-6.69893599 -8.96441174 16.58636665
0.99365938 -22.38892746 1.02209795
-20.83585930 6.18205309 -31.73320007
27.41950989 4.31024170 -25.12961197
-9.90702820 19.14822578 44.42832184
39.35317612 7.12340498 8.35917664
-28.67996407 20.56424904 -42.09392929
-2.86268497 17.07760239 40.28287888
-28.17234230 0.69747788 -15.69476700
-7.03357744 -1.75404298 28.27794266
-21.60330391 6.63218451 -34.64162827
-0.58273995 -2.59366703 28.43831635
4.95128822 -5.09337330 -28.26230621
43.91994476 21.55935478 -26.74927521
15.85098362 -4.84163475 18.13173676
-36.83662415 8.26892662 -17.71635818
41.87725830 16.73218536 -25.12423134
-9.41556549 -7.30715466 -23.84181786
-16.92288208 2.75619459 -30.98034668
-19.78618813 8.76769352 -34.73068619
-1.16726446 -22.86443901 -4.01988077
19.40199471 9.02986813 30.64986610
-2.86448884 -15.56487179 -0.75996411
-22.06690979 20.86009598 38.02800369
13.15645313 -14.59316349 13.80489731
-0.63051379 -15.03338528 -16.27278328
-26.90235901 3.14863706 -26.39197350
-6.27572536 -24.57687569 5.52314329
-5.73983669 -16.15734291 2.38306904
18.92158699 -7.57583141 -16.94645500
40.15349960 21.60888672 -32.25473404
-24.32283020 -3.85953546 -12.78502178
26.29062843 2.71882772 -24.29152107
-17.04345131 -10.29963207 -10.24758530
-0.37475452 -22.77038002 -4.18320942
-12.47902584 -13.96302223 -4.87571049
-6.67670059 -18.43947220 -17.19913673
-13.03668976 -11.37834740 7.85012388
35.94258499 6.25901604 -20.97887039
-19.51413918 -14.13133430 -0.50048900
-9.19310570 16.89606094 41.92053604
-33.84912491 12.65487671 23.97098541
34.47448730 21.24180031 31.73412514
19.51075172 -10.52364349 -18.03396034
-44.05310059 14.28095722 -6.04376268
-32.18558884 5.39992857 11.09395313
7.42835045 2.32913089 -37.58025742
-0.88187391 -6.54313803 24.88820648
15.67219734 -28.84837914 1.88047886
48.28845978 20.81773758 -18.22685814
-11.65339851 7.65153980 -40.20671844
-13.16442204 -29.02336311 -0.83879173
-33.28478241 -0.06089554 -3.99096727
-7.41097593 -27.65197182 -10.95219231
-10.51479816 20.51803017 -46.57247162
-32.04353333 10.47791004 -28.91965103
50.43365097 20.44639015 -4.65791893
-24.60315323 7.02121878 27.44976616
1.65679932 -22.99947739 12.04740429
46.10912704 21.50258446 15.23100471
34.71723175 16.74010658 -30.36203957
-23.61723900 17.45547104 -42.21915054
14.78194046 -13.62082386 2.44906855
6.66555548 10.37679577 38.27863693
-25.37223053 0.11873166 19.04597473
7.60564804 -15.17786217 -2.89370489
48.81667709 20.69386864 -16.41503525
-31.27633095 1.37174916 -17.05556870
-5.29216671 -16.45835876 -20.12757874
34.60296249 2.65058470 -0.12062103
-27.43011856 8.52985096 22.46329498
28.35319138 13.16306686 -33.40872192
-4.44958735 -3.48663592 -33.06067657
-28.47854424 5.33993149 -27.13515854
-43.19744492 13.37650967 3.03854966
38.16452026 16.16834259 -25.12019920
-37.03627777 14.00127888 21.00246048
46.86827850 21.58500290 7.41385031
11.99635696 -14.75354767 14.29407406
-18.50929832 0.82662106 -27.85572052
23.66735268 5.08444357 -29.65506935
-30.52398109 2.46907997 15.24054813
-43.81420898 14.17649651 -7.70496893
-14.33545589 -17.65275955 4.21221781
23.56780052 21.54726410 38.24035645
30.67072678 2.87477636 -18.46723366
-28.67019653 4.65020132 16.16393089
28.05475807 20.04223824 36.86114883
8.76718140 20.65058136 44.58877563
-11.59615612 -25.71419716 4.84190321
20.87336159 16.17207336 -43.55311584
10.78380394 21.03942871 -50.49206543
1.95152485 -22.28388214 -12.50757504
-34.69635391 20.95977974 28.11665916
-38.07605362 9.96046448 -7.47134542
26.12668037 -9.91514683 -6.25388765
-8.37218571 6.65451288 -40.30945969
2.67346311 -21.30230522 7.71720600
-0.80234927 -21.38224983 7.35089350
22.59489059 -12.72155857 4.94423199
25.70256996 19.46931267 34.21999741
-8.46531773 -23.52408028 -6.27847052
-18.42477417 12.13228416 35.61938095
-18.83642006 18.61365891 41.25056076
42.06829071 13.23849010 -9.80351734
38.74379730 7.85364628 -6.88005829
-24.02892685 -5.76016283 -4.60344887
-27.74057770 19.24328613 31.91509628
22.02409744 4.01280928 24.16329002
36.27014160 16.83828163 26.04126930
29.57918167 19.81364441 -37.68368530
-17.43087769 2.58324981 -33.59735107
-6.31548691 6.34488773 -40.48415756
-0.01573970 13.91497707 38.41965103
45.40311813 20.08455849 -25.30295181
-9.07398319 -0.44772965 -31.49149704
14.32826042 15.36318493 37.05086136
-28.84643745 7.21615076 19.20851898
4.24121809 -22.08662605 0.82196218
20.26097488 4.76910305 29.21283531
-38.84973526 15.94502735 -25.58858299
-33.00909042 3.52233481 -8.66355705
13.56678963 -7.45152903 16.38516998
-12.09062672 6.74983931 -36.95352554
14.82158184 -10.04032707 -17.29372215
40.74819946 10.57857895 0.20491821
-47.29384613 21.55702019 -10.48830509
35.13848877 4.62966251 6.27075052
-4.94325781 -8.35268688 -24.39093590
-28.10861015 1.61256135 -22.96586800
-41.15423965 14.34761047 13.35183430
-33.64709091 12.95064640 -29.70814133
39.16987991 12.24075222 -17.81526947
46.62839890 19.45447922 12.04002762
-44.58954620 21.23583794 13.95782375
43.06417084 21.59403610 -28.22837257
-6.63035250 20.47469711 44.88483810
15.45347691 -19.52155113 -9.90557384
25.77855110 21.57534790 37.41241074
-33.13800812 21.62215614 -38.13867188
0.14816594 -3.14334393 24.30180740
-12.41671181 5.27667332 29.82105255
-8.17272186 -7.33009005 -24.42124939
26.30287361 14.64260101 -39.52646637
44.46927261 12.98734951 -11.19889164
-13.13014889 21.47088814 -49.76720047
37.87168121 14.55381775 21.73608208
35.34840393 12.80760479 -25.50882721
-7.14183426 -12.11155796 18.45928192
-3.49292040 9.39190865 37.78964233
38.72959518 16.45406914 17.83378792
38.24881744 13.39064789 -21.56431580
31.23938751 16.91244316 27.76225090
2.31223464 21.00124168 43.39551163
-5.07473469 -0.12753841 26.70483398
15.30369568 -7.47984123 15.21138000
31.32671928 20.95898247 -37.42375946
30.16004562 4.93892670 17.13415146
-36.92710495 8.94290352 -18.80897331
-36.80950546 8.69146633 4.43889332
27.22247505 1.55561519 -21.38254738
20.18514824 -16.35494995 -4.97804737
-8.71390438 3.51336789 32.40203857
-7.73329401 -19.02419281 9.98301697
-8.05474377 20.55821991 -50.40484238
46.48324585 21.17222404 6.79916191
-21.54658890 -1.20060623 21.44746780
-33.33353043 17.92001534 29.68971252
-19.55310822 18.53644753 36.62017059
37.34607697 12.17286015 -26.94910049
-26.47244263 15.39974880 29.62163734
39.63471222 7.43218517 -14.38750553
0.58430374 -22.73744011 -2.83158398
40.81131363 7.50898933 3.82583022
-36.00283051 6.64724350 -3.72095990
-25.75442314 -8.53359413 -3.02935004
-19.54583549 -14.05100441 -5.36457968
23.54076385 7.00910759 26.21396446
-8.10484600 7.17169809 -40.73052216
-10.01703644 -18.71058273 -14.35238171
-27.08680534 -7.11022139 -4.45783138
-8.86551666 -21.41345406 8.37732697
36.59967804 20.53691292 -32.13426590
28.28185272 5.81011343 -26.13528633
-26.57960320 7.57047653 22.29922485
-44.81536484 20.62409973 15.01262283
32.74436188 6.08341312 14.82906055
-33.21657181 19.77908325 27.22019005
-24.23514366 10.41557217 -32.97040176
20.57917023 4.51188803 -31.34925842
15.19550800 19.66551590 42.92028809
4.33249950 9.48383331 35.37744904
22.45475197 -8.12719059 13.57756233
11.82617569 13.17260551 36.35868073
6.32799149 -1.98671281 -31.07524490
-18.54427528 -14.97721958 -4.92576838
22.40556335 -10.48018360 -14.10352325
-17.42184258 -0.16570942 25.46674156
22.66052055 -1.08149934 17.35931587
-28.82007217 0.46935499 7.83962345
29.23841476 9.98222733 -29.72841072
32.37467194 0.11423349 -16.86427116
-15.11901951 16.54174614 37.12793350
36.60991669 1.51925552 0.91327804
19.18234253 -3.66550231 -22.66548347
-38.70145416 11.53861427 -19.67230034
29.94845390 -1.62230349 -7.98753166
-5.05661345 -12.71666431 11.33342934
-36.81835175 7.62581348 11.56542301
27.67441177 17.95966911 -37.63114548
5.74970722 20.56491661 45.00590134
-34.84152222 9.31606674 -17.71655273
-33.38320160 4.05682135 3.54676533
-12.32599354 -11.18400860 -15.38393593
-8.26380634 -26.19746590 -8.79435635
-20.39524269 -2.44832730 -21.96390152
11.85625839 -21.64839554 -6.03062439
-22.05728149 -6.63881969 -18.97452164
-7.15864944 19.35484123 44.93534088
-33.19149780 3.12623334 -1.22846127
-16.18553352 21.07065010 -45.28829956
37.55722809 4.92043638 8.63448906
37.59640121 14.21244431 17.18761635
-39.29771805 16.70007324 -19.61933899
-19.73735809 15.01527977 -39.58938980
-16.32523918 9.56460381 31.58935928
-3.40093374 -1.42298031 25.73213387
-15.26456833 13.68903446 35.08263779
-16.82314682 -10.61731339 2.97653198
-34.35649109 22.19553757 -35.57909393
-22.68281937 -6.05213737 -10.15894127
-17.56148338 -3.68408370 -27.31144142
-15.95376110 4.85582352 27.77858353
47.78166199 19.55779076 -17.88869476
36.28100967 1.43528688 2.69218016
-36.60403061 16.46224976 -24.58555603
13.43756580 15.93987083 37.71293259
21.42296410 -7.44929504 -12.86898327
-14.85175705 -5.66837883 -22.45965576
-44.31221771 14.59386730 -0.99361169
-23.56101227 2.36712837 19.36882019
-13.19548607 -19.77593231 -6.51167059
-12.49990463 -26.76641464 2.71124029
0.92923433 -15.34036255 1.35372603
27.12636566 12.12080860 -33.51726151
18.97970581 14.14909554 -42.93090057
-25.63681030 -8.44494343 -5.94119501
33.96196365 13.99659538 22.28323746
37.32954025 16.58673477 -26.91715240
16.97826767 -10.21311665 -21.53749275
-16.15422630 -11.68866253 -4.37889671
11.86171722 -25.24540901 2.89941096
9.07116127 -26.61325073 6.91637945
-12.45558548 -11.65447426 16.32889175
19.17189217 5.66596413 -36.17575455
-14.35251904 15.71448517 -42.45346069
44.38465118 19.80803299 -17.82637405
-23.75515747 20.03668976 -44.58629990
25.33944702 14.07050705 30.60174942
-27.13363075 -6.83945942 -6.31331396
29.24891090 14.54082203 27.80383110
-15.91379929 -17.38787460 0.01069684
-22.78206825 -0.17289196 -26.86175728
8.56594849 -17.39596367 12.85986519
-22.63214874 9.38702774 30.97918320
-25.25186920 14.75476265 33.76172256
1.08467901 -16.21456146 -14.75516129
-9.39941502 -15.87020779 -0.25311163
-13.13975716 -27.92338181 -5.43367386
1.19559348 2.00625443 -35.37425613
-13.37950039 -28.92949867 -2.57717562
-46.42744064 21.52712059 0.32612863
9.56639481 20.75534821 -50.54499435
26.61944199 21.84679985 -41.43288422
-16.08992577 -7.97627449 11.50310230
-19.35550308 15.14466095 34.09853745
35.30719757 22.19606209 -35.87045288
20.25737762 -9.90513992 -9.35564232
-37.11885071 12.92028522 -18.54128265
-31.59087944 20.65587807 -39.80798721
-7.15626669 -4.69569921 21.61320686
0.72046787 11.09383297 39.20326614
17.52908325 -18.73169708 1.32282650
-26.36145210 -2.44147563 -19.36026955
27.57604218 16.38670540 -36.47958374
7.86455059 19.86457634 -46.70659256
-47.19176483 19.23339653 7.43868923
-0.39518306 3.68253660 -39.18280792
-45.09173203 19.20208359 -16.63646698
20.60667801 9.96658516 -39.01517868
-41.22515869 9.94697475 -0.50439835
-34.72483444 8.95044041 -17.42493820
29.41629982 17.13846397 29.63223457
-40.38825226 18.10880089 -25.40244102
36.25865936 4.70694017 11.51919270
38.89160156 19.46591949 -27.90459251
5.94215631 14.49640465 38.43807602
28.90064240 5.76770353 19.80643272
-0.49934873 -24.17783546 -14.04845524
-10.29891968 -21.48191261 7.02841520
-33.19821930 21.02905846 30.68081856
5.09756613 14.55248547 -44.03238678
14.45145035 21.92804146 -49.61405563
8.43674755 3.66248679 -38.43446350
-18.58588409 -8.01805210 7.67532349
-19.85960770 -9.00699902 -0.35907236
5.31126976 21.24940300 44.38790894
8.84870529 -21.70300484 5.26566315
3.96383762 -21.79562759 2.44116187
-21.13783836 14.52302074 36.11337662
8.78288651 -16.08463097 -10.72255611
-9.97124767 -29.16777039 -11.37366295
25.22388458 1.49149644 18.31736755
23.22996330 0.71219456 19.18753815
29.16036034 -0.86209977 -20.50034332
39.48303223 13.83046246 -25.60929680
-16.06354332 10.43272495 32.37339401
-15.09026051 -6.78330898 -20.63916206
11.10311031 -17.08003616 11.95845890
2.82315016 -24.82041550 -14.07321930
-34.73802567 6.31753111 13.89535904
22.24007416 -1.69328535 -22.26514816
12.12485695 2.86813569 -34.16212845
-12.84617329 -25.59893608 1.90773487
-25.69775772 20.94481659 37.25279236
36.05994797 21.67992592 29.46935463
29.45630264 6.38707256 -25.49706078
0.74287820 -19.60731888 -18.29803848
2.96584582 -21.00790215 12.13734150
5.51071072 -14.71750832 16.58399582
2.74564099 -24.69169998 12.11144352
-24.06919479 6.12113523 -32.38805389
-11.79852486 -16.43904114 -15.77287483
-25.99292946 13.23945618 32.10797501
-20.10842133 2.26554871 22.41770363
4.42399406 -16.66311836 -20.89502144
-44.37768936 16.17168999 -11.79385567
-23.16765022 13.27813053 34.02888870
-13.04935455 -9.26325321 -24.27488327
-35.09546661 18.15364456 28.30941963
-29.10828018 -4.55430651 -6.30788183
-12.76266003 14.39991093 -42.13834763
-34.39103317 19.83795357 31.29062271
7.04429150 1.12138414 -36.67453766
36.33043289 8.10308266 -23.06281090
29.38534164 16.11730194 -38.65061951
22.41773224 -9.06108475 -3.57276416
-24.80364799 13.83555794 33.41078949
-5.71379662 4.73153591 -39.42066956
4.48983049 -22.55085182 -8.81464577
-29.68229103 4.90234184 -25.17682266
-12.94657707 11.45707226 -40.11421585
40.90420914 6.95330858 -5.64533520
15.35937214 -18.43752480 6.49810553
-5.28934193 3.33871508 30.00163651
16.06072044 0.64689827 -33.38811111
-7.28160477 -15.55513191 -20.29146767
15.49829006 -7.11617470 15.48189163
-26.69565392 12.44357967 26.92517471
-4.97766542 -29.07385063 -14.47196102
-9.91845131 14.45717716 -42.98754883
18.75972366 14.53307819 37.66312790
46.49914932 21.75319862 -19.70151901
-28.75691795 -1.95234787 -15.72294617
44.79534531 13.73940659 -11.82414055
-39.71465683 17.80638504 21.47476196
-30.13165855 0.16686757 -17.11315155
-13.54216957 -21.74448967 -3.97782397
-14.87677765 12.48125076 -42.89128876
-32.77490616 5.55561495 -21.41756630
-7.71358347 -10.58600426 13.75448227
11.59285831 -0.29350248 -34.36387634
6.71010351 -12.76344395 -18.37497520
23.56474686 14.01657867 34.69554520
17.11742020 14.53355694 35.49980545
28.02388000 9.40744400 24.76810265
-12.74648380 10.52109432 -39.52804184
-15.83746910 -2.14391470 24.48845291
33.97684479 1.88964069 -1.50987387
-3.32775664 22.75492668 -49.85452652
-4.97319174 -15.84682751 0.82639110
48.48571014 20.16959763 -17.59446716
13.87154770 -17.73864746 8.99533081
15.88286018 -11.99195957 -11.73943424
-23.87497711 -8.07390213 -13.72671127
48.14836884 21.41117668 10.01187706
1.15371668 3.43693924 -39.02652359
-3.14702320 20.99704742 43.71406555
35.67992783 5.64302397 7.31190872
-12.20534229 -1.78538609 22.92005920
4.90204000 22.32394218 -48.85248566
-3.29272008 -22.38853264 11.33770657
38.18725586 18.10444641 20.48928070
-5.34486818 1.34207380 28.04779243
14.46433735 12.32060528 37.77078247
37.10815048 11.72038364 -21.33272362
-11.40438366 -7.51479244 16.22450066
-12.95908165 0.76683825 28.65691185
-15.23366070 -8.23598957 11.92122746
16.32537460 -19.94988060 -7.56523085
25.03670502 20.75644302 -45.26291656
20.28362465 1.60282958 -31.99071121
-13.56537056 -10.08452034 10.08944511
47.16201401 18.17242432 6.93225670
-33.66655731 20.22625732 31.81614494
36.39692307 17.83333588 -34.23786163
11.21101952 -16.25586128 -2.45919132
14.07798100 19.33726120 -47.71846008
0.50549722 -16.21881294 -13.63064480
14.79481888 21.40274429 41.79246521
-36.12192535 8.84521484 -13.06302071
-36.66268921 15.07121944 -22.67293358
16.58738708 -19.52123451 2.34117770
43.58594894 14.75195026 11.42675400
-14.34509373 0.76814610 -30.45521164
19.05161285 6.24583530 28.35106087
39.99172211 16.61411858 15.65200138
22.84975433 3.99594784 26.87869453
-1.13914347 -15.10321999 -16.09025574
37.96934509 2.89092970 -4.45465183
12.63209152 -16.07131577 -4.69333887
13.37944221 -11.38957977 -22.90668297
-9.76369476 -28.93468857 -8.88221169
-21.22525787 17.85204887 35.18446732
25.16178322 5.82639456 23.70053482
38.29547882 10.99153805 17.14242172
40.66845703 6.57815695 -5.12403393
29.81947899 6.79600286 -25.60405540
42.53469467 19.68964767 20.99495888
-24.37784767 3.42086720 19.86033821
-26.01126480 -8.03357410 0.45381013
36.32116699 14.03175449 19.02417183
-32.97216034 1.31901240 -12.35761452
-1.50372052 0.72651702 31.20397949
30.39641953 -1.47225082 -6.68390322
43.76472092 21.12902451 14.46567154
-29.69052887 21.01551819 33.99399567
-36.10045242 6.99330616 0.79014009
16.19531250 9.15750694 34.81897354
-27.70222664 -0.42073551 8.28893375
21.72608185 -14.69426060 0.66050816
0.18396367 3.47398758 -39.03715897
-12.18791676 -9.75602531 -18.34884071
7.96144009 18.49481773 -48.55561447
-23.84137344 -8.64173794 -12.32517624
-25.43062782 -2.81870651 -13.11930370
-3.83567595 -15.49774837 -6.87509108
-27.57922173 20.53993034 -38.58227158
-14.49245167 9.08729649 -40.36005020
6.29893923 -13.89212990 10.00599194
19.55763245 10.13832760 31.40017128
-4.69108963 21.02070427 44.46526718
-34.05038071 4.50350523 -7.66945791
-24.52727127 1.32986844 -22.64868164
32.93022537 21.28055573 33.02584457
34.14162064 21.51385117 31.72171021
35.69719696 4.14687490 -7.28446674
48.75293350 20.02839470 -16.34828568
11.65223885 22.04685402 -47.41959763
-8.54847431 -22.64214516 -3.52636504
-3.94891739 1.79164898 31.88475800
1.56807840 -1.98807168 -31.61073875
-20.74325752 -0.42346033 22.88833046
2.54611826 -15.82083511 8.29485989
29.11791420 20.03244972 32.19674683
0.88825822 -15.47368813 -11.14981842
-14.00385475 -19.35235596 -4.35949802
-36.00038528 20.73502350 -35.48743057
-16.34398842 14.93713188 -44.03177261
9.74081612 2.60639429 -37.29866028
35.52038574 5.04987049 -11.90475368
-25.71735191 12.95543671 -37.37926483
-7.44712400 15.84504223 38.80650330
1.99461579 -12.30741882 13.54933739
38.63075638 5.15285969 -11.70941448
-24.68882942 -0.87074524 13.18427277
17.83990097 5.18150902 27.95756531
-26.05411148 -7.21369743 4.25904465
-17.42917633 -11.48250675 12.62488270
1.35567796 -15.46245766 -11.21626759
-25.82283401 10.87065029 26.33725929
-16.28605270 -10.77227497 -10.13903522
-19.58541870 -4.12821531 14.25837421
-34.65406799 14.61667538 19.75782204
-30.34210777 5.21375751 -20.06916046
-6.50523424 -27.24022675 -11.66728306
-4.51032257 -10.87024593 14.74600124
-9.86018944 -15.78561306 -6.17388439
11.23182583 8.48594379 35.96652985
-13.02999592 6.84758425 33.78229141
2.99434471 -23.10086632 -1.98520899
-16.45387650 12.84229946 -42.53889465
17.99141884 14.92635250 -40.90856171
-12.65715122 11.91751671 34.78820419
7.87854671 -16.09932327 14.65938187
0.23757298 -5.20386410 26.14412498
11.71450138 -25.59411621 -8.54742718
-47.54158401 19.04181671 -3.51514030
42.13039398 9.77785015 -11.68797016
-6.84273481 9.83010960 37.62409592
27.49882698 20.99099350 34.37590027
17.23919487 -14.59779453 10.26809692
-21.58310127 2.70033360 21.76531219
14.85857296 -0.55180508 23.35110283
-9.75800705 19.97693825 -49.14562225
-29.16083717 -4.61067057 0.36393249
-40.71051407 21.90681267 -25.69852066
-7.79239178 -2.96427155 -29.30763245
-12.54967022 -1.63942659 -28.76112175
-23.05384636 1.63073719 18.91461563
22.60957527 -11.74357510 7.29044628
21.50345612 17.75048637 35.48863602
-7.62348509 -16.18359375 1.91017771
25.79125214 1.92704201 -23.80233574
2.87199330 -15.35002613 -4.73158550
-0.55697101 5.24979258 -40.26469803
39.70314026 6.78604174 -12.35624790
-35.37571335 7.52608585 -12.29685307
3.19178653 -16.20390892 -13.68140125
26.24452209 12.94297314 32.11846542
2.46682334 9.51658916 38.07069016
46.30822754 21.35574722 8.23000908
48.20030594 21.41346931 -17.32218361
32.25845718 4.73518372 -24.46105194
-17.96764183 3.75455809 28.86400223
-20.95627213 -0.40748671 -28.26652145
-6.68568182 -4.60290051 -28.01701355
-22.08070374 -12.02060604 -0.13326026
-0.14573392 19.90789795 42.39265823
-26.85411644 16.00764465 33.62871170
6.09408712 2.49758291 -37.92662811
25.43124580 -5.11721230 6.66789198
-23.79989052 13.77416992 -39.35810089
36.36874771 16.34739113 25.47594833
34.20095062 9.37295341 -22.95278358
-3.76269460 -10.61104584 -21.79713631
-27.64989281 -5.56204367 4.54914856
23.06679535 11.25909996 -38.80094910
-23.25344467 17.67561531 33.80459976
-21.89417458 22.43161583 -44.72460556
-28.69853973 -3.99385929 5.33342552
5.79233074 12.41487789 -45.12331390
29.40524292 11.51786327 25.26194572
-22.70057297 14.94012451 -37.82696152
-16.40216064 -5.22684145 20.90957069
-17.77400970 10.79647541 31.79753304
3.57797790 -6.68953609 -30.67370605
-42.59239197 20.53669167 19.80688286
-21.26255798 20.11184692 40.57242584
-31.58517838 1.37582982 -0.64554274
39.04568100 6.06379890 6.85208607
0.55594128 -28.56971169 -17.59431648
18.74054527 14.28349400 37.51403809
-22.85712624 0.54576558 17.68422508
7.37858486 10.81116486 -41.46631241
-24.07697678 16.80303574 -38.29723740
18.02154541 -11.37078667 -9.84309864
-20.34365273 -4.99147940 -17.60276604
12.79060459 6.54341745 -37.07739639
21.57189941 13.71401978 -38.40330124
-19.26659012 9.80663395 -38.74985886
-2.55599618 21.34533882 -51.45566559
16.70307350 -15.64373302 9.45360947
-15.32433224 -9.30460930 17.42251015
30.37936211 -3.64356470 -12.61912060
13.55976868 9.79386997 33.63235474
-17.60999298 -15.96961117 -2.76891375
-19.50844002 2.83711267 23.52507210
-30.31151009 2.78672051 -15.45373440
11.85470390 -23.35491943 -7.28708124
28.19736290 8.60691547 -32.84083939
14.13719463 -13.60517025 -9.77800369
30.18463898 0.08546446 -13.07194901
-44.02432632 17.98010635 12.91812420
-5.32020998 20.63830948 42.90923309
-10.73080158 18.13070107 39.65414810
9.89301205 -20.14233971 -15.69230747
34.09011459 17.74652481 25.51748466
-23.53365135 20.86754608 37.15390015
9.77311611 -16.13109016 -9.91313076
7.96739721 20.78620148 44.61112976
-6.83148861 -21.89736748 -7.25420666
15.50202847 -16.12734222 10.21941471
17.49378204 9.17371559 34.26873779
0.34085116 19.09853172 45.03634262
40.78132629 17.80655670 -22.75761795
14.16168690 -13.49899769 4.30002499
-5.94404984 -6.57963419 -26.06276703
-31.89692688 12.13428307 25.66233444
6.25579643 -15.14385319 -8.03480625
14.13482380 -28.03997993 -11.74314308
-44.50575638 21.17463493 -21.49388695
-33.21485519 4.27325249 5.19717884
-11.58698368 -8.99910069 13.84008980
-29.50772285 2.25717759 10.38987255
12.01977539 -22.59921455 -14.14991570
-33.44628143 2.67962980 -14.49499989
-31.81857872 14.68598843 23.67253876
9.87062740 10.64187622 -43.24057388
8.49188614 -0.36650845 29.39794731
-16.00951958 8.35233974 33.73007202
14.73277855 -8.44289112 14.42527771
15.76186657 -6.94973469 15.55753517
-17.98834991 -10.46115780 -1.76411605
-12.70115471 -8.09045887 14.44111156
7.06394148 -16.41511154 5.66068459
8.00139904 -16.45593452 -19.98506546
26.75316048 -1.92852581 -15.41073608
32.26290894 9.97827339 -26.36920929
-36.38001251 21.23834991 -34.97767639
9.19368839 -15.79773998 -12.33703613
14.65811253 -27.44742012 -10.90077686
-34.71268082 20.42733192 30.60480690
-20.59262657 21.09493828 -46.98711395
-0.15443259 11.91963577 39.77823639
-18.61164474 4.41107607 -31.50273132
-7.65173912 -24.94851112 4.06938410
28.57355118 2.63941050 -21.30055046
9.13381100 -6.48036146 -29.79294395
-34.46752167 3.68798900 -14.01096439
15.63876724 -13.64166832 -1.68585885
-36.69506454 20.27719116 28.56161880
4.15434313 -4.36650467 22.81413078
7.12169218 20.47825813 -50.69350052
12.68757725 -17.82436371 9.61637306
-43.11006546 19.61765862 -23.77949524
-15.57692051 16.30274391 39.76382828
8.22100925 -9.42677307 16.49250031
-34.17823029 4.23525429 -2.26996851
-38.20470428 8.41702080 -14.24908733
-22.28726959 10.48774719 -34.51650238
-23.58543205 22.41722679 -44.24428940
-6.54513311 -16.14724159 -9.74132061
-27.90954971 8.50533772 -31.23061371
-32.59210587 20.52232742 -38.96244431
42.00213242 17.87642097 -20.33572388
-7.44598007 1.60080898 31.13586426
-25.14760780 16.28834724 -40.40809250
-7.15024090 -28.04785728 -11.47078896
1.53081107 -15.23651886 0.71050239
-33.11450577 21.00498390 30.11652184
-13.57033634 5.65690756 -35.41407013
39.52909851 19.49521446 -32.79786301
-13.95203018 -7.57901049 -25.60263252
-45.89684677 21.34414291 2.83569026
-28.17086792 16.95023918 -38.70849991
-20.03551674 -1.36052179 -23.82481766
20.63461494 18.72467804 39.55296707
-25.45528030 17.75348854 32.34612274
-41.73550797 15.78209591 2.97494435
-32.68715668 0.27221096 -9.97439480
-28.94930649 -4.73916578 -6.84301710
-36.98110962 13.83481216 20.88699341
16.00218964 -10.16086197 -15.88811779
-29.54094315 20.70557785 -37.11376953
0.42241603 19.13395119 -46.89841461
19.07815170 -11.28757191 1.24766088
49.70528793 20.49110031 -12.68183422
7.88106918 -25.08815765 7.11438227
-10.75702286 5.35980701 30.48691940
-42.14722443 21.34653473 -20.85931015
-15.78560352 20.24033928 -44.88661575
-2.60892653 -0.91418117 -32.44342804
1.35272837 -12.94910240 -24.92094040
-23.67447662 20.66268730 -45.33302689
10.59085941 15.35893250 38.10880280
-30.19541550 0.05667727 0.66542661
-18.64759827 12.79166698 -41.53234863
-21.88432693 17.78170586 38.02962875
45.62115479 21.26877975 16.61485481
28.18062973 15.74398994 -39.18383408
9.96187496 -19.97338486 9.45515442
16.69770050 -28.67299271 -5.10007906
32.96167374 -2.49067974 -7.79250193
-16.98228836 21.33956146 -48.48389816
50.23077774 20.54842377 -9.01852036
34.69646835 17.74379730 -35.86199951
-43.76893616 19.44584274 -21.54777336
-0.99537414 -0.28378940 30.36994362
-11.74304676 -12.15994835 7.31790113
5.00443125 -12.88966465 -18.77379417
2.47053313 14.01701164 -43.93579865
45.27770615 17.87357903 -7.34449530
-12.77994156 20.36862373 -45.89945602
-12.45511627 -9.81394005 11.76191902
7.93321514 12.03452682 36.56933212
11.49721336 -28.86872101 -12.07257843
-40.89067841 19.40903091 -20.18885803
-20.06017303 -8.69304562 -7.66495228
-23.84124374 -9.70536709 3.39397740
7.22998667 -22.10220146 -7.90001297
-11.12838173 12.57769871 35.74769211
-17.42656517 -9.15689659 6.83180189
18.61002731 20.97014999 -48.31835556
-0.61058664 -11.81244564 -20.75216675
-31.92808151 16.86160469 -31.31672096
36.47101974 13.78018761 -24.94492722
19.38102722 20.73668098 41.59000397
-8.68490982 -1.52510357 -33.74811554
-13.42433548 4.71982336 31.88217354
44.88101578 21.91801262 16.51619720
11.95951843 14.82341385 37.41194153
13.88500309 -13.47503471 -20.14879608
-0.43640393 18.72052383 -46.66844559
-30.16367531 17.08073997 -33.41508484
12.48428249 -4.01294661 24.93404007
24.60967827 18.45384979 -39.97389221
39.37609100 10.69933319 7.79510880
-12.57875824 -10.71678448 9.87528706
28.54872131 3.99493837 -23.34135056
-2.90850449 15.97790527 39.57809830
-31.81372452 4.61754560 -16.09528351
-33.11366272 1.81198812 8.44121647
2.50265121 -7.44380474 -26.07234001
47.94923401 19.44771004 -16.81749153
29.79910088 5.14073753 -23.40939522
32.92580414 8.88574219 22.42625046
18.38983154 -2.84968376 -24.40659714
19.20192528 15.10287380 37.77931976
16.96857452 -21.04503632 -0.76551032
-3.04000616 1.46024776 31.69836426
5.77505922 -17.73689461 13.34685230
13.59277725 -19.76372147 -12.46192646
6.51929140 7.57980680 -39.43919373
-33.10073471 10.88881302 22.80925369
39.67013931 20.38782883 26.30151367
-7.69135523 -13.46393490 -22.46285820
-11.82319260 8.54996681 -40.85317230
12.54696274 13.50468826 -44.60151291
27.87751198 -7.43223238 -8.62741947
15.80016804 16.87335396 -45.88578033
-28.94035912 13.13605595 25.38956642
-3.76410985 16.64200783 -47.93994522
-9.82366467 -19.47628403 -13.37796879
-27.02822495 0.10634728 -16.80235672
11.29278851 22.81068039 -49.54305267
4.72053051 -1.44316721 -31.88924408
45.73598099 13.84134007 -1.40933812
-35.33981323 5.83403206 -5.17827797
2.28071046 5.65790510 -38.35567093
27.25918961 22.68035316 -42.31895828
-37.62562943 18.51767731 -30.05990219
-38.82744980 15.99279690 -19.52762222
-13.95176125 -10.66071415 8.35167503
10.37321758 -10.36167622 -25.53951836
-41.42943954 20.54157448 -20.68745804
-2.07508492 -8.06476974 -25.27709007
-30.09734535 18.21020126 33.16875076
-31.47181129 5.83440113 -23.89339256
