-2.15550000 -0.03580000 -0.61070000
-2.14590000 0.07240000 -0.79910000
-2.17520000 -0.12870000 -0.27700000
-2.18930000 -0.12890000 -0.14070000
-2.28000000 0.06390000 -0.13840000
-2.30120000 0.13560000 -0.25610000
-2.24500000 0.05430000 -0.40130000
-1.93120000 0.02700000 -0.56090000
-1.99850000 0.06840000 -0.39250000
-2.00180000 0.15210000 -0.58320000
-2.07910000 0.22330000 -0.42710000
-2.25210000 0.12790000 -0.52620000
-2.24850000 0.21660000 -0.68310000
-2.27690000 0.07060000 0.20400000
-2.34460000 0.27190000 0.30160000
-2.29430000 0.09170000 0.00090000
-2.07880000 0.14450000 -0.03900000
-2.12210000 0.24150000 0.12080000
-2.11560000 0.22490000 -0.15740000
-2.09160000 0.20170000 -0.29360000
-2.16860000 0.35370000 -0.23900000
-2.17140000 0.33620000 -0.02750000
-2.35740000 0.24880000 -0.15690000
-2.34840000 0.22180000 0.05940000
-2.39500000 0.34650000 -0.04330000
-2.41370000 0.41760000 -0.19120000
-2.33890000 0.26370000 -0.36730000
-2.13110000 0.34700000 -0.45540000
-2.33410000 0.31560000 -0.49510000
-2.35840000 0.46410000 -0.60800000
-2.18000000 0.41850000 -0.35810000
-2.40200000 0.45390000 -0.38710000
-2.18050000 0.37370000 0.14680000
-2.23200000 0.53560000 0.22730000
-2.40670000 0.40150000 0.12520000
-2.41010000 0.46380000 0.29560000
-2.23650000 0.50410000 0.04080000
-2.22500000 0.47240000 -0.11330000
-2.45220000 0.53800000 -0.08370000
-2.45130000 0.55300000 0.10540000
-2.48490000 0.69370000 0.01230000
-2.24380000 0.55860000 -0.25000000
-2.22390000 0.54890000 -0.37530000
-2.29900000 0.71130000 -0.10100000
-2.45660000 0.62820000 -0.32620000
-2.27740000 0.77160000 -0.44480000
-2.27890000 0.64160000 0.05330000
-2.31100000 0.79630000 -0.25840000
-2.29590000 0.36770000 -0.71400000
-2.41050000 0.55300000 -0.49020000
-2.43520000 0.68530000 -0.52620000
-2.47690000 0.80070000 -0.41180000
-2.48550000 0.70750000 -0.20170000
-2.51250000 0.90070000 -0.17080000
-1.86620000 0.01120000 -0.72360000
-1.78980000 -0.02140000 -0.84840000
-1.71590000 -0.03000000 -0.97360000
-1.86100000 0.10540000 -0.87870000
-1.73110000 0.09130000 -1.09770000
-1.67180000 0.16730000 -1.25430000
-2.01560000 -0.07650000 -0.94620000
-2.06680000 -0.07360000 -0.83720000
-1.95310000 -0.08400000 -1.06350000
-2.02650000 0.15630000 -1.14930000
-2.07040000 0.12180000 -1.03770000
-2.10660000 0.05690000 -0.89490000
-2.15630000 0.17360000 -0.91190000
-1.99860000 0.21850000 -1.23940000
-1.87510000 0.26610000 -1.03260000
-1.76830000 0.25170000 -1.19340000
-1.87320000 0.38360000 -1.13540000
-1.97690000 0.18310000 -0.71080000
-1.94570000 0.25280000 -0.87950000
-2.01900000 0.32280000 -0.78740000
-2.22910000 0.31720000 -0.85390000
-2.16620000 0.27600000 -0.98560000
-2.09570000 0.35980000 -0.61480000
-2.00020000 0.43290000 -0.94850000
-2.06980000 0.56040000 -0.90690000
-2.08960000 0.46510000 -0.77000000
-1.98030000 0.58380000 -1.09910000
-1.68820000 0.29740000 -1.33610000
-1.59530000 0.26410000 -1.41900000
-1.90350000 0.43750000 -1.49890000
-1.59480000 0.42960000 -1.52130000
-1.73250000 0.48420000 -1.39760000
-1.82550000 0.47030000 -1.26840000
-1.51450000 0.45260000 -1.61140000
-1.42440000 0.49970000 -1.71190000
-1.56090000 0.70570000 -1.67710000
-1.65820000 0.60590000 -1.54270000
-2.08810000 0.32060000 -1.16880000
-2.01710000 0.39890000 -1.32410000
-2.20980000 0.38440000 -0.96600000
-2.34920000 0.64820000 -0.80180000
-2.26430000 0.59680000 -0.98440000
-2.14080000 0.38940000 -1.10920000
-2.06880000 0.50900000 -1.30380000
-2.18660000 0.56160000 -1.12730000
-2.11210000 0.61900000 -1.28800000
-2.20830000 0.74290000 -1.17090000
-1.98990000 0.62970000 -1.46990000
-1.83660000 0.58600000 -1.64030000
-1.69000000 0.60810000 -1.79830000
-1.82350000 0.72580000 -1.69730000
-1.72120000 0.85800000 -1.83160000
-1.86050000 0.89000000 -1.69700000
-1.95140000 0.74110000 -1.23850000
-1.81980000 0.67190000 -1.38880000
-2.06270000 0.82280000 -1.43240000
-1.96060000 0.83840000 -1.56920000
-2.02870000 0.76020000 -1.12050000
-1.92220000 0.85770000 -1.33220000
-2.14920000 0.85860000 -1.31160000
-1.74470000 0.79640000 -1.52980000
-1.86800000 0.95080000 -1.43900000
-1.74610000 0.97720000 -1.58710000
-1.91860000 1.19850000 -1.44630000
-1.81040000 1.18910000 -1.57000000
-2.10370000 1.05710000 -1.42540000
-1.98280000 1.03220000 -1.58390000
-1.81670000 1.02520000 -1.76570000
-1.92320000 1.15950000 -1.67020000
-2.18080000 0.50780000 -0.52040000
-2.17240000 0.64120000 -0.70960000
-2.25320000 0.80790000 -0.59620000
-2.15080000 0.71920000 -0.83880000
-2.36180000 0.57750000 -0.71080000
-2.32930000 0.74160000 -0.90920000
-2.39980000 0.82120000 -0.75250000
-2.09520000 0.75610000 -0.99140000
-2.28710000 0.85600000 -1.05490000
-2.19530000 0.88420000 -0.84070000
-2.24260000 0.92550000 -0.73440000
-2.12010000 0.90540000 -1.02200000
-2.14680000 1.11090000 -1.05420000
-2.24340000 0.98430000 -1.18230000
-2.36090000 0.97240000 -0.92320000
-2.32970000 1.19450000 -1.04560000
-2.33800000 1.07940000 -0.49750000
-2.44360000 0.86580000 -0.62080000
-2.33780000 0.95730000 -0.35410000
-2.48920000 1.04290000 -0.50330000
-2.33220000 1.21600000 -0.63080000
-2.24910000 1.17450000 -0.85880000
-2.28980000 1.21530000 -0.76980000
-2.42420000 1.03930000 -0.77080000
-2.45470000 1.13570000 -0.69220000
-2.40240000 1.24340000 -0.87750000
-2.04280000 0.92610000 -1.17720000
-1.97630000 1.17070000 -1.35880000
-2.05780000 1.19320000 -1.24500000
-2.21480000 1.10420000 -1.25790000
-2.18440000 1.26630000 -1.32570000
-2.01970000 1.21740000 -1.55840000
-2.11070000 1.33610000 -1.44040000
-1.91330000 1.35890000 -1.49430000
-2.00510000 1.38060000 -1.37680000
-2.02970000 1.40710000 -1.55080000
-2.12950000 1.38520000 -1.18870000
-2.27890000 1.28200000 -1.16100000
-2.27450000 1.43640000 -1.17130000
-2.20140000 1.31940000 -1.02700000
-2.26540000 1.41330000 -0.93540000
-2.38110000 1.44360000 -0.94740000
-2.22030000 1.46160000 -1.06260000
-2.12190000 1.47290000 -1.24060000
-2.18670000 1.49640000 -1.32400000
-2.01750000 1.47240000 -1.39720000
-2.06950000 1.50980000 -1.49560000
-2.05340000 1.52530000 -1.38030000
-1.92110000 1.52530000 -1.55350000
-2.17840000 1.52280000 -1.17930000
-2.17200000 1.54860000 -1.23110000
-2.23970000 1.54490000 -1.09800000
-2.28800000 1.55750000 -1.05260000
-2.19680000 1.55820000 -1.24320000
-2.06830000 1.54810000 -1.38090000
-2.10350000 1.56020000 -1.39510000
-2.05950000 1.56040000 -1.43050000
-2.33090000 1.52220000 -1.05870000
-2.22690000 1.53100000 -1.24960000
-2.29780000 1.54150000 -1.11300000
-2.12120000 1.52670000 -1.42030000
-2.10220000 1.54720000 -1.43170000
-2.25930000 1.55090000 -1.16530000
-2.17370000 1.55180000 -1.31440000
-1.64770000 -0.16500000 1.43200000
-1.80960000 -0.12230000 1.24390000
-1.80540000 0.04780000 1.39810000
-1.61600000 0.01010000 1.14850000
-1.50010000 -0.01830000 1.26980000
-1.91470000 -0.00470000 1.17820000
-1.66950000 -0.02460000 1.02690000
-1.75420000 0.09870000 1.03360000
-1.85710000 0.11610000 0.86670000
-1.68290000 -0.04390000 1.48890000
-1.63230000 0.07810000 1.62380000
-1.73120000 0.13210000 1.54990000
-1.53360000 0.11720000 1.35810000
-1.50600000 0.22230000 1.46900000
-1.62550000 0.32190000 1.40180000
-1.93030000 0.16580000 1.29330000
-2.03500000 0.15990000 1.10240000
-1.80850000 0.19430000 1.49400000
-1.95450000 0.30570000 1.35290000
-1.84130000 0.32700000 1.52070000
-1.66840000 0.15990000 1.22820000
-1.79690000 0.20480000 1.07330000
-1.70390000 0.28960000 1.28440000
-1.82760000 0.30570000 1.11330000
-1.70030000 0.49640000 1.40930000
-1.76670000 0.41720000 1.28230000
-1.86450000 0.39430000 1.11910000
-1.83320000 0.53130000 1.24450000
-2.00590000 -0.02970000 0.98350000
-2.08860000 0.01410000 0.84370000
-2.14410000 0.27500000 0.97090000
-1.98240000 0.23960000 0.74200000
-1.92460000 0.26950000 0.90940000
-2.02330000 0.37780000 0.79580000
-2.06000000 0.33310000 0.64420000
-2.30440000 0.34660000 0.61590000
-2.27070000 0.43440000 0.80610000
-2.12380000 0.53090000 0.67530000
-2.07060000 0.34600000 1.18670000
-2.06810000 0.45450000 1.27900000
-2.16650000 0.43980000 1.07730000
-1.95880000 0.38700000 0.94550000
-1.95750000 0.55980000 1.05850000
-2.21190000 0.56480000 1.07050000
-2.12140000 0.65980000 0.79340000
-2.04600000 0.69200000 0.97930000
-2.22930000 0.50450000 0.99120000
-2.30930000 0.60020000 0.84080000
-2.27290000 0.71330000 0.98270000
-2.09450000 0.31410000 0.49770000
-2.17440000 0.50260000 0.47230000
-2.19390000 0.48670000 0.36310000
-2.21240000 0.67020000 0.53460000
-2.18450000 0.78300000 0.72510000
-1.66210000 0.26580000 1.69240000
-1.67360000 0.46110000 1.76110000
-1.53810000 0.34810000 1.51320000
-1.44860000 0.46550000 1.65560000
-1.59620000 0.50830000 1.53500000
-1.52870000 0.55350000 1.62240000
-1.96100000 0.43850000 1.42760000
-1.81400000 0.46130000 1.61540000
-2.00220000 0.56490000 1.42500000
-1.85220000 0.60030000 1.61580000
-1.73420000 0.66520000 1.44700000
-1.64250000 0.82720000 1.60430000
-1.86690000 0.69880000 1.28630000
-1.67080000 0.66290000 1.82220000
-1.53960000 0.66730000 1.93390000
-1.50580000 0.67160000 1.68420000
-1.67660000 0.90930000 1.85450000
-1.50610000 0.88750000 1.74870000
-1.78580000 0.72920000 1.72160000
-1.97850000 0.72000000 1.48480000
-1.91830000 0.90250000 1.59620000
-1.84860000 0.83160000 1.36900000
-1.75780000 0.85750000 1.49170000
-1.79990000 1.04440000 1.75260000
-1.76520000 1.05990000 1.54010000
-2.09980000 0.55080000 1.28020000
-2.08260000 0.61780000 1.32950000
-2.11110000 0.73040000 1.30050000
-2.18550000 0.66060000 1.16500000
-1.98560000 0.77000000 1.14010000
-1.97340000 0.89150000 1.21260000
-2.18640000 0.76400000 1.17770000
-2.06790000 0.86460000 1.03940000
-2.27420000 0.90150000 1.02960000
-2.18300000 0.92560000 1.21240000
-2.07350000 1.04200000 1.10460000
-2.03970000 0.86900000 1.42640000
-1.99130000 1.09880000 1.25900000
-1.89450000 1.26910000 1.44370000
-2.01750000 1.17800000 1.51560000
-2.13640000 1.08720000 1.32760000
-2.26070000 1.17370000 1.12640000
-2.20100000 1.33000000 1.25880000
-2.14760000 0.86880000 0.87600000
-2.16080000 1.12720000 0.97080000
-2.10230000 1.33800000 1.16520000
-2.35590000 0.42140000 0.52470000
-2.40600000 0.56000000 0.47550000
-2.35960000 0.51170000 0.62030000
-2.38660000 0.65500000 0.64010000
-2.43980000 0.90290000 0.57740000
-2.37440000 0.76600000 0.73560000
-2.25430000 0.65990000 0.34350000
-2.44180000 0.58490000 0.30690000
-2.31580000 0.79910000 0.15230000
-2.46100000 0.77740000 0.40510000
-2.47780000 0.71410000 0.21350000
-2.52500000 0.97660000 0.05070000
-2.50480000 0.90330000 0.23300000
-2.35800000 0.94830000 -0.02650000
-2.37250000 1.04480000 -0.19850000
-2.29240000 0.81370000 0.36000000
-2.35710000 0.99110000 0.17330000
-2.27060000 0.82720000 0.47670000
-2.24080000 0.89760000 0.64220000
-2.36840000 1.15290000 0.32840000
-2.32250000 1.12110000 0.52030000
-2.50160000 1.09930000 0.39980000
-2.53080000 1.12200000 0.19910000
-2.40320000 1.21790000 0.15600000
-2.54330000 1.15360000 -0.08960000
-2.52640000 1.13280000 -0.32150000
-2.41340000 1.22810000 -0.01260000
-2.54950000 1.26790000 0.08610000
-2.54050000 1.33280000 0.22470000
-2.43610000 1.36050000 0.06950000
-2.55680000 1.37200000 -0.06910000
-2.54910000 1.33070000 -0.22640000
-2.55610000 1.45520000 0.01550000
-2.38090000 1.03750000 0.81650000
-2.34330000 1.18310000 0.95480000
-2.23460000 1.11750000 0.79420000
-2.30090000 1.20780000 0.65510000
-2.27380000 1.34360000 0.81000000
-2.46190000 1.16580000 0.60360000
-2.47790000 1.32250000 0.57170000
-2.41610000 1.24160000 0.77290000
-2.51820000 1.28940000 0.37850000
-2.38540000 1.33490000 0.42480000
-2.42380000 1.40040000 0.29260000
-2.35510000 1.39460000 0.59960000
-2.40830000 1.47970000 0.48010000
-2.49330000 1.48020000 0.49070000
-2.52650000 1.45670000 0.32160000
-2.18620000 1.36030000 1.02240000
-2.28720000 1.32660000 1.10010000
-2.24900000 1.45690000 0.94020000
-2.35100000 1.38030000 0.96270000
-2.39970000 1.42400000 0.83020000
-2.32490000 1.47620000 0.76390000
-2.45770000 1.47510000 0.64040000
-2.33630000 1.51910000 0.97540000
-2.37370000 1.52710000 0.87680000
-2.32520000 1.53710000 0.82990000
-2.27380000 1.52040000 0.93300000
-2.33820000 1.55190000 0.83090000
-2.36100000 1.55810000 0.81650000
-2.37520000 1.55150000 0.83330000
-2.42400000 1.51260000 0.74120000
-2.38430000 1.54080000 0.83560000
-2.39230000 1.55400000 0.76810000
-2.41220000 1.53990000 0.75310000
-2.38360000 1.51580000 0.62040000
-2.41860000 1.53130000 0.51900000
-2.41510000 1.54520000 0.56880000
-2.39660000 1.53960000 0.62030000
-2.42430000 1.55340000 0.59220000
-2.45460000 1.52310000 0.62680000
-2.47890000 1.52270000 0.53210000
-2.44900000 1.54380000 0.61190000
-2.46060000 1.54970000 0.51960000
-2.45890000 1.54770000 0.55480000
-2.43380000 1.54860000 0.52040000
-2.44970000 1.54850000 0.48510000
-2.43850000 1.55450000 0.55330000
-2.44360000 1.53210000 0.42430000
-2.36660000 1.53780000 0.71160000
-2.36710000 1.55440000 0.76400000
-2.39710000 1.55600000 0.69940000
-2.39300000 1.54890000 0.65810000
-2.42660000 1.54360000 0.69310000
-2.42040000 1.55430000 0.62560000
-2.41750000 1.55580000 0.66270000
-2.45480000 1.46870000 0.16920000
-2.54750000 1.50150000 0.13290000
-2.50850000 1.51490000 0.39760000
-2.45630000 1.51320000 0.27810000
-2.47760000 1.53090000 0.18110000
-2.44990000 1.52540000 0.36660000
-2.52310000 1.52640000 0.29340000
-2.46910000 1.54490000 0.33390000
-2.49830000 1.54370000 0.36990000
-2.48510000 1.55190000 0.33910000
-2.50450000 1.54740000 0.31910000
-2.48640000 1.55140000 0.29190000
-2.51470000 1.54410000 0.27470000
-2.46830000 1.53850000 0.27640000
-2.48940000 1.55070000 0.24300000
-2.51040000 1.54990000 0.23300000
-2.49040000 1.54550000 0.20170000
-2.53700000 1.51960000 0.20840000
-2.53720000 1.53910000 0.13270000
-2.53420000 1.53770000 0.16680000
-2.51850000 1.55130000 0.14870000
-2.50170000 1.54960000 0.14150000
-2.51510000 1.54980000 0.18250000
-2.52890000 1.53860000 0.20700000
-2.54610000 1.52930000 0.08890000
-2.48800000 1.53370000 0.46570000
-2.46720000 1.54750000 0.47000000
-2.48040000 1.54540000 0.41910000
-2.45610000 1.54400000 0.43090000
-2.47310000 1.54680000 0.37850000
-2.39710000 1.22710000 -0.31600000
-2.47210000 1.36380000 -0.68050000
-2.51310000 1.36150000 -0.51250000
-2.53770000 1.37290000 -0.36650000
-2.35520000 1.38660000 -0.67430000
-2.32890000 1.42650000 -0.78430000
-2.43970000 1.49190000 -0.79570000
-2.39140000 1.35540000 -0.49800000
-2.42750000 1.42410000 -0.41430000
-2.40190000 1.45820000 -0.58510000
-2.34970000 1.49030000 -0.78370000
-2.45670000 1.52510000 -0.72640000
-2.46700000 1.51060000 -0.71180000
-2.40630000 1.52620000 -0.73290000
-2.39270000 1.53020000 -0.81400000
-2.43360000 1.53100000 -0.74810000
-2.42970000 1.52080000 -0.79510000
-2.41440000 1.51510000 -0.86280000
-2.39770000 1.50840000 -0.67700000
-2.37450000 1.51700000 -0.77070000
-2.42880000 1.53750000 -0.62900000
-2.43180000 1.54020000 -0.69010000
-2.49880000 1.50560000 -0.59690000
-2.47630000 1.53240000 -0.67060000
-2.46450000 1.54360000 -0.67880000
-2.43740000 1.36250000 -0.16700000
-2.46380000 1.48310000 -0.28410000
-2.46150000 1.44230000 -0.04410000
-2.48110000 1.50430000 -0.10710000
-2.53020000 1.50670000 -0.43140000
-2.54520000 1.51280000 -0.32470000
-2.55580000 1.49610000 -0.17490000
-2.55390000 1.52480000 -0.10870000
-2.55210000 1.51930000 -0.21670000
-2.54100000 1.53580000 -0.29060000
-2.52550000 1.53400000 -0.38060000
-2.52980000 1.54190000 -0.33060000
-2.50500000 1.54470000 -0.37640000
-2.51410000 1.54930000 -0.30800000
-2.49450000 1.54660000 -0.32440000
-2.48970000 1.52960000 -0.19000000
-2.54270000 1.53980000 -0.20310000
-2.54010000 1.54590000 -0.14640000
-2.51660000 1.55000000 -0.17560000
-2.49720000 1.54300000 -0.24250000
-2.47150000 1.52510000 -0.35030000
-2.52390000 1.54780000 -0.25580000
-2.43990000 1.52670000 -0.53650000
-2.47290000 1.53870000 -0.40720000
-2.49190000 1.54400000 -0.45840000
-2.45870000 1.53960000 -0.49270000
-2.46240000 1.54470000 -0.54420000
-2.50700000 1.52790000 -0.53340000
-2.50150000 1.51710000 -0.57510000
-2.48260000 1.54210000 -0.55700000
-2.47820000 1.54500000 -0.62380000
-2.52500000 1.52120000 -0.43850000
-2.50950000 1.53640000 -0.47220000
-2.45710000 1.55120000 -0.62460000
-2.31980000 1.50620000 -0.88730000
-2.38880000 1.53320000 -0.92630000
-2.28900000 1.53120000 -0.98260000
-2.32480000 1.54610000 -0.93560000
-2.36910000 1.54900000 -0.87980000
-2.36270000 1.55460000 -0.93350000
-2.34970000 1.55030000 -0.99130000
-2.28270000 1.55740000 -1.09650000
-2.36620000 1.52230000 -0.82530000
-2.40280000 1.53590000 -0.83990000
-2.40170000 1.53880000 -0.87550000
-2.48730000 1.52640000 0.01610000
-2.54820000 1.53540000 -0.00890000
-2.55390000 1.51410000 0.03690000
-2.49860000 1.54050000 -0.11440000
-2.51060000 1.54990000 -0.05290000
-2.49760000 1.54650000 0.05020000
-2.54310000 1.54160000 0.03810000
-2.52800000 1.55130000 -0.02760000
-2.52600000 1.55010000 0.10150000
-2.52000000 1.55300000 0.03530000
-2.50890000 1.55230000 0.07350000
-2.54560000 1.54060000 -0.08530000
-2.52390000 1.55170000 -0.11050000
-1.47240000 0.88720000 2.01510000
-1.39660000 1.05670000 1.87100000
-1.43310000 1.09230000 2.06420000
-1.60960000 1.16900000 1.93720000
-1.51610000 1.35930000 1.84240000
-1.63000000 1.05810000 1.67790000
-1.73680000 1.25850000 1.83280000
-1.42700000 1.31890000 2.07860000
-1.85950000 1.31020000 1.71200000
-1.62730000 1.33170000 1.92650000
-1.72400000 1.41650000 1.83630000
-1.58570000 1.44260000 1.94830000
-1.75030000 1.30170000 1.61390000
-1.63060000 1.32000000 1.73600000
-1.30520000 1.41750000 2.00170000
-1.44600000 1.46130000 2.05280000
-1.47130000 1.50980000 1.91440000
-1.65750000 1.50500000 1.76130000
-1.78200000 1.48800000 1.63400000
-1.58500000 1.53120000 1.83870000
-1.49110000 1.54650000 1.92110000
-1.56890000 1.55270000 1.87300000
-1.60160000 1.55080000 1.86190000
-1.63590000 1.52780000 1.89060000
-1.73210000 1.53560000 1.80500000
-1.66850000 1.55550000 1.78800000
-1.65080000 1.56260000 1.83160000
-1.61520000 1.54500000 1.89110000
-1.66790000 1.55660000 1.84570000
-1.90570000 1.14020000 1.65060000
-2.03260000 1.34280000 1.50900000
-1.97210000 1.43680000 1.57780000
-2.12840000 1.23760000 1.36770000
-2.12010000 1.42740000 1.38330000
-1.84000000 1.45120000 1.71970000
-1.86820000 1.47160000 1.53700000
-2.00990000 1.37680000 1.32420000
-2.02560000 1.49860000 1.34990000
-2.04920000 1.52650000 1.46390000
-2.13450000 1.52450000 1.34680000
-2.19730000 1.49050000 1.25470000
-2.21860000 1.52870000 1.20570000
-2.17720000 1.55040000 1.25990000
-2.08140000 1.55410000 1.40090000
-2.16980000 1.56330000 1.23930000
-2.05550000 1.56620000 1.40070000
-2.15360000 1.49170000 1.14700000
-2.13790000 1.53890000 1.21120000
-2.03060000 1.53960000 1.36880000
-2.12410000 1.56150000 1.26530000
-2.03070000 1.56100000 1.39800000
-1.75930000 1.54130000 1.68320000
-1.85360000 1.54780000 1.59300000
-1.89210000 1.53160000 1.64880000
-1.93370000 1.54790000 1.50080000
-1.84070000 1.56150000 1.62490000
-1.73350000 1.55820000 1.72380000
-1.75690000 1.56570000 1.72650000
-1.76400000 1.56170000 1.75320000
-1.86310000 1.56800000 1.63020000
-1.87170000 1.55990000 1.65100000
-1.97120000 1.55220000 1.54610000
-1.96320000 1.56450000 1.49700000
-1.99050000 1.56310000 1.50160000
-1.28550000 1.42220000 2.16240000
-1.24290000 1.51100000 2.06330000
-1.22890000 1.55150000 2.09200000
-1.25350000 1.56670000 2.10190000
-1.22840000 1.53090000 2.18010000
-1.32610000 1.54170000 2.11810000
-1.48930000 1.53730000 2.00710000
-1.44360000 1.55770000 2.02990000
-1.42250000 1.56910000 2.02830000
-1.32590000 1.57040000 2.07570000
-1.37800000 1.56660000 2.02660000
-1.33310000 1.56480000 2.09640000
-1.34730000 1.52000000 2.00270000
-1.24410000 1.56900000 2.13920000
-1.42660000 1.55850000 1.97810000
-1.22130000 1.56050000 2.16960000
-1.17380000 1.57440000 2.16490000
-1.49140000 1.57150000 1.96290000
-1.56080000 1.55090000 1.94490000
-1.54650000 1.56580000 1.90940000
-1.53230000 1.56530000 1.95350000
-1.57440000 1.56150000 1.90620000
-2.26820000 1.43640000 1.13560000
-2.21510000 1.53120000 1.06490000
-2.19340000 1.55130000 1.13340000
-2.30330000 1.51170000 1.05240000
-2.26080000 1.53550000 0.98280000
-2.31730000 1.55130000 0.96640000
-2.34110000 1.54600000 0.93630000
-2.31290000 1.55260000 0.89710000
-2.28740000 1.53990000 0.92720000
-2.29220000 1.55080000 0.94360000
-2.28040000 1.55160000 1.00200000
-2.32410000 1.55770000 0.91790000
-2.28720000 1.54200000 1.05970000
-2.25210000 1.55020000 1.03540000
-2.23070000 1.56130000 1.10490000
-2.24770000 1.55270000 1.12940000
-2.26450000 1.55670000 1.07000000
-2.18410000 1.56350000 1.18580000
-2.21870000 1.56250000 1.14390000
-2.35310000 1.55260000 0.88480000
-2.34220000 1.55670000 0.86670000
1.51390000 -0.90550000 -0.21700000
1.59700000 -0.85980000 -0.11360000
1.66060000 -0.80290000 -0.19150000
1.68410000 -0.79300000 -0.02530000
1.32430000 -0.95720000 -0.61920000
1.40880000 -0.94740000 -0.37320000
1.48020000 -0.88870000 -0.51910000
1.43020000 -0.88760000 -0.64500000
1.64340000 -0.70280000 -0.71510000
1.57750000 -0.79280000 -0.61490000
1.45980000 -0.81880000 -0.79960000
1.11520000 -1.06360000 -0.62660000
1.05130000 -1.05800000 -0.71720000
1.13130000 -0.99470000 -0.82530000
1.20860000 -0.99360000 -0.72040000
1.22610000 -1.01530000 -0.58620000
1.18380000 -0.92280000 -0.96100000
1.31370000 -0.91520000 -0.78850000
1.31620000 -0.86940000 -0.91930000
1.24250000 -0.86640000 -1.03420000
1.38320000 -0.79010000 -0.98790000
1.56570000 -0.68960000 -0.89670000
1.59800000 -0.82950000 -0.36530000
1.56600000 -0.83320000 -0.50220000
1.65570000 -0.76760000 -0.46360000
1.75990000 -0.66970000 -0.45340000
1.70730000 -0.68020000 -0.61260000
1.72830000 -0.73020000 -0.30770000
1.16980000 -0.63630000 -0.34970000
1.11860000 -0.63880000 -0.50510000
1.29440000 -0.55290000 -0.53270000
1.33090000 -0.56330000 -0.31470000
1.20760000 -0.56520000 -0.67910000
1.39070000 -0.47330000 -0.64590000
1.25440000 -0.50080000 -0.82120000
1.46000000 -0.46580000 -0.47280000
1.50590000 -0.39320000 -0.62960000
1.37210000 -0.42540000 -0.82520000
1.40980000 -0.67690000 -1.15110000
1.53070000 -0.63440000 -1.05680000
1.69550000 -0.60660000 -0.82230000
1.66550000 -0.55720000 -0.97650000
1.57730000 -0.50710000 -1.18560000
1.71720000 -0.45200000 -1.05220000
1.73490000 -0.30980000 -1.21030000
1.79130000 -0.55990000 -0.70730000
1.77910000 -0.49420000 -0.87130000
1.88600000 -0.43940000 -0.72850000
1.84560000 -0.57000000 -0.50040000
1.88130000 -0.50030000 -0.59220000
1.99030000 -0.41260000 -0.43670000
1.93340000 -0.35130000 -0.78260000
1.80680000 -0.36270000 -1.02860000
1.98040000 -0.16620000 -0.95960000
2.00650000 -0.24670000 -0.77710000
1.50440000 -0.34310000 -0.77100000
1.58670000 -0.22550000 -0.85240000
1.40940000 -0.31840000 -0.98480000
1.89600000 -0.16780000 -1.11840000
1.64890000 -0.07820000 -0.98190000
1.48940000 -0.24120000 -0.99460000
1.83990000 -0.12400000 -1.25650000
1.68740000 -0.24130000 -1.34870000
1.98570000 -0.01500000 -1.12180000
1.77100000 -0.03050000 -1.42950000
1.88550000 0.04610000 -1.33320000
1.98130000 0.07130000 -1.20470000
0.81800000 -1.06570000 -1.01790000
1.01130000 -0.98710000 -1.01220000
0.91150000 -0.98760000 -1.12000000
1.06790000 -0.90530000 -1.14300000
0.91230000 -0.88640000 -1.31160000
1.26910000 -0.73380000 -1.22850000
1.20860000 -0.82610000 -1.14260000
1.03910000 -0.84590000 -1.27740000
0.72890000 -1.01490000 -1.19710000
0.58340000 -1.00090000 -1.30800000
0.77050000 -0.93240000 -1.32780000
0.58100000 -0.91910000 -1.44310000
0.70610000 -0.85380000 -1.48400000
0.82760000 -0.78700000 -1.50720000
1.00370000 -0.76340000 -1.42390000
1.13040000 -0.69260000 -1.41320000
1.29200000 -0.60320000 -1.38420000
0.95940000 -0.69370000 -1.53740000
1.07480000 -0.57600000 -1.59170000
1.29240000 -0.50030000 -1.50230000
1.15880000 -0.43090000 -1.66880000
0.19790000 -0.95560000 -1.48830000
0.14150000 -0.83470000 -1.65530000
0.00100000 -0.81430000 -1.68380000
0.43750000 -0.97540000 -1.40180000
0.38770000 -0.91450000 -1.51240000
0.69170000 -0.74850000 -1.61540000
0.57140000 -0.80970000 -1.59440000
0.46490000 -0.87250000 -1.55370000
0.40440000 -0.78150000 -1.67390000
0.51870000 -0.69220000 -1.73400000
0.31370000 -0.85910000 -1.60450000
0.26110000 -0.72290000 -1.76320000
0.85720000 -0.67500000 -1.61850000
0.72410000 -0.58580000 -1.76770000
0.89020000 -0.57660000 -1.70230000
0.90170000 -0.41530000 -1.83450000
0.70960000 -0.42400000 -1.90970000
1.00380000 -0.45030000 -1.75180000
1.08310000 -0.27830000 -1.84190000
0.90120000 -0.29600000 -1.92450000
0.96370000 -0.13210000 -1.99680000
0.55550000 -0.53800000 -1.86910000
0.38180000 -0.53170000 -1.91850000
0.53020000 -0.38290000 -1.99740000
0.77120000 -0.25590000 -2.00470000
0.86670000 -0.06350000 -2.07490000
0.63140000 -0.30640000 -2.02160000
0.71730000 -0.11700000 -2.10200000
0.53680000 -0.18640000 -2.11610000
0.71760000 -0.66360000 -0.91410000
1.08220000 -0.52520000 -0.98220000
0.86380000 -0.60120000 -0.99140000
1.07840000 -0.57970000 -0.83020000
0.91450000 -0.52370000 -1.14350000
0.83340000 -0.67800000 -0.76360000
1.05090000 -0.47810000 -1.12190000
0.62840000 -0.62480000 -1.09400000
0.71040000 -0.57520000 -1.17300000
0.67950000 -0.51120000 -1.32080000
0.81540000 -0.45940000 -1.33560000
0.90520000 -0.68700000 -0.64180000
1.05050000 -0.62110000 -0.72220000
1.20570000 -0.47260000 -0.96450000
1.45630000 -0.54180000 -1.29330000
1.57580000 -0.35520000 -1.36700000
1.43630000 -0.44180000 -1.42690000
1.45980000 -0.32700000 -1.51650000
1.60960000 -0.16450000 -1.50860000
1.17210000 -0.39960000 -1.14270000
0.94740000 -0.42930000 -1.29200000
1.06390000 -0.37330000 -1.28430000
1.25370000 -0.31250000 -1.18650000
1.00730000 -0.31400000 -1.40530000
1.18300000 -0.23250000 -1.36040000
1.34500000 -0.32580000 -1.61930000
1.26010000 -0.23050000 -1.76360000
1.05030000 -0.19700000 -1.50530000
1.14840000 -0.10310000 -1.52380000
1.29470000 -0.40130000 -0.99550000
1.42620000 -0.17900000 -1.17070000
1.32760000 -0.17660000 -1.28650000
1.52640000 -0.11170000 -1.12640000
1.63690000 -0.00600000 -1.09520000
1.41840000 -0.05200000 -1.32520000
1.57880000 0.03210000 -1.21780000
1.50190000 0.04820000 -1.32990000
1.27360000 -0.11900000 -1.40330000
1.24250000 -0.01480000 -1.52840000
0.36940000 -0.63190000 -1.18710000
0.51680000 -0.58510000 -1.24970000
0.40470000 -0.54110000 -1.37890000
0.18840000 -0.65240000 -1.17810000
0.54200000 -0.47240000 -1.44890000
0.15700000 -0.59660000 -1.31970000
0.13980000 -0.52980000 -1.44780000
0.30710000 -0.47840000 -1.50950000
0.45060000 -0.43780000 -1.53030000
0.55590000 -0.37930000 -1.56810000
0.18840000 -0.44260000 -1.57620000
0.35290000 -0.40900000 -1.59260000
0.49660000 -0.32130000 -1.65030000
0.24710000 -0.35380000 -1.66870000
0.76660000 -0.41820000 -1.42420000
0.70730000 -0.36210000 -1.52460000
0.78490000 -0.24400000 -1.61490000
0.65010000 -0.27050000 -1.64730000
0.87430000 -0.32720000 -1.47710000
0.91820000 -0.22820000 -1.56000000
1.07700000 -0.04980000 -1.62320000
0.96920000 -0.09910000 -1.64940000
0.80570000 -0.13650000 -1.70480000
0.86090000 -0.03020000 -1.76190000
1.07550000 0.04760000 -1.69780000
0.96420000 0.09230000 -1.79070000
0.44670000 -0.19800000 -1.78120000
0.31810000 -0.27200000 -1.73930000
0.58180000 -0.13170000 -1.79650000
0.66980000 -0.03100000 -1.84230000
0.79440000 0.09090000 -1.87190000
0.65090000 0.13020000 -1.94800000
1.12600000 -0.15820000 -1.89760000
1.50380000 -0.15980000 -1.61720000
1.57680000 -0.05490000 -1.62440000
1.39280000 -0.16020000 -1.71320000
1.28520000 -0.09820000 -1.83540000
1.43050000 -0.05290000 -1.75380000
1.59560000 0.14060000 -1.71700000
1.40190000 0.09600000 -1.85480000
1.67570000 0.01370000 -1.56870000
1.60350000 0.19230000 -1.32720000
1.48050000 0.13550000 -1.42460000
1.76670000 0.15980000 -1.55340000
1.90520000 0.20140000 -1.40850000
1.92850000 0.33270000 -1.44470000
1.80800000 0.38180000 -1.61210000
1.34940000 0.07340000 -1.50570000
1.20660000 0.06650000 -1.61930000
1.35270000 0.20740000 -1.59400000
1.53690000 0.29380000 -1.47180000
1.48340000 0.36930000 -1.56870000
1.70690000 0.32130000 -1.69400000
1.51050000 0.22670000 -1.83260000
1.59200000 0.33930000 -1.80800000
1.79970000 0.53500000 -1.67430000
1.66070000 0.49910000 -1.80050000
1.19620000 -0.02310000 -1.93320000
1.04380000 -0.04110000 -2.01000000
1.10340000 0.09660000 -2.04430000
1.27940000 0.11880000 -1.95100000
1.36700000 0.26060000 -1.95320000
1.18660000 0.24780000 -2.06030000
0.90630000 0.11890000 -2.14800000
0.90260000 0.23030000 -1.89600000
1.01150000 0.20260000 -2.13720000
1.02210000 0.30280000 -2.16290000
0.80490000 0.23200000 -2.23010000
1.17180000 0.41720000 -2.12470000
1.21940000 0.20290000 -1.69670000
1.07180000 0.20550000 -1.79580000
1.23110000 0.35980000 -1.76670000
1.10630000 0.37470000 -1.85330000
1.34070000 0.34390000 -1.67920000
1.49600000 0.41720000 -1.91520000
1.39570000 0.40280000 -1.98470000
1.31310000 0.46280000 -2.05560000
1.43180000 0.48580000 -1.67000000
1.27100000 0.57820000 -1.82670000
0.80810000 0.28450000 -1.96300000
0.99850000 0.46640000 -1.94940000
0.78030000 0.46040000 -2.04380000
1.22520000 0.62410000 -2.14540000
0.98820000 0.48670000 -2.22990000
1.07640000 0.61800000 -2.22050000
1.15310000 0.59360000 -1.90700000
0.99570000 0.70180000 -2.02450000
0.88150000 0.60770000 -2.05070000
1.53560000 0.60260000 -1.93460000
1.67020000 0.67830000 -1.83870000
1.40620000 0.61840000 -2.03300000
1.52280000 0.77680000 -1.97680000
1.35740000 0.82890000 -2.10210000
1.25010000 0.85050000 -2.17170000
1.75810000 -0.72800000 0.06280000
1.77110000 -0.70930000 -0.11850000
1.87110000 -0.60970000 -0.03440000
1.90180000 -0.57130000 0.08880000
1.84910000 -0.62160000 0.20960000
1.81860000 -0.63480000 0.28390000
1.89510000 -0.55910000 -0.30080000
1.88380000 -0.59240000 -0.15550000
1.97460000 -0.48840000 -0.07750000
2.03600000 -0.39920000 -0.20430000
1.77650000 -0.65430000 0.40040000
1.89790000 -0.53960000 0.38790000
1.86930000 -0.51040000 0.55990000
1.96220000 -0.48390000 0.23110000
1.96360000 -0.44570000 0.41720000
1.92360000 -0.45310000 0.55920000
2.06310000 -0.33670000 0.30130000
2.04200000 -0.40060000 0.04320000
2.07270000 -0.35010000 0.15870000
2.12970000 -0.26070000 0.12650000
1.58780000 -0.40300000 0.23800000
1.67730000 -0.33180000 0.17370000
1.76120000 -0.25290000 0.13110000
1.65570000 -0.35950000 -0.03490000
1.77920000 -0.23800000 -0.02760000
1.84600000 -0.15820000 0.02790000
2.05740000 -0.34530000 -0.34810000
2.16020000 -0.19900000 -0.23190000
2.01630000 -0.32700000 -0.58440000
2.13550000 -0.17930000 -0.47800000
2.17920000 -0.02350000 -0.64380000
2.23410000 0.00210000 -0.46820000
2.22440000 -0.09670000 0.10500000
2.13250000 -0.26400000 -0.06520000
2.24940000 -0.05410000 -0.02610000
2.24770000 -0.04650000 -0.17640000
1.92990000 -0.04430000 -0.12280000
1.84960000 -0.14340000 -0.18400000
2.22800000 -0.05690000 -0.32820000
2.31250000 0.09210000 -0.10030000
2.30760000 0.13770000 -0.35740000
1.49990000 -0.48730000 -0.01500000
1.53750000 -0.46030000 -0.08700000
1.48030000 -0.49490000 -0.12510000
1.23180000 -0.62550000 -0.11050000
1.24230000 -0.62790000 -0.03920000
1.29440000 -0.58980000 -0.08780000
1.31780000 -0.58340000 -0.17610000
1.40730000 -0.53540000 -0.18520000
1.50020000 -0.46810000 -0.27480000
1.39660000 -0.53050000 -0.12210000
1.35040000 -0.55430000 -0.14340000
1.62380000 -0.37810000 -0.22130000
1.57920000 -0.38590000 -0.41860000
1.68660000 -0.30410000 -0.33010000
1.50410000 -0.47530000 0.17930000
1.55370000 -0.44820000 0.07770000
1.72630000 -0.28520000 -0.19540000
1.67800000 -0.28150000 -0.47720000
1.81980000 -0.14500000 -0.37810000
1.74350000 -0.19590000 -0.51940000
1.62470000 -0.28880000 -0.61870000
1.84460000 -0.06760000 -0.53320000
2.08780000 -0.14000000 -0.73690000
2.13110000 -0.03780000 -0.77470000
1.71530000 -0.15810000 -0.70650000
1.68010000 -0.12420000 -0.85360000
1.77350000 -0.03080000 -0.80790000
1.80420000 0.11160000 -0.94320000
1.74140000 0.09980000 -1.04390000
1.80780000 -0.07060000 -0.64690000
1.89540000 0.08610000 -0.69350000
1.86710000 0.12960000 -0.83250000
1.87990000 -0.08600000 -0.31050000
1.92750000 0.02150000 -0.44070000
1.98000000 0.06160000 -0.28320000
1.97190000 0.15080000 -0.57260000
2.01870000 0.17270000 -0.42590000
2.02560000 0.28250000 -0.60580000
2.06330000 0.27410000 -0.44860000
1.97710000 -0.31330000 0.70730000
2.03690000 -0.32780000 0.47210000
2.06990000 -0.17290000 0.69690000
2.14410000 -0.14430000 0.48880000
2.21520000 -0.08280000 0.28200000
2.22190000 -0.02340000 0.42570000
1.75550000 -0.22080000 0.35610000
1.79890000 -0.13670000 0.47860000
1.80480000 -0.06970000 0.62820000
1.87780000 -0.09990000 0.22300000
1.91150000 -0.07390000 0.06530000
1.99240000 0.06100000 0.17090000
1.87700000 -0.07100000 0.36890000
1.95510000 0.03900000 0.35530000
2.06690000 -0.08280000 0.85020000
2.01020000 -0.04130000 1.02820000
1.85470000 0.04040000 0.71520000
1.84950000 0.11290000 0.84230000
2.17350000 -0.01670000 0.64330000
2.23870000 0.06490000 0.54070000
2.17550000 0.09610000 0.79830000
2.25340000 0.23200000 0.72930000
1.88720000 -0.01010000 0.51470000
1.97100000 0.13000000 0.52670000
2.03360000 0.18810000 0.39060000
1.96050000 0.24250000 0.75230000
2.02360000 0.28280000 0.62910000
2.07870000 0.30900000 0.45960000
2.31670000 0.11360000 0.13660000
2.29760000 0.10260000 0.30150000
2.39410000 0.31350000 0.00470000
1.99030000 0.04450000 -0.01950000
2.04590000 0.15470000 -0.15300000
2.09020000 0.23570000 0.09670000
2.12360000 0.30850000 -0.03890000
2.37300000 0.25990000 -0.16240000
2.36300000 0.26370000 -0.29010000
2.08970000 0.25830000 -0.22940000
2.15180000 0.39310000 -0.18330000
2.30480000 0.16340000 0.41090000
2.37020000 0.27700000 0.24160000
2.30700000 0.24560000 0.55790000
2.37980000 0.41540000 0.46650000
2.41120000 0.41570000 0.24500000
2.45160000 0.53190000 0.02010000
2.45420000 0.57700000 0.19240000
2.08620000 0.25390000 0.26640000
2.15550000 0.40200000 0.19410000
2.14850000 0.45390000 0.40500000
2.19990000 0.55460000 0.31450000
2.19550000 0.49200000 0.01940000
2.21550000 0.56500000 -0.11680000
2.20990000 0.54570000 0.17450000
2.27520000 0.76890000 0.07230000
2.12610000 0.37960000 -0.34270000
2.19480000 0.53250000 -0.24540000
2.26600000 0.12600000 -0.56240000
2.34530000 0.30440000 -0.48170000
2.11390000 0.03210000 -0.90460000
2.21780000 0.11740000 -0.72090000
2.19320000 0.22210000 -0.90620000
2.11490000 0.17740000 -1.04230000
2.07220000 0.25140000 -1.17800000
1.79950000 0.27190000 -1.10990000
1.90330000 0.30080000 -0.94660000
1.99330000 0.21370000 -1.28760000
2.03500000 0.37610000 -1.31320000
2.19860000 0.40580000 -1.02820000
2.14290000 0.44980000 -1.16740000
2.27710000 0.29530000 -0.73810000
2.33750000 0.37630000 -0.61270000
2.24580000 0.36320000 -0.88970000
2.32540000 0.47270000 -0.74740000
2.32100000 0.64500000 -0.86970000
1.93740000 0.22390000 -0.78660000
2.01120000 0.46740000 -0.86510000
2.01970000 0.37870000 -0.75160000
1.94050000 0.47060000 -1.01920000
2.15570000 0.61410000 -1.21660000
2.26660000 0.70080000 -1.02890000
2.05810000 0.68720000 -0.92230000
2.01540000 0.73730000 -1.03750000
1.89460000 0.56480000 -1.16000000
2.08870000 0.59550000 -0.78030000
2.21870000 0.76600000 -1.15340000
2.11700000 0.81490000 -1.34160000
2.40800000 0.43920000 -0.32930000
2.40140000 0.54180000 -0.51310000
2.44670000 0.53080000 -0.14580000
2.45990000 0.64250000 -0.28360000
2.49640000 0.75480000 -0.02340000
2.27880000 0.79900000 -0.11830000
2.49980000 0.88460000 -0.27650000
2.46540000 0.76230000 -0.39740000
2.10300000 0.42680000 -0.54450000
2.17260000 0.53640000 -0.40040000
2.12180000 0.56920000 -0.65790000
2.17240000 0.61760000 -0.52630000
2.16180000 0.76870000 -0.70680000
2.39830000 0.68280000 -0.64940000
2.37880000 0.78350000 -0.77460000
2.23420000 0.91460000 -0.57120000
2.14830000 0.90540000 -0.83790000
2.24600000 0.75680000 -0.33320000
2.31110000 0.99070000 -0.23620000
2.28870000 0.96540000 -0.36590000
2.47210000 0.92030000 -0.48250000
2.42630000 0.95460000 -0.69580000
2.29460000 1.18610000 -0.52800000
2.27540000 1.28040000 -0.66190000
2.35860000 0.96330000 -0.90770000
2.27240000 0.96660000 -1.10390000
2.33680000 1.11970000 -0.99930000
2.06350000 0.95690000 -1.05550000
2.18710000 1.31410000 -0.92700000
2.12400000 1.24560000 -1.03610000
2.26290000 1.18870000 -1.16210000
2.48870000 1.14330000 -0.51840000
2.45780000 1.13570000 -0.64920000
2.42140000 1.20620000 -0.78920000
2.39540000 1.32860000 -0.87510000
2.22540000 1.27030000 -0.81150000
2.34050000 1.35270000 -1.01080000
1.67890000 0.12350000 -1.16740000
1.70140000 0.23470000 -1.23360000
1.66600000 0.34190000 -1.35550000
1.79470000 0.40630000 -1.22070000
1.90710000 0.46230000 -1.52820000
2.03960000 0.57480000 -1.38760000
1.75690000 0.48800000 -1.32340000
1.62910000 0.45310000 -1.46120000
1.53590000 0.57690000 -1.61230000
1.69660000 0.63170000 -1.46420000
1.59450000 0.72470000 -1.60810000
1.83440000 0.73530000 -1.33240000
1.95630000 0.80960000 -1.18250000
1.74920000 0.88610000 -1.49490000
1.91320000 0.65940000 -1.58200000
2.00210000 0.74630000 -1.49110000
1.77180000 0.73710000 -1.75430000
1.85360000 0.83160000 -1.68790000
1.97340000 0.91020000 -1.56210000
2.20530000 1.01490000 -1.24280000
2.11620000 1.04220000 -1.38830000
1.84750000 0.95160000 -1.39450000
1.95750000 0.97610000 -1.24580000
1.64610000 0.89180000 -1.60870000
1.80740000 1.01670000 -1.76500000
1.72820000 1.27750000 -1.60720000
1.82770000 1.29790000 -1.50000000
1.97750000 1.11110000 -1.58640000
1.89520000 1.21140000 -1.68770000
1.40340000 0.68260000 -1.76350000
1.29690000 0.78920000 -1.87230000
1.51660000 0.80740000 -1.70700000
1.14410000 0.84240000 -1.98260000
1.68770000 0.98510000 -1.87470000
1.43410000 0.93070000 -1.80800000
1.49970000 0.97990000 -2.02450000
1.31170000 1.04850000 -2.15620000
1.30720000 0.95810000 -1.90700000
1.19420000 0.97800000 -1.98400000
1.07270000 1.08920000 -2.06730000
1.33770000 1.17330000 -1.92190000
1.19250000 1.30790000 -2.03420000
1.45680000 1.19780000 -2.06810000
1.25340000 1.21740000 -2.19570000
1.58220000 1.10260000 -1.71780000
1.49490000 1.23130000 -1.81550000
1.75270000 1.21140000 -1.83090000
1.61310000 1.18100000 -1.95120000
1.85570000 1.39330000 -1.72150000
1.74100000 1.36200000 -1.83510000
1.32050000 1.43680000 -1.97760000
1.50400000 1.39050000 -2.02770000
1.36930000 1.38150000 -2.12070000
1.60890000 1.43910000 -1.94300000
1.51840000 1.40640000 -1.82510000
2.03740000 1.24170000 -1.19400000
1.91780000 1.20920000 -1.36580000
2.16910000 1.19650000 -1.32670000
2.10280000 1.26990000 -1.42860000
2.22890000 1.36300000 -1.22930000
2.16080000 1.44120000 -1.32990000
2.02730000 1.30240000 -1.52960000
1.95270000 1.37880000 -1.61600000
1.94560000 1.46260000 -1.38930000
1.83360000 1.48910000 -1.53550000
1.89930000 1.52620000 -1.65720000
2.05290000 1.51440000 -1.47450000
1.95820000 1.55330000 -1.57960000
2.16790000 1.44610000 -1.01180000
2.29210000 1.38920000 -1.11070000
2.07630000 1.49840000 -1.21130000
2.03190000 1.47850000 -1.27230000
2.32300000 1.53160000 -1.02210000
2.23120000 1.52340000 -1.19890000
2.24660000 1.55000000 -1.16040000
2.28250000 1.56500000 -1.07470000
2.16900000 1.50730000 -1.04220000
2.20500000 1.54640000 -1.00200000
2.10190000 1.55500000 -1.20500000
2.17640000 1.55860000 -1.27090000
2.11940000 1.57980000 -1.32550000
2.22810000 1.57470000 -1.16160000
2.25510000 1.58200000 -1.08800000
2.21330000 1.59010000 -1.11660000
2.21380000 1.58720000 -1.15500000
2.14360000 1.58860000 -1.24270000
2.10390000 1.58640000 -1.27290000
2.15150000 1.57440000 -1.14960000
2.23560000 1.58640000 -1.04150000
2.12390000 1.54320000 -1.36460000
2.05510000 1.55630000 -1.45540000
1.98180000 1.53890000 -1.37580000
2.04970000 1.57150000 -1.32120000
1.98080000 1.57470000 -1.41790000
2.01140000 1.58870000 -1.45130000
2.06370000 1.58880000 -1.36580000
2.02230000 1.58160000 -1.46730000
1.98740000 1.56890000 -1.53030000
1.87000000 1.54560000 -1.52190000
1.92160000 1.58640000 -1.56970000
1.86520000 1.58010000 -1.56590000
1.87700000 1.58880000 -1.57870000
1.65320000 1.46980000 -1.72100000
1.78250000 1.52170000 -1.77990000
1.64260000 1.54190000 -1.89980000
1.86200000 1.55960000 -1.68180000
1.88160000 1.58180000 -1.63190000
1.69370000 1.53620000 -1.70530000
1.71640000 1.56590000 -1.70550000
1.77480000 1.58910000 -1.71140000
1.75170000 1.55230000 -1.79600000
1.71180000 1.58480000 -1.74500000
1.64470000 1.58880000 -1.83740000
1.74280000 1.58160000 -1.76550000
1.76860000 1.57040000 -1.76140000
1.41230000 1.50040000 -1.92960000
1.53070000 1.49540000 -1.83730000
1.55300000 1.53710000 -1.83380000
1.58170000 1.57350000 -1.93110000
1.64020000 1.58370000 -1.86540000
1.51640000 1.58930000 -1.95810000
1.54260000 1.54410000 -1.98180000
1.36390000 1.53880000 -2.10940000
1.41820000 1.56480000 -2.06410000
1.43580000 1.58340000 -2.03470000
1.40790000 1.55300000 -1.95600000
1.54270000 1.57250000 -1.87090000
1.40990000 1.57940000 -1.97840000
1.53570000 1.58990000 -1.91300000
1.36550000 1.59010000 -2.07090000
1.33710000 1.59300000 -2.05730000
2.18100000 0.26640000 0.97130000
2.15530000 0.37580000 1.10850000
2.03560000 0.31500000 1.28040000
2.08800000 0.42400000 1.25910000
2.11870000 0.10830000 0.95820000
1.85390000 0.21170000 0.95250000
1.88420000 0.35850000 1.04330000
2.24380000 0.35670000 0.89510000
2.31830000 0.36740000 0.67310000
1.97640000 0.37670000 0.87090000
2.07080000 0.41760000 0.66500000
2.06480000 0.54630000 0.82040000
1.87520000 0.50430000 1.16430000
1.85990000 0.68080000 1.28790000
1.97710000 0.55780000 1.02120000
2.27350000 0.47380000 0.90560000
2.18840000 0.54940000 1.13650000
2.29250000 0.65080000 0.95940000
2.09680000 0.72930000 0.88200000
2.10410000 0.92090000 0.98370000
2.39140000 0.55240000 0.57590000
2.34830000 0.57810000 0.75750000
2.45380000 0.68780000 0.38930000
2.49030000 0.78160000 0.23070000
2.45520000 0.80500000 0.51000000
2.13830000 0.59380000 0.65220000
2.20590000 0.63820000 0.43630000
2.21940000 0.85190000 0.62040000
2.26320000 0.75890000 0.24460000
2.24040000 0.76550000 0.42280000
2.30350000 0.97020000 0.32950000
2.41080000 0.78730000 0.68410000
2.15680000 0.84280000 0.81040000
2.36070000 0.80500000 0.85580000
2.45210000 0.92730000 0.61340000
2.43610000 1.05800000 0.73320000
2.48930000 1.12130000 0.53560000
2.21810000 1.00530000 0.74510000
2.27620000 0.95750000 0.48350000
2.28650000 1.18160000 0.62040000
2.33980000 1.26430000 0.42890000
2.02610000 0.58790000 1.42030000
1.98450000 0.80780000 1.15450000
2.05660000 0.79810000 1.44150000
2.16900000 0.75400000 1.25130000
1.87880000 0.96090000 1.38230000
2.26410000 0.81760000 1.09670000
2.20730000 1.05640000 1.27130000
1.98490000 0.96900000 1.22770000
2.08840000 1.03300000 1.07300000
1.76440000 0.90030000 1.50670000
2.00120000 1.06290000 1.57560000
2.11800000 1.02580000 1.40880000
1.99390000 1.21750000 1.30300000
2.09910000 1.29570000 1.15210000
2.09640000 1.26950000 1.47740000
1.72880000 1.01280000 1.58390000
1.83220000 1.10190000 1.49020000
1.95760000 1.37610000 1.40580000
2.35160000 0.97610000 0.95060000
2.29380000 1.11030000 1.12190000
2.38030000 1.19180000 0.93840000
2.45170000 1.24960000 0.73310000
2.18810000 1.12740000 0.89430000
2.30600000 1.39900000 0.68680000
2.24610000 1.30510000 0.82570000
2.32700000 1.32890000 1.08460000
2.18450000 1.23960000 1.34050000
2.26320000 1.30170000 1.21190000
2.30980000 1.45140000 1.11670000
2.38940000 1.38880000 0.93630000
2.44200000 1.41360000 0.78160000
2.39360000 1.53290000 0.90570000
2.16950000 1.28610000 1.00810000
2.26030000 1.48680000 0.87180000
2.18930000 1.51500000 1.06280000
2.25320000 1.54260000 0.93490000
2.33610000 1.54980000 1.03430000
2.40860000 1.56660000 0.82570000
2.31050000 1.55170000 0.78510000
2.29970000 1.57650000 0.85780000
2.32300000 1.58610000 0.97320000
2.34710000 1.57650000 0.95260000
2.32130000 1.59680000 0.91790000
2.39070000 1.59150000 0.79170000
2.38540000 1.59530000 0.73410000
2.34240000 1.59200000 0.80220000
2.52510000 0.98980000 0.15870000
2.52180000 0.92560000 -0.01100000
2.31770000 0.95610000 -0.05730000
2.31940000 0.97350000 0.16190000
2.37290000 1.26090000 0.02560000
2.53120000 1.05900000 -0.16450000
2.55080000 1.20930000 0.01530000
2.50230000 0.94890000 0.35870000
2.53770000 1.18150000 0.23580000
2.37050000 1.28990000 0.20960000
2.51910000 1.25630000 0.43040000
2.54830000 1.27440000 -0.16110000
2.55680000 1.36220000 0.09290000
2.54410000 1.34970000 0.28360000
2.55300000 1.38700000 -0.11530000
2.54990000 1.48930000 -0.03820000
2.55000000 1.49730000 0.11300000
2.36400000 1.24780000 -0.14740000
2.51790000 1.19050000 -0.37460000
2.35520000 1.28920000 -0.29180000
2.33440000 1.28630000 -0.42070000
2.39040000 1.47720000 -0.26960000
2.41730000 1.51020000 0.04150000
2.40900000 1.48890000 -0.08580000
2.42460000 1.54300000 -0.11640000
2.39560000 1.52920000 -0.32330000
2.49280000 1.36600000 -0.54350000
2.45100000 1.41840000 -0.70210000
2.52710000 1.40860000 -0.34840000
2.48070000 1.50260000 -0.57120000
2.26670000 1.47490000 -0.79300000
2.35890000 1.47370000 -0.45680000
2.34440000 1.50660000 -0.55450000
2.51030000 1.52700000 -0.41360000
2.47430000 1.54570000 -0.56890000
2.38490000 1.57980000 -0.60190000
2.35100000 1.56240000 -0.64670000
2.34570000 1.54230000 -0.60630000
2.39560000 1.57260000 -0.50180000
2.43850000 1.58320000 -0.57460000
2.40260000 1.58350000 -0.63140000
2.30300000 1.52700000 -0.73790000
2.36140000 1.57320000 -0.67210000
2.30410000 1.55590000 -0.78560000
2.39920000 1.51640000 -0.84120000
2.37310000 1.54780000 -0.89160000
2.39090000 1.56410000 -0.81570000
2.26140000 1.53530000 -0.86070000
2.34780000 1.56970000 -0.91790000
2.36260000 1.58200000 -0.83630000
2.33180000 1.58730000 -0.86760000
2.43580000 1.52860000 -0.72860000
2.45280000 1.54290000 -0.65090000
2.43270000 1.55330000 -0.69350000
2.45400000 1.56820000 -0.59340000
2.42150000 1.57700000 -0.64250000
2.40350000 1.57250000 -0.70060000
2.41510000 1.55370000 -0.76500000
2.39870000 1.57380000 -0.75320000
2.33650000 1.57010000 -0.74950000
2.36860000 1.58440000 -0.78730000
2.36800000 1.57900000 -0.74450000
2.33910000 1.58370000 -0.79870000
2.30320000 1.58030000 -0.86050000
2.37770000 1.57870000 -0.68220000
2.53560000 1.47010000 -0.25350000
2.47280000 1.56840000 -0.50930000
2.49640000 1.56280000 -0.41110000
2.51270000 1.54630000 -0.35880000
2.53390000 1.51860000 -0.19540000
2.51090000 1.55680000 -0.24990000
2.49850000 1.57020000 -0.31580000
2.46450000 1.58660000 -0.39130000
2.48800000 1.57970000 -0.36350000
2.45290000 1.58630000 -0.48390000
2.46900000 1.58440000 -0.31830000
2.44940000 1.57540000 -0.28160000
2.43570000 1.58350000 -0.39810000
2.41450000 1.55760000 -0.31650000
2.53320000 1.54600000 -0.10170000
2.50400000 1.57320000 -0.14370000
2.52150000 1.56710000 -0.06910000
2.50020000 1.58220000 -0.06280000
2.44300000 1.56760000 0.03430000
2.46180000 1.57980000 -0.04200000
2.44660000 1.56790000 -0.15000000
2.47680000 1.58030000 -0.12830000
2.42570000 1.55440000 -0.22470000
2.46380000 1.57290000 -0.20630000
2.48970000 1.57570000 -0.22560000
2.39000000 1.55710000 -0.45230000
2.41840000 1.58710000 -0.55210000
2.48520000 1.38820000 0.61780000
2.51620000 1.40160000 0.46860000
2.53920000 1.46530000 0.28540000
2.38590000 1.48810000 0.37210000
2.51090000 1.53040000 0.45970000
2.35130000 1.45050000 0.53460000
2.36100000 1.53030000 0.57640000
2.39430000 1.56290000 0.48970000
2.40390000 1.53190000 0.32310000
2.41610000 1.56840000 0.37210000
2.40420000 1.48220000 0.18260000
2.54640000 1.53720000 0.04150000
2.53670000 1.53550000 0.25160000
2.53590000 1.55900000 0.12820000
2.52500000 1.56940000 0.21360000
2.51690000 1.58260000 0.13450000
2.52440000 1.55250000 0.32180000
2.42260000 1.55020000 0.22840000
2.50550000 1.58530000 0.25820000
2.50340000 1.57940000 0.35160000
2.44020000 1.57730000 0.24960000
2.48680000 1.59210000 0.23200000
2.46940000 1.58830000 0.12270000
2.46230000 1.59190000 0.32470000
2.49600000 1.56500000 0.46900000
2.47710000 1.58560000 0.46910000
2.47070000 1.59340000 0.40410000
2.43890000 1.58750000 0.38720000
2.44450000 1.53280000 0.74980000
2.48030000 1.53430000 0.60840000
2.45980000 1.56550000 0.65010000
2.44080000 1.57860000 0.68730000
2.45020000 1.58770000 0.59690000
2.42420000 1.59460000 0.64680000
2.33170000 1.52240000 0.68090000
2.35740000 1.56560000 0.65630000
2.39520000 1.59060000 0.63030000
2.38950000 1.57710000 0.56200000
2.35160000 1.58190000 0.72350000
2.43610000 1.59360000 0.48150000
2.42120000 1.58460000 0.45980000
2.41090000 1.58930000 0.54490000
2.43730000 1.59510000 0.54250000
2.43350000 1.55990000 0.13520000
2.53400000 1.56590000 0.02870000
