3.74030995 9.14031029 -18.49986076
4.24469995 9.15380955 -18.72093010
3.36494994 9.39243031 -18.15983963
-8.99499035 -2.98418999 -7.62635994
-0.47598001 6.12993002 -16.97645950
7.07940006 13.32509995 -17.50233078
-9.24911976 -3.25617003 -7.57701015
8.63753986 1.34765995 21.33192062
9.04566002 1.23302996 21.84732056
-8.95911026 6.25824022 -5.11550999
1.60446000 6.17910004 -18.93269920
3.50862002 -7.24617004 17.70509911
-11.29238987 -8.02404022 -3.91142988
6.31536007 15.18488979 -13.72461033
5.90466022 15.32703018 -13.22447968
-7.93377018 -11.94023991 -2.00924993
-6.81921005 -11.21129990 7.61421013
-8.59424973 -10.12434006 -2.17499995
-8.64990044 -9.93885040 -2.51388001
-8.66285992 -9.76418972 -3.09711003
0.19287001 9.43445969 14.86758041
-9.29036999 5.55011988 -5.82506990
-9.33627033 5.87135983 -5.49845982
-4.82288980 -10.91057968 -10.62740993
-3.78255010 -11.54736042 -11.35842037
5.40797997 0.46335000 -21.12731934
6.13409996 0.17088000 -21.51845932
6.12192011 0.78408003 -21.49004936
6.21174002 0.45297000 -21.55047035
1.45497000 17.07563972 -6.34773016
1.06692004 16.69041061 -6.89132977
-8.63195992 9.43377018 -1.00532997
-6.07952976 -8.96183968 -10.05743980
-6.22869015 7.76628017 7.20330000
-9.25662041 9.10151958 -0.33239999
-8.99645996 9.19740009 -0.41975999
-8.79582024 9.29559040 -0.51156002
-8.32676983 -3.74993992 9.52571964
-8.72381973 9.36620998 0.05988000
-11.05265999 -3.02934003 -7.35878992
-10.91703033 -2.23233008 -7.62015009
-5.52617979 -4.59935999 -13.66347027
-9.38481045 9.03458977 -0.53246999
-11.33543968 3.43188000 -7.31732988
-11.32509041 -0.30066001 -8.49584961
-8.61830997 -2.77953005 -6.90821981
-8.65433979 -2.72634006 -7.34087992
7.40709019 11.43362999 -19.21029091
7.30952978 11.65919971 -19.00200081
0.56336999 -11.83952999 -15.72984028
7.27074003 -12.98118019 -18.82056046
-10.60019970 6.41417980 -4.58027983
1.79373002 16.62747002 -7.80453014
-1.55901003 1.17131996 16.75353050
3.07229996 -18.35162926 6.35135984
2.98100996 -18.45009041 5.95772982
-11.54817009 -5.47446012 -6.32340002
-9.05198956 -4.00232983 8.84496021
-8.53398037 2.92875004 7.93725014
-8.53967953 3.20562005 7.84413004
8.57942963 -16.32900047 15.07884026
-11.36832047 -8.65248013 0.91694999
-9.04874992 -3.01653004 8.13693047
-9.93558025 -1.66533005 8.40017986
-3.93630004 6.66687012 -14.25008965
-4.00329018 6.41652012 -14.37378025
-3.83003998 6.61347008 -14.42018986
-4.18866014 6.44562006 -14.16090012
-4.12056017 6.81698990 -14.01681042
-3.83838010 6.82842016 -14.29854012
-5.01417017 -5.57028008 -14.00891972
6.34043980 -21.20471954 3.26504993
6.52404022 -21.33437920 2.98194003
7.57856989 -13.43562031 16.04726982
7.45034981 20.24288940 -4.02825022
-10.93190956 -3.42992997 8.00858974
-5.57750988 -3.89552999 -13.79979038
-5.59320021 -3.34341002 -13.90482044
-5.90700006 -3.28302002 -13.41954041
7.92227983 20.61236954 -6.34806013
7.74074984 20.54825974 -6.18812990
7.98534012 20.67914963 -6.12231016
7.73543978 20.30756950 -7.07280016
-5.64215994 7.85787010 -11.09543991
7.87772989 20.73117065 -5.83769989
7.80005980 -20.91324043 7.24341011
8.10461998 20.82506943 -5.88921022
8.16882038 20.79290962 -6.16098022
-2.93547010 -3.95867991 -16.44956970
4.60097980 -20.71628952 -1.72802997
4.77006006 -20.81151009 -1.24614000
9.02480984 18.25731087 10.85601044
4.72880983 -20.81565094 -0.66317999
3.07698011 -7.28426981 17.54126930
3.08574009 -8.17640972 17.15625000
-8.24501991 -1.14833999 8.33885956
8.50310993 -10.52460003 19.24715996
8.37561035 -10.61106014 19.11401939
-10.97111988 -7.19576979 5.95250988
8.57993984 -20.34633064 8.77449036
-7.35441017 -6.15000010 -1.72733998
-7.39092016 -5.52921009 -2.14032006
-7.42503023 -5.12937021 -1.78284001
-7.35695982 -6.02109003 -0.90618002
-8.52180004 -3.39389992 7.94889021
0.58653003 -13.69680023 13.20438004
-8.59877968 -3.13098001 8.04975033
-7.37660980 -5.48682022 -2.75814009
-7.40277004 -5.03844023 -2.58657002
7.00484991 2.78366995 -22.52474976
6.80849981 3.15807009 -22.37511063
6.98099995 3.14990997 -22.47396088
7.09955978 3.12527990 -22.51877975
6.94904995 -9.32423973 -20.16222000
2.96201992 2.67359996 -20.54754066
3.64860010 2.15526009 -20.92190933
-8.86112976 5.45318985 6.38864994
3.93287992 3.58331990 -20.80149078
-7.30056000 2.46224999 -6.75194979
3.85155010 4.76075983 -20.47158051
3.72033000 5.09496021 -20.32938004
-1.44474006 1.97028005 16.74482918
-8.27826023 7.22081995 -0.97004998
-8.28483009 7.46607018 -1.16375995
-8.30469036 7.64768982 -1.28033996
-8.30714989 7.86935997 -0.76358998
4.02009010 5.13092995 -20.43408012
7.14093018 -17.15517044 -13.83837032
7.89242983 14.36499023 14.43626976
7.83761978 13.76220036 15.05891991
-0.47444999 8.22354031 -15.92304039
7.60860014 14.21982002 14.45145035
7.32932997 14.38290024 14.09642982
7.88051987 14.24079037 14.58255005
-8.72970009 -8.12687969 -2.26946998
-6.17784023 11.24205017 -2.77131009
-3.29048991 13.10645962 8.07938957
4.50249004 2.25693011 19.19639969
-2.35250998 16.00802994 2.12393999
-5.43770981 -0.53855997 -14.42825985
-5.01398993 -0.25964999 -14.93585968
7.47353983 -17.93832016 -14.13438034
7.37886000 -17.62595940 -14.57579994
7.44954014 -17.54013062 -14.68449020
-4.34241009 -0.16005000 -15.68169022
7.70948982 -21.71385002 -1.16268003
7.61907005 19.18091965 -8.10095978
7.98446989 19.44186020 -8.22126007
8.32592964 21.21542931 -4.55573988
8.32446003 21.33392906 -4.09328985
7.82037020 19.40366936 -7.97127008
8.94120026 14.66996956 15.64101028
1.98678005 10.61919022 -15.67148972
8.10089970 19.77071953 -9.05537987
8.16020966 17.42168999 -13.01838017
8.16711044 17.47941017 -13.03211975
-4.74798012 1.16697001 14.08806038
-9.82686043 -8.00109005 -4.68986988
-9.87864017 -5.73360014 -7.12857008
-9.83759975 -6.28226995 -6.68451023
-11.33502007 3.95534992 -7.19750977
-11.27649021 4.50275993 -7.00730991
-8.42823029 1.80147004 -11.04590988
5.73836994 -20.73704910 4.29471016
-2.51580000 -2.18301010 16.06679916
-2.35547996 2.14949989 17.11614037
6.91722012 19.52339935 4.73046017
-10.23252010 8.81052017 1.72236001
7.13360977 14.59212017 -16.25909996
7.46930981 14.65713024 -16.44165039
-9.61293030 -6.87386990 5.30405998
0.52107000 10.34049034 15.33390045
-3.09443998 15.67988968 -0.84126002
-7.60031986 0.40314001 -1.88174999
-7.57971001 0.41712001 -2.49282002
-8.36705971 -7.31561995 3.96594000
-8.34156036 -6.94238997 4.66379976
-8.92292976 7.95837021 2.09318995
-1.37763000 -16.22229004 6.40431023
7.21832991 -6.00114012 19.71455956
7.22429991 -6.68882990 19.49172020
6.79898977 -5.85599995 19.55435944
-11.51418018 -6.27123022 -5.87774992
3.39978004 -18.64673996 5.82782984
3.04526997 -18.59510994 5.62919998
2.66823006 -18.18330002 6.32727003
7.16591978 7.97393990 -20.43680954
-4.75979996 -12.62796021 -8.57868004
-5.08658981 -11.76737976 -9.14334011
-6.28394985 -11.37399006 -5.76824999
3.53235006 -12.35768986 15.74487019
2.62362003 -12.07083035 15.56927967
-1.29992998 8.66166019 15.44678974
2.30679011 15.61439991 10.81632042
-8.51364040 2.78325009 -2.30835009
-0.37323001 14.68196964 -9.56072998
-5.56622982 -15.39867020 -1.43013000
8.37279034 20.75279999 -4.82097006
8.49405003 20.84903908 -4.98951006
8.54279995 20.99168968 -4.81467009
-11.45178032 -4.71288013 -7.20980978
-6.13986015 -12.36705017 2.01201010
4.39694977 -11.47572041 15.86699963
1.02672005 17.58204079 3.43332005
0.61917001 17.61944962 2.18936992
0.84443998 17.65835953 2.49798012
-4.80588007 6.58722019 12.26906967
1.07468998 17.70033073 2.90867996
-5.09517002 -14.45007038 1.07421005
8.53367996 21.22007942 -0.53426999
-8.74724960 -8.38799953 5.36156988
-8.58432007 -3.42569995 -4.24413013
-11.06610012 -8.33082008 1.47666001
-11.08220959 -8.37804031 1.03097999
7.82739019 -22.09709930 2.83872008
7.87709999 -22.06476021 3.07196999
8.32044029 -22.30746078 2.29548001
8.28750038 -22.19669914 3.18161988
6.16623020 19.94450951 -0.77778000
5.97218990 19.87409973 -1.17062998
-8.98941040 7.73106003 -2.51358008
8.27025032 -22.21248055 2.83803010
3.72969007 8.03616047 18.01230049
-8.43414021 6.67925978 -3.95504999
-8.46656990 6.60761976 -4.24722004
-8.41269016 6.37451982 -4.28288984
-8.38694954 6.23690987 -4.22186995
-8.40207005 6.51405001 -3.90402007
-8.37281990 6.48255014 -3.63453007
-8.39264965 6.88751984 -3.54872990
6.20312977 19.72302055 2.54250002
-4.90740013 -6.31125021 12.68379021
-5.64920998 -8.30928040 10.05035973
-5.69181013 -8.98097992 9.42296982
-8.45345974 3.32643008 -10.45022964
-8.41448975 3.69413996 -10.47161961
-8.48003960 2.93342996 -10.61277008
-10.96370983 0.57503998 8.92119026
-4.24863005 -0.08844000 14.72507954
-8.23097992 -5.36913013 9.00479984
5.25984001 -13.23785973 14.96208000
-5.46092987 -14.90192986 3.90305996
-5.41833019 -15.06317997 3.51162004
-4.02051020 -15.52703953 -2.78709006
-6.65502024 -6.53789997 6.89658022
4.52654982 -18.42168045 7.54454994
8.74491024 17.05172920 12.08903980
8.40182972 16.88306999 11.87016010
-6.59949017 2.79549003 -14.09130001
-6.80880022 2.86818004 -13.76076031
3.99879003 4.51250982 19.33559990
7.40822983 5.27571011 -21.92205048
7.40601015 5.83929014 -21.63846016
-8.48952007 9.40730953 -2.38793993
9.03287983 -7.67513990 20.50683022
9.03236961 -7.33362007 20.56835938
9.03582001 -6.90542984 20.76972008
9.01461029 -6.89213991 20.87030983
-9.24987030 -7.88883018 -5.26052999
-8.40054035 9.60507011 -2.39418006
6.17549992 -0.49827000 20.72978973
6.62240982 -0.65898001 20.91596985
-0.97482002 -17.50769997 2.70638990
-10.09823990 8.91573048 -0.28020000
-9.68780994 8.98838997 -0.22437000
-10.76889038 8.74596024 -0.26694000
-10.44017982 8.85591030 -0.13050000
4.12277985 7.74453020 -18.59540939
7.48212004 8.99333954 -20.53916931
7.52126980 9.11997032 -20.43357086
8.72375965 -10.51889992 19.35848999
8.82600021 -10.62819004 19.33476067
7.43508005 6.88737011 -21.41378975
8.85618019 -11.32176018 18.93585014
8.36394024 -11.51364040 18.61017036
8.72774982 -11.62403965 18.75645065
8.71512032 -11.36505032 18.87474060
4.75199986 1.89792001 -21.42956924
1.52967000 -1.18880999 -20.15270996
8.34521961 -11.35410023 18.70529938
0.40292999 -15.55566025 10.92473984
8.79395962 -8.36474991 20.39666939
8.74806023 -8.02952957 20.49638939
8.48966980 -7.99896002 20.38658905
-6.28023005 -11.96294975 1.90799999
-8.20151997 -3.13098001 7.08645010
-8.21240997 -2.76395988 6.86778021
-8.17698002 -2.34914994 7.42865992
-4.77980995 14.40548992 -5.59226990
-8.24664021 -4.77098989 6.19881010
7.19690990 7.74801016 -21.18753052
-10.61213970 6.28358984 6.54006004
-10.34084988 6.36017990 6.58025980
6.76908016 -18.09303093 -12.01025963
7.22183990 -18.26330948 -12.41792965
-8.44419003 8.45322037 4.66764021
7.60877991 13.14441013 15.50049019
8.11791039 13.30700970 15.66384029
7.96790981 13.42364979 15.43988991
-2.25006008 -2.28195000 -18.20445061
8.56875038 13.36686039 15.92201996
8.70510006 13.38831043 16.02380943
-7.93010998 10.64762974 2.34852004
-7.85793018 10.66512012 2.86290002
5.98343992 16.99328995 9.66092968
6.71223021 -7.45062017 -21.44558907
-6.13127995 7.92108011 7.58108997
-8.43303013 -8.04716969 1.72446001
-8.41044044 -7.84538984 2.03630996
-8.52939034 -8.31348038 1.13529003
-8.45168972 -8.16164970 1.33983004
-11.42901039 0.89342999 -8.06970024
-11.40974998 1.42323005 -8.06774998
6.88751984 14.15075970 14.04170990
-5.06021976 -7.81454992 11.68661976
-5.16662979 -7.55982018 11.65742970
-7.39877987 3.23327994 -4.36977005
-7.45076990 2.81108999 -4.18479013
-8.63733006 2.19303012 -7.56101990
-8.76828003 1.94555998 -7.74585009
-4.30259991 2.41140008 -16.62866974
3.42072010 12.78645039 -15.60146999
3.21539998 18.27243042 3.97545004
2.98904991 18.33773994 3.39210010
3.35303998 18.43178940 3.51893997
7.22573996 -17.06135941 -14.12495995
-7.30535984 -6.00548983 -4.68618011
-7.34780979 -5.56707001 -4.50597000
3.63630009 15.17613029 -13.07855988
5.02523994 -13.61526012 15.41969967
8.57063961 -15.04992008 16.26309013
8.49491978 -15.75932980 15.58854008
8.70662975 -15.60509968 15.82812023
8.58273029 -15.44414997 15.91563034
8.39249992 -15.42864037 15.80844021
-10.92747021 5.90490007 -6.31815004
-9.42422962 9.05420971 0.54440999
-10.52538013 5.45672989 -6.85973978
-7.80093002 10.02810001 4.85102987
-7.85934019 9.66401958 5.19351006
-7.68225002 10.02245998 5.36634016
8.25498009 3.95559001 20.63898087
7.94720984 3.91068006 20.45862007
-8.17473030 7.35615015 2.07732010
-8.18340015 7.37967014 2.43881989
-8.17502975 7.14008999 2.06343007
-7.93844986 9.84414005 4.48284006
-10.89387035 0.46527001 8.63714981
-8.42988014 7.93004990 1.87919998
-8.46374989 7.88402987 2.23190999
-9.16224003 -8.39181042 -1.73804998
-9.08376026 -8.43947983 -1.47651005
7.23374987 -10.77521992 -20.21523094
-2.06891990 8.30132961 -15.98855972
7.36668015 4.07618999 -22.11396027
-0.01173000 11.37782955 -15.02420998
-10.11017990 -1.09677005 9.43043995
9.05508041 -6.48029995 20.97950935
8.96103001 -7.01274014 20.88228035
-2.94051003 1.62345004 -16.73088074
5.98395014 -7.53699017 19.34778023
6.60927010 -7.20753002 19.72538948
5.53938007 -0.52980000 19.72392082
5.29617023 -0.24822000 19.62981033
-3.30350995 14.27540970 5.78891993
9.12699032 14.79563999 15.14766026
-8.31050968 -3.29948997 7.80597019
8.65649986 20.28807068 5.77395010
8.48429966 20.24958038 5.38361979
-6.50441980 -10.12329006 4.29603004
-7.64193010 9.88613987 5.81121016
2.05772996 -16.77743912 -11.24717999
1.00641000 -16.18598938 -11.36363983
0.34044001 -15.85634995 -11.37294006
0.94092000 -15.69143963 -12.02208042
-0.44757000 4.51791000 -18.47562027
8.99666977 -2.69798994 21.88647079
9.04080009 -2.51586008 21.83066940
-9.05070019 -8.56682968 1.18539000
-9.21813011 -8.59424973 0.75522000
4.00191021 8.78859043 -17.95643997
1.21310997 16.67960930 -9.07584000
1.69437003 16.68227959 -9.44009972
-8.85000038 -2.47668004 -7.73673010
-8.70291042 -2.17358994 -7.72112989
-8.33154011 -2.45009995 8.13986969
-1.09704006 5.18064022 -16.98825073
8.73735046 -17.28977966 13.73643017
9.05420971 -4.41458988 21.52983093
8.31567001 -16.90101051 14.25866985
8.41956043 -17.38857079 13.83111000
-7.80585003 -1.38962996 11.26605034
8.34624004 -17.83407021 13.20032978
-10.08738041 -2.48885989 9.16784954
9.22154999 13.02845955 16.96673965
9.17658043 13.03283978 17.06270981
8.45637035 12.02099991 16.99653053
-1.86543000 0.26286000 17.56389046
7.01360989 0.27846000 -22.79303932
-3.17252994 -10.98657036 -13.91880035
-4.95519018 -11.29257011 -9.98595047
4.10748005 -18.04241943 -10.74390030
-10.63761044 2.36241007 8.90699959
-8.22278976 8.02737045 5.98947001
-7.96143007 8.45520020 6.61623001
8.35007954 19.66653061 -8.65577984
7.31370020 -16.02953911 -16.30974007
7.09707022 -16.37711906 -15.80387974
7.24145985 -16.27454948 -16.03104019
7.21281004 -16.63364983 -15.64439964
4.45089006 -20.08997917 4.84394979
4.07813978 -20.02539062 4.59033012
-8.55228043 1.26920998 -6.22985983
-8.54115009 1.98474002 -5.79662991
5.44848013 19.23069000 -4.13123989
-8.88251972 -5.26949978 -6.35987997
-7.86810017 -3.40301991 10.77879047
-8.29271984 7.95306015 0.64679998
-7.25913000 -4.12139988 -13.06058979
6.32396984 5.80181980 -21.35549927
5.96828985 5.59571981 -21.20964050
5.53889990 5.60823011 -20.94401932
4.44401979 -19.04178047 5.94174004
5.24366999 5.77401018 -20.76605988
5.64989996 5.90363979 -20.93061066
-8.76935959 2.84412003 -9.44085026
2.58266997 11.21162987 -16.52679062
0.96933001 9.90624046 -15.62802029
-8.39381981 -7.29842997 4.24352980
8.72459984 3.41403008 21.67233086
8.42177963 3.87816000 21.39728928
-11.03592014 8.41248035 0.86640000
-7.05395985 7.00365019 -1.33902001
-4.58942986 -14.15390968 4.87631989
-11.44392014 -1.18736994 -7.97393990
-11.49575996 -2.08119011 -7.94369984
0.57195002 -14.62226963 -13.11332989
1.37571001 -15.73287010 -12.27989960
0.75542998 -15.24752998 -12.47457027
1.83572996 -15.33267021 -13.08584976
3.72525001 17.40903091 -7.72982979
-7.55319023 0.47262001 -0.95379001
-8.29479027 7.66161013 2.65160990
-8.21846962 7.56258011 2.59050012
-8.22045040 2.58555007 7.89950991
6.72638988 7.40670013 -21.06060028
6.56547022 -21.52667999 1.55100000
6.58691978 9.55074024 -19.86057091
-4.01642990 5.24639988 -14.90291977
-4.11699009 5.37947989 -14.75471973
-11.05605030 -4.58105993 7.65381002
-2.84784007 7.04657984 15.26171970
-7.97628021 -11.71185017 1.94496000
-8.25035954 -11.20619965 -2.12964010
-3.52838993 -13.86378002 -8.66370010
-2.30471992 -10.02608967 -15.31445980
9.12788963 6.25113010 20.82476997
-8.58572960 -0.51920998 -3.67535996
8.20685959 17.94335938 -12.38451004
7.50299978 11.83067989 17.28104973
-7.04226017 6.83942986 -3.57122993
7.15080023 9.34130955 -20.38455009
6.85532999 9.64982986 -20.02716064
9.09012032 5.13108015 21.16797066
9.10262966 5.52360010 21.10463905
-7.26809978 0.87549001 4.12532997
8.85855007 5.98959017 20.51597977
7.16829014 -12.01568985 17.56925964
8.20425034 3.70824003 20.64192009
7.16489983 -5.99255991 -21.67259979
7.18913984 -6.30030012 -21.59342957
6.65736008 -5.94951010 -21.16323090
6.87900019 -6.14210987 -21.30615044
-6.38601017 -5.83103991 -11.41823959
-9.04740047 5.75007010 -5.65485001
5.83998013 -10.55862045 17.07558060
8.88903046 -14.91753006 16.29998970
8.87862015 -14.57369995 16.48734093
-5.86898994 -12.88206005 -4.11801004
8.19950962 -22.40022087 -1.06629002
8.08998013 -22.40144920 -0.84201002
8.05478954 -22.37483978 -1.16136003
7.82901001 -22.31241035 -0.88533002
7.55720997 -22.20858002 -1.27736998
5.00190020 8.04288006 17.74205971
7.61553001 -22.21632004 -1.09730995
7.41989994 -22.13829041 -1.13676000
7.34570980 -22.10051918 -0.63972002
7.47002983 15.82071018 13.40703011
7.75754976 15.23085022 14.29164028
-2.32736993 16.21854019 -0.11556000
9.12045002 9.68570995 19.38342094
6.49908018 -4.05900002 -22.20009041
2.20665002 -18.52076912 4.76954985
6.16821003 -4.98423004 -21.81702042
-5.28303003 5.11038017 -13.44602966
2.99780989 -18.94737053 4.38912010
-0.77570999 2.78243995 17.01420021
8.50154972 -21.68639946 4.95195007
8.40188980 19.77498055 -8.92428017
-10.78547955 -4.61114979 -7.60569000
-4.00379992 13.74551964 -8.70588017
-3.97965002 13.54248047 -9.09842968
4.95651007 -9.10643959 17.47590065
5.76756001 20.18582916 2.61596990
-6.63326979 11.26488018 -7.56885004
7.35009003 19.74305916 -5.80433989
5.64812994 20.23580933 2.04647994
6.39861012 20.42741966 2.56529999
8.27970028 -22.37891960 0.87171000
8.33337021 -22.33370972 1.30539000
2.44944000 -5.75991011 -19.79537964
2.00829005 -4.98324013 -19.79954910
8.34162045 -22.32312012 0.80330998
4.47956991 -19.94096947 1.98083997
-11.05700970 1.87733996 -7.61231995
-1.44216001 13.24125004 10.10492992
-8.38350010 6.82325983 6.97443008
-8.26142979 7.15541983 6.93660021
7.16445017 3.50814009 -22.45614052
-8.50557041 6.80615997 6.80235004
6.99713993 3.78186011 -22.35411072
-1.86884999 3.71196008 16.14233971
6.89862013 3.91524005 -22.25276947
7.11752987 3.92505002 -22.37528992
6.60150003 19.28282928 5.02650023
7.98222017 -22.17119980 -3.76038003
7.82498980 -22.12206078 -3.75831008
7.91268015 -22.17878914 -3.50637007
6.93765020 -10.27626038 -20.37689972
6.69275999 -10.23120022 -20.21369934
7.69500017 -22.01162910 -4.01789999
7.30076981 -21.85943985 -4.04814005
7.77531004 20.58666039 1.70747995
-4.33178997 13.03586960 6.20787001
7.59726000 20.16657066 3.46968007
6.04133987 -18.70088959 -9.90237045
-8.43966007 4.07145023 7.36587000
-8.64945030 4.28595018 7.27910995
4.32716990 -17.16591072 9.85136986
7.72529984 17.11475945 -13.55970001
7.74369001 17.02619934 -13.77795029
7.88327980 17.03721046 -13.84412956
7.96635008 16.91706085 -14.00288963
7.87200022 16.72812080 -14.23637962
8.14488029 7.11296988 19.57695007
8.56320000 6.94911003 19.92591095
8.78007030 7.05978012 20.06775093
-6.67218018 -7.18001986 11.46926975
4.79483986 19.35210037 4.80398989
8.71947002 21.58749008 0.44847000
-8.91219044 -4.89764977 -8.48046017
-0.97088999 -5.13656998 -18.32475090
-0.48978001 -5.21798992 -18.54870033
-0.91077000 -4.62465000 -18.48974991
-0.74594998 -3.10316992 -18.89291954
-8.57859039 1.46466005 -7.41165018
-8.56886959 1.19345999 -7.06244993
-6.39549017 10.17189026 1.96616995
5.15730000 -12.13037968 -18.02000999
5.38886976 -11.46572971 -18.60977936
-5.01719999 2.02964997 -14.71418953
-5.05341005 2.48967004 -14.61384010
-4.84823990 1.99286997 -14.93043041
-2.52596998 14.62734032 -7.11705017
-6.92027998 -0.39539999 6.64418983
8.44493961 7.58108997 20.23436928
2.32065010 -0.65388000 -19.70924950
-6.52487993 7.70039988 5.06466007
-6.53225994 7.40930986 5.44061995
-7.58256006 5.17281008 -11.59539032
-7.61573982 5.76824999 -11.15855980
-6.15315008 0.30489001 -13.14743996
-6.15183020 0.70178998 -13.12806034
7.17453003 -20.99267960 -7.87493992
7.66067982 -21.14843941 -8.11233044
7.57518005 -21.01020050 -8.40207005
-11.27534962 4.92272997 -6.37133980
7.60269022 -21.17927933 -7.88714981
7.64459991 -21.29490089 -7.60815001
3.53793001 -2.38263011 18.97238922
1.81790996 2.07204008 19.03515053
2.24189997 2.58798003 19.11465073
1.94217002 3.29966998 18.89376068
-7.87565994 11.10962963 -0.09480000
9.01881027 -1.65099001 21.96941948
8.95487976 -1.27208996 22.02984047
8.43609047 21.66869926 -0.85070997
8.52429008 21.67764091 -0.95429999
8.51943016 21.67964935 -0.45170999
8.56266022 21.28334999 -1.92051005
8.52488995 21.18954086 -2.44443011
8.63039970 21.36005974 -2.09484005
-8.80943966 -8.75430012 -4.82940006
8.60270977 21.37388992 -3.25635004
3.97068000 -6.86990976 -20.14175987
-7.48179007 -3.36540008 0.48932999
4.45361996 -6.67088985 -20.42330933
3.87110996 -5.28870010 19.26861000
3.00224996 -10.85997009 15.70092010
8.63337040 8.97974968 19.04046059
1.57077003 -8.26173019 16.50435066
0.18312000 -16.22216988 8.19486046
-7.32821989 10.71267033 5.53214979
-8.78244019 4.89602995 -6.38391018
-8.79782963 5.10809994 -6.19464016
-10.60733986 2.13965988 9.00710964
-2.63987994 -15.85680008 -5.81220007
3.39279008 -0.38622001 18.99126053
3.08933997 0.06477000 18.86825943
6.91644001 12.09504032 -17.45223045
8.87973022 20.78202057 5.04863977
8.66166019 20.55155945 4.93590021
8.86478996 20.75345993 5.89919996
-8.23079967 -3.72999001 7.31456995
-8.51171970 -5.03498983 7.02534008
-9.24378014 -1.77929997 -9.10758018
8.44608021 -5.43425989 20.60873985
-0.61356002 -16.41098976 -7.49330997
0.07851000 -16.66695023 -7.71813011
-4.95336008 -14.60723972 1.32825005
7.63229990 -18.27264023 -13.46885967
7.60595989 -18.23067093 -13.67339993
7.60313988 -18.04418945 -13.80504036
-7.05044985 -13.46397018 0.84828001
7.56773996 -18.09933090 -13.83977985
0.02391000 -18.36998940 -5.43146992
1.39557004 -18.61010933 -6.63536978
-5.35139990 10.57295990 7.58945990
-5.30001020 10.91580009 7.22243977
-9.46049976 8.05805969 1.18079996
7.61291981 15.26819992 -15.86328030
7.66188002 15.46269035 -15.71693993
-7.59870005 1.82751000 -2.31878996
-7.25217009 -5.26181984 -6.95088005
-9.60326958 -9.50564957 0.08745000
2.19854999 -19.14096069 -0.17484000
-10.14764977 -3.17291999 8.97614956
-10.17113972 -2.69885993 9.10575008
-10.43286037 -2.81865001 9.02202034
7.86639023 18.93819046 -10.65324020
-11.10348034 4.22777987 -7.44144011
-11.19528008 3.47319007 -7.78121996
7.75592995 -19.88489914 -10.70516968
7.76451015 -19.94403076 -10.49228954
7.68330002 -19.74365997 -10.69412994
7.24656010 -2.91633010 -22.59375000
7.19903994 -2.76752996 -22.65909004
7.46759987 -19.73600960 -10.14291000
7.43088007 -19.59227943 -10.36028957
5.56962013 19.37516975 -3.71910000
7.66083002 -19.78241920 -10.43546963
7.66719007 -19.91460037 -10.22453976
-7.59909010 1.46331000 -2.24991012
-4.93716002 13.85015965 -0.70059001
-6.56400013 2.33054996 8.53413010
-6.46202993 2.57663989 9.00887966
-6.34740019 2.48073006 9.66668987
-6.35693979 2.81897998 9.56919003
-6.41292000 3.12287998 9.04263020
5.75457001 18.02276993 7.52187014
-1.41947997 -1.98497999 16.80077934
-2.02256989 -2.04176998 16.43054962
5.99559021 -19.59248924 -7.61606979
-1.96554005 16.43655014 -1.07085001
-11.00774956 8.10492039 2.47007990
3.36350989 18.68811035 -2.77277994
8.80047035 21.07649994 4.71144009
8.67564011 -0.42012000 21.96743965
8.71905041 -0.19938000 22.00263023
8.94836998 -0.45039001 22.05285072
8.83658981 0.03132000 22.05131912
-8.52507019 -7.20306015 -2.25228000
-8.55702019 -7.51722002 -2.90229011
-8.53509045 -7.47417021 -2.56364989
8.26391983 -0.41733000 21.78389931
-0.22719000 -7.45181990 -17.85434914
7.57662010 -8.49392986 18.97817993
7.55061007 -9.17706013 18.63974953
0.36708000 -18.92037010 -3.38777995
-7.68264008 10.18653011 -6.14607000
6.13127995 -13.16631031 -16.92798042
-5.99084997 -5.40744019 -14.30004025
7.89425993 15.10068035 13.66001987
-8.13510036 2.11442995 7.76150990
-7.42541981 0.50393999 2.43305993
-7.40982008 0.19098000 2.64297009
-10.39266014 -8.79479980 -2.84412003
-2.51112008 3.46304989 -16.68366051
6.24486017 3.87579012 19.64189911
8.44239044 -22.24707031 2.50871992
8.57129955 -21.38511086 6.39834023
-3.85467005 10.38603020 12.20882988
-8.61680984 -0.40836000 -0.27254999
8.56914043 -21.26649094 6.63185978
2.13378000 17.81274033 -7.28313017
-6.28455019 -5.83998013 9.34632015
5.90253019 9.53748035 17.33427048
-8.37386990 -9.30311966 4.84449005
1.28666997 -19.52519989 -0.67689002
1.48793995 -19.60074043 -0.37307999
0.58139998 18.52458000 -1.27575004
5.57349014 13.61085033 -15.02639961
5.88105011 13.57623005 -15.26603985
6.01460981 13.87607956 -15.02544022
-6.51513004 10.25139046 -1.27098000
7.19870996 -17.71371078 -14.28651047
7.37630987 -17.83665085 -14.26797009
-8.26998043 5.78247023 1.62381005
-1.69310999 13.83224964 -9.66648006
6.25967979 5.89697981 -20.52996063
3.86664009 0.95987999 -20.36697006
-10.54473019 8.37467957 3.14505005
2.58617997 18.34334946 2.61624002
-8.60081959 -0.14901000 -7.59480000
-8.61192036 -0.80361003 -7.67817020
7.31079006 -15.57750034 -15.97700977
-11.15427017 -6.87291002 5.55315018
-11.17883968 -6.93894005 5.76801014
-11.16567039 -6.60999012 6.08795977
-7.37351990 -8.76504040 9.00329971
-2.81756997 15.12537003 4.50492001
3.52800012 -8.99991035 16.96184921
8.31581974 -15.27387047 15.08909988
8.00603962 -15.07874966 14.96910000
7.71122980 -14.94231033 14.87042999
8.93301010 13.42613983 16.16828918
8.72294998 13.22609997 16.20729065
7.69295979 -15.15011978 14.65824032
7.43312979 -14.73441029 -17.40135002
1.71393001 -16.88652039 -10.80014992
-4.75898981 8.24411964 -13.79594994
0.58599001 13.21401024 -13.63947010
1.70582998 -6.29298019 17.39010048
1.32950997 -6.45851994 17.15940094
8.53236008 -18.32630920 12.69762039
-8.60822964 -4.36353016 -6.40574980
-8.62856960 -4.02335978 -6.41730022
8.42319012 -18.64413071 12.19653034
8.33985043 -18.75912094 11.93712044
8.59856987 -14.06795979 17.08452034
8.35377026 -13.63794041 17.21076012
3.16199994 -5.05043983 -19.45161057
4.98318005 20.08946991 -2.08095002
8.68848038 -13.84869003 17.27153969
8.48756981 -13.81593037 17.16636086
1.39892995 -18.67584038 2.46800995
7.06014013 4.82448006 19.79945946
-8.40462017 -7.71321011 1.82063997
-8.38488007 -7.27235985 2.60061002
-8.38047028 -7.63491011 2.29848003
-7.47447014 -0.05151000 12.03563976
-7.52657986 7.69097996 -9.91697979
8.06919003 -22.35099030 -2.00814009
8.15256023 -22.34748077 -2.02682996
8.18529034 -22.32843018 -1.79664004
-4.42431021 8.82678032 -12.28701019
-4.40687990 9.21197987 -11.98062038
-4.27710009 8.44281006 -12.76550961
9.00737953 10.71621037 18.37668037
7.23495007 -21.81117058 2.61350989
7.53602982 17.09406090 -13.45538998
-8.19839954 6.70004988 -9.01307964
7.55943012 12.35019016 -18.56258965
3.72126007 18.28064919 -5.20023012
-9.40163994 -2.99471998 -7.63599014
8.93118000 11.76887989 18.09848976
-7.29407978 -6.73281002 -0.97115999
2.15774989 -18.20372963 -8.60702991
-6.05061007 10.61637020 -6.13682985
0.39555001 -18.31208992 -1.25766003
-8.38409996 1.75163996 9.77715015
-8.37467957 0.65463001 9.96125984
-8.48495960 0.94739997 9.82415962
5.97524977 -18.97833061 -10.90017033
-0.83376002 0.24248999 -18.10988998
-9.52622986 7.30295992 -5.20988989
8.87244034 13.69521046 16.48667908
8.55687046 13.67895031 16.34880066
8.17601967 13.38554955 16.41711044
-0.43542001 17.10593987 2.01255012
-7.95347977 -8.75648975 7.45683002
-7.33586979 4.47030020 -3.19458008
8.58567047 9.28293037 18.86934090
6.66378021 -2.30394006 -22.51053047
3.50598001 18.58254051 3.05282998
3.54585004 18.69467926 2.60379004
7.94673014 20.54247093 2.27948999
-8.55288029 -6.60908985 -4.01862001
-8.57538033 -6.41456985 -4.16246986
8.17977047 20.68535995 2.31798005
-4.77531004 4.66725016 -14.29308033
-3.58551002 -7.31699991 -14.73225021
-8.58407974 -8.43824959 0.90498000
7.06752014 12.14568043 16.81707001
-8.33808041 0.84270000 8.42078972
8.53487968 11.19297028 18.31719017
8.28096008 11.22978020 18.15266991
8.97632980 13.91924953 16.35507011
8.78645992 13.86773968 16.32527924
0.55151999 17.64086914 -2.17860007
0.28259999 17.57892036 -1.88954997
-10.96175957 -1.81233001 -8.53800011
-8.41392040 8.26478958 -6.02112007
7.06769991 2.59257007 -22.59194946
8.29874992 18.88731003 -10.75940990
-4.99338007 11.66526031 -8.07645035
-5.00811005 11.80694962 -7.76205015
-11.32532978 -8.54277039 0.91052997
5.71583986 -20.66076088 -5.66663980
8.76813030 12.05430031 17.20137024
8.72459984 12.32106018 16.94750977
-11.10326958 -4.95173979 7.55727005
0.83750999 5.55398989 -17.89569092
-8.30294991 9.05337048 3.99918008
-1.02482998 16.94393921 0.75786000
-7.21431017 -5.92176008 -6.59498978
-8.53596020 -3.29934001 0.59912997
-1.88478005 -15.83388042 8.62131023
-0.77930999 -1.52400005 17.21928024
3.39986992 -19.60890007 0.92232001
2.80959010 -19.38237000 0.87519002
0.58070999 12.87732029 -13.99046993
0.67806000 -19.16963959 2.11821008
6.38438988 11.47101021 -18.45051003
6.17504978 11.23491001 -18.44504929
3.73881006 9.05595016 -17.65776062
2.62677002 -11.00405979 -16.39043999
0.85544997 -1.89882004 -18.91460991
0.97059000 -1.19832003 -19.01540947
-6.33756018 10.27746010 2.34729004
4.44653988 19.15469933 -2.25441003
-7.42629004 11.31530952 -4.71738005
3.34572005 -6.75501013 -19.88442039
7.05008984 20.48073006 3.71381998
-8.65023041 8.24693966 4.62093019
-8.49662971 3.49469995 -4.43564987
-2.23614001 -17.01317978 -0.78924000
-1.77354002 12.12032986 11.14041042
-10.96490955 7.16954994 4.56866980
7.86620998 18.36755943 -10.47992992
6.81584978 -19.08480072 9.77900982
5.57861996 -14.71932030 14.70864010
-9.30053997 -5.46471024 7.97340012
-8.60877037 0.08538000 -0.70299000
-10.54887009 0.62430000 -7.90488005
-3.69497991 13.29135036 7.13985014
-8.60216999 -0.47468999 -7.52522993
-8.59383011 -0.56042999 -6.83591986
-5.30441999 13.28405952 0.21468000
-8.60367012 -0.92282999 -7.34910011
3.29756999 12.80916023 -14.42580032
6.13541985 3.65987992 -21.82412910
6.37296009 3.88158011 -21.90312004
1.84196997 12.64503002 -13.77503967
2.94189000 12.95664024 -14.06814003
-4.82186985 -4.11672020 -14.70629978
-6.52473021 -10.27694988 -6.58655977
6.50978994 4.91666985 19.51428032
6.30936003 5.28887987 19.31109047
6.42360020 4.65567017 19.54595947
3.04554009 19.00929070 -4.36898994
8.26175976 -22.09469986 3.89280009
-6.37785006 -6.16434002 8.73365974
7.36488008 15.90126038 -13.82003975
7.21506023 15.60947990 -13.99658966
7.08042002 15.99333000 -13.36466980
-5.87115002 -11.27468967 6.21708012
-6.00200987 12.86703014 -6.19251013
3.15888000 6.33902979 18.50226021
5.06240988 -19.37745094 5.66807985
-5.41991997 10.17770958 -9.20174980
-5.00562000 6.43893003 12.00990009
-5.06442022 7.14378023 11.48565006
-7.00103998 -2.19945002 6.14685011
5.83407021 -17.02914047 -12.53783989
7.63853979 -22.25226021 -0.74970001
4.45244980 -9.56861973 17.04039001
4.16804981 -9.66975021 16.86179924
8.80428028 20.34836960 6.11222982
8.72247028 20.11911011 6.43650007
-7.23603010 1.55747998 -8.24676037
-7.26834011 1.58703005 -7.85781002
1.91852999 -3.20970011 -20.13587952
7.38273001 7.17479992 -21.07910919
-11.23530006 -7.86758995 4.13625002
-5.69903994 -8.61977959 9.65270996
-6.24579000 10.28357983 -5.66030979
6.38126993 1.27338004 -22.32971954
5.89128017 1.48959005 -22.03223991
6.70134020 1.15790999 -22.56362915
7.52342987 -20.01213074 -10.85655022
7.41356993 -20.06040001 -10.70193005
7.30374002 -19.89459038 -10.87257004
7.61673021 -20.19500923 -10.53633022
7.51665020 -20.24772072 -10.36425018
-9.40254021 -8.64585018 4.22462988
-5.83152008 -11.84463024 -7.02173996
-6.00951004 -11.66858959 -6.62834978
8.66495991 -19.13102913 11.38035011
8.69204998 -19.01505089 11.46368980
6.88046980 -21.82266045 -0.37667999
-9.37094975 -9.56297970 0.81900001
-9.37059021 -9.57126045 0.48980999
8.72420979 20.45150948 6.91158009
7.91216993 20.17811966 6.26655006
-6.16161013 -10.46039963 -8.01167965
7.53821993 19.93020058 4.33244991
6.99864006 19.80221939 3.80496001
-7.03383017 -6.88616991 -7.49694014
9.04500008 -2.32551003 21.79907990
9.01449013 -1.64813995 21.79191017
7.18860006 -3.01605010 20.35857010
-9.40100956 -8.93889046 -3.16194010
0.34709999 1.33737004 -18.62537956
-2.50989008 -15.73427963 5.78402996
-10.85490036 6.68912983 4.86962986
-10.75881004 7.38078022 -2.93949008
6.66521978 -7.52441978 -20.63933945
6.91919994 -7.56054020 -20.89016914
6.77931023 -7.35410976 -20.82060051
6.64371014 -7.23435020 -20.75573921
2.53338003 -3.21746993 18.50111961
5.43767977 18.08889008 7.08071995
7.59273005 19.23266983 -9.66648006
-2.39805007 -12.26412010 11.30883026
7.25651979 -21.71306992 -4.94571018
7.41975021 -21.79940987 -4.90958977
-0.96236998 -3.09903002 16.93154907
-10.47774029 -4.33077002 -6.87159014
0.73755002 -18.45903015 -1.48082995
-8.60336971 9.49983025 -0.38084999
5.55215979 -18.51185989 -9.66726017
-8.45660973 5.50845003 -9.10781956
-8.67798042 4.87689018 -8.55887985
-8.67111015 5.25311995 -8.32157993
4.67861986 -18.30167961 7.95041990
8.54333973 -19.12385941 10.87341022
3.10775995 14.20703983 -12.74300957
2.57195997 13.59704971 -13.13885975
-8.61443996 -5.83608007 -5.02907991
6.83826017 20.75805092 1.40142000
-7.67048979 -4.46522999 10.92710972
-7.83140993 -4.36869001 10.57676983
-8.58030033 6.27114010 5.50976992
-7.47329998 -2.19513011 -5.45511007
4.59069014 19.96482086 -1.74495006
1.60040998 2.90124011 -19.87286949
5.49074984 18.49544907 -6.87714005
-11.52680969 -4.24800014 -7.10591984
-3.89492989 11.74028969 -10.00172997
-3.51347995 12.08835030 -10.05459023
-11.53497028 -4.41077995 -7.15668011
8.45598030 -17.10017967 14.19266987
7.13628006 1.68218994 -22.22897911
7.23258018 1.59243000 -22.38882065
8.38901997 -18.09687042 12.91851044
7.79453993 15.42683983 14.09195995
-11.46212959 -5.14293003 -6.92988014
8.35212040 0.00513000 21.15690041
7.20168018 -9.59457016 -20.81373024
6.81134987 14.74989033 -14.70701981
-4.71512985 15.00638962 -3.68616009
8.87804985 14.23968029 15.39188957
9.03575993 14.45234966 15.38267994
1.05809999 6.93878984 17.47076988
8.99643040 -11.80865955 18.49176025
9.11627960 10.34718037 18.74892044
3.50757003 8.34726048 -18.82662010
7.66971016 -21.60042000 -6.38615990
2.76282001 9.72410965 -17.66012955
8.84360981 19.35477066 9.38169003
-0.70841998 9.30041981 -16.16717911
-0.41762999 9.89159966 -15.93072033
-2.68179011 15.08117962 4.96859980
-3.19578004 -8.58561039 -14.33187008
-8.69346046 -4.71203995 8.71337986
8.55996037 -20.25029945 9.43272018
8.55467987 -20.38401031 9.12407970
-8.47574997 5.07461977 -5.56313992
-8.47224045 4.89134979 -5.83971024
-8.48322010 4.65236998 -6.26435995
-8.46539974 4.54586983 -6.18500996
-8.48754025 4.43724012 -6.00015020
-8.49473953 4.83507013 -6.05474997
6.83795977 19.34490013 5.13636017
-8.57645988 4.56042004 -6.45845985
-8.87493038 -9.84747028 -0.90186000
5.40512991 6.98381996 -20.39097023
6.66593981 2.98745990 -22.33292961
2.36771989 12.11880016 13.84871960
-9.03728962 -8.09144974 5.47308016
0.76556998 11.27103043 -14.43284988
8.39756966 21.65246964 -0.20880000
3.64890003 -19.70679092 5.19437981
-7.44816017 -1.17531002 -5.33817005
-7.00907993 -9.11277008 -0.82977003
-9.68970013 8.00706005 1.28780997
-10.33148956 7.86846018 1.64169002
-8.14175987 9.03752995 -6.28043985
-8.03870964 9.37631989 -6.12501001
4.67040014 0.33351001 -21.51560974
8.08283997 15.44274044 14.31404972
7.25489998 -18.01461029 -13.97451019
7.38486004 -18.01487923 -14.04195023
6.93687010 -12.92628002 16.05969048
0.62004000 16.72647095 -6.24309015
6.47606993 4.65368986 -21.04944038
-8.64083958 0.82143003 -7.78491020
-8.96448040 3.95022011 -8.50652981
7.29104996 -8.01593971 -21.34518051
-10.93959045 1.64469004 -8.51264954
9.11660957 7.01468992 20.53239059
-5.68571997 0.22056000 -14.02943993
-9.74442005 -8.44454956 1.56744003
0.46935001 17.72322083 -0.20897999
-11.38467026 -8.88794994 -0.43392000
-3.82880998 -8.02038002 13.14270020
-3.18612003 -9.34397984 12.97187996
8.08526993 -18.60137939 10.86783028
-4.05696011 -9.79232979 11.75345993
-2.97152996 -8.06301022 -15.98507977
-10.88199043 4.71332979 7.56653976
8.73989964 -1.48929000 22.00431061
-5.49444008 4.00647020 14.08409977
-5.89064980 3.52905011 13.76595020
-6.69905996 8.80650043 1.23152995
-6.81173992 8.00757027 1.44818997
-6.14378977 3.89177990 10.17059994
-6.06297016 4.29822016 10.30727959
-5.86049986 3.58478999 11.23791027
8.70125961 -14.83191013 16.50357056
-11.19188976 6.94419003 -4.16699982
-11.18282986 7.12893009 -4.08960009
-5.26577997 -8.86017036 -13.39544964
-9.82835960 0.12084000 -8.94620991
6.00164986 -9.27698994 -19.35920906
-8.14371014 0.21723001 7.95488977
-3.56669998 -10.33640957 -12.73560047
6.83795977 -16.17114067 -14.70114040
6.42056990 -15.99999046 -14.42232037
-1.77191997 16.00511932 -4.57010984
-9.84372044 -7.05920982 -5.92152023
0.71661001 4.19175005 17.44853973
0.80316001 3.92024994 17.56559944
-8.87481022 -1.73777997 -9.68607044
4.98330021 5.31078005 -20.03681946
1.41131997 -17.45325089 -7.43196011
0.56097001 -16.76127052 -10.09191036
7.27481985 -0.47009999 -22.55010033
1.09422004 12.95382023 12.30335999
1.86150002 10.28442001 15.12135029
2.45145011 10.54940987 15.20174980
3.70691991 17.74821091 -8.80128002
3.97473001 18.02514076 -8.42162991
1.14519000 12.18393040 13.13448048
3.31436992 17.50815010 -8.99466038
1.44956994 12.44943047 13.09272003
4.22484016 18.26198959 -8.03232002
7.30502987 3.08948994 -22.21718979
0.84714001 -6.52277994 -17.79936028
-6.26354980 -4.37144995 10.03973961
4.56233978 -2.47937989 20.01441002
-11.43482971 -1.93124998 -8.14964962
-11.47272015 -1.88433003 -8.04288006
-11.37911987 -2.06108999 -8.22918034
6.95124006 -5.81397009 -22.10075951
0.59741998 -1.06200004 -18.84579086
8.85978031 -7.02084017 20.90859032
-7.57593012 -10.64274025 -7.51452017
2.02179003 -0.40041000 19.26135063
-10.64531994 -0.32841000 9.33603001
8.04920959 16.21661949 -14.70042038
6.11454010 -1.12179005 -21.50229073
8.77560043 -9.17076015 19.56159019
-3.02868009 15.00975037 -7.80602980
-8.33565044 8.83043957 4.31610012
-10.78962040 -7.29164982 4.47878981
-7.26828003 5.14362001 -0.18459000
-7.17800999 5.74841976 -0.04305000
7.26320982 -7.45299006 -21.40958977
-6.99989986 -5.31206989 -9.04868984
2.46236992 -17.76567078 8.84286022
-8.59115982 -5.12508011 -4.82441998
-8.11592960 4.45197010 6.34869003
-8.12919044 4.65006018 6.45024014
-8.10606003 3.83130002 6.72972012
6.37197018 -21.47537994 1.29359996
7.35665989 -16.83267021 -14.62677002
-7.80909014 -8.46893978 -9.48447037
-7.73126984 -8.31818962 -9.74030972
-7.53063011 -1.83863997 -3.61595988
-7.79433012 -9.25152016 7.44626999
7.09850979 -0.77741998 -22.80417061
6.97889996 -0.88731003 -22.77444077
8.75726986 10.58936977 18.80690956
8.33850002 10.50131989 18.65028000
-7.35900021 3.07787991 11.73591042
0.90354002 16.56275940 -7.08186007
0.77069998 16.04195976 -8.12211037
7.13601017 -8.49999046 18.73793983
-7.21787977 3.89562011 -6.58959007
-9.18023968 8.43447018 -3.35426998
-0.71517003 16.08746910 -6.16050005
-8.47521019 8.97084045 -4.12404013
7.17656994 2.27087998 21.00116920
-8.55834007 -4.41419983 -2.93700004
-8.57759953 -3.26924992 -2.50956011
-8.55984020 -3.62538004 -2.09672999
8.56886959 -11.16374969 18.30002975
-8.49147034 8.07915020 -0.84320998
9.07137012 4.83554983 21.16686058
8.99034023 4.83267021 21.05055046
8.81342983 4.97895002 20.79899979
8.36126995 20.53409958 3.73332000
3.21861005 18.53714943 2.74976993
-8.72523022 -9.72249031 -2.66096997
1.96496999 11.31435013 -16.11960030
3.92925000 0.37548000 19.88175011
6.37992001 1.55226004 -22.30994987
8.34261036 21.54627037 -2.19341993
-9.13263035 -9.69021034 -0.22011000
8.76896954 17.64858055 11.28446960
7.71957016 -22.21836090 -2.06766009
4.83944988 13.09305000 -15.05457020
5.16347980 13.14581966 -15.19589996
5.22323990 13.30457973 -15.05337048
8.56949997 21.43844986 -3.15012002
5.84231997 14.85140991 13.63311005
6.30719995 14.24643040 -15.88230038
2.63990998 -17.29923058 -10.83930016
9.00372028 0.84477001 21.97347069
6.94415998 12.41738987 -17.19054031
6.72392988 12.47723961 -16.97492981
-9.13389015 6.43001986 -4.87562990
-8.93015957 6.58437014 -4.69461012
-1.45553994 3.57744002 17.36858940
-0.32135999 9.09702015 -16.52309990
0.39741001 9.44454002 -16.65114021
0.10887000 8.65896034 -16.97924995
8.05014038 21.46571922 -1.05221999
5.36510992 19.85066986 3.63035989
5.03879976 -18.70319939 -8.59848022
4.54001999 -18.45677948 -8.57625008
8.53538990 18.28203011 9.94521046
-1.14734995 -16.46940041 -6.57047987
7.43661022 8.47893047 -20.51030922
-10.57866001 7.44981003 -2.70879006
7.48862982 8.44287014 -20.62848091
-4.54199982 8.38640976 -12.47105980
8.68826962 -18.01737022 12.74141979
8.32625961 -17.62739944 12.61032009
-7.49340010 -3.68049002 -3.26363993
6.90971994 -16.65317917 -15.36551952
-11.40126038 1.39530003 -7.96602011
-11.42105961 0.69024003 -8.06114960
7.13162994 4.86975002 -22.14252090
7.99541998 -22.34262085 -1.79661000
-6.54744005 9.91674042 0.27476999
-8.39669991 7.75536013 2.62017012
-8.51718044 7.82355022 2.57856011
-7.31295013 1.05017996 -7.23509979
-7.28462982 0.80945998 -7.93302011
-5.33778000 12.12860966 -6.11540985
8.01261044 16.79213905 -14.12685013
4.03620005 -15.06783009 13.60044003
-3.37716007 -15.39146996 -5.58513021
-5.66456985 9.12936020 -9.84753036
8.24213982 -22.24547958 -2.34647989
8.19258022 -22.30508995 -2.20658994
7.22517014 -3.10098004 -22.31394005
-11.16269970 -7.88090992 3.52577996
0.92973000 16.48004913 -7.27625990
-6.14036989 3.73922992 -12.41154003
7.41068983 -18.75624084 -13.00010967
-4.89378023 13.46261978 -3.95088005
1.05630004 5.07033014 17.36400032
6.47849989 10.70151043 16.84641075
-3.13155007 15.61760998 0.71276999
3.35961008 -7.15547991 -18.85713005
1.56359994 0.54078001 -20.14160919
7.08855009 5.02139997 -22.10453987
-7.45460987 3.77622008 -0.42411000
-7.46060991 3.40242004 -0.33522001
7.06343985 4.71341991 -22.16540909
-6.17831993 0.81221998 10.78052998
1.17969000 -8.19626999 16.35590935
0.92391002 -7.83261013 16.40987968
1.60959005 18.04895973 -2.57231998
1.11204004 17.78325081 -3.00191998
3.04661989 -12.29300976 -15.65202045
0.77085000 17.70078087 -2.72591996
0.52047002 17.57505035 -2.68845010
5.09267998 11.85027027 -16.36871910
1.10144997 17.83176041 -2.61417007
5.31195021 11.76813030 -16.54385948
5.46296978 12.00191975 -16.46541023
-1.05174005 -16.38216019 -9.28979969
-8.19890976 7.58724022 1.95065999
5.50691986 11.21697044 -17.15774918
-8.19552040 7.41521978 1.60122001
-8.19804001 7.18416023 1.46609998
9.17247009 14.69382000 15.57116985
9.15098953 15.23631001 15.03534031
-8.19443989 6.81065989 4.20831013
-8.23653030 7.03596020 3.96866989
-10.44309044 4.86371994 6.68097019
-4.98758984 1.64721000 -14.83347034
7.15364981 -21.31781960 -0.12366000
-7.21785021 8.64702034 -9.70151997
-8.98173046 -1.07883000 8.56427956
-8.84535027 -1.63275003 8.49975014
-8.38947010 -0.44852999 -11.42210960
-8.36316013 7.98929977 -0.77748001
-2.38962007 3.53775001 15.85149002
6.88632011 -14.81826019 -17.15979004
7.16876984 -14.85674953 -17.32523918
-10.91469002 2.90421009 8.12222958
-10.83108044 3.15456009 7.83054018
-7.59020996 -1.22832000 -2.10707998
4.27881002 -17.57085037 -11.71148968
9.00774002 -8.08226967 20.40962982
9.00813007 -8.43177032 20.29467010
3.96833992 -19.87965012 4.97396994
6.27291012 -18.94725037 9.56676006
6.23184013 -5.64734983 -20.92173004
5.63325024 10.14015007 -18.83606911
5.87712002 10.15433979 -18.98144913
5.90256023 10.34622002 -18.85674095
-8.06921959 4.80713987 9.21576023
-2.92607999 -0.40628999 -16.88310051
-11.19009018 -8.96232033 -1.47546005
6.62475014 1.45193994 -22.50095940
6.17093992 1.87733996 -22.14336014
6.41553020 1.84641004 -22.27029037
1.46664000 15.58098030 -9.62915993
7.29668999 -17.46497917 -14.73684025
8.81237984 2.76060009 21.80924988
8.91569996 3.14387989 21.75293922
8.97480011 2.81894994 21.79637909
-3.68096995 -2.28888011 15.12530994
-7.53368998 -2.56398010 -0.27315000
-7.50954008 -2.71338010 0.19350000
7.19910002 20.61500931 3.34826994
-8.23626041 0.24318001 10.20201015
-9.02453995 -1.12715995 -8.06727028
-8.13998985 5.26052999 6.03086996
8.34912014 -22.28138924 0.53891999
8.33508015 -22.20186043 0.52535999
-7.02617979 3.16614008 -13.38519001
8.81495953 -13.05869961 17.85887909
-1.07097006 9.37730980 14.10461998
-6.91139984 -9.76311016 -2.02418995
5.43278980 -15.13683033 14.21586037
7.84422016 -16.83159065 12.98661041
-2.88428998 14.93939972 4.99209023
6.62964010 11.30912971 -17.83539009
-9.52548027 -3.65502000 -8.41137028
7.63596010 11.22204018 -19.06229973
-7.85144997 -1.80353999 11.14667988
-8.48754025 5.56545019 -5.41871977
-8.57030964 5.60453987 -5.55815983
5.53367996 -11.31387043 -17.85659981
-8.45205021 5.62092018 -5.24681997
-8.47364998 5.30307007 -5.26386023
4.97826004 17.91869926 -7.72065020
5.76021004 18.06122971 -8.32808971
6.78096008 18.66713905 -8.13971996
7.11099005 -21.58466911 -5.07945013
6.97631979 -21.39110947 -5.72294998
-10.60892963 3.96630001 8.26842022
-10.31241035 4.13313007 8.27178001
2.61921000 -6.88737011 -18.57621002
-10.33349991 4.37466002 8.12825966
-8.25314999 7.50650978 -0.58380002
6.40008020 -7.21737003 -20.57597923
-4.25267982 1.38966000 -15.62442017
7.76114988 14.65365028 -16.61648941
7.65902996 14.75024986 -16.49970055
-4.25975990 1.04387999 -15.67442989
8.30210972 10.57308006 17.89842033
6.18698978 16.28886032 -13.28822994
6.36696005 16.16220093 -13.57581043
6.48206997 16.38731956 -13.39704037
1.81394994 16.54779053 7.48625994
5.48972988 5.07981014 -21.08460045
7.12097979 -8.92119026 -20.57265091
1.25171995 7.03466988 -17.48685074
1.25679004 8.39130020 -16.77942085
-0.82866001 13.40207958 -11.09051991
-7.23459005 0.90591002 -8.57820034
5.16251993 -14.43647957 13.81698036
4.96970987 -14.25341988 13.90841961
-4.60868979 12.02033997 7.44434977
-4.26657009 12.31931973 7.68959999
8.78637028 7.68608999 20.36603928
0.78138000 -7.40060997 17.41400909
0.48636001 11.45697021 -14.10585022
0.67179000 11.71070957 -13.99746037
7.77177000 11.50080013 17.65467072
4.59746981 10.83129025 -17.77412987
8.38541985 -15.66975021 14.80352974
-4.36104012 10.89813042 -10.33218002
-6.58254004 -2.21652007 8.90555954
7.37111998 -20.78042984 -6.63879013
7.14621019 -20.58966064 -6.71126986
6.02076006 15.64638042 -12.82734013
-6.67505980 6.71214008 -8.62590027
1.78038001 -6.62519979 17.28564072
-8.59337997 -1.10748005 -6.72392988
8.42765999 -10.64727020 18.46359062
7.28192997 -17.65271950 -14.48388004
-8.19357014 9.69824982 3.02522993
7.88244009 14.20911026 -16.79150963
4.67877007 -20.76411057 1.22130001
-3.04751992 10.20174026 -12.67241955
8.42249966 -19.96614075 9.97119045
4.50368977 19.19205093 1.50747001
-6.27269983 -12.31674004 -2.26910996
8.52935982 -3.60845995 21.64838982
-6.14958000 -12.58691978 -2.41806006
-8.38307953 7.47923994 -2.50715995
-8.35521030 7.57272005 -2.11862993
-8.53460979 7.40979004 -3.07290006
-8.44583988 7.42715979 -2.83406997
8.15157032 19.98504066 -8.61285019
0.25281000 6.76466990 -18.00440979
0.08436000 7.60509014 -17.52963066
7.93680000 20.77428055 -0.46055999
7.08350992 -7.62648010 -21.05435944
8.16588020 -22.06601906 -0.25887001
8.35383034 -22.29044914 -0.27812999
6.97767019 13.51622963 -16.21146011
-8.27295017 -5.52081013 5.53278017
-8.33681965 7.28280020 -2.62308002
-8.34189034 7.29045010 -2.38019991
7.59578991 12.17978954 -18.15947914
-8.37257957 7.35797977 -2.70741010
-7.27475977 -6.46806002 -4.35602999
-7.28481007 -6.40221024 -4.74171019
-1.42260003 16.61549950 1.96619999
8.50356007 -6.30381012 21.00978088
-9.66485977 -6.96183014 -6.10149002
-5.20473003 -15.41388035 -4.06605005
-8.64920998 -7.72427988 -3.02493000
-8.46146965 3.79761004 -1.87358999
8.61201000 21.41810989 -2.91750002
-5.25612020 7.14701986 11.09027958
8.12528992 -21.62409019 3.52902007
8.76675034 -10.20464993 19.51685905
-5.82428980 -0.22959000 12.04586983
-5.41178989 -4.77144003 12.39188957
4.40115023 2.45024991 19.86191940
