-1.70391536 -2.60626531 4.43231487
-2.28769541 -4.62495852 3.82479358
-1.43209076 -2.38396239 -3.00258660
-1.57393920 -4.47831821 1.69023538
-1.25501037 -2.46823144 0.27908131
-0.83355838 -2.40680814 -1.03291833
-1.56178653 -4.64627266 4.28925323
-1.81192684 -4.47023773 0.56051791
0.80261910 -2.56380510 4.62790966
-1.67095172 -4.92064476 5.52818298
-1.80963445 -4.47162342 -0.72853529
-0.23716350 -2.36988139 -2.04163671
-0.35179681 -2.53457093 3.08197951
-0.87703562 -2.50139809 1.41716969
-1.41894960 -4.49682808 -0.42167789
-0.93385768 -4.52064180 3.31293654
-1.49961126 -4.56275177 3.72258830
0.29349571 -2.55312872 3.89351511
-0.40024799 -2.38583279 -3.16964483
0.00970680 -2.45390463 0.24463890
-1.36615646 -4.80785275 5.13523817
-1.11144483 -4.47930908 -0.89860737
-1.34629917 -4.49806976 2.37068701
-0.00051510 -2.49313760 1.50150001
-0.38711730 -4.48462057 1.09520221
-0.48515400 -4.59662724 4.31436920
0.27797279 -2.40041947 -0.85273319
-0.88811791 -4.48001289 -0.07315350
0.43523580 -2.37060475 -2.05287480
0.07134240 -4.48631668 2.54332972
0.65273762 -2.49701786 2.34472942
0.27728909 -4.48174191 -0.72856408
-0.17061420 -4.54391670 3.83167315
-0.27454230 -4.48368502 1.94963312
-0.56052423 -4.86163330 5.45566511
-0.34050059 -4.96982145 5.89993906
-0.06546810 -4.49835110 0.19489050
0.34345320 -4.49474144 0.94975859
0.40431720 -4.51453686 1.46488857
0.61965811 -4.88403273 5.51200008
1.12870204 -2.43303323 0.45264661
0.16894920 -4.62997484 4.48016167
1.53853834 -2.46600270 1.96001434
0.53801608 -4.48808718 2.08921313
0.67964131 -4.99245071 5.87393522
0.98222518 -4.66430664 4.49549627
1.19055867 -2.38887858 -0.78724319
0.86954850 -4.58264542 4.01221180
2.04019618 -2.52862191 4.46933031
0.11120790 -5.08320570 6.17768431
1.09711647 -4.48397684 0.71812773
1.96999049 -2.42570329 0.42670619
1.40478933 -4.52198696 3.13060760
1.67406273 -4.92552567 5.44506264
1.23785996 -2.38482237 -2.34914851
1.06155813 -4.48367071 1.80820203
0.95091808 -4.50021505 2.67953968
0.83551019 -5.13543844 6.21195936
1.89690208 -2.38818622 -1.62216032
2.51748204 -2.48055506 3.28509927
2.61567426 -2.40764284 -0.67276049
1.83083606 -4.46510267 0.98433989
2.36243796 -4.86293173 4.99531841
2.57714224 -2.45343924 1.61691332
1.17867124 -5.35698700 6.53410673
3.17978930 -2.45177650 2.44351506
1.54742968 -4.60796452 4.02287436
1.73637331 -5.09285450 5.87962341
2.27993751 -4.45488977 0.02617170
2.85215664 -2.38401723 -2.14925981
2.45642734 -4.54034948 2.81904697
3.23157907 -2.44753289 0.71318310
1.81236625 -5.38389540 6.39596176
2.33838487 -5.46916962 6.32502222
2.25066328 -4.48400784 1.87800932
2.51868892 -5.20969391 5.84041548
2.17923141 -4.67529774 4.14437532
2.70289850 -4.47307301 1.03084981
2.64695311 -5.04420090 5.42401075
3.09597278 -4.83534527 4.55771875
2.96951818 -4.59715319 3.14599133
2.83888626 -5.56932783 6.22610998
3.25412250 -5.22829056 5.49447441
2.86050892 -5.39916468 5.99398565
3.70850110 -4.56102037 1.87484646
3.33562565 -5.02599859 5.04416561
4.07682896 -2.44574785 1.21211338
3.43500233 -4.48492098 -0.29769239
4.26469183 -2.42401838 -0.06255690
3.32531214 -4.70535851 3.69057035
4.61143827 -2.43640471 3.70001698
3.55536819 -5.46248960 5.68465900
4.13440132 -2.42686510 2.74762464
3.45842075 -5.66785479 5.99792624
4.24037886 -4.54603004 0.75144899
3.87518191 -5.00830221 4.61306620
4.64281845 -2.37730479 -1.69265616
3.97982645 -4.79362726 3.73451543
4.35548830 -4.53062630 -0.09289800
3.93037319 -4.62770224 2.54613400
4.97684813 -2.41133881 0.07147230
3.72571254 -6.03749800 6.15686083
4.26354218 -4.92080259 4.03233051
4.41866922 -4.54204655 -1.38315749
4.54183149 -4.73934889 2.81162786
4.16765261 -5.95881939 5.79914999
5.49141026 -2.40385437 2.62323236
4.16167259 -5.51944447 5.34324884
4.11272478 -5.21878815 4.93167019
4.62343216 -4.66823769 2.13014102
4.47156763 -4.60367537 1.51187015
4.82343864 -2.41578937 1.97966456
4.50709057 -5.37898111 4.86885834
4.22064877 -6.42533827 6.05829620
4.93214655 -4.59380674 0.25367701
4.60040426 -5.01267767 3.98776197
5.08483934 -4.66090870 1.04824948
5.85109615 -2.40276361 0.79803210
5.55643940 -2.38356304 4.02391720
6.04931307 -2.37162781 3.22886968
5.32311106 -4.64050341 -0.39598140
4.73647213 -4.81852341 3.06055021
4.93469334 -4.58213997 -0.99153298
4.65402412 -6.09140205 5.50165606
4.76399803 -5.15906239 4.17947531
5.19309855 -4.75942612 1.90858531
4.97022581 -4.90396833 3.17473674
5.14022446 -5.03994465 3.44458985
5.15789604 -5.34877110 4.11573267
5.33446598 -4.66714668 -1.52687848
4.84995890 -5.50416756 4.72015810
4.73280382 -5.75169992 5.13788557
5.35466051 -4.86772871 2.37592626
5.45814323 -4.71896029 0.75194758
6.42235422 -2.35288119 -1.13880837
5.22019339 -5.63860035 4.50693703
6.04832983 -2.39519691 1.40590048
5.40202904 -4.98816729 2.88138890
5.53231907 -4.75120687 -1.86440885
5.25384617 -6.20997286 5.02731323
5.34473085 -5.19027138 3.55224323
5.57074070 -4.70706987 -0.84982681
5.11446285 -7.07713509 5.69011068
5.69141293 -4.75725746 0.20279790
6.76946020 -2.35232401 2.29638982
5.71665049 -4.61400700 5.73144770
5.62383652 -4.84946108 5.81639671
5.75710535 -5.14268303 5.74854422
5.45905256 -6.24532223 4.81823397
5.82227087 -4.79734755 -0.57277799
5.67242479 -5.47199583 3.65152884
5.68977022 -4.84172153 1.29129124
5.85913849 -4.84900427 -1.41121256
5.64767885 -5.55660105 6.01642656
5.90067863 -4.80260181 5.52953100
5.74818373 -5.19844437 2.90633798
5.49844360 -6.89651823 5.17820978
6.57293987 -2.36740613 0.62430149
6.94807673 -2.32113123 2.78291988
5.59622145 -5.79568434 4.19498205
5.79367495 -4.94690990 1.73988509
5.91824770 -4.44479847 5.61574602
5.82509565 -5.06784344 2.28707409
6.04557562 -4.90036154 0.05911890
5.98704529 -4.91603088 0.79787463
6.28833961 -4.82354355 5.02198744
6.06973934 -6.64822674 6.11598682
6.17287970 -4.98177862 -0.79878390
6.00343323 -5.46889925 5.59487391
7.37750435 -2.30832219 -0.50412810
6.19732904 -5.05596924 5.19486809
5.95044231 -5.38218260 2.96882224
6.32033539 -4.47492218 5.09185219
5.96408415 -5.01676178 -2.25416613
6.18685150 -5.05452681 1.08245432
6.16718292 -4.58460855 5.22134924
6.31103897 -5.12165928 -1.39960325
5.91743755 -6.28946400 4.22521544
6.11400890 -5.25227356 2.27098823
6.12636852 -5.69708538 3.19514108
6.31129122 -5.24377155 1.65225959
6.35604811 -5.28715515 5.06307077
6.42095137 -5.29040956 -1.75816560
6.47663546 -5.88718271 5.22313356
7.15779352 -2.32584691 1.02167761
5.94157362 -5.82881832 3.70066977
6.25540161 -5.45581102 2.49028969
6.39428902 -4.25895452 5.42511129
6.65945244 -4.44011593 4.61930704
6.58168221 -4.70475674 4.59703445
6.39578009 -4.34805775 5.17302465
6.46889067 -5.17267752 0.19361369
6.17102957 -6.05154133 5.70247221
7.50192547 -2.26000428 2.86931252
6.27114344 -6.36502790 3.67952728
6.73442459 -4.88866329 4.35599899
6.53035879 -5.32988787 1.21734750
6.45827866 -5.49341345 2.03903604
6.61686754 -5.29363918 -0.48433861
6.58349562 -5.30054665 0.70417857
6.02725029 -7.11075354 4.68302584
6.79722691 -5.35115480 4.41705847
5.90854406 -6.55865002 4.45386982
6.38378096 -5.75646591 2.68136406
6.78292751 -4.57532597 4.30169964
6.84018326 -4.26217699 4.75215244
7.56154394 -2.23327327 3.49702621
6.62338066 -5.68039179 4.88179445
6.61993361 -5.47204924 1.36585045
6.65248013 -5.42826176 -1.12910306
7.63646317 -2.27852798 1.93594885
6.98679590 -4.34172869 4.22862816
6.14416838 -7.77179193 5.00540257
6.57871628 -6.38062239 3.07134533
7.02862310 -4.12451601 5.07341433
6.78384686 -5.47413492 0.13241190
6.44735956 -7.06865597 3.98677826
7.24416256 -4.23171425 4.19429827
6.84509563 -5.60229015 -0.26757839
6.49768066 -7.57576561 4.35132694
6.65261078 -5.73632002 1.90284026
6.85959959 -5.64090395 0.49610820
7.08968973 -4.49461317 3.80216217
6.86870670 -5.68232107 -0.62169719
7.06552839 -4.64528084 3.78191400
6.98954296 -4.87510395 3.90701675
7.64420366 -3.87518191 5.13563299
7.17720127 -4.89219809 3.53358054
6.78012466 -5.60703945 1.04137266
7.03703356 -6.16815376 0.95457393
6.64717579 -5.61270094 -1.74134612
6.79253197 -6.38292074 2.48396707
7.29392338 -4.36568069 3.58742380
6.50273752 -7.89569426 4.56850624
6.85970879 -5.73348093 4.52632952
6.93820143 -6.44723988 2.09865594
7.09115505 -5.44593287 3.94513655
7.47852945 -4.25542450 3.56584239
7.27675724 -4.57484531 3.33839989
7.01105452 -6.81505108 5.02498865
6.68053055 -7.05145454 3.50730634
8.27245522 -2.23663449 1.65541947
7.37458324 -4.81272745 3.06848192
7.11651134 -6.24141502 0.48653549
8.25107574 -3.69649434 4.80823851
6.89622974 -5.88070679 -1.17687571
6.82496214 -7.67999315 3.84559464
7.47719240 -4.61105442 2.78175354
7.39569712 -4.43774843 3.21614337
7.47486925 -4.51341105 -2.61265850
7.04673576 -6.43100595 1.60453796
6.89896154 -7.06373501 3.00985122
7.42324495 -5.16588163 3.05230808
7.26390791 -4.84101200 -3.01209807
7.08340597 -6.12213659 0.11629050
8.35715008 -2.13470006 3.55096173
7.21975708 -6.02815580 4.08219624
7.70243645 -4.38639164 -2.28438687
6.70779419 -7.85787439 4.19654417
7.30752850 -5.48745823 3.51729155
7.57099009 -4.32812977 3.03737187
8.68290615 -2.16549182 2.24063540
7.87534285 -4.18337107 -2.89708519
7.45689631 -4.67145586 -2.50112462
7.56370974 -5.04045200 2.58371282
7.45507383 -4.90218353 -2.49586868
7.10948801 -6.34572363 -1.15156591
7.17898941 -6.36639881 -0.46975979
7.67344046 -4.57675266 2.12419510
7.60449553 -4.44325876 2.60331845
7.64456463 -4.82557058 2.14713120
7.46937227 -5.53959131 3.17679214
7.63774347 -4.57640886 -2.04266429
7.09111118 -7.01725149 2.37202120
7.84859037 -4.23669577 2.85260916
7.54135132 -5.30986547 -2.46892023
7.60421228 -4.78905010 -2.01641130
7.70980358 -5.59761286 2.51983476
7.96594572 -4.25532532 -2.15808487
7.77064037 -5.19511127 1.82772326
7.81124926 -4.35495710 2.22394705
7.76299953 -4.60875130 -1.43272436
7.71828747 -4.82811832 -1.60651052
8.18241692 -3.94637179 3.86298084
7.80939007 -4.67119074 1.28935647
7.83710575 -4.43998909 -1.51250577
7.79477024 -4.47371769 1.81330264
7.46781445 -6.01025915 3.54618025
7.32854700 -7.11397362 1.54343283
7.70330238 -5.86505413 -2.55256629
7.95871449 -4.35790253 -1.30183017
7.85495377 -5.17405844 1.28707564
7.86767530 -4.57587957 -0.83393312
7.88345432 -4.50418568 1.19822967
8.34572601 -2.24438095 0.42050251
8.11984158 -4.21292734 2.19985557
7.81978750 -4.90001535 1.29108572
7.86068726 -6.18866491 2.62361240
7.92736483 -4.37105227 1.58949089
7.89209080 -4.68737936 0.30793980
7.89841509 -4.60146427 -0.36389130
7.89431047 -4.89355421 0.36619619
7.59443235 -6.65816402 3.84596729
7.96436501 -4.46087742 -0.42376831
7.82772112 -4.94162989 -1.03614807
7.92294645 -4.54351330 0.39310950
7.71374655 -5.12690115 -1.74260068
7.31584978 -6.85752630 0.96995282
7.82337427 -6.42826891 3.02298713
7.98838997 -4.44848442 0.18935190
7.46406031 -7.11773920 -0.50721300
8.01917267 -4.36764288 0.92966759
7.46774483 -7.06980324 0.22033410
7.73672533 -5.37376213 2.20701170
8.06683636 -4.36673021 -0.18046349
7.88577318 -4.83546925 -0.33045331
7.77483034 -5.74953318 -2.17147136
7.77161598 -5.37489176 -1.72805405
8.08548260 -4.28833246 -1.32951689
7.12405205 -7.95106792 3.45677733
7.91577196 -5.54803848 -1.26807237
6.98634005 -8.25094414 3.92291164
7.12997627 -7.72109175 3.22588539
7.34021473 -7.01068115 4.61552334
8.16631985 -4.23960304 1.61099613
7.93094492 -5.26963615 -0.62598449
8.25426197 -4.25492048 -0.70716482
8.27425957 -4.25579262 0.01912560
8.24036312 -4.10221338 2.78015971
8.22250843 -4.26297379 0.62059683
7.96269083 -5.31880283 0.24760380
7.94344664 -5.14222288 0.33648840
7.90061092 -5.16759920 0.85438770
8.87419987 -2.17985463 0.90672117
7.51044464 -7.70294619 1.96088195
7.92908192 -5.72033167 -1.51663351
9.41633606 -3.09027457 5.19121122
8.05092239 -5.95095921 1.49736691
8.99715328 -2.03036046 3.49413633
7.28462219 -7.61317968 2.67082238
8.81919575 -3.74989581 3.36577702
7.71624041 -7.63876009 4.48146248
7.69249010 -7.66106272 -0.56997627
8.01432514 -5.51262045 -0.19184700
7.71468496 -7.17354679 4.04201937
7.25330114 -8.34287643 3.47408628
9.04233837 -2.09045959 2.51147366
8.05953121 -5.65454340 0.43669349
7.48449707 -8.30815220 2.88366580
8.06608486 -6.26879740 -1.83688438
8.75711155 -4.00123310 1.79886746
8.73536491 -4.02479982 -1.34746075
8.01942062 -5.65910006 1.09094429
7.01531935 -8.48238373 4.09167433
8.12619972 -5.93496466 -0.68067300
8.17327404 -6.24852085 -1.22580779
8.78659916 -4.04082298 0.82161450
8.95561123 -3.98568130 0.44007361
7.69817019 -7.58445644 0.14052150
7.92674351 -7.10636806 3.49226522
7.99465895 -6.23368645 2.19705725
7.63105011 -8.29348183 2.42004895
7.63700294 -7.66687965 1.20679533
8.86862087 -4.00771427 -0.63807720
8.14270496 -5.92269325 -0.36839399
8.08011723 -6.99472046 2.89945865
8.68955994 -3.95242143 2.50466490
8.19346428 -6.13168192 0.85086358
9.42893791 -2.02154398 2.21489763
9.26263523 -2.09985924 1.49231160
7.19669104 -8.53350925 4.13501930
7.90754986 -8.31670761 1.01446772
7.81582832 -8.28117275 1.56371129
8.17264080 -6.52440262 1.81755745
8.33479786 -6.45303392 0.21160831
9.32327461 -3.58461070 2.93032074
8.03060722 -7.76464701 3.98145294
8.25710583 -7.04471827 2.33357382
9.69846725 -3.10421538 4.52529049
7.70050621 -8.48171043 2.58739519
9.56653404 -2.03655624 1.13066339
7.99834108 -8.02434826 4.18487740
7.90429544 -8.21467876 0.16173901
8.64576435 -3.98125076 -2.11463523
7.82052231 -8.44690990 2.02411962
7.63427305 -8.52358246 3.06389070
8.21527386 -7.75887775 3.55370259
8.40382099 -6.87718153 1.20547175
9.25663471 -3.73479819 2.09148026
8.45427990 -6.85251427 0.69802767
8.73994827 -7.69843817 -1.21233416
7.93629646 -8.49165535 1.72359455
7.96548271 -8.37268829 0.46812120
8.38029194 -6.85846043 -1.44424832
9.64785671 -3.59165549 1.42409635
9.82808971 -1.88543820 2.25842643
7.83296776 -8.52006054 3.06353903
8.01451015 -8.43667793 0.01022100
9.64098167 -3.63899469 -0.03779280
8.50197220 -6.91887808 -0.50839651
8.24884701 -8.03137779 3.65265179
7.96559095 -8.45398140 1.23390448
8.38989925 -7.09758139 1.80324781
8.04080391 -8.47090816 0.64691943
9.31769657 -3.77729630 -0.88762921
8.55598640 -7.16552544 1.01947320
7.95668030 -8.51754665 2.01077342
9.92813206 -1.89713967 1.50102985
8.11330605 -8.49494267 -0.24021660
7.96620560 -8.52123165 2.33804226
8.12999916 -8.20727634 3.82877111
10.36171436 -3.25145364 0.81917793
10.08720207 -1.74520743 2.39076185
8.10548306 -8.47311592 2.84233260
8.06102085 -8.50757504 1.17980731
8.15863228 -8.33848476 3.50371242
8.52937603 -6.99709749 0.34065601
8.32599831 -8.37755203 2.80150437
8.50510502 -8.01994324 2.90380669
8.37014771 -8.15223026 3.27827668
8.38115025 -8.48755264 -0.34814849
8.17783165 -8.51756096 1.23135924
8.47250080 -7.78779459 2.86240411
8.65138531 -7.77288485 2.05098414
8.25712967 -8.49319744 1.72914445
8.71495342 -7.42293882 -0.43809420
8.46867752 -8.42036533 1.83277535
8.26499176 -8.51069641 0.45977730
8.60724735 -7.93373203 2.52252483
8.43224144 -8.26898003 2.86532521
8.76953888 -7.66394281 1.11773551
10.30163479 -3.17512655 2.32352185
8.64879608 -8.14108276 2.28934407
8.53799820 -8.45355511 0.60321480
8.82110882 -7.67965174 0.45892170
8.75067043 -7.95743656 1.84953749
10.51928139 -2.93381262 3.30975938
10.38716602 -2.88337946 3.95638537
8.63681412 -8.28567314 1.96124792
8.82635880 -7.77358484 -0.60077310
8.67729187 -8.36087036 1.12719154
8.74857807 -8.34111118 -0.06871800
8.89284992 -7.93532133 0.56353682
8.84507942 -7.99303436 -0.85788149
8.89909363 -7.87718439 -0.15424320
8.80907726 -8.20805931 1.24465859
8.86464500 -8.03120995 1.11587369
8.79519176 -8.29442406 0.64788568
8.84765053 -8.20958614 -0.38949180
8.91783524 -8.02202892 -0.07045680
8.89071846 -8.14156342 0.50145149
8.90647984 -8.08564949 -0.37392360
10.74844170 -3.00623751 1.72137964
10.77722836 -2.82676744 2.98574162
11.11727810 -2.54330182 3.05518866
11.02249622 -2.71065092 2.66684103
11.04136276 -2.41873050 3.82746053
10.98867226 -2.89647841 0.83114159
11.09607220 -2.74549770 2.01095724
11.23316383 -2.68801117 1.33778131
11.47446918 -2.16444969 3.14280963
11.46104050 -2.37159300 2.22227859
11.71752071 -1.94229984 2.82167101
11.65173817 -2.21564698 1.72984171
11.93574619 -1.64580965 2.71458721
-16.39819336 7.18071461 5.98805380
-16.28149033 7.39308929 6.57833624
-16.24138641 7.27010632 6.59650135
-16.14365768 7.66537285 6.79424477
-16.17272949 7.02032804 6.18469620
-16.16230774 7.52175045 6.88408470
-15.91227245 7.41247225 7.42323399
-15.99893856 7.20653009 7.11846113
-15.97397232 7.05877066 6.89295101
-15.99877644 7.76116228 6.85714149
-15.89660072 7.72198820 7.22056437
-15.91204834 7.58789301 7.35750151
-15.89255905 7.80293417 6.58685303
-15.81357002 7.21736288 7.53253508
-15.66536236 7.77108765 7.31683064
-15.80821609 6.62131691 5.71805239
-15.55599499 7.02759218 7.78127289
-15.62935448 7.29913998 7.88459921
-15.52899647 7.70410872 7.64788246
-15.52725220 7.47092056 7.95094013
-15.55354786 6.93490934 7.57836914
-15.59993553 7.63767481 7.70324564
-15.61794186 7.77927256 6.96637344
-15.71889305 6.68100786 6.22254848
-15.57255745 6.33381033 5.48261738
-15.56160927 6.71539545 6.75385761
-15.35617256 7.17099047 8.26908398
-15.19324303 7.70036983 7.89720011
-15.40035343 7.72462034 7.05410385
-15.30912113 7.55850124 6.45268965
-15.30621624 7.29517365 8.31226540
-15.40574837 7.06257248 8.11128616
-15.60037041 6.06232786 4.60116768
-15.31559849 7.73657465 7.62585545
-15.24030304 6.37851095 6.52922678
-15.09823418 6.88515234 8.35362530
-15.22505951 7.52615690 8.19039059
-15.16462517 6.74540520 7.78055859
-15.02700329 7.55998516 7.21449184
-15.36029434 5.99210930 5.24808359
-15.08419895 7.05951691 8.58577538
-14.91047478 7.28004885 6.48313761
-15.00601482 7.29692698 8.57545376
-15.01872444 6.15370321 6.52978992
-15.07053661 7.68583584 7.68955708
-14.90958977 7.14508772 8.79682541
-14.84171677 6.99098730 8.92914867
-15.01761436 7.52481413 8.31120396
-14.79284382 7.57526207 8.31224632
-15.21294498 6.03730774 5.77115011
-14.69543171 7.47434902 8.72123146
-14.81291389 7.09005880 9.04544258
-14.68303776 7.27689314 9.37938786
-14.68161583 7.54013205 7.88104582
-14.60140228 7.55421972 8.54635906
-14.79887676 6.67128038 8.28993416
-14.91097641 6.43059683 7.44653368
-14.71739006 7.31112766 9.16799927
-14.62719536 7.11559296 9.52140236
-14.73793697 7.02989292 6.13624811
-14.75581455 7.36050797 8.90272141
-14.61563206 7.56025791 8.23055172
-14.82600594 5.75997257 6.23102999
-14.46770096 7.35843897 9.85933018
-14.64687443 6.38169241 7.87235355
-14.68168259 6.86609221 9.01924896
-14.70194530 6.08044291 7.11039782
-14.46789074 7.51841831 9.52651501
-14.69816875 6.65532732 5.22791958
-14.55855560 7.17978859 7.03257179
-14.41287422 7.51732540 8.43301010
-14.41414738 7.61289597 8.96014500
-14.39253139 6.93468475 9.70316410
-14.30913639 7.47744274 10.02953625
-14.34091377 7.19363356 10.08520889
-14.30991173 7.06135702 10.02513695
-14.37447929 6.48491573 8.58688641
-14.34540939 6.69287586 9.12994003
-14.93568897 5.08746767 4.58181095
-14.44293118 7.59833527 9.23391914
-14.35195351 6.89287376 6.72622156
-14.45549297 6.67860031 5.95651722
-14.28431892 6.05177546 7.89963675
-14.44024467 5.68337297 6.96433306
-14.07162762 7.43892527 8.75255680
-13.68402576 6.57275724 9.84818363
-13.91803646 7.11393356 8.14914703
-14.02178383 6.46116257 6.55074406
-14.02481937 6.92951536 10.21372414
-14.08080196 7.66471958 9.52657700
-14.12920761 7.59302568 9.11314487
-14.76156044 5.08684158 5.11897755
-14.42218113 5.06113338 5.93748522
-14.03356743 6.29722023 8.77921486
-14.25729465 4.00160646 4.24672508
-14.17484188 7.06215954 7.54452801
-13.91002560 6.48349476 9.33604431
-13.79391193 7.06231070 10.74079990
-14.00365639 5.70548058 5.14256525
-14.12916851 5.20599413 3.62746048
-14.20207024 5.53213120 4.22550011
-13.99218273 4.99618959 6.74713993
-14.10436249 5.74785948 7.73245859
-13.97944832 6.75130701 7.22258234
-14.17802334 4.22204351 4.93386793
-13.27668667 7.52926493 10.15308857
-13.51400089 5.84225798 8.84083557
-13.69443512 6.82420492 7.92412949
-14.00234985 6.08244658 5.89351034
-13.26772785 6.03368807 7.33436537
-13.85436630 5.88262129 8.37444687
-13.43285942 5.34403038 5.86338663
-13.58131981 7.22475338 8.96828651
-13.38850307 4.37906599 4.15646648
-13.33152485 6.90544605 8.66859341
-13.60572243 6.18261814 6.94533825
-13.16357136 7.14429140 9.40305042
-13.76552773 5.18979597 7.48790884
-13.63886738 4.36650229 3.36984277
-13.84250069 5.33228874 4.88259697
-13.69310760 4.95780468 4.52127314
-13.81893826 4.02500296 5.43024826
-13.32464218 6.56659794 8.09590435
-12.76705647 6.41687965 10.71971035
-13.14768219 6.18083048 9.87748528
-13.36585426 6.05098486 9.37381935
-13.00920200 6.43347692 8.37781620
-13.33798122 5.03228331 7.96701860
-13.30063915 4.43528032 4.54157734
-13.19218636 4.47685766 4.86498117
-13.10331535 5.16813374 8.50028133
-13.09662819 5.64543104 9.15676308
-13.83766937 3.64269090 4.73215103
-13.65491867 4.13252354 5.95987606
-13.08237743 3.88148141 6.62102795
-12.91870403 6.79698944 9.07531834
-13.40346241 5.04768705 5.36174774
-12.60466480 6.96545553 9.79480267
-12.52014732 4.80947924 6.67590618
-13.50883007 3.58446455 5.38406658
-12.78769398 4.75242567 6.14823818
-12.93157005 5.85912466 9.66881943
-13.02229214 4.91846704 5.98830080
-13.34189796 4.33774328 6.87568665
-13.13255310 3.90644312 3.91453218
-13.20124531 3.62356353 6.05531025
-12.51850224 6.20086670 10.66024017
-12.47694397 6.29308748 8.92004967
-12.91273022 4.80565691 8.24788094
-12.88309956 3.16361284 6.00292349
-12.52643776 5.29719877 9.40929794
-12.33278275 6.71830225 9.72545910
-12.76914597 4.08401871 7.37964821
-12.79060555 4.32250786 5.44726086
-12.00890827 6.28761625 9.51472092
-12.23100090 5.91114235 10.57603931
-12.51852989 3.39701152 4.45199776
-12.50050926 3.25622630 6.70123816
-11.53140354 4.56691837 7.72068167
-12.46302795 3.76727939 5.17301321
-12.30288601 4.80384874 9.05476665
-12.85009956 2.39166546 5.07970333
-11.95786095 5.51667356 10.37100887
-12.44627190 5.57934856 7.93634272
-12.04950047 3.74466491 5.84158516
-12.27390766 4.22049761 8.24475384
-12.84541130 2.68384194 5.45158243
-12.52961159 3.68339872 7.18694162
-11.69484329 5.39050579 8.72068405
-12.52398586 3.11264753 3.91217256
-12.14065266 3.69662261 7.71111679
-12.14119053 4.53609562 6.82025623
-11.99175358 5.26229429 10.02457047
-12.60534000 2.69794106 5.89470768
-11.33797550 5.45403671 10.98270512
-11.91443729 3.22353053 5.31123734
-11.08753490 5.53450489 9.65462685
-11.78877831 4.40676498 9.21133232
-12.10485268 3.04420614 4.72130823
-12.50794601 1.86949885 5.15328979
-12.29871845 2.70207715 6.35624075
-11.56702232 4.58470345 9.72795200
-12.17046642 2.05092096 5.89330244
-11.74279404 2.90925860 7.31459045
-11.66606331 3.93006110 8.73660660
-11.71544075 3.41802192 7.97575903
-11.09392071 4.48890829 8.28999805
-11.53908253 2.38643885 7.04746485
-11.06017208 4.50273180 10.23260117
-11.24314022 4.01956177 9.45335960
-10.96521378 4.81848097 8.93672371
-12.02781105 1.44451225 5.56515837
-11.60815239 3.04982066 5.54541111
-11.21459866 3.80538368 7.06202555
-10.77509785 5.73226452 10.24066544
-11.95082283 2.15475082 6.30421638
-10.91519165 5.06143808 10.99033451
-11.37817860 3.52522898 8.68575954
-11.49301529 3.30161691 6.02254152
-10.81148529 4.03300571 10.01377487
-11.65947151 1.49923110 6.15192842
-11.89120102 2.62385559 4.52303505
-11.24426651 2.65152502 5.57882547
-11.51039886 2.57564163 5.11298323
-10.71608257 3.42150760 7.28497219
-11.25274849 1.99871194 7.08526564
-10.57778072 4.39511824 10.64989948
-11.54754829 0.91414142 5.87587357
-11.24312401 2.42441487 7.51897192
-11.02531624 2.91882730 8.54138565
-11.20007896 1.77801812 4.70301533
-10.47656918 4.25754976 8.88274765
-10.21564674 4.57127857 11.19204235
-10.57321930 4.00758457 8.41491985
-10.73554707 3.02865839 6.70449972
-10.21571732 5.02079678 10.06348801
-11.00914574 1.96688461 5.18685961
-10.84069061 3.41904593 9.35047531
-10.99081612 1.37724030 6.93827629
-10.44210625 3.52525401 7.92491007
-10.35064316 4.64826488 9.49916649
-10.94205570 1.70571566 7.30868149
-10.84584236 2.25052643 8.08902836
-10.66992378 2.57704711 8.74015903
-10.65918922 2.64100909 6.34064245
-10.94671345 0.91204381 6.67164564
-10.09811115 3.86506581 10.64135075
-10.24468708 1.78170538 6.01636171
-10.32644844 2.41140747 6.56704378
-10.88470459 1.32214737 4.73298645
-9.87889290 3.77047801 9.09051800
-9.94060135 3.25418019 8.38445187
-10.24082088 2.79790330 7.20419121
-10.50217724 2.13226771 8.58720207
-10.44771385 1.38907588 7.99622297
-9.18393612 4.42834044 10.49829006
-9.78304100 4.10882616 11.16870022
-9.52420330 4.07473087 9.83103657
-10.02469063 2.83885789 7.67610550
-10.42627048 3.29209685 9.76350212
-10.27256489 2.53315449 9.27194214
-8.94485188 2.99555731 9.38602829
-10.47563553 1.39254808 5.36813164
-10.23952293 1.59401667 8.54724407
-10.63753510 0.95077980 7.18273830
-9.60704517 3.56824708 10.88932896
-9.98346138 3.21750641 10.20244122
-9.77949142 1.62099266 6.59175634
-10.61900234 0.36011881 6.78483820
-9.74849606 2.74741173 8.05277443
-10.16572666 1.46573877 5.83489990
-10.02997780 1.95559955 9.13130093
-10.06514263 0.60242611 8.02624702
-9.53258705 2.71962428 8.36822319
-9.34477997 3.16079521 10.82452393
-9.27931404 2.94515634 8.94742298
-10.33837318 -0.90795600 6.42709589
-10.22908878 -0.10509750 7.14244604
-10.22936058 0.95026833 5.36490536
-9.86291695 2.41986561 9.70001888
-9.62900829 1.75684893 9.50224876
-10.05296135 0.22705650 7.76869822
-9.77819347 1.01750100 5.99754429
-9.23290539 3.66234064 11.29146957
-9.48371029 2.25276160 10.00655460
-9.93002033 1.01050198 8.57551861
-9.20351410 1.87344694 7.97585154
-9.43996811 1.84084046 7.51918459
-9.38992500 0.99121410 9.29663467
-8.86182594 4.10165167 11.91306877
-9.64095402 0.33933449 8.53882027
-9.69419861 0.33738330 5.67670727
-9.80650425 -0.27439499 7.87924910
-8.33065987 3.77170253 10.66544151
-8.79386616 1.65611792 8.37236023
-9.46684933 0.95206261 6.47436714
-9.20615101 2.47630596 8.58259583
-9.96874428 -1.12022936 6.88920021
-9.64271164 -0.56247479 7.96478224
-8.82633591 2.74511814 10.99665260
-9.03897858 2.51390886 10.65126896
-9.25172424 0.42984930 9.11970139
-8.80497074 1.88346505 10.47382164
-8.45437241 2.93071866 9.84038448
-9.17737579 1.30758035 7.41578960
-8.68807983 3.46217632 11.58288670
-9.15270519 1.52252185 9.89768791
-9.37960815 0.20793450 6.05282068
-8.11475277 2.94127345 10.15476131
-8.83897495 1.07653773 7.80262184
-8.67930984 2.41953754 9.19352245
-9.44928074 -1.06895554 7.90339994
-8.30317307 2.81517792 11.46223545
-9.54259872 -1.57536149 7.36951685
-8.88561440 0.78525239 7.50654078
-8.40200996 2.52026486 9.55662346
-9.14806747 0.31230420 6.55635738
-8.27218437 1.81797183 9.14902306
-8.67774487 0.37180319 7.52255774
-8.43257332 1.92408025 10.82774639
-8.61976814 1.22457063 8.24159718
-8.38204575 1.58365977 8.82921886
-8.85390949 0.52485180 9.63355160
-8.19510269 2.11651254 11.13389683
-9.30742168 -0.50841421 8.48724651
-8.88474274 -0.92916238 6.16483498
-9.07049751 -0.21446911 6.29552937
-8.73188400 -0.81153029 6.54179192
-8.53188610 -0.25595400 7.28200912
-7.71245670 2.91269422 11.91837025
-7.46007586 3.02635241 10.74703789
-8.27468109 0.89797890 8.43734264
-8.41916180 0.45051569 7.95453310
-8.49731159 0.73210591 10.11523056
-8.51432323 -0.36514890 9.49494743
-7.64310980 1.52614617 9.54439735
-8.19990158 -0.37090859 7.70287609
-7.83438015 2.52149606 10.08368492
-7.98365545 0.61747169 8.58852386
-7.75099468 1.03593993 9.09401035
-8.46321487 -1.43868542 6.49785709
-6.73863173 3.10668635 11.26325226
-7.66584969 1.50171542 11.21225357
-8.08771515 1.18770897 10.73105240
-8.33075905 -0.84562802 7.21866798
-7.33323669 1.86287725 10.03580856
-7.19883108 2.36938834 11.93579674
-8.28331280 -1.27674365 6.95522976
-7.33495617 0.81365430 9.34585667
-7.71883345 0.19182600 8.60902882
-6.97726393 2.71245813 10.85132694
-8.05949974 -0.93883890 7.51821089
-7.12759399 2.32633448 10.49985218
-7.65577269 2.00810409 11.47336769
-8.13900375 -1.56289566 6.85314512
-7.26019335 1.37145209 9.76861477
-7.68974781 -1.04888821 7.87536764
-7.94479656 -1.34095049 7.35443449
-7.36508894 -0.35601479 8.65028095
-7.51288509 0.27949920 10.74360561
-6.67086172 1.46783638 10.27622700
-7.28382492 0.92012548 11.20017147
-6.76829243 1.78315198 11.90870953
-6.56182194 2.28310323 10.83841705
-7.83398962 -1.72813559 7.03068495
-7.06476307 0.78453028 9.56510448
-6.69019508 0.88885230 9.91275692
-6.95247936 0.05769660 9.26102448
-7.63879919 -1.54112220 7.50062895
-7.38754511 -0.97942138 8.24793434
-6.91239262 1.13650918 11.53237247
-6.96171761 -1.08546865 8.57478523
-6.44258070 -0.55997372 9.32039833
-6.46221161 1.02310288 11.74248981
-7.43960667 -2.06562424 6.87091732
-7.42584372 -1.34216189 7.93130827
-6.27751064 0.91912198 10.22441101
-6.95113993 -1.46717823 8.27464199
-7.18869257 -1.76193929 7.68665075
-6.02553558 1.57501709 12.19716930
-6.05401325 1.50333035 10.68217850
-6.18183804 -0.26599950 9.66313362
-6.95384693 -1.98120058 7.54597616
-6.49541473 -1.27428055 8.82830238
-5.62871313 1.63247669 10.98404980
-6.85040808 -2.14523029 7.26097298
-6.65040684 -1.77733624 8.18319607
-5.63293934 1.03324139 10.66155148
-6.39308977 -1.55154932 8.64824581
-6.30367231 -2.23267198 7.48035097
-6.20540142 -2.08484459 7.96901894
-5.10102701 1.31940866 11.07564831
-5.54454470 1.32400262 12.31938648
-5.65114975 0.30850410 11.87121296
-5.52828550 0.24749100 10.33707047
-5.66810703 -0.39238021 9.92819595
-5.83495617 -0.97633678 9.50335503
-6.43790627 -2.30901146 7.02121687
-5.83076620 -1.39402652 9.21536732
-6.40816116 -2.39342546 6.49396467
-6.20192146 -1.90539205 8.33409691
-5.11698055 1.52027667 12.56896496
-4.74974346 0.96656340 11.05597019
-5.70491886 -1.64085448 9.05837536
-4.85237122 -0.45458221 10.34899139
-5.05712843 -0.80695438 10.05949306
-5.38667440 -1.18872476 9.63594723
-5.77223110 -2.24574971 7.83227873
-5.08871794 -2.16312003 8.53015423
-4.07048988 1.40219188 11.52511024
-4.31595564 0.87869102 11.17970943
-5.35298920 -2.35590935 7.63665056
-4.20269632 -0.67237830 10.52373600
-5.49367952 -2.46066761 6.72442341
-4.02103853 0.14798880 10.97318935
-4.64028645 -1.06434870 10.10491085
-4.88118076 -1.54387200 9.61102772
-3.76040697 0.82592010 12.79388809
-4.72271395 -1.30091286 9.90946293
-4.70398331 -2.27380133 8.37106514
-3.73005176 0.81073380 11.35489845
-3.19351053 0.95729703 11.57739735
-4.85144854 -2.50821018 6.58819818
-4.30270243 -1.58044291 9.84545040
-4.41874599 -2.44437718 7.61422586
-3.97735763 -1.41684783 10.14400196
-3.87723589 -2.51185107 7.14114714
-4.39365768 -2.35885048 8.19918060
-3.76296926 -0.99960148 10.50721931
-3.37021899 -0.56008983 10.87583447
-2.66885161 0.85871428 11.65257549
-3.37458229 -1.33897710 10.40302944
-3.56257772 -2.41170025 8.20089912
-2.86590838 -0.07782150 12.68335247
-3.71490812 -1.65441954 9.99781704
-2.88505268 -0.04672800 11.24386692
-2.61355782 -2.46577311 8.07670116
-3.01659274 -2.49835420 7.66903687
-2.99059701 -0.98207313 10.76233864
-2.48679543 -0.58482748 11.09646130
-2.79625750 -2.57534409 6.46190405
-2.38643312 -1.08901525 10.85648918
-2.85075879 -1.62194550 10.29946041
-1.85616696 0.95822310 11.82853317
-1.90566087 0.11629500 11.50753975
-2.71938968 -2.12182617 9.53853703
-2.20288467 -2.53727078 7.32108402
-1.81981528 -2.41832066 8.60766411
-2.03653002 -0.60877651 11.18305397
-2.46117902 -1.81121576 10.16745567
-2.72432518 -2.34030247 8.80993366
-2.11361885 -1.35913467 10.71471882
-1.78452897 -1.05654991 10.98517036
-1.19551861 -0.19866090 11.46443367
-1.23609185 -1.73055208 10.47010803
-1.87802255 -1.59044611 10.54857635
-2.31007290 -2.25199795 9.25615692
-1.85421777 -1.90191746 10.15577888
-1.86921632 -2.09891272 9.77775860
-1.33214521 -0.72949499 11.22772694
-1.06405175 -1.47600186 10.76815701
-1.38811445 -2.59602475 6.22322845
-1.08671010 -2.49335408 8.18825817
-0.68639612 -0.14237700 11.51780796
-1.20284700 -1.95558476 10.16386509
-0.88869780 -1.14814234 11.03620911
-0.84687299 -2.56261325 6.99972439
-1.08636665 -2.28652501 9.30940819
-0.77340662 -0.66804153 11.31093597
-0.95769542 -2.16216326 9.72868538
0.06599520 -0.52227807 11.37426662
-0.27729419 -0.81992102 11.25111675
0.18530910 -0.07962450 11.52426243
-0.27375510 -1.70908475 10.56472111
-0.05803050 -1.48935056 10.79463005
-0.30379650 -2.36713028 8.96611214
-0.06269940 -2.51015091 7.86337996
-0.18815820 -0.96787262 12.60661221
0.48884669 -0.69536757 12.68584633
0.33709380 -1.27598822 10.96571445
-0.19096079 -2.30115747 9.28440285
-0.16646490 -1.86262560 10.35525227
-0.27127200 -1.99863446 10.12597370
0.18708479 -2.21664715 9.56039429
1.01264429 -2.33903289 8.93869877
0.54733080 -1.08677495 11.07779312
0.25485989 -2.09648037 9.89514732
0.71015102 -0.75773847 11.22532177
0.98517781 -0.51923221 11.29298401
0.68594939 -1.95087206 10.16686153
0.51747721 -2.56956649 6.50707579
0.75231719 -2.43991780 8.38105869
1.21154284 -2.49093175 7.64724207
1.03542089 -1.52834010 10.68511772
1.24921048 -1.10774755 10.97397900
1.02042663 -2.26343632 9.30395317
1.12583816 -1.31384885 10.85323429
1.34451783 -2.04520440 9.88377666
1.35907555 -0.28086779 11.29470539
1.05082202 -2.56760907 5.88051224
0.66542488 -1.72577703 10.50916862
1.59792840 -2.15429640 9.54837894
1.53110731 -0.90764642 11.01521397
1.62233555 -1.04039216 12.39294338
1.79041111 -1.41501963 12.19879436
2.04769301 -1.88648820 10.03417969
2.77495646 0.56265688 11.09777069
1.98514974 -2.38505530 8.40851879
1.96467447 -0.46190310 11.05108929
2.23821568 -2.54060674 5.68279362
2.25574684 -2.22975087 9.12786102
2.02733064 -1.15632474 10.73342705
1.85103118 -1.46612883 10.56259537
1.70815408 -2.53844190 6.61083698
2.12860775 -0.87022918 12.32664204
2.23564339 -1.28281617 12.12172985
2.14498949 -0.77293921 10.87485027
2.81814599 -0.00448260 10.90811539
2.56112671 -0.89509380 10.68120384
2.86760330 -2.50933361 6.02474451
3.08460879 -0.83812112 11.98200417
2.64906716 -2.16955137 11.46319675
2.56274557 -2.41857028 7.86951923
3.01740289 -2.47937107 6.57318401
2.82722521 -2.11507869 9.33422565
2.62862992 -2.33934951 8.49871349
2.36958981 -1.71626997 11.85553360
3.11954689 -1.16840219 11.82365131
2.50014472 -1.31819010 10.47771740
3.49262285 -0.13242240 10.71889782
3.22732162 -0.69739622 10.58060265
2.08990884 -1.70883512 10.26676559
2.55996895 -1.54231560 10.30155945
2.96253538 -1.69889128 11.61948586
3.26704502 -1.31373417 10.28077507
2.70294666 -1.99341094 9.66458702
3.49738979 -0.76395482 11.90226650
4.01408243 -0.14308560 10.62743759
3.37628794 -2.20195436 8.83763123
3.23932743 -2.37343311 7.98151207
3.43255830 -1.96188486 11.36355209
3.47970486 -2.49338150 4.62648344
2.78942227 -4.38783979 7.87772608
3.39310956 -2.29474401 8.40782452
3.89534092 -2.40178132 7.12114763
3.27374458 -2.39257503 11.12200928
3.51950645 -1.33809626 11.65882397
3.25782895 -3.30436015 9.94993019
3.64100313 -0.31621289 12.03388786
3.82470655 -1.90445817 9.48752117
2.96142292 -4.27574348 8.02651882
3.19484830 -1.01055694 10.46361923
3.98482656 -2.02233577 9.16961956
3.88863635 -1.51796103 9.96866608
4.17646551 -1.29467309 11.60738659
3.84193563 -1.98992610 11.28842449
3.47556019 -2.80160069 10.70353127
4.07936335 -0.76436007 11.83666992
4.09776831 -1.00102949 10.28144836
2.99903750 -4.56109762 7.66710901
3.05610275 -3.96763301 8.70506382
4.24467611 -0.44493359 10.48381996
3.97135377 -2.29550171 11.05104446
4.11138487 -2.09353089 8.92941093
3.43492413 -1.73283362 9.87352085
4.10163355 -2.31400490 7.81620741
3.48927331 -4.52384377 7.45090914
3.39643955 -4.37228346 7.61942816
3.97881985 -2.77688050 10.59569073
4.42130995 -1.69440091 9.59402847
4.70443249 -0.15921870 10.45079327
4.45039892 -1.77401555 11.29659939
3.76708317 -3.95561671 8.40889740
5.21556807 -2.21065807 7.65900850
3.99374938 -4.31242847 7.44088221
3.87980008 -4.75056410 7.19490862
4.16233683 -2.46165562 4.93188763
4.90022707 -0.02214030 11.85291195
4.87494564 -1.78975415 11.14377213
5.18722534 -0.24049769 10.24587440
4.81172609 -1.45955491 11.35015965
4.18519449 -2.93435550 10.28802490
4.46287489 -1.16261101 10.08136749
4.41134214 -3.21564579 9.65433311
4.45366383 -2.17253613 8.43588829
4.69116259 -0.79966950 10.21467686
5.11408377 -0.60150957 11.60392094
5.65649176 1.29623103 10.55822849
3.96633220 -4.51745749 7.19229746
4.52288389 -2.42504191 5.72844934
5.36445284 -0.70018321 9.99610615
4.34864569 -2.48019791 10.78782368
5.25153732 -2.03697205 8.44723988
4.89951801 -1.45106101 9.68608379
4.35946703 -5.01255131 6.92956924
4.93441820 -1.00965035 11.50716019
4.87486029 -2.36304235 6.44996738
5.48674679 -0.29840639 11.56281281
4.39242268 -4.29491901 7.23277664
5.02088881 -1.89207387 8.97793961
5.71043062 -2.11020470 7.82261419
5.59475946 -0.17292720 10.08648491
5.48919916 0.75418621 10.42947483
4.72447252 -3.85683131 8.10063362
4.16508293 -4.42716980 7.12726593
6.37691355 1.51563156 10.30259991
4.30631828 -4.65940523 6.95683146
5.44203997 -1.02037346 9.78041935
5.06086540 -2.91672349 9.92556572
4.51070356 -4.58750296 6.80808496
5.65991354 -1.03698575 11.21742630
4.85552216 -2.15986609 10.87897396
4.77714872 -4.35841036 6.78525400
5.43134260 -1.32915688 9.53958702
5.25728273 -1.65499711 9.26793766
6.22132206 0.60677493 10.01635170
6.19850206 1.01846015 10.17420959
4.66138649 -4.84408522 6.67531490
5.37878370 -2.27582192 7.03122044
5.07214117 -3.22983503 9.28972244
5.55587626 -1.71810842 10.92669964
5.93817043 -0.54841739 11.30070686
6.06968069 -0.42825449 9.76235580
4.75263023 -4.47799730 6.68932152
4.94074821 -2.79028869 10.17280483
5.16197491 -2.59692097 10.33620834
4.75533485 -5.14308119 6.64695215
5.49346304 -1.99154425 10.75054455
5.03847933 -4.65579462 6.36910725
5.54445124 -1.70494139 9.03464222
5.17853928 -3.98938656 7.47609568
5.94632387 -2.25813341 6.40696001
5.81209898 -2.59710717 9.99257469
5.12613344 -4.54127693 6.33512878
5.62998629 -3.52328157 8.26339054
4.92011595 -4.93105030 6.45507765
5.74768972 -2.31742120 5.78400135
6.61159658 1.12663531 9.98239517
6.16223574 -0.79946071 9.53416348
5.88802671 -1.17230582 9.42773628
5.88635206 -1.43105555 9.18342876
6.43597698 -1.95371187 7.82436895
6.21936893 -1.16464055 10.89556694
6.43925333 -0.56155348 11.05246735
7.20663309 1.43472874 9.74809837
5.93052101 -2.10763621 10.44806957
5.21111536 -4.92776537 6.22272682
6.06844568 -1.87035358 8.36929893
6.39968348 -0.45812821 9.55902863
6.73564720 0.48878700 9.66533566
5.75763702 -3.04243135 9.29554367
5.14304924 -5.18720484 6.35115671
6.19538498 -1.73582220 10.58929157
5.48409748 -4.40155458 6.13386583
5.32001448 -4.46300364 6.21470165
5.24584866 -4.27962017 6.61457014
6.32812214 -1.41912448 8.90797424
6.31832504 -1.66670787 8.57909584
7.08379126 0.71394777 9.51108646
6.79394960 -0.70085728 10.80262661
6.77998114 -0.44807610 9.31415558
6.33394909 -2.09148455 7.37444639
5.44353390 -6.03190374 6.43466997
6.39597940 -3.17770100 8.55763531
5.85490561 -4.01394987 6.87869787
6.21116543 -2.27731133 10.12962341
6.72193050 -2.27311134 4.10180092
6.49447393 -3.50720787 7.62904119
6.47022295 -2.61007166 9.59032249
6.62184906 -1.10974324 9.01570892
7.20319986 -2.14383531 5.90892696
6.10672331 -2.80167961 9.54701042
7.14983988 -0.13013250 9.16559505
5.91402435 -4.35426378 5.75163794
7.00533819 -1.65134883 8.06706429
7.49993420 0.73236692 10.86853123
6.29110193 -3.99240541 6.51412392
6.70917845 -2.13446784 6.63693428
6.73900509 -1.34899795 10.50721645
5.78491783 -4.26273346 6.16282177
6.72276640 -2.24392772 9.85689354
7.88947058 1.94415665 9.52176380
7.67946386 1.23638189 9.29364967
6.74169683 -1.91034150 10.14398766
7.04020643 -0.72166443 8.99129963
7.61509705 0.73115402 9.11240387
7.14288998 -1.77350914 7.69525099
7.04892588 -1.38320613 8.42150974
7.15040445 -2.16805530 5.56960821
6.76565552 -2.87372470 8.96481133
6.41982651 -4.14358807 5.86803436
7.40042925 -0.73197842 10.39577866
7.11880970 -1.10485196 8.66630554
7.88471413 0.69220620 10.60039902
6.86919308 -2.67888784 9.22775173
7.48866367 -3.28221679 7.27296305
7.19139051 -1.99325764 6.91271925
7.59149837 -0.29376990 8.74779224
7.20145416 -1.06972229 10.36097717
7.36137199 -1.61448264 9.93243027
7.59627533 -1.09132624 8.26004887
7.32948828 -2.05597806 9.60280609
7.04032040 -3.18090725 8.00719738
7.73178053 -0.82868040 8.32800007
8.47045422 1.66043460 8.86318779
7.87731504 -0.92896742 9.97296333
7.49206114 -1.82121837 7.22036839
6.96773863 -3.92611718 5.94590950
7.93800545 0.08190150 10.32859039
7.70999956 -1.56623340 7.56210470
8.11445999 -0.00159750 8.38784981
7.43110132 -2.43027878 9.13285160
7.94846773 -0.54231149 8.30717659
7.35918140 -2.87295008 8.47681618
8.06163406 0.72777897 8.72944736
8.35415363 1.19355690 8.69972420
7.46979856 -2.19829369 4.19184017
7.74811983 -1.29321456 7.90408421
8.39862728 0.93885392 10.31157398
7.55334711 -2.69931221 8.64562416
7.88713598 -2.06703758 5.46502304
8.10400486 -1.80174935 6.53077412
8.01564217 -1.92896581 6.14776373
7.62717676 -2.15315270 4.65398502
7.79697371 -1.74569726 9.50753117
8.02150154 -1.28612816 9.64336777
7.83522558 -2.90650296 7.95145559
8.20011234 -1.41890037 7.25261784
8.16580105 -1.95019674 9.01690102
8.63457584 -0.10259070 9.69214916
9.07687378 2.24538350 8.63971233
8.38863373 -1.24072564 7.26551914
8.12379837 -1.63561320 6.95703650
8.49505997 0.78956670 8.33349705
8.41968250 -0.44538870 7.87562323
9.01387978 1.31025815 9.96246624
8.53232670 -0.12157560 7.91728830
8.46235943 -1.08781862 9.40079594
8.13069153 -3.27050734 6.55095911
8.99514866 1.10624754 7.97177124
8.92641258 0.72854221 9.77849293
8.29067135 -0.89968407 7.72113085
8.85870361 0.57842040 7.85685778
8.59226608 -1.96731961 4.92031860
8.55030441 -2.06117249 4.15615654
8.17284775 -2.40341425 8.49260426
9.27180576 1.25561368 7.75266647
8.60766315 -1.56550825 6.45308065
8.55399132 -1.85994875 5.62814474
8.55925560 -1.50260246 9.01449299
8.98303413 -1.32149100 6.35413742
9.14883423 0.11861100 7.29626322
8.59128475 -2.19829106 8.32548046
8.54172134 -2.91541886 7.12304306
9.24797535 0.51158071 9.38770485
8.83544922 -0.88367909 7.08374643
9.47964287 1.37605143 9.56099701
9.07042885 -0.53556693 9.10525322
8.67730618 -1.86566520 8.59711933
8.71717262 -0.53977263 7.49007750
9.10075474 -1.07763815 6.54139996
9.70514107 1.83440220 7.62440014
9.38826942 0.87541682 7.35627937
9.84680557 1.18754995 6.94822359
8.43884468 -2.65933990 7.81971788
8.84765244 -1.66986239 5.81658077
9.11883640 -1.09408259 8.74305534
9.37970638 -1.42244792 5.52555418
10.06615448 1.87940609 9.22767735
9.10435200 -1.81396472 4.81396246
8.89462662 -3.13908863 5.92037535
9.67383480 0.77966309 6.91452789
9.35048294 -0.42302969 6.75255966
9.73822403 0.84666240 9.04317379
9.03439426 -1.73456037 5.28838396
9.14962387 -1.60351980 8.33352947
9.96655655 1.68932998 7.15480185
9.26097488 -1.91854322 3.81945801
8.96242905 -2.30975652 7.76497793
8.82417393 -2.64286208 7.42164850
9.56910801 -0.33952859 8.67042065
9.64241600 -0.36132091 6.35482311
8.95568275 -2.77645683 6.95412588
9.23445415 -1.89863253 7.95755148
9.55472469 -0.77343363 6.16987610
9.60452747 -1.48968267 4.94511318
10.02800179 0.80376542 8.70298672
10.22194576 2.66072845 9.52589607
9.44670773 -1.95543182 2.94024897
9.50898266 -1.73903489 4.27942085
9.73813438 -1.25966370 5.19941473
9.58921719 -1.04675496 5.80562687
10.66473293 2.77159524 9.10941029
10.56481457 1.89230788 8.67017460
9.24078941 -2.44381142 7.22507048
9.88749886 -0.66532171 5.71596193
10.15339947 0.25607881 8.28368664
9.53760147 -1.65176463 7.83993340
9.64587021 -1.21143544 8.08310699
9.86982155 -1.57538342 4.06684923
10.04879570 -0.21113190 5.76420832
9.67813396 -0.85840082 8.27923679
9.14428234 -2.89615560 6.37057161
9.93919182 -0.30065009 8.26931477
10.12318707 -1.34418118 7.34948206
9.62207603 -2.62998319 6.30707026
10.57533455 1.10208333 8.20169258
9.79764843 -1.75293326 3.44437075
9.93395901 -1.00187314 5.23344851
10.25400257 -1.00164056 7.46557856
9.59175777 -2.87096095 5.72123909
9.89201164 -1.98729002 7.02157354
10.89789486 1.88452256 8.24791622
10.05310154 -1.31557620 4.40023756
10.20666981 -1.58532357 2.97574592
10.15779686 -0.61510050 7.83824444
10.71589947 0.70965958 7.79372835
9.71137333 -2.24972582 6.91564369
10.28239536 -0.99899608 4.52811146
10.34403992 -0.49196610 4.97012329
10.32916546 -1.39159715 3.38253355
11.10432625 0.83533740 7.29752207
10.23469639 -0.73761058 4.94891024
9.92476463 -2.73507023 5.54052401
10.41811275 -1.13531911 3.86675334
10.55603695 -1.34809172 6.69321346
10.53090763 -0.70961553 7.27589846
10.10856152 -2.37166691 6.04933310
10.69287205 -0.99988681 6.81402826
10.14350986 -2.12817550 6.41838169
10.60498619 -1.77285504 6.15099764
10.86177254 -0.63367379 6.80483437
10.17372227 -2.80790138 4.79700041
11.16673756 0.40739939 6.92964029
10.28050423 -2.60226631 5.19290257
10.60440636 -2.39736652 5.03381062
11.37286663 0.48071069 6.62667847
11.75430679 0.97160339 6.26897907
10.69652462 -2.65887117 4.07462692
11.22861290 -0.48219451 6.27915382
11.23667717 -0.94309741 5.92893314
10.81539917 -1.94176769 5.52482271
11.58381748 0.22616340 6.06787252
11.59468269 -0.40464121 5.60192060
10.93672943 -2.17765951 4.78763723
11.16248417 -1.53210807 5.37736988
11.68323231 -0.57938403 5.25558710
11.32637787 -1.87199008 4.42304945
11.51716709 -1.54924107 4.49500704
11.30812454 -2.05526495 4.05368090
11.50589657 -1.10698020 5.18060255
11.84815025 -0.66543633 4.76925039
11.70129108 -1.72934008 3.58677649
12.05943584 -0.53360248 4.27239370
11.83838654 -1.01114094 4.39763689
11.83083534 -1.33101153 3.90708447
-14.12084007 7.57259083 10.24322796
-14.23205376 7.32996607 10.29453087
-14.00568199 7.42269945 10.64043427
-14.02525616 7.19789886 10.56053352
-14.02568913 7.65815735 10.13199711
-14.05777550 7.67745638 9.78983307
-13.92305183 7.59529638 10.59590721
-13.79675865 7.55501747 10.89286900
-13.75660610 7.35233212 10.98734856
-13.61358261 7.21988773 11.11612034
-13.76386452 7.60643005 9.71943283
-13.12988663 6.90965414 11.28958988
-13.55355644 7.66420698 11.04624939
-13.48984432 7.48116159 11.30329323
-13.13913345 7.04985142 11.51251984
-13.62685776 7.69751930 10.81261635
-13.14128304 7.17782354 11.63330650
-13.49298954 7.72269487 10.59444904
-13.19159126 7.69332409 11.38471317
-13.26703930 7.59465885 11.50301743
-13.20463467 7.32658768 11.63385105
-13.12993240 6.62599850 10.68180084
-13.39211845 7.72863245 10.87787056
-12.52769375 7.74049520 11.85837173
-12.73881435 7.66966057 11.99241734
-12.68605232 7.56728411 12.17055702
-12.58744812 7.26760006 12.27363968
-12.39788628 6.93233061 12.11390495
-12.84733200 7.44557190 12.03312874
-12.79037285 7.36736536 10.38283634
-12.47307777 7.16548347 12.34308720
-13.07683182 7.69861698 10.93096828
-12.63065624 7.72200155 11.93988705
-12.69630241 7.59620810 11.04886723
-12.33388805 6.63688183 11.60060310
-12.06584740 7.08122396 12.66102886
-12.32291126 7.20010424 10.58810234
-12.16865826 7.71029425 12.47609615
-12.24559307 7.58380842 12.59224892
-12.11297894 7.72510862 12.08896828
-12.04692745 7.20188618 12.77392006
-12.14812565 7.50193405 11.42774010
-11.91918850 7.36485004 12.94570351
-11.72361374 6.86593580 12.63634777
-12.37028313 7.67742443 11.63217449
-12.03807449 6.87331247 10.31304646
-11.63893223 7.54867601 12.03164959
-11.65664482 6.48529148 10.18846607
-11.84864521 6.21268177 11.40673923
-11.33223724 6.96481276 13.14538002
-11.62620163 7.21289968 13.15264416
-11.67625618 7.50417376 13.16319466
-11.41784573 6.51954699 12.28413868
-11.12933159 7.73925495 13.32318974
-11.69206715 7.62955189 13.07994843
-11.42061996 7.08454752 13.23322582
-11.67028427 7.12616062 11.16891193
-11.24108982 7.59851742 13.49232769
-11.53745747 6.81423712 10.79281235
-11.65292358 7.69023514 13.03057480
-11.23974133 7.42671442 13.53930855
-11.16124153 7.74962902 13.09932995
-11.20392132 7.22574139 13.52524090
-11.06954765 7.12422180 11.75001526
-10.96800137 7.54180527 12.61863232
-11.73939037 5.93193197 11.15011501
-10.95513630 7.70171356 13.59349823
-10.81214237 7.22957945 13.82720470
-11.00889397 6.67269516 11.13022804
-11.24127674 7.66598511 12.65626907
-10.83911324 6.27766562 12.42918587
-11.11288166 6.26133728 10.50318146
-10.69239807 6.56491709 12.97503376
-11.07268047 5.97829723 11.84332371
-10.66597176 7.65513611 13.89537716
-10.57081604 7.53966999 14.04141903
-10.25098324 6.87341070 13.83989429
-10.66232109 7.03578615 13.78302574
-10.39581013 5.87174606 12.30915833
-10.63484097 5.37596989 11.58868408
-10.39258575 7.33565617 14.18749905
-10.54108906 7.16918230 12.30789566
-10.30040836 6.26738548 12.85518265
-10.86100864 6.88034964 11.56435966
-10.03840065 7.20031595 14.37698555
