2.47181000 -3.07492000 3.14375000
2.14385000 -2.80584000 3.34918000
2.12768000 -3.06251000 3.28451000
1.77875000 -2.79294000 3.45856000
1.76770000 -3.04942000 3.39446000
1.39890000 -2.78905000 3.53775000
1.39396000 -3.02770000 3.47477000
1.01059000 -2.77740000 3.58047000
1.01085000 -3.00839000 3.51602000
0.61625900 -2.76965000 3.58550000
0.62258800 -2.99257000 3.51630000
0.62498000 -3.23534000 3.48897000
0.22943600 -2.98648000 3.48500000
0.23404600 -3.22626000 3.45479000
0.23866300 -3.45226000 3.43584000
-0.15290900 -3.21751000 3.37545000
-0.14569200 -3.45785000 3.35896000
-0.13763600 -3.61059000 3.34215000
-0.52113800 -3.44788000 3.24696000
-0.51090500 -3.60820000 3.22829000
-0.49563200 -3.73615000 3.19229000
-0.87390000 -3.59921000 3.07969000
-0.85641500 -3.72593000 3.04551000
-0.83677400 -3.83022000 3.00669000
-1.20447000 -3.71971000 2.86905000
-1.18563000 -3.82389000 2.84013000
-1.15029000 -3.90174000 2.78095000
-1.50589000 -3.81027000 2.62128000
-1.47607000 -3.89686000 2.58018000
-1.42463000 -3.90297000 2.51028000
-1.77728000 -3.88860000 2.34063000
-1.73129000 -3.89899000 2.28928000
-1.65999000 -3.88683000 2.21329000
-1.96835000 -3.89851000 1.99666000
-1.90876000 -3.86859000 1.94367000
-1.86695000 -3.77891000 1.90659000
-2.13581000 -3.84909000 1.65645000
-2.09579000 -3.76768000 1.62798000
-2.05874000 -3.67258000 1.60289000
-1.83292000 -3.67031000 1.87806000
-2.01532000 -3.55061000 1.57504000
-1.79176000 -3.54673000 1.84601000
-1.97011000 -3.38347000 1.54579000
-2.21059000 -3.56060000 1.28266000
-2.15361000 -3.39047000 1.25192000
-2.09539000 -3.19585000 1.22116000
-2.31731000 -3.39118000 0.94711000
-2.24944000 -3.20244000 0.91672300
-2.12222000 -3.03651000 0.85958900
-1.97016000 -3.03588000 1.15081000
-2.37189000 -3.20060000 0.59995700
-2.23771000 -3.03924000 0.55205800
-2.23771000 -3.03924000 0.55205800
-2.12222000 -3.03651000 0.85958900
-2.45263000 -3.21005000 0.27064300
-2.32819000 -3.04297000 0.23679600
-2.32819000 -3.04297000 0.23679600
-2.50692000 -3.23046000 -0.05899060
-2.39260000 -3.05385000 -0.08117600
-2.39260000 -3.05385000 -0.08117600
-2.53272000 -3.26057000 -0.38862400
-2.42470000 -3.07567000 -0.40013300
-2.23095000 -2.98599000 -0.41537800
-2.42470000 -3.07567000 -0.40013300
-2.42853000 -3.09120000 -0.71690500
-2.23152000 -2.99090000 -0.71194800
-1.99360000 -2.96207000 -0.70998600
-2.20471000 -2.98679000 -1.01110000
-1.96274000 -2.95927000 -0.98120300
-2.14209000 -2.99672000 -1.30496000
-1.91327000 -2.96151000 -1.25684000
-2.05976000 -3.00317000 -1.58911000
-1.83711000 -2.96283000 -1.52038000
-1.94676000 -3.01374000 -1.86245000
-1.73921000 -2.97158000 -1.77374000
-1.80728000 -3.02380000 -2.12058000
-1.61256000 -2.98193000 -2.01691000
-1.64870000 -3.03934000 -2.36190000
-1.46689000 -2.99264000 -2.24357000
-1.46699000 -3.05953000 -2.58277000
-1.30469000 -3.00496000 -2.45356000
-1.27609000 -3.07750000 -2.78720000
-1.12141000 -3.01315000 -2.64480000
-1.06502000 -3.09504000 -2.97039000
-1.36239000 -3.22421000 -2.86679000
-1.13891000 -3.25092000 -3.05193000
-0.90128500 -3.27459000 -3.21658000
-0.90128500 -3.27459000 -3.21658000
-1.13891000 -3.25092000 -3.05193000
-1.17776000 -3.42383000 -3.09355000
-0.93346700 -3.44269000 -3.26043000
-0.67369700 -3.46177000 -3.40345000
-0.64903700 -3.29586000 -3.36041000
-0.64903700 -3.29586000 -3.36041000
-0.40107300 -3.48446000 -3.52047000
-0.38229200 -3.32174000 -3.47704000
-0.69900200 -3.62902000 -3.44942000
-0.42333500 -3.64202000 -3.57373000
-0.13462000 -3.65778000 -3.66575000
-0.44369000 -3.78095000 -3.62327000
-0.15146000 -3.79403000 -3.72380000
0.15249400 -3.80357000 -3.78612000
-0.16570700 -3.91105000 -3.77435000
0.14222600 -3.91603000 -3.84143000
0.45599700 -3.91614000 -3.87684000
0.46075300 -3.80541000 -3.82422000
0.12535100 -4.00350000 -3.93061000
0.44879400 -4.00851000 -3.96354000
0.45599700 -3.91614000 -3.87684000
0.44879400 -4.00851000 -3.96354000
0.77156300 -4.00780000 -3.96467000
0.43877600 -4.03263000 -4.08861000
0.77661100 -4.04153000 -4.08897000
1.11122000 -4.04687000 -4.05321000
0.78095100 -4.02391000 -4.20359000
1.12790000 -4.04325000 -4.16679000
1.46794000 -4.05049000 -4.09370000
1.14200000 -3.93693000 -4.23552000
1.48966000 -3.95246000 -4.17644000
1.82972000 -3.97304000 -4.08468000
1.50131000 -3.86754000 -4.21638000
1.84852000 -3.87594000 -4.13264000
2.17956000 -3.87804000 -4.01725000
2.15216000 -3.98351000 -3.96686000
2.49868000 -3.88611000 -3.87078000
2.20094000 -3.78519000 -4.05664000
2.52260000 -3.79901000 -3.90491000
2.83223000 -3.80991000 -3.71913000
2.54196000 -3.68806000 -3.92833000
2.85438000 -3.69603000 -3.74268000
3.15869000 -3.69918000 -3.53397000
3.13330000 -3.81649000 -3.51083000
3.44754000 -3.69977000 -3.29922000
3.42078000 -3.81826000 -3.27698000
3.71086000 -3.69772000 -3.03198000
3.68227000 -3.81784000 -3.01052000
3.94810000 -3.70572000 -2.74174000
3.92030000 -3.81277000 -2.72285000
4.15151000 -3.70084000 -2.42847000
3.96533000 -3.53862000 -2.75258000
4.17195000 -3.53559000 -2.44058000
4.34458000 -3.53201000 -2.10975000
4.18632000 -3.30683000 -2.44833000
4.35939000 -3.31568000 -2.11808000
4.50608000 -3.32212000 -1.77599000
4.40091000 -3.03385000 -2.13718000
4.53566000 -3.03660000 -1.78738000
4.65612000 -3.03792000 -1.43268000
4.66972000 -2.74353000 -1.83293000
4.78956000 -2.74782000 -1.46491000
4.87190000 -2.75079000 -1.08730000
5.06343000 -2.59453000 -1.52888000
5.14041000 -2.59776000 -1.12528000
4.87190000 -2.75079000 -1.08730000
4.78956000 -2.74782000 -1.46491000
5.17297000 -2.60061000 -0.71375800
4.90854000 -2.75061000 -0.70297000
5.45139000 -2.48083000 -1.16893000
5.49052000 -2.48377000 -0.72923900
5.47964000 -2.49188000 -0.28894200
5.17190000 -2.60409000 -0.30540800
4.91306000 -2.75824000 -0.31859400
5.43486000 -2.49170000 0.14819300
5.12976000 -2.60514000 0.09993310
4.87784000 -2.76679000 0.06347970
5.35290000 -2.49353000 0.57445100
5.05228000 -2.61157000 0.49832700
4.80951000 -2.77315000 0.43953600
5.23368000 -2.49856000 0.98828500
4.93755000 -2.61336000 0.88393700
4.70739000 -2.76996000 0.80596900
5.07103000 -2.49739000 1.38156000
4.78585000 -2.61370000 1.25353000
4.57104000 -2.76987000 1.15652000
4.87891000 -2.49911000 1.76197000
4.60566000 -2.60890000 1.60672000
4.40437000 -2.77720000 1.49242000
4.65539000 -2.49555000 2.12054000
4.39231000 -2.61001000 1.93749000
4.20335000 -2.78120000 1.80601000
4.39542000 -2.49742000 2.45284000
4.15184000 -2.61304000 2.24896000
3.97773000 -2.78558000 2.10279000
4.15184000 -2.61304000 2.24896000
4.39542000 -2.49742000 2.45284000
4.10475000 -2.49798000 2.75734000
3.87759000 -2.61013000 2.52887000
3.72465000 -2.78840000 2.37468000
3.97773000 -2.78558000 2.10279000
3.78237000 -2.49722000 3.03053000
3.57983000 -2.60923000 2.78300000
3.44738000 -2.79356000 2.62289000
3.43667000 -2.49654000 3.27274000
3.25829000 -2.61101000 3.01014000
3.14871000 -2.80499000 2.84408000
3.06969000 -2.49451000 3.48068000
2.92006000 -2.60929000 3.20599000
2.82981000 -2.81334000 3.03927000
2.68528000 -2.49164000 3.65880000
2.56509000 -2.60676000 3.37504000
2.49474000 -2.81183000 3.20758000
2.28427000 -2.48771000 3.79714000
2.19715000 -2.60344000 3.51892000
2.14385000 -2.80584000 3.34918000
1.87064000 -2.48523000 3.89942000
1.81176000 -2.59631000 3.62403000
1.77875000 -2.79294000 3.45856000
1.45019000 -2.48837000 3.97495000
1.41829000 -2.60070000 3.70401000
1.39890000 -2.78905000 3.53775000
1.02034000 -2.48798000 4.01654000
1.01442000 -2.59607000 3.74531000
1.01059000 -2.77740000 3.58047000
0.58146200 -2.49074000 3.99985000
0.60207400 -2.59060000 3.74577000
0.61625900 -2.76965000 3.58550000
0.14836200 -2.49942000 3.94849000
0.19126300 -2.59855000 3.70700000
0.21940400 -2.76473000 3.54914000
-0.21704600 -2.59442000 3.63353000
-0.17761800 -2.75692000 3.47751000
0.21940400 -2.76473000 3.54914000
-0.17761800 -2.75692000 3.47751000
-0.16078500 -2.97399000 3.40653000
-0.56552300 -2.73874000 3.36458000
-0.54002300 -2.95965000 3.28934000
-0.52931900 -3.20896000 3.26130000
-0.90544500 -2.95122000 3.13844000
-0.89124600 -3.20608000 3.10856000
-0.88360600 -3.43240000 3.09581000
-1.23733000 -3.20157000 2.91984000
-1.22991000 -3.42449000 2.90805000
-1.22182000 -3.59200000 2.89639000
-1.55734000 -3.41470000 2.68832000
-1.54958000 -3.58425000 2.67865000
-1.53003000 -3.71153000 2.65340000
-1.84991000 -3.57785000 2.42285000
-1.82913000 -3.70619000 2.39919000
-1.80352000 -3.80771000 2.37161000
-2.10822000 -3.71342000 2.12720000
-2.07937000 -3.81777000 2.09957000
-2.03118000 -3.89039000 2.05465000
-2.31979000 -3.83166000 1.79635000
-2.25963000 -3.88684000 1.74852000
-2.19790000 -3.89179000 1.70044000
-2.46244000 -3.88069000 1.43067000
-2.38975000 -3.88155000 1.38667000
-2.32856000 -3.83676000 1.35129000
-2.54833000 -3.87555000 1.05836000
-2.48889000 -3.83207000 1.03075000
-2.44942000 -3.75715000 1.01107000
-2.28646000 -3.76105000 1.32710000
-2.41246000 -3.66989000 0.99280500
-2.25260000 -3.66746000 1.30748000
-2.36740000 -3.55524000 0.97042600
-2.53712000 -3.67414000 0.66338000
-2.49473000 -3.55872000 0.64676800
-2.44060000 -3.39898000 0.62549800
-2.58402000 -3.56657000 0.31077100
-2.52732000 -3.40537000 0.29314000
-2.63545000 -3.58199000 -0.03161240
-2.57840000 -3.42333000 -0.04515940
-2.65903000 -3.59932000 -0.37283100
-2.59987000 -3.44963000 -0.37954200
-2.65903000 -3.59932000 -0.37283100
-2.64666000 -3.61562000 -0.70785100
-2.57956000 -3.47711000 -0.70959800
-2.59987000 -3.44963000 -0.37954200
-2.53251000 -3.28249000 -0.71449300
-2.53272000 -3.26057000 -0.38862400
-2.55286000 -3.48532000 -1.03455000
-2.48225000 -3.30533000 -1.03371000
-2.39035000 -3.10591000 -1.03024000
-2.42853000 -3.09120000 -0.71690500
-2.42470000 -3.07567000 -0.40013300
-2.40413000 -3.31415000 -1.34664000
-2.32021000 -3.11787000 -1.33801000
-2.32021000 -3.11787000 -1.33801000
-2.39035000 -3.10591000 -1.03024000
-2.29959000 -3.31519000 -1.65089000
-2.21814000 -3.13142000 -1.63483000
-2.21814000 -3.13142000 -1.63483000
-2.15942000 -3.31977000 -1.93771000
-2.08818000 -3.14131000 -1.91670000
-2.08818000 -3.14131000 -1.91670000
-1.99704000 -3.32813000 -2.20850000
-1.93420000 -3.15336000 -2.18358000
-1.93420000 -3.15336000 -2.18358000
-1.81866000 -3.34292000 -2.46227000
-1.76254000 -3.17011000 -2.43285000
-1.76254000 -3.17011000 -2.43285000
-1.62273000 -3.37047000 -2.69649000
-1.57035000 -3.19316000 -2.65976000
-1.57035000 -3.19316000 -2.65976000
-1.40678000 -3.40209000 -2.90579000
-1.36239000 -3.22421000 -2.86679000
-1.67099000 -3.54789000 -2.72937000
-1.45324000 -3.57359000 -2.94480000
-1.21764000 -3.59062000 -3.13647000
-1.49382000 -3.71558000 -2.97937000
-1.25391000 -3.72789000 -3.17566000
-0.99698700 -3.74781000 -3.34933000
-0.96291900 -3.60472000 -3.30094000
-0.72825900 -3.76361000 -3.50349000
-1.03239000 -3.86937000 -3.40164000
-0.75613000 -3.88847000 -3.55408000
-0.46697100 -3.90137000 -3.67859000
-0.80208100 -3.97274000 -3.64210000
-0.50363900 -3.98714000 -3.76853000
-0.19354300 -3.99443000 -3.86700000
-0.55088700 -3.99712000 -3.88668000
-0.22732000 -4.01264000 -3.98743000
0.10256300 -4.02475000 -4.05676000
-0.25405400 -3.97702000 -4.08599000
0.08668640 -3.98889000 -4.15538000
0.43211300 -4.00886000 -4.19284000
0.43877600 -4.03263000 -4.08861000
0.08097360 -3.90479000 -4.20324000
0.43162800 -3.91574000 -4.24479000
0.78552600 -3.92838000 -4.26108000
0.43211300 -4.00886000 -4.19284000
0.43162800 -3.91574000 -4.24479000
0.43009500 -3.84619000 -4.27790000
0.78851400 -3.85463000 -4.29363000
1.14785000 -3.86368000 -4.27243000
0.79106600 -3.76857000 -4.31864000
1.15236000 -3.77210000 -4.30222000
1.51145000 -3.77797000 -4.25177000
1.15744000 -3.64159000 -4.31423000
1.51934000 -3.64998000 -4.27399000
1.87344000 -3.65734000 -4.19258000
1.86250000 -3.77859000 -4.16804000
2.21449000 -3.66939000 -4.07552000
1.88088000 -3.50851000 -4.20137000
2.22367000 -3.53019000 -4.08495000
2.55476000 -3.55455000 -3.93870000
2.23750000 -3.30356000 -4.09475000
2.56983000 -3.31637000 -3.94494000
2.88876000 -3.33074000 -3.76385000
2.87143000 -3.55151000 -3.75590000
3.19367000 -3.32774000 -3.55408000
3.17697000 -3.55472000 -3.54825000
3.48050000 -3.32212000 -3.31539000
3.46653000 -3.54593000 -3.31180000
3.74428000 -3.31088000 -3.04973000
3.73015000 -3.53743000 -3.04424000
3.98137000 -3.30549000 -2.76047000
3.78055000 -3.02153000 -3.07109000
4.01798000 -3.02115000 -2.78031000
4.22338000 -3.02892000 -2.46693000
4.12739000 -2.75017000 -2.85152000
4.34438000 -2.75048000 -2.53253000
4.52509000 -2.74910000 -2.19190000
4.52509000 -2.74910000 -2.19190000
4.34438000 -2.75048000 -2.53253000
4.59249000 -2.59358000 -2.67239000
4.78649000 -2.59387000 -2.30830000
4.94152000 -2.59506000 -1.92364000
4.66972000 -2.74353000 -1.83293000
5.07842000 -2.47671000 -2.43773000
5.24312000 -2.47574000 -2.02646000
5.37350000 -2.47730000 -1.60228000
5.58839000 -2.32119000 -2.13672000
5.71872000 -2.32302000 -1.68225000
5.80094000 -2.32632000 -1.21661000
6.10268000 -2.13789000 -1.76313000
6.19088000 -2.14091000 -1.25979000
6.22756000 -2.14719000 -0.75448900
5.83390000 -2.33209000 -0.74347900
6.21938000 -2.15241000 -0.24726800
5.82947000 -2.33758000 -0.26860100
6.16962000 -2.15123000 0.25470400
5.78163000 -2.33361000 0.19915000
6.07623000 -2.15442000 0.75164300
5.69656000 -2.33546000 0.65894300
5.93652000 -2.15130000 1.23438000
5.56597000 -2.34147000 1.10325000
5.75093000 -2.15113000 1.70027000
5.39131000 -2.34314000 1.53209000
5.52330000 -2.15195000 2.14000000
5.18249000 -2.34216000 1.93922000
5.26074000 -2.14960000 2.55744000
4.94100000 -2.34111000 2.32835000
4.96048000 -2.14985000 2.95321000
4.66740000 -2.34078000 2.69017000
4.96048000 -2.14985000 2.95321000
4.62400000 -2.14863000 3.30893000
4.35484000 -2.34112000 3.01656000
4.66740000 -2.34078000 2.69017000
4.24925000 -2.15465000 3.62294000
4.00817000 -2.34087000 3.31071000
3.84303000 -2.15143000 3.90370000
3.63236000 -2.33906000 3.57079000
3.41068000 -2.15663000 4.14106000
3.23730000 -2.34212000 3.79286000
2.96160000 -2.15967000 4.34028000
2.81792000 -2.34402000 3.97783000
2.49257000 -2.16441000 4.49180000
2.38690000 -2.34398000 4.12369000
2.00981000 -2.16671000 4.59891000
1.94319000 -2.34482000 4.23128000
1.51792000 -2.17514000 4.66045000
1.48670000 -2.34928000 4.30045000
1.02276000 -2.18748000 4.68468000
1.02362000 -2.36542000 4.31605000
0.52772500 -2.19382000 4.66926000
0.55888900 -2.37023000 4.30029000
0.03143090 -2.19665000 4.62360000
0.09461070 -2.37215000 4.25852000
-0.46484900 -2.19875000 4.53673000
-0.36281700 -2.37359000 4.17327000
-0.28149400 -2.49439000 3.87739000
-0.81494200 -2.36651000 4.04990000
-0.71082300 -2.48619000 3.77089000
-0.62369700 -2.57976000 3.52902000
-1.12998000 -2.46784000 3.61572000
-1.01531000 -2.56328000 3.37705000
-0.93934000 -2.72327000 3.21322000
-0.56552300 -2.73874000 3.36458000
-1.38994000 -2.55154000 3.18125000
-1.29456000 -2.70851000 3.01931000
-0.93934000 -2.72327000 3.21322000
-1.29456000 -2.70851000 3.01931000
-1.25498000 -2.94444000 2.95050000
-1.62959000 -2.70433000 2.79079000
-1.58214000 -2.94007000 2.72332000
-1.56218000 -3.19640000 2.69464000
-1.87250000 -2.93338000 2.45134000
-1.85794000 -3.19572000 2.43274000
-1.85812000 -3.41295000 2.43222000
-2.13934000 -3.21149000 2.15826000
-2.13763000 -3.41449000 2.15538000
-2.12998000 -3.58205000 2.14765000
-2.38920000 -3.41596000 1.85411000
-2.38395000 -3.58902000 1.84816000
-2.35396000 -3.72437000 1.82360000
-2.59773000 -3.59574000 1.52021000
-2.56287000 -3.72165000 1.49560000
-2.52935000 -3.82835000 1.47367000
-2.74310000 -3.72199000 1.15569000
-2.70064000 -3.82826000 1.13243000
-2.62670000 -3.87701000 1.09572000
-2.84342000 -3.83050000 0.78055300
-2.76033000 -3.87119000 0.74896000
-2.67707000 -3.86727000 0.71729700
-2.86849000 -3.87117000 0.39380000
-2.78651000 -3.86755000 0.37130200
-2.72365000 -3.83552000 0.35373400
-2.62086000 -3.82776000 0.69588100
-2.67414000 -3.76745000 0.33935500
-2.57738000 -3.76063000 0.67960300
-2.62996000 -3.68424000 0.32545500
-2.73181000 -3.77828000 -0.01028680
-2.68693000 -3.69019000 -0.02012460
-2.75434000 -3.78919000 -0.36223700
-2.70824000 -3.70122000 -0.36763100
-2.74745000 -3.80374000 -0.70475200
-2.69865000 -3.71843000 -0.70618700
-2.70824000 -3.70122000 -0.36763100
-2.75434000 -3.78919000 -0.36223700
-2.70826000 -3.81891000 -1.04165000
-2.65729000 -3.73355000 -1.03788000
-2.60406000 -3.63169000 -1.03488000
-2.58372000 -3.75151000 -1.36434000
-2.52827000 -3.64405000 -1.35733000
-2.47243000 -3.49990000 -1.35175000
-2.41371000 -3.65334000 -1.66901000
-2.36421000 -3.50018000 -1.66084000
-2.27304000 -3.65079000 -1.97005000
-2.21926000 -3.49777000 -1.95368000
-2.10481000 -3.65500000 -2.25216000
-2.05658000 -3.49792000 -2.23218000
-1.92210000 -3.67638000 -2.51958000
-1.87322000 -3.51657000 -2.49151000
-1.71681000 -3.69885000 -2.76182000
-1.97805000 -3.80043000 -2.55326000
-1.76932000 -3.81828000 -2.80124000
-1.54194000 -3.83432000 -3.02144000
-1.83679000 -3.91284000 -2.85374000
-1.60358000 -3.91797000 -3.07904000
-1.34896000 -3.92842000 -3.28568000
-1.29345000 -3.84500000 -3.22008000
-1.08316000 -3.94982000 -3.47519000
-1.40706000 -3.96678000 -3.35810000
-1.14575000 -3.97515000 -3.57201000
-0.86102500 -3.98165000 -3.75182000
-1.19849000 -3.95134000 -3.65012000
-0.90816200 -3.95764000 -3.83946000
-0.58485900 -3.97601000 -3.97678000
-0.92825400 -3.89298000 -3.87905000
-0.60140800 -3.89992000 -4.02036000
-0.26437700 -3.89929000 -4.12907000
-0.61214700 -3.82916000 -4.04895000
-0.27142700 -3.82930000 -4.15841000
0.07781220 -3.83480000 -4.23095000
-0.27825600 -3.74695000 -4.18816000
0.07408920 -3.75186000 -4.26095000
0.43031000 -3.76216000 -4.30384000
0.43009500 -3.84619000 -4.27790000
0.07351380 -3.63938000 -4.27937000
0.43157200 -3.64379000 -4.32695000
0.43157200 -3.64379000 -4.32695000
0.79419200 -3.64695000 -4.34226000
0.43031000 -3.76216000 -4.30384000
0.43566300 -3.48922000 -4.33684000
0.79920500 -3.48528000 -4.35114000
1.16406000 -3.49063000 -4.33491000
0.80618000 -3.27662000 -4.36995000
1.17367000 -3.26937000 -4.35333000
1.53724000 -3.27253000 -4.30139000
1.52621000 -3.48985000 -4.28258000
1.89208000 -3.28546000 -4.21197000
1.55675000 -2.98585000 -4.34113000
1.91771000 -2.98844000 -4.25573000
2.26545000 -3.00003000 -4.13123000
1.96534000 -2.70683000 -4.37230000
2.32672000 -2.71709000 -4.24845000
2.67196000 -2.72464000 -4.08489000
2.60085000 -3.01685000 -3.97608000
3.00183000 -2.73657000 -3.89249000
2.92100000 -3.03005000 -3.79006000
3.31802000 -2.74680000 -3.67287000
3.22838000 -3.03500000 -3.57881000
3.61385000 -2.75069000 -3.42563000
3.51918000 -3.02964000 -3.34088000
3.88252000 -2.74746000 -3.14943000
3.88252000 -2.74746000 -3.14943000
3.61385000 -2.75069000 -3.42563000
3.81497000 -2.58955000 -3.62771000
4.10053000 -2.59345000 -3.33401000
4.35720000 -2.59433000 -3.01145000
4.12739000 -2.75017000 -2.85152000
4.35681000 -2.46737000 -3.55015000
4.63362000 -2.47054000 -3.20666000
4.88028000 -2.47468000 -2.83549000
4.94265000 -2.30748000 -3.41831000
5.19964000 -2.31357000 -3.01278000
5.41598000 -2.31836000 -2.58245000
5.54412000 -2.12191000 -3.19729000
5.77524000 -2.12619000 -2.73239000
5.96485000 -2.13521000 -2.25589000
6.12999000 -1.90238000 -2.88515000
6.33027000 -1.90986000 -2.37396000
6.48154000 -1.91913000 -1.84256000
6.67474000 -1.64881000 -2.48485000
6.83244000 -1.65475000 -1.92283000
6.93586000 -1.65719000 -1.34845000
6.57708000 -1.91869000 -1.30415000
6.98824000 -1.66789000 -0.76928400
6.62025000 -1.92625000 -0.76089500
6.97897000 -1.66698000 -0.19536800
6.61258000 -1.93286000 -0.22285800
6.91677000 -1.66926000 0.37024100
6.55625000 -1.93350000 0.31276700
6.81037000 -1.67956000 0.93413200
6.45509000 -1.93615000 0.84418400
6.64854000 -1.67506000 1.49008000
6.30556000 -1.93500000 1.36561000
6.44006000 -1.67673000 2.03175000
6.10943000 -1.93409000 1.87010000
6.18101000 -1.67333000 2.54638000
5.86378000 -1.92913000 2.34714000
5.87109000 -1.66041000 3.02104000
5.57463000 -1.92367000 2.79705000
5.52003000 -1.65726000 3.46758000
5.25061000 -1.92544000 3.21964000
5.52003000 -1.65726000 3.46758000
5.13125000 -1.66524000 3.88781000
4.88575000 -1.92755000 3.60810000
5.25061000 -1.92544000 3.21964000
4.69728000 -1.67098000 4.25604000
4.48333000 -1.93052000 3.94612000
4.22746000 -1.68071000 4.57066000
4.04634000 -1.93583000 4.24135000
3.73257000 -1.68698000 4.83848000
3.57882000 -1.94076000 4.49575000
3.21663000 -1.69632000 5.06093000
3.09460000 -1.94748000 4.70878000
2.68026000 -1.70470000 5.23608000
2.59022000 -1.95543000 4.87058000
2.12989000 -1.71389000 5.36018000
2.07378000 -1.96327000 4.98593000
1.57066000 -1.72335000 5.44036000
1.54644000 -1.96790000 5.05778000
1.00746000 -1.73007000 5.47196000
1.01654000 -1.98027000 5.08727000
0.44385700 -1.73262000 5.45335000
0.48707700 -1.98533000 5.07074000
-0.11515200 -1.73212000 5.39082000
-0.04225240 -1.98859000 5.01319000
-0.67510500 -1.72777000 5.28031000
-0.56996700 -1.98346000 4.91563000
-1.22675000 -1.71976000 5.11346000
-1.09076000 -1.97564000 4.76127000
-0.95002300 -2.19133000 4.39553000
-1.60064000 -1.96303000 4.55472000
-1.42336000 -2.18163000 4.20428000
-1.26210000 -2.35035000 3.88555000
-1.87974000 -2.16368000 3.97222000
-1.68207000 -2.33774000 3.66181000
-1.52766000 -2.45732000 3.41048000
-2.09031000 -2.31925000 3.40883000
-1.89928000 -2.45160000 3.16069000
-1.74057000 -2.54693000 2.94436000
-2.24970000 -2.43881000 2.88054000
-2.06843000 -2.53598000 2.67705000
-1.93240000 -2.68852000 2.52214000
-1.62959000 -2.70433000 2.79079000
-2.36701000 -2.51633000 2.37912000
-2.21528000 -2.67960000 2.23524000
-2.21528000 -2.67960000 2.23524000
-2.15321000 -2.94261000 2.17394000
-1.93240000 -2.68852000 2.52214000
-2.46897000 -2.67385000 1.92508000
-2.41089000 -2.94254000 1.87679000
-2.39436000 -3.20447000 1.86041000
-2.63117000 -2.93102000 1.55107000
-2.61218000 -3.19728000 1.53538000
-2.61318000 -3.41738000 1.53263000
-2.79434000 -3.18778000 1.18947000
-2.79339000 -3.41251000 1.18557000
-2.78225000 -3.58067000 1.17766000
-2.93912000 -3.39999000 0.82311500
-2.92783000 -3.57597000 0.81622300
-2.88874000 -3.72123000 0.79910600
-3.03573000 -3.57568000 0.44276700
-2.99706000 -3.71977000 0.43093200
-2.95056000 -3.83057000 0.41577700
-3.07173000 -3.72518000 0.05253950
-3.02250000 -3.83095000 0.04191830
-2.93984000 -3.87294000 0.02701250
-3.05156000 -3.83380000 -0.33269600
-2.96701000 -3.87621000 -0.34107100
-2.87812000 -3.87272000 -0.35055500
-2.85717000 -3.87586000 0.01321600
-2.81783000 -3.84366000 -0.35667000
-2.78801000 -3.84235000 0.00056339
-2.89189000 -3.88461000 -0.70455100
-2.81737000 -3.85703000 -0.70439100
-2.81783000 -3.84366000 -0.35667000
-2.87812000 -3.87272000 -0.35055500
-2.84327000 -3.88887000 -1.05278000
-2.77821000 -3.86759000 -1.04836000
-2.80087000 -3.89682000 -1.40589000
-2.72402000 -3.88578000 -1.39041000
-2.64300000 -3.83905000 -1.37418000
-2.62760000 -3.90453000 -1.72608000
-2.53884000 -3.86081000 -1.69986000
-2.48044000 -3.76937000 -1.68600000
-2.40037000 -3.86914000 -2.01580000
-2.33787000 -3.77197000 -1.99285000
-2.23511000 -3.88025000 -2.31631000
-2.16781000 -3.78432000 -2.28205000
-2.04629000 -3.89969000 -2.59651000
-2.32103000 -3.92510000 -2.36194000
-2.14105000 -3.93349000 -2.66290000
-1.92630000 -3.94370000 -2.92647000
-2.22656000 -3.91616000 -2.72215000
-2.00447000 -3.91863000 -2.99311000
-1.73650000 -3.94580000 -3.21613000
-1.67372000 -3.95456000 -3.14922000
-1.45792000 -3.96046000 -3.42056000
-1.78246000 -3.89704000 -3.26797000
-1.51023000 -3.92057000 -3.48626000
-1.23122000 -3.90412000 -3.69809000
-1.53586000 -3.84553000 -3.52015000
-1.24860000 -3.83500000 -3.72711000
-0.94092700 -3.82946000 -3.90644000
-1.26587000 -3.75606000 -3.75674000
-0.95416900 -3.75135000 -3.93445000
-0.62215800 -3.74721000 -4.07749000
-0.96117100 -3.64196000 -3.95309000
-0.62737100 -3.63201000 -4.09810000
-0.28057200 -3.63035000 -4.20584000
-0.62731600 -3.47941000 -4.10785000
-0.28048900 -3.47586000 -4.21813000
0.07542040 -3.48070000 -4.29229000
-0.28005200 -3.26891000 -4.23397000
0.07751410 -3.26040000 -4.31266000
0.44047400 -3.26865000 -4.35678000
0.43566300 -3.48922000 -4.33684000
0.07877590 -2.98123000 -4.34935000
0.44711600 -2.98077000 -4.39633000
0.44711600 -2.98077000 -4.39633000
0.81797200 -2.98739000 -4.41097000
0.44047400 -3.26865000 -4.35678000
0.44674800 -2.69805000 -4.51342000
0.83059000 -2.70511000 -4.53471000
1.21477000 -2.70884000 -4.52054000
1.18927000 -2.99045000 -4.39530000
1.59463000 -2.70843000 -4.46735000
1.59463000 -2.70843000 -4.46735000
1.21477000 -2.70884000 -4.52054000
1.24813000 -2.55296000 -4.77307000
1.65352000 -2.55312000 -4.71859000
2.05182000 -2.55435000 -4.62221000
1.96534000 -2.70683000 -4.37230000
1.71975000 -2.44283000 -5.00503000
2.14956000 -2.44769000 -4.90802000
2.56045000 -2.45294000 -4.77448000
2.43379000 -2.56330000 -4.48756000
2.32672000 -2.71709000 -4.24845000
2.96241000 -2.45452000 -4.59986000
2.80574000 -2.57353000 -4.32294000
2.67196000 -2.72464000 -4.08489000
3.35238000 -2.45347000 -4.39762000
3.16553000 -2.57583000 -4.12752000
3.00183000 -2.73657000 -3.89249000
3.72106000 -2.45490000 -4.15730000
3.50633000 -2.58120000 -3.89648000
3.31802000 -2.74680000 -3.67287000
4.05331000 -2.46297000 -3.87066000
3.94577000 -2.29476000 -4.43679000
4.31391000 -2.29756000 -4.13136000
4.64804000 -2.29955000 -3.79498000
4.58915000 -2.09860000 -4.41462000
4.94789000 -2.10275000 -4.04689000
5.26825000 -2.11458000 -3.63817000
5.24315000 -1.87390000 -4.28840000
5.58443000 -1.88529000 -3.85124000
5.87981000 -1.89437000 -3.37852000
5.88268000 -1.62025000 -4.04976000
6.19720000 -1.63208000 -3.55189000
6.46185000 -1.64141000 -3.02973000
6.48568000 -1.33221000 -3.71452000
6.76466000 -1.34320000 -3.16367000
6.99057000 -1.34995000 -2.58856000
7.04526000 -1.01947000 -3.28455000
7.28004000 -1.02809000 -2.68139000
7.45973000 -1.03559000 -2.06205000
7.15904000 -1.35795000 -1.99596000
7.57163000 -1.03882000 -1.43031000
7.26574000 -1.36265000 -1.39185000
7.62849000 -1.04550000 -0.79537200
7.32186000 -1.36929000 -0.78149300
7.62908000 -1.04793000 -0.15658600
7.31747000 -1.36774000 -0.17405700
7.56375000 -1.05472000 0.48072400
7.25223000 -1.37396000 0.42675900
7.43829000 -1.06250000 1.10120000
7.13708000 -1.38270000 1.01921000
7.26264000 -1.06798000 1.71228000
6.96568000 -1.38469000 1.60390000
7.02596000 -1.06068000 2.30429000
6.74391000 -1.38166000 2.17407000
6.74060000 -1.05304000 2.87775000
6.47378000 -1.37707000 2.72249000
6.40039000 -1.04685000 3.42185000
6.15022000 -1.37277000 3.23475000
6.00591000 -1.04605000 3.92408000
5.76773000 -1.35949000 3.70192000
6.00591000 -1.04605000 3.92408000
5.56160000 -1.04829000 4.38221000
5.35525000 -1.37228000 4.14576000
5.76773000 -1.35949000 3.70192000
5.07047000 -1.05636000 4.79715000
4.89348000 -1.37894000 4.54097000
4.53821000 -1.06400000 5.15892000
4.39191000 -1.38972000 4.88104000
3.99214000 -1.07092000 5.46641000
3.87041000 -1.39835000 5.16568000
3.42299000 -1.08469000 5.70979000
3.32785000 -1.40873000 5.39772000
2.83047000 -1.10090000 5.89726000
2.76053000 -1.42130000 5.57962000
2.21987000 -1.11245000 6.04111000
2.17945000 -1.42956000 5.71433000
1.60130000 -1.11767000 6.12886000
1.58982000 -1.43839000 5.79720000
0.98527100 -1.12196000 6.16477000
0.99677300 -1.44324000 5.82994000
0.37056200 -1.11172000 6.13580000
0.40516500 -1.43786000 5.80677000
-0.24294700 -1.10700000 6.06040000
-0.18258900 -1.43765000 5.74131000
-0.85511800 -1.10813000 5.93527000
-0.76768700 -1.43432000 5.62162000
-1.46018000 -1.10381000 5.73942000
-1.34897000 -1.42572000 5.43878000
-2.05343000 -1.08623000 5.48643000
-1.91611000 -1.41150000 5.20283000
-1.76409000 -1.70525000 4.89107000
-2.46329000 -1.38420000 4.91560000
-2.28429000 -1.67654000 4.61947000
-2.08902000 -1.94002000 4.30345000
-2.77555000 -1.65256000 4.30608000
-2.55066000 -1.91708000 4.01069000
-2.31251000 -2.14070000 3.70184000
-2.97984000 -1.89328000 3.67630000
-2.71504000 -2.12228000 3.39314000
-2.46337000 -2.30556000 3.11566000
-3.08255000 -2.10113000 3.03885000
-2.80218000 -2.28710000 2.78160000
-2.57420000 -2.41830000 2.57483000
-3.10278000 -2.26921000 2.41623000
-2.85508000 -2.40070000 2.22572000
-2.63275000 -2.49863000 2.05325000
-3.10707000 -2.38946000 1.85569000
-2.86209000 -2.49295000 1.70240000
-2.68934000 -2.66931000 1.59165000
-2.46897000 -2.67385000 1.92508000
-3.05259000 -2.48199000 1.33137000
-2.87361000 -2.65774000 1.23821000
-2.80770000 -2.91577000 1.20027000
-2.68934000 -2.66931000 1.59165000
-2.87361000 -2.65774000 1.23821000
-3.02626000 -2.64543000 0.87005700
-2.95708000 -2.90707000 0.83870000
-2.93824000 -3.17745000 0.82672700
-3.06817000 -2.90091000 0.46450200
-3.04585000 -3.17448000 0.45258400
-3.04603000 -3.39772000 0.44833400
-3.12291000 -3.19176000 0.07181310
-3.12172000 -3.40468000 0.06716110
-3.10949000 -3.57638000 0.06165630
-3.15554000 -3.41681000 -0.31763100
-3.14228000 -3.58593000 -0.32169300
-3.10570000 -3.73579000 -0.32690000
-3.10570000 -3.73579000 -0.32690000
-3.14228000 -3.58593000 -0.32169300
-3.13491000 -3.59697000 -0.70332400
-3.09247000 -3.73997000 -0.70437100
-3.04537000 -3.83873000 -0.70509900
-3.05156000 -3.83380000 -0.33269600
-3.05054000 -3.74182000 -1.07625000
-3.00429000 -3.83537000 -1.07270000
-2.93291000 -3.88470000 -1.06269000
-2.97102000 -3.87804000 -0.70459200
-2.96701000 -3.87621000 -0.34107100
-2.93504000 -3.82052000 -1.43308000
-2.87913000 -3.88544000 -1.42079000
-2.82818000 -3.80501000 -1.78749000
-2.78802000 -3.87773000 -1.77454000
-2.71409000 -3.90308000 -1.75174000
-2.64893000 -3.87797000 -2.11890000
-2.58121000 -3.91115000 -2.09124000
-2.49074000 -3.91291000 -2.05252000
-2.40337000 -3.91813000 -2.40736000
-2.47355000 -3.87563000 -2.44426000
-2.27429000 -3.86072000 -2.75141000
-2.50613000 -3.79707000 -2.46045000
-2.30335000 -3.79505000 -2.76992000
-2.06974000 -3.80722000 -3.04830000
-2.04321000 -3.86838000 -3.02747000
-1.81178000 -3.83267000 -3.29702000
-2.09238000 -3.73160000 -3.06608000
-1.83614000 -3.75204000 -3.31983000
-1.55946000 -3.75883000 -3.54964000
-1.85813000 -3.63443000 -3.34226000
-1.57762000 -3.64645000 -3.57375000
-1.27771000 -3.64926000 -3.77674000
-1.58616000 -3.49447000 -3.58504000
-1.28316000 -3.49683000 -3.78910000
-0.96275900 -3.48517000 -3.96325000
-1.28704000 -3.28101000 -3.79855000
-0.96350800 -3.28003000 -3.97284000
-0.62645600 -3.27459000 -4.11777000
-0.97472500 -2.99323000 -4.00436000
-0.63521200 -2.99341000 -4.15294000
-0.28392800 -2.98665000 -4.27309000
-0.66799800 -2.70504000 -4.24652000
-0.30673000 -2.70175000 -4.37087000
0.06590840 -2.70078000 -4.46276000
0.06590840 -2.70078000 -4.46276000
-0.30673000 -2.70175000 -4.37087000
-0.36827400 -2.52534000 -4.60548000
0.02815850 -2.53000000 -4.70373000
0.43060200 -2.53705000 -4.77208000
0.44674800 -2.69805000 -4.51342000
0.44674800 -2.69805000 -4.51342000
-0.02051760 -2.41733000 -4.99983000
0.41031600 -2.42917000 -5.06867000
0.41031600 -2.42917000 -5.06867000
0.84909400 -2.43614000 -5.09327000
0.84048400 -2.54290000 -4.79088000
0.43060200 -2.53705000 -4.77208000
0.83059000 -2.70511000 -4.53471000
0.44674800 -2.69805000 -4.51342000
1.28897000 -2.43765000 -5.07101000
0.85980600 -2.28506000 -5.42982000
1.33310000 -2.28342000 -5.41004000
1.79943000 -2.28823000 -5.34090000
1.38044000 -2.08985000 -5.78454000
1.88396000 -2.09009000 -5.71856000
2.37580000 -2.08821000 -5.61697000
2.25854000 -2.28973000 -5.24208000
2.85984000 -2.09389000 -5.46891000
2.70840000 -2.28932000 -5.10613000
3.32730000 -2.09785000 -5.26844000
3.13791000 -2.29334000 -4.92703000
3.77056000 -2.09889000 -5.02631000
3.55371000 -2.29517000 -4.69898000
4.19360000 -2.09700000 -4.73967000
3.98117000 -1.86655000 -5.35437000
4.43194000 -1.86585000 -5.04192000
4.85841000 -1.86800000 -4.68737000
4.65841000 -1.59762000 -5.31990000
5.10599000 -1.59912000 -4.94202000
5.51850000 -1.60503000 -4.51618000
5.33618000 -1.29600000 -5.17482000
5.76803000 -1.30291000 -4.72869000
6.15203000 -1.31928000 -4.23949000
6.00323000 -0.97549900 -4.92372000
6.40459000 -0.99520200 -4.41054000
6.75257000 -1.00909000 -3.86137000
6.63356000 -0.65336700 -4.55614000
6.99675000 -0.66303800 -3.98848000
7.30149000 -0.67137200 -3.39074000
7.22553000 -0.30215100 -4.10136000
7.54337000 -0.30686600 -3.48473000
7.78769000 -0.31284900 -2.84220000
7.54239000 -0.68058600 -2.76698000
7.97994000 -0.32067600 -2.17797000
7.73142000 -0.68830900 -2.12501000
8.10412000 -0.32256200 -1.49916000
7.85250000 -0.69174800 -1.46615000
8.16477000 -0.32660400 -0.81848000
7.90874000 -0.69549800 -0.80901000
8.15847000 -0.33472900 -0.13035100
7.90458000 -0.70001200 -0.14229000
8.09204000 -0.34010200 0.55908700
7.83790000 -0.70420600 0.52492200
7.95712000 -0.34307600 1.23781000
7.70878000 -0.70980100 1.17516000
7.76460000 -0.34300700 1.89442000
7.52623000 -0.71629700 1.80963000
7.52101000 -0.33861100 2.52657000
7.28357000 -0.71108300 2.42237000
7.21262000 -0.33560900 3.13521000
6.99023000 -0.70612600 3.01380000
6.84016000 -0.33278100 3.72173000
6.63053000 -0.69906200 3.58139000
6.40792000 -0.32869000 4.27376000
6.21383000 -0.69538700 4.10898000
5.92061000 -0.33370300 4.78044000
5.75053000 -0.69913800 4.59370000
6.21383000 -0.69538700 4.10898000
6.40792000 -0.32869000 4.27376000
5.38359000 -0.34566900 5.23180000
5.23341000 -0.71102100 5.02596000
4.81514000 -0.34925300 5.62621000
4.67955000 -0.71696900 5.40595000
4.21698000 -0.34877500 5.97195000
4.10452000 -0.71909100 5.73727000
3.59029000 -0.35731600 6.24649000
3.50761000 -0.73264500 5.99502000
2.94554000 -0.37679800 6.44762000
2.88993000 -0.75203600 6.18950000
2.28888000 -0.39120400 6.60422000
2.25572000 -0.76414100 6.33721000
1.61911000 -0.39009500 6.70118000
1.61116000 -0.76615100 6.43081000
0.94747300 -0.38278100 6.74139000
0.96929100 -0.76356600 6.46773000
0.28481600 -0.37976500 6.71221000
0.33239000 -0.75906600 6.44152000
-0.37759200 -0.38047900 6.61978000
-0.30686900 -0.75551600 6.35723000
-1.03502000 -0.37690900 6.46451000
-0.94342300 -0.75162700 6.21383000
-1.67881000 -0.37769900 6.24766000
-1.57056000 -0.75188400 6.00642000
-2.31061000 -0.36518500 5.97418000
-2.18411000 -0.73605600 5.74178000
-2.91850000 -0.33538700 5.64191000
-2.77396000 -0.70635500 5.42622000
-2.62510000 -1.05814000 5.18448000
-3.33454000 -0.67856100 5.05011000
-3.16814000 -1.03012000 4.82601000
-2.98344000 -1.35494000 4.57851000
-3.67864000 -0.99821800 4.41258000
-3.47157000 -1.32696000 4.18952000
-3.23285000 -1.62537000 3.94371000
-3.90694000 -1.30788000 3.74973000
-3.64733000 -1.60354000 3.52995000
-3.37144000 -1.87085000 3.29250000
-4.01855000 -1.58486000 3.07679000
-3.71881000 -1.85386000 2.86666000
-3.40877000 -2.08290000 2.64319000
-4.02286000 -1.83540000 2.40966000
-3.69497000 -2.06636000 2.21473000
-3.36904000 -2.25732000 2.01934000
-3.92879000 -2.05279000 1.76125000
-3.59332000 -2.24285000 1.59903000
-3.30392000 -2.38122000 1.45975000
-3.77312000 -2.22843000 1.15680000
-3.47106000 -2.37041000 1.04559000
-3.21259000 -2.47037000 0.94703400
-3.59946000 -2.36066000 0.62120700
-3.33644000 -2.46160000 0.54687200
-3.13779000 -2.63420000 0.48955000
-3.02626000 -2.64543000 0.87005700
-3.41563000 -2.45532000 0.13740600
-3.21980000 -2.63542000 0.10010600
-3.21980000 -2.63542000 0.10010600
-3.14121000 -2.90592000 0.08144980
-3.13779000 -2.63420000 0.48955000
-3.25158000 -2.64042000 -0.29586800
-3.17605000 -2.91474000 -0.30637900
-3.15656000 -3.19810000 -0.31391500
-3.15656000 -3.19810000 -0.31391500
-3.17605000 -2.91474000 -0.30637900
-3.16867000 -2.93312000 -0.69451900
-3.15172000 -3.22352000 -0.69895600
-3.14677000 -3.42750000 -0.70155600
-3.15554000 -3.41681000 -0.31763100
-3.10590000 -3.24531000 -1.07870000
-3.10362000 -3.45067000 -1.08019000
-3.08803000 -3.60938000 -1.07964000
-3.02206000 -3.45980000 -1.45082000
-3.01164000 -3.61586000 -1.44954000
-2.97380000 -3.73037000 -1.44110000
-2.89749000 -3.61418000 -1.80948000
-2.86489000 -3.72217000 -1.79907000
-2.74447000 -3.61647000 -2.15658000
-2.71396000 -3.71996000 -2.14443000
-2.68131000 -3.79736000 -2.13099000
-2.53616000 -3.71975000 -2.47545000
-2.56336000 -3.61854000 -2.48816000
-2.35392000 -3.61743000 -2.80015000
-2.32812000 -3.71755000 -2.78515000
-2.11698000 -3.62390000 -3.08458000
-2.36811000 -3.46010000 -2.80626000
-2.12957000 -3.46721000 -3.09177000
-1.86905000 -3.47753000 -3.35274000
-2.13653000 -3.25745000 -3.09417000
-1.87595000 -3.26838000 -3.35768000
-1.59097000 -3.27727000 -3.59191000
-1.89309000 -2.98199000 -3.37411000
-1.60625000 -2.98485000 -3.61277000
-1.30572000 -2.99463000 -3.83307000
-1.66108000 -2.69663000 -3.68530000
-1.34971000 -2.70207000 -3.90795000
-1.01363000 -2.70258000 -4.08974000
-1.34971000 -2.70207000 -3.90795000
-1.46886000 -2.50311000 -4.09695000
-1.11796000 -2.50893000 -4.29879000
-1.01363000 -2.70258000 -4.08974000
-0.75138100 -2.51925000 -4.47015000
-0.66799800 -2.70504000 -4.24652000
-1.25466000 -2.39477000 -4.56658000
-0.85935400 -2.40418000 -4.75219000
-0.44570800 -2.41078000 -4.89627000
-0.97688800 -2.25323000 -5.06642000
-0.53146800 -2.25580000 -5.22539000
-0.07635550 -2.26687000 -5.33938000
-0.63813100 -2.06067000 -5.58507000
-0.14167100 -2.06726000 -5.70955000
0.36090500 -2.07865000 -5.78296000
0.39141000 -2.27692000 -5.40567000
0.36090500 -2.07865000 -5.78296000
0.87207700 -2.08491000 -5.80959000
0.39141000 -2.27692000 -5.40567000
0.33449000 -1.84743000 -6.16039000
0.88429300 -1.85629000 -6.18896000
1.42991000 -1.85900000 -6.17022000
0.88782200 -1.59093000 -6.54841000
1.46929000 -1.59101000 -6.53062000
2.04166000 -1.58488000 -6.45716000
1.96481000 -1.86146000 -6.10315000
2.60345000 -1.58646000 -6.33954000
2.49469000 -1.85985000 -5.99202000
3.14979000 -1.58988000 -6.16510000
3.01096000 -1.86465000 -5.82888000
3.67404000 -1.59057000 -5.93453000
3.50512000 -1.86527000 -5.61372000
4.17787000 -1.59272000 -5.65319000
3.82698000 -1.27832000 -6.22706000
4.35561000 -1.28633000 -5.92561000
4.86448000 -1.29421000 -5.57606000
4.51775000 -0.95542800 -6.17718000
5.05086000 -0.96704800 -5.80786000
5.54928000 -0.96818500 -5.38707000
5.22036000 -0.62001300 -6.01827000
5.74221000 -0.62526100 -5.57786000
6.21648000 -0.63693600 -5.08902000
5.91959000 -0.27096700 -5.75058000
6.41002000 -0.28816800 -5.23972000
6.84301000 -0.29806800 -4.68726000
6.59088000 0.08597510 -5.39208000
7.03406000 0.07586000 -4.82689000
7.43125000 0.07156850 -4.22501000
7.20782000 0.47148100 -4.97100000
7.61107000 0.46419500 -4.35347000
7.96163000 0.46135900 -3.69957000
7.76941000 0.07007100 -3.58662000
8.22570000 0.46019400 -3.00224000
8.01919000 0.06863590 -2.91619000
8.42629000 0.45221500 -2.29120000
8.21385000 0.05911700 -2.22770000
8.55882000 0.45309500 -1.57031000
8.34442000 0.05790380 -1.53074000
8.62071000 0.44815200 -0.83924400
8.40165000 0.05547730 -0.82759700
8.61060000 0.43873700 -0.11243000
8.39370000 0.04510570 -0.12005600
8.54160000 0.43029300 0.61219400
8.32468000 0.03916420 0.58815700
8.39732000 0.43350300 1.32576000
8.18608000 0.03923350 1.28518000
8.19987000 0.43968700 2.02210000
7.99061000 0.04282480 1.96204000
7.93496000 0.44492800 2.69965000
7.73816000 0.04939730 2.61734000
7.59910000 0.44386700 3.35314000
7.41745000 0.04723420 3.24980000
7.20117000 0.44107400 3.97605000
7.03117000 0.04914770 3.85259000
6.73672000 0.43732300 4.56245000
6.58114000 0.04933500 4.42247000
6.21796000 0.43184600 5.10571000
6.07391000 0.04314390 4.95178000
6.58114000 0.04933500 4.42247000
6.73672000 0.43732300 4.56245000
5.65174000 0.42978000 5.58949000
5.52277000 0.03545530 5.42378000
5.05142000 0.43194300 6.01220000
4.93939000 0.03445690 5.82846000
4.41545000 0.43393300 6.37380000
4.32125000 0.03571180 6.18336000
3.74824000 0.42580700 6.67514000
3.67239000 0.02714270 6.47278000
3.06013000 0.40996600 6.90023000
3.00366000 0.00894378 6.68773000
2.35924000 0.39567700 7.06125000
2.32640000 -0.00522020 6.84859000
1.63734000 0.39480300 7.16353000
1.63087000 -0.00513700 6.94885000
0.90501500 0.41066600 7.20371000
0.92682600 0.01084340 6.98753000
0.18572300 0.41988000 7.17505000
0.22811800 0.01394240 6.95564000
-0.52007000 0.42312400 7.07192000
-0.45269600 0.01367900 6.85923000
-1.21055000 0.41988000 6.90468000
-1.12316000 0.01485060 6.69356000
-1.88607000 0.41155300 6.66685000
-1.78308000 0.01070470 6.46977000
-2.54764000 0.42010200 6.36936000
-2.43034000 0.02069510 6.18520000
-3.18875000 0.44545500 6.00969000
-3.05963000 0.04817720 5.83502000
-3.79307000 0.47004600 5.58894000
-3.65127000 0.07419650 5.42498000
-3.49614000 -0.30971500 5.24796000
-4.20152000 0.10224000 4.95795000
-4.03872000 -0.28138000 4.79429000
-3.86348000 -0.64755000 4.61402000
-4.53655000 -0.25270500 4.28782000
-4.34787000 -0.62004700 4.12670000
-4.13970000 -0.97341200 3.94763000
-4.77696000 -0.59582300 3.58996000
-4.55129000 -0.94958300 3.43763000
-4.30346000 -1.28696000 3.26795000
-4.90945000 -0.92603900 2.89142000
-4.64083000 -1.26579000 2.75068000
-4.34256000 -1.56773000 2.58764000
-4.92602000 -1.24619000 2.20289000
-4.61212000 -1.55004000 2.06846000
-4.27655000 -1.82065000 1.91876000
-4.82666000 -1.53702000 1.53289000
-4.47647000 -1.80614000 1.41017000
-4.11206000 -2.04183000 1.28311000
-4.63151000 -1.79558000 0.89006600
-4.25535000 -2.03209000 0.79297000
-3.90411000 -2.21945000 0.70096300
-4.34986000 -2.02094000 0.29759100
-3.99165000 -2.21037000 0.23672000
-3.68552000 -2.34989000 0.18482700
-4.04853000 -2.20024000 -0.23232100
-3.73396000 -2.34441000 -0.25655200
-3.45507000 -2.45675000 -0.27781500
-3.45507000 -2.45675000 -0.27781500
-3.73396000 -2.34441000 -0.25655200
-3.74206000 -2.34021000 -0.69935100
-3.45281000 -2.45440000 -0.69253600
-3.24554000 -2.64873000 -0.69044200
-3.25158000 -2.64042000 -0.29586800
-3.25158000 -2.64042000 -0.29586800
-3.40851000 -2.45359000 -1.10491000
-3.20358000 -2.66030000 -1.08208000
-3.20358000 -2.66030000 -1.08208000
-3.12589000 -2.95708000 -1.07722000
-3.24554000 -2.64873000 -0.69044200
-3.25158000 -2.64042000 -0.29586800
-3.12312000 -2.67307000 -1.46641000
-3.05054000 -2.98021000 -1.45275000
-3.03189000 -3.26065000 -1.45157000
-2.93139000 -2.98993000 -1.81612000
-2.92018000 -3.26959000 -1.81492000
-2.91239000 -3.46603000 -1.81347000
-2.76819000 -3.27361000 -2.16334000
-2.76532000 -3.47583000 -2.16443000
-2.58633000 -3.26467000 -2.49529000
-2.57971000 -3.46361000 -2.49497000
-2.37175000 -3.25749000 -2.80459000
-2.60607000 -2.99153000 -2.50176000
-2.39510000 -2.98584000 -2.81645000
-2.15659000 -2.98280000 -3.10818000
-2.45730000 -2.68434000 -2.85628000
-2.21764000 -2.68974000 -3.15818000
-1.95040000 -2.69279000 -3.43397000
-2.21764000 -2.68974000 -3.15818000
-2.38128000 -2.48145000 -3.29657000
-2.10066000 -2.49003000 -3.59207000
-1.95040000 -2.69279000 -3.43397000
-1.79714000 -2.49663000 -3.86146000
-1.66108000 -2.69663000 -3.68530000
-2.31158000 -2.37172000 -3.81107000
-1.98586000 -2.37910000 -4.10034000
-1.63247000 -2.38562000 -4.35230000
-2.19332000 -2.23041000 -4.36246000
-1.81513000 -2.23757000 -4.63491000
-1.40729000 -2.24453000 -4.86734000
-2.01859000 -2.04255000 -4.94220000
-1.58111000 -2.04949000 -5.19527000
-1.12056000 -2.05540000 -5.41199000
-1.75792000 -1.81491000 -5.52646000
-1.26555000 -1.82202000 -5.75560000
-0.74904400 -1.82816000 -5.94032000
-1.40166000 -1.55735000 -6.08525000
-0.85401600 -1.56512000 -6.28020000
-0.28634000 -1.57453000 -6.41906000
-0.21252500 -1.83705000 -6.07665000
0.30184300 -1.58546000 -6.51294000
0.33449000 -1.84743000 -6.16039000
-0.35083000 -1.27470000 -6.73324000
0.26308100 -1.28620000 -6.82936000
0.88516600 -1.28897000 -6.87372000
0.30184300 -1.58546000 -6.51294000
0.26308100 -1.28620000 -6.82936000
0.22565000 -0.95522700 -7.11584000
0.87440700 -0.95576100 -7.15993000
1.52519000 -0.95287700 -7.14874000
1.50137000 -1.28384000 -6.85285000
2.15791000 -0.93442800 -7.06716000
2.10510000 -1.26455000 -6.76735000
2.77944000 -0.93482300 -6.94034000
2.69841000 -1.27489000 -6.65608000
3.38174000 -0.93720100 -6.74627000
3.27482000 -1.27745000 -6.46951000
3.96226000 -0.94037700 -6.49450000
3.47753000 -0.57488600 -6.99430000
4.08592000 -0.58294900 -6.72991000
4.66914000 -0.60329700 -6.40193000
4.20836000 -0.21361800 -6.94780000
4.81046000 -0.23438200 -6.60376000
5.38053000 -0.25700400 -6.20570000
4.95305000 0.14370600 -6.79348000
5.53762000 0.11711800 -6.38248000
6.08836000 0.10112400 -5.91463000
5.67552000 0.50857200 -6.55493000
6.23626000 0.49259200 -6.07875000
6.74888000 0.48224100 -5.54757000
6.36752000 0.89783600 -6.23945000
6.89370000 0.88707600 -5.70094000
7.36655000 0.87796600 -5.10710000
7.02445000 1.30037000 -5.83220000
7.50508000 1.29389000 -5.22947000
7.92668000 1.29116000 -4.58582000
7.77808000 0.87179600 -4.47687000
8.28352000 1.28607000 -3.90660000
8.12819000 0.86926500 -3.80825000
8.56682000 1.27985000 -3.18603000
8.40281000 0.86641600 -3.09953000
8.78005000 1.26812000 -2.43748000
8.61253000 0.85707700 -2.37018000
8.92457000 1.25687000 -1.66792000
8.74819000 0.85393700 -1.62183000
8.99038000 1.25112000 -0.88726900
8.81692000 0.84728800 -0.86170700
8.98538000 1.25110000 -0.11347000
8.81192000 0.84048000 -0.11123000
8.91061000 1.24290000 0.65063700
8.73810000 0.83263900 0.63226400
8.76683000 1.24565000 1.40099000
8.59217000 0.83674300 1.36472000
8.55270000 1.25806000 2.13725000
8.38586000 0.84603300 2.08142000
8.26851000 1.26360000 2.85517000
8.11209000 0.85049800 2.77944000
7.91144000 1.25451000 3.54448000
7.76559000 0.84700400 3.45095000
7.48772000 1.24608000 4.19623000
7.35046000 0.84197100 4.08980000
7.00684000 1.24353000 4.80505000
6.87738000 0.83600100 4.68818000
6.47182000 1.23909000 5.36668000
6.35199000 0.83207000 5.24136000
6.87738000 0.83600100 4.68818000
7.00684000 1.24353000 4.80505000
5.88372000 1.24143000 5.86979000
5.77402000 0.83282600 5.73728000
5.25405000 1.25218000 6.31985000
5.15622000 0.83842100 6.17655000
4.58130000 1.25724000 6.70315000
4.50371000 0.84046600 6.54977000
3.87181000 1.25094000 7.01812000
3.81267000 0.83605700 6.85579000
3.14302000 1.23284000 7.26482000
3.10310000 0.82052000 7.08915000
2.40129000 1.21840000 7.43499000
2.38339000 0.80335400 7.25750000
1.66052000 1.21560000 7.53942000
1.64882000 0.79998500 7.35822000
0.90687400 1.23319000 7.57942000
0.90337200 0.81939700 7.40008000
0.13933500 1.25012000 7.54527000
0.15567600 0.83437900 7.37112000
-0.62241400 1.25727000 7.43578000
-0.57743300 0.83682000 7.26550000
-1.36328000 1.25690000 7.25004000
-1.29137000 0.83779700 7.08908000
-2.07574000 1.24568000 6.99517000
-1.98402000 0.82289100 6.84429000
-2.75607000 1.25210000 6.68356000
-2.65815000 0.83022600 6.53406000
-3.40579000 1.27653000 6.30521000
-3.30418000 0.85536500 6.16549000
-4.02081000 1.30412000 5.86250000
-3.91652000 0.88212600 5.73303000
-4.60240000 1.33001000 5.37193000
-4.48399000 0.91003800 5.24446000
-4.35205000 0.49904000 5.10693000
-5.00649000 0.93548200 4.70364000
-4.86865000 0.52463600 4.57641000
-4.71102000 0.12895300 4.43922000
-5.32760000 0.55304100 3.99147000
-5.16238000 0.15672600 3.86609000
-4.98094000 -0.22726800 3.73222000
-5.56511000 0.18864500 3.25252000
-5.37128000 -0.19398300 3.13428000
-5.15426000 -0.56775200 3.01640000
-5.70349000 -0.16255600 2.51063000
-5.46943000 -0.54309800 2.41890000
-5.20786000 -0.90405500 2.31664000
-5.71928000 -0.52074000 1.80266000
-5.44960000 -0.88835200 1.72557000
-5.15647000 -1.23312000 1.63605000
-5.62698000 -0.87242000 1.11399000
-5.32728000 -1.21878000 1.05296000
-4.99150000 -1.52400000 0.97606900
-5.44239000 -1.20352000 0.45498900
-5.10288000 -1.51049000 0.41012600
-4.73283000 -1.78149000 0.35829600
-5.16049000 -1.50224000 -0.15834700
-4.79181000 -1.77411000 -0.17933300
-4.40821000 -2.01144000 -0.20325800
-4.79181000 -1.77411000 -0.17933300
-4.80541000 -1.76214000 -0.72463600
-4.42531000 -1.99902000 -0.71287700
-4.40821000 -2.01144000 -0.20325800
-4.05943000 -2.19616000 -0.70175000
-4.04853000 -2.20024000 -0.23232100
-4.39700000 -1.99388000 -1.21907000
-4.03427000 -2.18834000 -1.17461000
-3.70937000 -2.33741000 -1.13911000
-3.96023000 -2.18328000 -1.64230000
-3.63489000 -2.33568000 -1.57400000
-3.33189000 -2.45521000 -1.51007000
-3.51870000 -2.33144000 -1.99775000
-3.21967000 -2.45803000 -1.90462000
-3.00899000 -2.68143000 -1.83820000
-3.12312000 -2.67307000 -1.46641000
-3.06262000 -2.46100000 -2.28228000
-2.86050000 -2.68351000 -2.19570000
-2.86050000 -2.68351000 -2.19570000
-2.77430000 -2.98561000 -2.16155000
-3.00899000 -2.68143000 -1.83820000
-2.67424000 -2.68425000 -2.53527000
-2.86731000 -2.46935000 -2.64187000
-2.67424000 -2.68425000 -2.53527000
-2.63573000 -2.47346000 -2.97897000
