-0.64860400 -1.48636000 5.07613000
-0.51928400 -1.48714000 5.06766000
-0.64063100 -1.48251000 4.99801000
-0.51515600 -1.48300000 4.98885000
-0.39679700 -1.48360000 4.96927000
-0.51112200 -1.49292000 4.90076000
-0.39933100 -1.49420000 4.87850000
-0.29897500 -1.49780000 4.83284000
-0.40165800 -1.51158000 4.76082000
-0.30652900 -1.51530000 4.71648000
-0.22027600 -1.52019000 4.66250000
-0.30190300 -1.53171000 4.59094000
-0.21328400 -1.53647000 4.53527000
-0.11918600 -1.53920000 4.48017000
-0.18072200 -1.55179000 4.41528000
-0.06626300 -1.55077000 4.37461000
0.07026740 -1.54278000 4.36058000
-0.00652715 -1.53749000 4.44562000
0.12176000 -1.52808000 4.45107000
0.00658787 -1.55690000 4.28353000
-0.12773300 -1.56321000 4.30761000
-0.06375090 -1.57291000 4.20909000
-0.24206200 -1.56342000 4.34451000
-0.19310500 -1.57666000 4.23452000
-0.14100200 -1.58576000 4.12992000
-0.30693000 -1.57681000 4.26455000
-0.26601600 -1.58783000 4.15341000
-0.22789500 -1.59421000 4.04668000
-0.37925200 -1.58792000 4.17602000
-0.34898000 -1.59427000 4.06707000
-0.32494300 -1.60212000 3.96288000
-0.46043500 -1.59497000 4.08385000
-0.44209700 -1.60061000 3.98017000
-0.42895900 -1.60757000 3.88032000
-0.54963300 -1.59888000 3.98882000
-0.54102500 -1.60529000 3.89363000
-0.53685800 -1.61073000 3.80201000
-0.64875300 -1.60261000 3.90051000
-0.64730700 -1.61199000 3.81479000
-0.64822900 -1.61000000 3.73171000
-0.75590800 -1.60112000 3.82313000
-0.75815200 -1.60563000 3.74547000
-0.75980100 -1.60783000 3.67112000
-0.87035600 -1.59473000 3.75653000
-0.87178500 -1.59689000 3.68581000
-0.87061900 -1.60119000 3.61786000
-0.99214400 -1.58402000 3.70045000
-0.99766200 -1.58734000 3.63276000
-0.99372100 -1.59254000 3.56723000
-1.13979000 -1.57255000 3.64357000
-1.13042000 -1.57814000 3.57606000
-1.13608000 -1.58284000 3.50250000
-1.34568000 -1.55565000 3.55603000
-1.33148000 -1.56264000 3.47696000
-1.30621000 -1.56949000 3.39658000
-1.55430000 -1.53349000 3.43478000
-1.52051000 -1.54284000 3.33448000
-1.47708000 -1.54975000 3.24062000
-1.42303000 -1.55850000 3.15439000
-1.70916000 -1.51587000 3.27795000
-1.66753000 -1.52260000 3.16644000
-1.60101000 -1.52996000 3.06337000
-1.53002000 -1.53728000 2.97221000
-1.35129000 -1.56526000 3.08033000
-1.82208000 -1.50056000 3.10889000
-1.75562000 -1.51021000 2.99473000
-1.67885000 -1.51484000 2.88615000
-1.58865000 -1.52200000 2.78990000
-1.43148000 -1.54598000 2.90216000
-1.86954000 -1.50279000 2.94008000
-1.78899000 -1.50644000 2.82332000
-1.69702000 -1.50916000 2.71512000
-1.59078000 -1.51344000 2.61737000
-1.48355000 -1.53045000 2.70745000
-1.87279000 -1.49938000 2.77307000
-1.77907000 -1.50094000 2.65664000
-1.67107000 -1.50371000 2.54958000
-1.55286000 -1.50630000 2.45580000
-1.47543000 -1.51705000 2.53455000
-1.84720000 -1.49168000 2.60651000
-1.73810000 -1.49288000 2.49116000
-1.61858000 -1.49748000 2.38854000
-1.49422000 -1.49974000 2.29340000
-1.43197000 -1.51018000 2.37006000
-1.79810000 -1.48938000 2.43864000
-1.67625000 -1.49305000 2.32564000
-1.54866000 -1.49399000 2.22479000
-1.41639000 -1.49655000 2.13954000
-1.36870000 -1.50298000 2.21447000
-1.71937000 -1.53198000 2.27916000
-1.58995000 -1.53225000 2.17256000
-1.45525000 -1.52946000 2.08267000
-1.31745000 -1.52107000 2.01012000
-1.28193000 -1.49789000 2.07196000
-1.60811000 -1.60245000 2.15219000
-1.47334000 -1.59669000 2.06009000
-1.33357000 -1.58770000 1.98372000
-1.19210000 -1.57913000 1.91797000
-1.17760000 -1.51459000 1.94900000
-1.47334000 -1.59669000 2.06009000
-1.48369000 -1.66747000 2.04789000
-1.34359000 -1.65856000 1.96824000
-1.33357000 -1.58770000 1.98372000
-1.20069000 -1.64998000 1.90176000
-1.19210000 -1.57913000 1.91797000
-1.05307000 -1.64048000 1.84919000
-1.04744000 -1.57034000 1.86556000
-1.35133000 -1.73009000 1.95584000
-1.20684000 -1.72111000 1.88723000
-1.05767000 -1.71126000 1.83467000
-0.90581400 -1.70051000 1.79753000
-0.90227700 -1.63015000 1.81185000
-1.21235000 -1.79210000 1.87317000
-1.06104000 -1.78206000 1.82240000
-0.90845400 -1.77168000 1.78454000
-0.75282800 -1.76159000 1.76086000
-0.75054700 -1.68942000 1.77314000
-1.06339000 -1.85291000 1.81155000
-0.90996700 -1.84440000 1.77350000
-0.75468600 -1.83707000 1.74991000
-0.59550100 -1.82965000 1.73651000
-0.59431500 -1.75269000 1.74765000
-0.91117700 -1.91758000 1.76386000
-0.75560700 -1.91266000 1.73936000
-0.59605700 -1.90908000 1.72745000
-0.43086100 -1.90673000 1.73028000
-0.43130600 -1.82589000 1.74105000
-0.75714200 -1.98535000 1.72068000
-0.59603300 -1.98547000 1.70951000
-0.42953200 -1.98610000 1.71400000
-0.26724500 -1.90478000 1.75028000
-0.26369800 -1.98465000 1.73241000
-0.59682200 -2.00827000 1.63998000
-0.42409300 -2.00606000 1.64281000
-0.25144900 -2.00663000 1.66369000
-0.08319630 -2.00733000 1.70126000
-0.10245800 -1.98396000 1.76676000
-0.41772400 -2.00284000 1.56632000
-0.23843000 -2.00792000 1.58940000
-0.06402730 -2.00848000 1.63259000
0.07715110 -2.00910000 1.75705000
0.10443800 -2.00829000 1.68966000
-0.22599700 -1.98877000 1.51879000
-0.04554230 -1.99193000 1.56617000
0.12953100 -1.99356000 1.62626000
0.26789500 -2.01237000 1.76512000
0.29986100 -1.99806000 1.70237000
-0.03048030 -1.94481000 1.51050000
0.15010700 -1.94842000 1.57293000
0.32610500 -1.95240000 1.65139000
0.49627400 -1.95312000 1.74492000
0.46496000 -2.00058000 1.79319000
0.16020700 -1.87529000 1.54791000
0.34402900 -1.88304000 1.61856000
0.51845600 -1.88186000 1.71215000
0.67716400 -1.87560000 1.83220000
0.65831800 -1.95222000 1.85454000
0.34736300 -1.78651000 1.61402000
0.52081900 -1.78472000 1.71075000
0.67912900 -1.78061000 1.83140000
0.82899800 -1.77408000 1.96129000
0.82520200 -1.87225000 1.96445000
0.51803200 -1.68598000 1.71615000
0.67455800 -1.68229000 1.83837000
0.82375300 -1.67654000 1.96769000
0.96224100 -1.67667000 2.10886000
0.97126800 -1.76995000 2.10070000
0.67038300 -1.58782000 1.84352000
0.81425100 -1.58745000 1.97808000
0.95050500 -1.59024000 2.12043000
1.08620000 -1.67622000 2.26710000
1.07912000 -1.59445000 2.27162000
0.80904300 -1.50502000 1.98484000
0.95977600 -1.51435000 2.11451000
1.07814000 -1.51521000 2.27083000
1.17979000 -1.58993000 2.44205000
1.17933000 -1.50971000 2.43801000
1.07814000 -1.51521000 2.27083000
0.95977600 -1.51435000 2.11451000
0.98621500 -1.44550000 2.09326000
1.10775000 -1.44363000 2.25062000
1.21185000 -1.43696000 2.41797000
1.17933000 -1.50971000 2.43801000
1.28424000 -1.43004000 2.60436000
1.24631000 -1.50222000 2.62368000
1.16529000 -1.38448000 2.20932000
1.27809000 -1.37822000 2.38040000
1.35606000 -1.37080000 2.57064000
1.42083000 -1.38028000 2.76742000
1.35974000 -1.44206000 2.79054000
1.35732000 -1.31336000 2.33333000
1.43882000 -1.30106000 2.53134000
1.51364000 -1.30919000 2.73317000
1.56291000 -1.31720000 2.93982000
1.47542000 -1.38366000 2.96471000
1.54986000 -1.21758000 2.47764000
1.63237000 -1.22251000 2.68810000
1.69403000 -1.23276000 2.90293000
1.73408000 -1.23414000 3.12020000
1.60916000 -1.32298000 3.14577000
1.78640000 -1.11583000 2.62697000
1.85811000 -1.12009000 2.85422000
1.90775000 -1.12110000 3.08498000
1.93118000 -1.12253000 3.31858000
1.75712000 -1.24118000 3.33939000
2.07787000 -0.97008400 2.78705000
2.13506000 -0.97288000 3.03636000
2.16040000 -0.96702500 3.29242000
2.16156000 -0.96634200 3.54996000
1.92683000 -1.12188000 3.55592000
2.37341000 -0.81288700 2.98728000
2.40036000 -0.81146600 3.26628000
2.40104000 -0.81147200 3.54918000
2.37976000 -0.81418100 3.82948000
2.13573000 -0.96150500 3.80838000
2.63718000 -0.64754600 3.24287000
2.63613000 -0.64759400 3.54660000
2.61724000 -0.65209600 3.84728000
2.57215000 -0.65381500 4.14421000
2.33922000 -0.81797600 4.10449000
2.87047000 -0.47955200 3.54199000
2.84753000 -0.48066300 3.86263000
2.80053000 -0.48141800 4.18088000
2.72193000 -0.47932100 4.49284000
2.49903000 -0.65091800 4.43383000
3.07820000 -0.30804500 3.87709000
3.02596000 -0.30729300 4.21432000
2.94309000 -0.30426900 4.54890000
2.83142000 -0.30394300 4.87371000
2.61671000 -0.47718300 4.79408000
3.24997000 -0.12928100 4.24945000
3.16059000 -0.12766100 4.60322000
3.04172000 -0.12680900 4.94833000
2.88923000 -0.12927200 5.28558000
2.68760000 -0.30537100 5.18665000
3.37344000 0.05789320 4.65627000
3.24493000 0.05723170 5.02127000
3.08257000 0.05449520 5.37841000
2.89124000 0.05736530 5.71765000
2.70818000 -0.12833400 5.60315000
3.43912000 0.24893600 5.09673000
3.26713000 0.24828500 5.46966000
3.06747000 0.25062700 5.82840000
2.84088000 0.25440000 6.16169000
2.67403000 0.05914710 6.03398000
3.44242000 0.45035700 5.56227000
3.23451000 0.45465700 5.93529000
3.00049000 0.46105800 6.28403000
2.73659000 0.46580100 6.60580000
2.59024000 0.25728500 6.46949000
3.39876000 0.66410600 6.03996000
3.15370000 0.67378200 6.40360000
2.87704000 0.67945400 6.74029000
2.56874000 0.67769100 7.04988000
2.44406000 0.46693200 6.89950000
3.30005000 0.89356800 6.51680000
3.00546000 0.90070200 6.86770000
2.68578000 0.90020000 7.19444000
2.34483000 0.90109200 7.47760000
2.23496000 0.68024200 7.32390000
3.12862000 1.12913000 6.98654000
2.79921000 1.13281000 7.32549000
2.44682000 1.13588000 7.62029000
2.06478000 1.14015000 7.87382000
1.97504000 0.90777400 7.72507000
2.91338000 1.37021000 7.44337000
2.54407000 1.37867000 7.75061000
2.14792000 1.38083000 8.01437000
1.72694000 1.37637000 8.23820000
1.65692000 1.13610000 8.09092000
2.63507000 1.62539000 7.87029000
2.22508000 1.62796000 8.14421000
1.78960000 1.62332000 8.37510000
1.33450000 1.60959000 8.56591000
1.28338000 1.36583000 8.41931000
1.72694000 1.37637000 8.23820000
1.78960000 1.62332000 8.37510000
2.30216000 1.87228000 8.27449000
1.85140000 1.86877000 8.51132000
1.85140000 1.86877000 8.51132000
1.38333000 1.85557000 8.70946000
0.89746000 1.84330000 8.86036000
0.86069200 1.59868000 8.71133000
1.90931000 2.12259000 8.63303000
1.42822000 2.11177000 8.83466000
0.93079500 2.09936000 8.99003000
0.42207600 2.09030000 9.09776000
0.40013700 1.83392000 8.96498000
1.46559000 2.37733000 8.93759000
0.95823100 2.36746000 9.09446000
0.43885000 2.35862000 9.20384000
-0.08582160 2.35184000 9.26875000
-0.09216560 2.08361000 9.15882000
0.98297100 2.63813000 9.18634000
0.45342600 2.62936000 9.29809000
-0.08232720 2.62364000 9.36170000
-0.62131600 2.61771000 9.38202000
-0.61344000 2.34638000 9.28699000
0.46996700 2.88513000 9.39863000
-0.07722880 2.87779000 9.46676000
-0.62758700 2.87442000 9.48625000
-1.17785000 2.87426000 9.45826000
-1.15956000 2.61666000 9.35476000
-0.07026250 3.05733000 9.58427000
-0.63317000 3.05163000 9.60371000
-1.19430000 3.05176000 9.57402000
-1.75152000 3.05274000 9.49623000
-1.72158000 2.87344000 9.38128000
-0.63607200 3.15625000 9.71691000
-1.20823000 3.15424000 9.68962000
-1.77621000 3.15326000 9.60538000
-2.33649000 3.15483000 9.47624000
-2.29883000 3.05188000 9.36866000
-1.21822000 3.20989000 9.78222000
-1.79559000 3.20522000 9.69870000
-1.77621000 3.15326000 9.60538000
-1.20823000 3.15424000 9.68962000
-2.36587000 3.20840000 9.56709000
-2.33649000 3.15483000 9.47624000
-2.91433000 3.20662000 9.39007000
-2.87744000 3.15166000 9.30310000
-1.81399000 3.25647000 9.78719000
-2.39373000 3.25848000 9.65551000
-2.95211000 3.25898000 9.47450000
-3.46414000 3.25315000 9.24286000
-3.42538000 3.20212000 9.16537000
-2.41485000 3.32327000 9.71968000
-2.97822000 3.32128000 9.53188000
-3.49296000 3.31398000 9.29958000
-3.99131000 3.30027000 9.01565000
-3.95752000 3.24156000 8.95948000
-2.98963000 3.39394000 9.55148000
-3.50382000 3.38579000 9.31998000
-4.00599000 3.37583000 9.03982000
-4.47695000 3.29284000 8.68599000
-4.49608000 3.37162000 8.70989000
-3.50014000 3.45883000 9.31052000
-4.00195000 3.45341000 9.03102000
-4.48965000 3.45313000 8.69900000
-4.95420000 3.36728000 8.33808000
-4.94708000 3.44727000 8.32833000
-3.97761000 3.51220000 8.98757000
-4.45772000 3.51040000 8.65391000
-4.91235000 3.50551000 8.28815000
-5.32755000 3.50986000 7.87568000
-5.36610000 3.45423000 7.91299000
-4.41156000 3.52412000 8.58929000
-4.85760000 3.52011000 8.22498000
-5.26999000 3.51752000 7.82065000
-5.70696000 3.50911000 7.42779000
-5.64212000 3.52175000 7.37670000
-4.80069000 3.49413000 8.15934000
-5.20981000 3.49750000 7.76297000
-5.57301000 3.49867000 7.32241000
-5.97974000 3.52329000 6.90203000
-5.90726000 3.50015000 6.85533000
-5.15306000 3.44666000 7.70723000
-5.51060000 3.44455000 7.27268000
-5.83830000 3.45018000 6.81082000
-6.13104000 3.46438000 6.32128000
-6.19836000 3.51451000 6.35646000
-5.44646000 3.38436000 7.22138000
-5.77153000 3.38967000 6.76770000
-6.06280000 3.40407000 6.28549000
-6.36760000 3.47337000 5.80432000
-6.29808000 3.41180000 5.77622000
-5.70045000 3.33004000 6.71900000
-5.99166000 3.34425000 6.24822000
-6.22225000 3.35001000 5.74515000
-6.48100000 3.41830000 5.25291000
-6.39935000 3.35570000 5.22746000
-5.90168000 3.27311000 6.20178000
-6.13700000 3.28424000 5.71140000
-6.30700000 3.28717000 5.19955000
-6.42831000 3.28816000 4.67344000
-6.51918000 3.35496000 4.69202000
-6.01617000 3.18901000 5.66344000
-6.18823000 3.19579000 5.16380000
-6.31916000 3.20396000 4.65148000
-6.40666000 3.21660000 4.12196000
-6.51471000 3.29555000 4.13273000
-6.03717000 3.03910000 5.11691000
-6.16823000 3.05748000 4.61635000
-6.25754000 3.07866000 4.10404000
-6.29934000 3.09164000 3.58373000
-6.44815000 3.22886000 3.58693000
-6.16823000 3.05748000 4.61635000
-6.04011000 2.82285000 4.58531000
-6.12341000 2.84624000 4.08646000
-6.25754000 3.07866000 4.10404000
-6.16365000 2.86538000 3.58193000
-6.29934000 3.09164000 3.58373000
-6.14684000 2.89316000 3.07186000
-6.29206000 3.11167000 3.06020000
-6.02486000 2.57049000 4.07203000
-6.06486000 2.59353000 3.57666000
-6.05281000 2.62347000 3.07630000
-5.99950000 2.65716000 2.57558000
-6.09715000 2.92173000 2.55887000
-5.95415000 2.32257000 3.56715000
-5.94399000 2.35463000 3.07769000
-5.89742000 2.38712000 2.58868000
-5.80296000 2.42533000 2.10170000
-5.90179000 2.69371000 2.07778000
-5.82856000 2.08601000 3.07661000
-5.78775000 2.11781000 2.59757000
-5.69572000 2.15832000 2.12281000
-5.56638000 2.19687000 1.65419000
-5.66964000 2.46282000 1.62090000
-5.65420000 1.85851000 2.60647000
-5.56997000 1.89881000 2.14381000
-5.44271000 1.93938000 1.68839000
-5.27575000 1.98181000 1.24417000
-5.38941000 2.23962000 1.19971000
-5.42390000 1.64801000 2.16560000
-5.30587000 1.68846000 1.72207000
-5.14805000 1.73102000 1.28870000
-4.94855000 1.77681000 0.86822300
-5.06412000 2.02825000 0.81572700
-5.14780000 1.45008000 1.75745000
-5.00173000 1.49207000 1.33811000
-4.81482000 1.53754000 0.92922000
-4.58780000 1.58413000 0.53452900
-4.70913000 1.82312000 0.46546300
-4.84323000 1.25989000 1.38503000
-4.66375000 1.31046000 0.99172900
-4.45046000 1.35745000 0.60856900
-4.19659000 1.40269000 0.24473800
-4.32204000 1.62646000 0.15841700
-4.50126000 1.09255000 1.05285000
-4.30444000 1.13807000 0.68079600
-4.06264000 1.18484000 0.33173400
-3.77935000 1.22643000 0.01118710
-3.90278000 1.43693000 -0.09196640
-4.13878000 0.93482100 0.75841000
-3.91730000 0.97967200 0.42259200
-3.65193000 1.01993000 0.11383600
-3.46480000 1.24890000 -0.28361300
-3.35000000 1.04728000 -0.16338900
-3.76370000 0.78391900 0.51698000
-3.51434000 0.82693400 0.22151700
-3.23298000 0.85232200 -0.04535980
-3.23298000 0.85232200 -0.04535980
-2.91899000 0.86162200 -0.26586200
-3.02135000 1.05424000 -0.40589200
-3.35000000 1.04728000 -0.16338900
-3.37353000 0.63848600 0.32263400
-3.10851000 0.66894600 0.07837720
-3.10851000 0.66894600 0.07837720
-2.81713000 0.67426500 -0.12823600
-2.50795000 0.66949800 -0.29235200
-2.58663000 0.86019500 -0.45016800
-2.98523000 0.48593800 0.19665400
-2.71487000 0.49439400 0.01533070
-2.43073000 0.48804900 -0.12916400
-2.13751000 0.46044500 -0.24081000
-2.18600000 0.65159600 -0.41955300
-2.61120000 0.32604200 0.16070500
-2.35974000 0.30908800 0.04197230
-2.09309000 0.28337000 -0.04662230
-1.83301000 0.42876000 -0.32288900
-1.81503000 0.24415400 -0.11929300
-2.30257000 0.13993500 0.22942200
-2.06461000 0.10654500 0.15497700
-1.81202000 0.06859180 0.10056300
-1.54547000 0.03019940 0.05751200
-1.52561000 0.20902300 -0.16982500
-2.06461000 0.10654500 0.15497700
-2.06219000 -0.05260520 0.38529000
-1.82865000 -0.09383070 0.33985900
-1.81202000 0.06859180 0.10056300
-1.57891000 -0.13188900 0.30317900
-1.54547000 0.03019940 0.05751200
-1.31552000 -0.16133700 0.28065300
-1.26675000 -0.00310613 0.03088110
-1.86964000 -0.24423500 0.58981100
-1.62847000 -0.28276200 0.55746700
-1.37615000 -0.31772900 0.53321000
-1.11600000 -0.34386700 0.52255500
-1.04322000 -0.19319800 0.26754800
-1.68925000 -0.42165900 0.81644500
-1.44276000 -0.45493500 0.79606800
-1.75675000 -0.54204800 1.07934000
-1.92916000 -0.38133000 0.84417200
-2.00047000 -0.49289900 1.10408000
-2.07632000 -0.59719900 1.35775000
-1.82582000 -0.65196600 1.33843000
-2.13979000 -0.67572700 1.61849000
-1.88609000 -0.74268400 1.59818000
-2.19342000 -0.75373100 1.87661000
-2.39942000 -0.59906600 1.63715000
-2.45457000 -0.65970900 1.90017000
-2.49391000 -0.71353300 2.16596000
-2.22817000 -0.80805600 2.14014000
-2.51771000 -0.76182400 2.43413000
-2.25311000 -0.86974900 2.39964000
-2.52478000 -0.80499600 2.70182000
-2.78477000 -0.64238800 2.46800000
-2.79552000 -0.68939100 2.74371000
-2.78638000 -0.72448300 3.01934000
-3.06638000 -0.56147500 2.78502000
-3.05955000 -0.59849200 3.07123000
-3.03279000 -0.63315300 3.35587000
-3.33748000 -0.47916900 3.12202000
-3.30552000 -0.50383800 3.42104000
-3.25346000 -0.52429800 3.71466000
-3.57567000 -0.36559200 3.48559000
-3.51404000 -0.37587000 3.79367000
-3.42856000 -0.37480600 4.09486000
-3.42856000 -0.37480600 4.09486000
-3.51404000 -0.37587000 3.79367000
-3.75048000 -0.18949900 3.87097000
-3.66536000 -0.19824100 4.18578000
-3.56448000 -0.20775800 4.49466000
-3.32786000 -0.37401300 4.38942000
-3.90822000 -0.03117370 4.28025000
-3.80200000 -0.04276430 4.60276000
-3.68332000 -0.06437330 4.91871000
-4.03243000 0.13425800 4.70847000
-3.89395000 0.12832200 5.03357000
-3.72995000 0.12842100 5.34654000
-4.09882000 0.32492900 5.14912000
-3.92153000 0.32749800 5.47376000
-3.72761000 0.32461000 5.78676000
-4.10810000 0.53006800 5.59998000
-3.89954000 0.53168400 5.92411000
-3.66344000 0.53620100 6.22730000
-4.06500000 0.74421500 6.05669000
-3.81526000 0.74975400 6.37201000
-3.53386000 0.76440600 6.65858000
-3.95708000 0.97500100 6.50674000
-3.66295000 0.98636900 6.80497000
-3.34262000 0.99646600 7.07939000
-3.23157000 0.77312400 6.92771000
-2.99773000 1.00616000 7.32321000
-2.90150000 0.78301800 7.16727000
-2.63128000 1.01462000 7.53859000
-2.54832000 0.79306800 7.37429000
-2.24893000 1.01681000 7.72374000
-2.17998000 0.79888100 7.55003000
-1.85126000 1.01816000 7.86973000
-1.79579000 0.80443300 7.68599000
-1.44344000 1.02253000 7.97565000
-1.40641000 0.80509900 7.79012000
-1.02908000 1.02982000 8.03550000
-1.40641000 0.80509900 7.79012000
-1.44344000 1.02253000 7.97565000
-1.48163000 1.24497000 8.15715000
-1.04969000 1.25715000 8.21292000
-0.61657800 1.26363000 8.23487000
-1.07150000 1.48925000 8.38323000
-0.62223000 1.49679000 8.40751000
-0.17297600 1.49666000 8.39465000
-0.62701300 1.73679000 8.56801000
-0.16267100 1.73948000 8.55176000
0.29629800 1.74111000 8.49988000
-0.15236400 1.98855000 8.69920000
0.31959700 1.99429000 8.63882000
0.78367400 2.00085000 8.53931000
0.34056000 2.25535000 8.76206000
0.81804200 2.26191000 8.65914000
1.28337000 2.26697000 8.51615000
0.84871400 2.52801000 8.76616000
1.32467000 2.53505000 8.61800000
1.78406000 2.54089000 8.42729000
1.36082000 2.80769000 8.70587000
1.82863000 2.81412000 8.51130000
2.27576000 2.81752000 8.27107000
1.88145000 3.06752000 8.61120000
2.33828000 3.07352000 8.36729000
2.77068000 3.07868000 8.08162000
2.77068000 3.07868000 8.08162000
2.33828000 3.07352000 8.36729000
2.41703000 3.23163000 8.49120000
2.85994000 3.23855000 8.20007000
3.27690000 3.24186000 7.86581000
3.17864000 3.08584000 7.75763000
2.93134000 3.32948000 8.29608000
3.36154000 3.33416000 7.95870000
3.75955000 3.34369000 7.57994000
3.41834000 3.39431000 8.02309000
3.82466000 3.40383000 7.63997000
4.19356000 3.41555000 7.21904000
3.88876000 3.46008000 7.69696000
4.25939000 3.47160000 7.26757000
4.58365000 3.47168000 6.80687000
4.32261000 3.52636000 7.31471000
4.65126000 3.52972000 6.85014000
4.93572000 3.52984000 6.34460000
4.71858000 3.57095000 6.89340000
5.00840000 3.57154000 6.38185000
5.25104000 3.57025000 5.83822000
5.08190000 3.59344000 6.41931000
5.32725000 3.58921000 5.86823000
5.52624000 3.58841000 5.29763000
5.39997000 3.57752000 5.89683000
5.60091000 3.57270000 5.31924000
5.75654000 3.56393000 4.72472000
5.65054000 3.51259000 5.33395000
5.79817000 3.50369000 4.73390000
5.88867000 3.49769000 4.12483000
5.80218000 3.42872000 4.73628000
5.89661000 3.42112000 4.12739000
5.92278000 3.42155000 3.51427000
5.86031000 3.34971000 4.12578000
5.88497000 3.34856000 3.51775000
5.85197000 3.34992000 2.92454000
5.80656000 3.29823000 3.52226000
5.78309000 3.29799000 2.93419000
5.69477000 3.28870000 2.35209000
5.70141000 3.24801000 2.94628000
5.61941000 3.23837000 2.36940000
5.49139000 3.23424000 1.80188000
5.54217000 3.18397000 2.38712000
5.41687000 3.17951000 1.82536000
5.24175000 3.17723000 1.28117000
5.41687000 3.17951000 1.82536000
5.32175000 3.07559000 1.85397000
5.15392000 3.07526000 1.31656000
5.24175000 3.17723000 1.28117000
4.92817000 3.06208000 0.80434600
5.01639000 3.17084000 0.76490600
5.05428000 2.89818000 1.35361000
4.83609000 2.88294000 0.84551000
4.56636000 2.85811000 0.36189200
4.74516000 2.64870000 0.88876500
4.48688000 2.63381000 0.40861500
4.18158000 2.62170000 -0.05093690
4.41160000 2.37077000 0.45753100
4.10576000 2.36126000 0.01024980
3.76159000 2.35082000 -0.41748800
4.01421000 2.10170000 0.08344880
3.67494000 2.09262000 -0.33377200
3.30150000 2.08917000 -0.71756400
3.57962000 1.84014000 -0.24328700
3.21432000 1.84004000 -0.61647000
2.81582000 1.83806000 -0.94947300
3.12244000 1.59514000 -0.50544600
2.73508000 1.59275000 -0.83017100
2.31643000 1.58224000 -1.11251000
2.64855000 1.35411000 -0.70132400
2.23739000 1.34461000 -0.97900900
1.80322000 1.33238000 -1.21919000
2.15754000 1.11599000 -0.83397900
1.73489000 1.10168000 -1.06733000
1.30417000 1.09450000 -1.25726000
1.67276000 0.87424000 -0.90576200
1.25292000 0.86536400 -1.08519000
0.82758700 0.85943400 -1.22802000
1.19577000 0.64659200 -0.90477500
0.78102900 0.64116900 -1.04153000
0.35905000 0.63606900 -1.14190000
0.73082900 0.42723100 -0.85505300
0.32001600 0.42522000 -0.95163900
-0.10896300 0.42327000 -1.00622000
0.27128900 0.22628900 -0.75433800
-0.14079300 0.22514400 -0.81030300
-0.55679100 0.21978300 -0.82534700
-0.17072700 0.02815560 -0.61111500
-0.56470700 0.02237860 -0.62174100
-0.95251600 0.02041050 -0.60018700
-0.57272600 -0.16170200 -0.40503700
-0.94100800 -0.16130200 -0.38047100
-1.30668000 -0.15338800 -0.33300900
-0.92828600 -0.33504100 -0.15706800
-1.27576000 -0.33015500 -0.11394400
-1.61753000 -0.32115300 -0.04093360
-1.24085000 -0.50011000 0.11115900
-1.56061000 -0.49338300 0.17679500
-1.86996000 -0.48665500 0.27599800
-1.95277000 -0.31413600 0.06418240
-1.49615000 -0.66095900 0.40199000
-1.78264000 -0.65299400 0.49326300
-1.86996000 -0.48665500 0.27599800
-1.78264000 -0.65299400 0.49326300
-2.06226000 -0.65173400 0.60733200
-1.69671000 -0.82141800 0.70949400
-1.95273000 -0.81872600 0.81475300
-2.19415000 -0.81927100 0.94651600
-1.83816000 -0.97980100 1.02518000
-2.05737000 -0.97557600 1.14704000
-2.26560000 -0.97784000 1.29371000
-1.93555000 -1.13385000 1.33558000
-2.12468000 -1.13544000 1.47223000
-2.29874000 -1.13470000 1.62993000
-2.01585000 -1.26008000 1.61499000
-2.18258000 -1.25401000 1.75711000
-2.33685000 -1.24567000 1.91771000
-2.10002000 -1.33343000 1.85072000
-2.24597000 -1.32465000 2.00076000
-2.37673000 -1.32140000 2.16694000
-2.18120000 -1.38946000 2.06130000
-2.30373000 -1.38716000 2.22191000
-2.40259000 -1.39385000 2.39619000
-2.24182000 -1.45031000 2.26562000
-2.33399000 -1.45491000 2.43779000
-2.41083000 -1.45862000 2.61558000
-2.29954000 -1.52366000 2.45721000
-2.37186000 -1.52509000 2.63574000
-2.44854000 -1.53035000 2.81217000
-2.44854000 -1.53035000 2.81217000
-2.37186000 -1.52509000 2.63574000
-2.37370000 -1.60317000 2.63927000
-2.44827000 -1.60397000 2.81581000
-2.49599000 -1.60204000 3.00099000
-2.49629000 -1.53110000 2.99729000
-2.45992000 -1.68086000 2.81501000
-2.51342000 -1.67468000 3.00042000
-2.53904000 -1.66803000 3.19184000
-2.52338000 -1.75640000 3.00031000
-2.55548000 -1.74824000 3.19271000
-2.56730000 -1.73890000 3.38552000
-2.55936000 -1.83122000 3.19550000
-2.57057000 -1.82487000 3.38959000
-2.56700000 -1.82203000 3.58216000
-2.56889000 -1.90712000 3.39452000
-2.56617000 -1.90394000 3.58804000
-2.54203000 -1.89650000 3.78094000
-2.54274000 -1.97115000 3.59210000
-2.52242000 -1.96424000 3.78381000
-2.48412000 -1.94719000 3.96870000
-2.47636000 -2.00313000 3.78085000
-2.44559000 -1.99326000 3.96326000
-2.40062000 -1.97790000 4.14024000
-2.39033000 -2.00840000 3.95282000
-2.34751000 -2.00245000 4.12499000
-2.29211000 -1.99390000 4.29401000
-2.28985000 -2.00519000 4.10882000
-2.23365000 -2.00079000 4.27193000
-2.16372000 -1.99263000 4.42808000
-2.17784000 -1.98701000 4.25008000
-2.10770000 -1.98395000 4.40146000
-2.02497000 -1.98138000 4.54301000
-2.08763000 -1.91994000 4.39360000
-2.00533000 -1.91942000 4.53264000
-1.90953000 -1.91992000 4.65761000
-1.99719000 -1.84904000 4.52924000
-1.90283000 -1.85160000 4.65391000
-1.79721000 -1.85460000 4.76990000
-1.89563000 -1.78314000 4.64858000
-1.78757000 -1.79032000 4.76253000
-1.66594000 -1.79880000 4.85928000
-1.77722000 -1.72656000 4.75413000
-1.65354000 -1.73803000 4.84922000
-1.52991000 -1.74521000 4.94216000
-1.64059000 -1.67687000 4.83874000
-1.51449000 -1.68625000 4.92892000
-1.37784000 -1.69585000 4.99581000
-1.37784000 -1.69585000 4.99581000
-1.51449000 -1.68625000 4.92892000
-1.50087000 -1.61873000 4.91631000
-1.36521000 -1.62608000 4.98257000
-1.23039000 -1.62728000 5.04448000
-1.24300000 -1.69933000 5.05983000
-1.35451000 -1.55422000 4.97238000
-1.21799000 -1.55500000 5.02659000
-1.08102000 -1.55008000 5.07480000
-1.19963000 -1.49247000 4.99504000
-1.06358000 -1.48364000 5.03731000
-0.92356000 -1.48417000 5.06229000
-1.03569000 -1.47471000 4.96522000
-0.90257800 -1.47737000 4.98943000
-0.77033500 -1.48002000 5.00151000
-0.88139500 -1.48759000 4.91052000
-0.75484700 -1.48737000 4.92201000
-0.63231300 -1.49036000 4.91651000
-0.73700800 -1.49941000 4.82982000
-0.61864700 -1.50238000 4.82237000
-0.50632800 -1.50846000 4.79287000
-0.60121200 -1.51829000 4.71067000
-0.49428500 -1.52326000 4.67525000
-0.39464500 -1.52634000 4.63800000
-0.47360100 -1.54154000 4.54529000
-0.37578600 -1.54419000 4.50911000
-0.28027000 -1.54843000 4.46391000
-0.34537200 -1.56156000 4.38268000
-0.44518800 -1.55943000 4.41479000
-0.41244800 -1.57774000 4.29156000
-0.51398400 -1.57541000 4.30918000
-0.48552700 -1.58718000 4.19221000
-0.54518100 -1.55701000 4.43602000
-0.64491800 -1.55244000 4.44498000
-0.61193200 -1.57269000 4.31470000
-0.57552200 -1.54051000 4.57165000
-0.68166200 -1.54079000 4.58842000
-0.78541000 -1.52907000 4.58088000
-0.74405000 -1.54917000 4.44336000
-0.71081100 -1.51373000 4.71533000
-0.82304200 -1.51251000 4.70987000
-0.93603100 -1.50756000 4.69736000
-0.88644900 -1.52650000 4.56411000
-0.85467500 -1.49659000 4.82197000
-0.97420000 -1.49409000 4.80112000
-1.09422000 -1.49035000 4.77182000
-1.04470000 -1.50378000 4.66371000
-1.00541000 -1.48410000 4.88692000
-1.13435000 -1.48184000 4.85666000
-1.25890000 -1.48264000 4.81222000
-1.20899000 -1.48905000 4.72896000
-1.16816000 -1.47751000 4.92988000
-1.29957000 -1.47652000 4.88212000
-1.42777000 -1.47814000 4.82224000
-1.37954000 -1.48245000 4.75477000
-1.33539000 -1.49152000 4.94406000
-1.46611000 -1.49272000 4.87805000
-1.59080000 -1.49005000 4.79774000
-1.54580000 -1.47935000 4.74689000
-1.48909000 -1.55003000 4.90637000
-1.61841000 -1.54240000 4.82608000
-1.73491000 -1.53131000 4.72704000
-1.70145000 -1.48603000 4.69946000
-1.63194000 -1.60943000 4.83571000
-1.75066000 -1.59671000 4.73634000
-1.85858000 -1.58404000 4.62810000
-1.83796000 -1.52176000 4.61838000
-1.64059000 -1.67687000 4.83874000
-1.76491000 -1.66376000 4.74419000
-1.87141000 -1.65047000 4.63491000
-1.94971000 -1.57603000 4.50867000
-1.96412000 -1.64172000 4.51427000
-1.76491000 -1.66376000 4.74419000
-1.88419000 -1.71688000 4.64153000
-1.87141000 -1.65047000 4.63491000
-1.97714000 -1.70931000 4.52013000
-1.96412000 -1.64172000 4.51427000
-2.06061000 -1.70518000 4.38787000
-2.04712000 -1.63635000 4.38419000
-1.98898000 -1.77850000 4.52591000
-2.07096000 -1.77695000 4.39038000
-2.14404000 -1.77609000 4.24489000
-2.13222000 -1.70320000 4.24358000
-2.08121000 -1.84867000 4.39286000
-2.15334000 -1.84864000 4.24549000
-2.21479000 -1.84675000 4.09197000
-2.20656000 -1.77525000 4.09263000
-2.15987000 -1.92072000 4.24518000
-2.22208000 -1.91768000 4.09097000
-2.27065000 -1.91359000 3.93092000
-2.26288000 -1.84392000 3.93274000
-2.23810000 -1.98222000 4.09374000
-2.28263000 -1.97878000 3.93068000
-2.31794000 -1.97146000 3.76439000
-2.30546000 -1.90851000 3.76614000
-2.32932000 -2.01013000 3.93981000
-2.35832000 -2.01190000 3.76822000
-2.37456000 -2.01431000 3.59314000
-2.34061000 -1.96616000 3.59458000
-2.41791000 -2.01449000 3.77509000
-2.43575000 -2.01902000 3.59302000
-2.43805000 -2.02000000 3.40969000
-2.37539000 -2.01378000 3.41648000
-2.49612000 -2.01007000 3.59433000
-2.49977000 -2.01364000 3.40479000
-2.48758000 -2.01154000 3.21783000
-2.42549000 -2.01537000 3.22897000
-2.55084000 -1.97690000 3.39992000
-2.54118000 -1.97992000 3.20675000
-2.51036000 -1.97826000 3.01550000
-2.45600000 -2.00780000 3.03201000
-2.55738000 -1.91096000 3.19985000
-2.52474000 -1.91106000 3.00761000
-2.47686000 -1.90838000 2.82059000
-2.46068000 -1.97480000 2.83044000
-2.52457000 -1.83641000 3.00316000
-2.47529000 -1.83420000 2.81679000
-2.40744000 -1.83525000 2.63794000
-2.40989000 -1.90890000 2.64074000
-2.47189000 -1.75833000 2.81411000
-2.40396000 -1.75894000 2.63504000
-2.31844000 -1.76290000 2.46270000
-2.32232000 -1.83922000 2.46591000
-2.39058000 -1.68034000 2.63661000
-2.31309000 -1.68156000 2.45986000
-2.22261000 -1.69153000 2.29113000
-2.22964000 -1.76925000 2.29245000
-2.30355000 -1.60255000 2.45954000
-2.20959000 -1.60782000 2.29439000
-2.11000000 -1.70086000 2.13977000
-2.10281000 -1.61704000 2.14121000
-2.29954000 -1.52366000 2.45721000
-2.20675000 -1.52397000 2.29143000
-2.09833000 -1.53047000 2.14047000
-1.97017000 -1.53638000 2.00592000
-1.97249000 -1.62444000 2.00325000
-2.09833000 -1.53047000 2.14047000
-2.20675000 -1.52397000 2.29143000
-2.12682000 -1.45264000 2.11287000
-1.99400000 -1.45825000 1.97705000
-1.97017000 -1.53638000 2.00592000
-1.83177000 -1.45615000 1.87052000
-1.82135000 -1.53995000 1.88745000
-2.04019000 -1.39517000 1.92123000
-1.87697000 -1.40501000 1.80267000
-1.70886000 -1.41887000 1.69269000
-1.66689000 -1.46514000 1.76166000
-1.93366000 -1.34565000 1.72340000
-1.76279000 -1.34992000 1.60686000
-1.58013000 -1.33491000 1.50918000
-1.53037000 -1.40154000 1.60091000
-1.83664000 -1.25978000 1.48961000
-1.64674000 -1.25481000 1.38501000
-1.45237000 -1.24169000 1.29637000
-1.39802000 -1.32115000 1.41772000
-1.73253000 -1.13125000 1.22418000
-1.51998000 -1.12807000 1.13338000
-1.29876000 -1.12450000 1.06748000
-1.24883000 -1.23080000 1.22574000
-1.45237000 -1.24169000 1.29637000
-1.51998000 -1.12807000 1.13338000
-1.60558000 -0.98304300 0.92782100
-1.60558000 -0.98304300 0.92782100
-1.36132000 -0.98285300 0.85388600
-1.11025000 -0.98178100 0.80038100
-1.06781000 -1.12276000 1.01538000
-1.69671000 -0.82141800 0.70949400
-1.43016000 -0.82693500 0.62707700
-1.15591000 -0.83007300 0.56860400
-0.87840800 -0.83198500 0.53352700
-0.85712800 -0.98481200 0.76375200
-1.20136000 -0.66576500 0.33832700
-0.89731400 -0.67143500 0.29844200
-0.59648800 -0.83662400 0.52162100
-0.59241000 -0.67745300 0.28211500
-0.91353700 -0.50555400 0.06811710
-0.58699400 -0.51169000 0.04843790
-0.26408200 -0.51333900 0.05697820
-0.29150700 -0.67976000 0.29163300
-0.57941700 -0.33975200 -0.18024600
-0.23573700 -0.33816300 -0.17308500
0.10430900 -0.33732200 -0.12782800
0.05552450 -0.51061500 0.09700280
-0.20432800 -0.15860000 -0.39816800
0.15856900 -0.15892300 -0.34848600
0.51573100 -0.15847200 -0.26156800
0.44072300 -0.33595700 -0.04917320
0.21748700 0.02950230 -0.55775600
0.59546600 0.02667970 -0.46597100
0.96142300 0.02752500 -0.34467800
0.86470000 -0.15672600 -0.14392800
0.66968200 0.22533400 -0.66048300
1.05199000 0.22792800 -0.53514300
1.42269000 0.23271100 -0.37778000
1.31315000 0.03402850 -0.19426500
1.13245000 0.43125500 -0.72409800
1.51795000 0.44083500 -0.55716400
1.88814000 0.45001400 -0.35951900
1.77229000 0.24269400 -0.18511300
1.60067000 0.65626500 -0.73295800
1.98892000 0.66625800 -0.52439200
2.35068000 0.67209100 -0.27381900
2.22860000 0.44948100 -0.12435500
2.08010000 0.88613600 -0.68514600
2.46016000 0.89346600 -0.42396400
2.80543000 0.88819600 -0.12950500
2.67423000 0.66343500 0.00745110
2.55546000 1.12407000 -0.56355600
2.91989000 1.12093000 -0.25937200
3.24202000 1.11989000 0.08234620
3.11428000 0.88569700 0.19608100
3.02553000 1.35547000 -0.38602300
3.36522000 1.35414000 -0.03270460
3.54067000 1.12900000 0.44932500
3.67321000 1.36285000 0.34930900
3.47613000 1.59546000 -0.14054600
3.79787000 1.60223000 0.25212700
4.08105000 1.61602000 0.67055900
3.95242000 1.37539000 0.75130700
3.91364000 1.84722000 0.16237200
4.20376000 1.86068000 0.59297500
4.31825000 1.62227000 1.11317000
4.44891000 1.86800000 1.04662000
4.31366000 2.11278000 0.52148800
4.56592000 2.12180000 0.98427900
4.64876000 1.87544000 1.52041000
4.77104000 2.12994000 1.47072000
4.66618000 2.38264000 0.93105300
4.87875000 2.38975000 1.42586000
5.04121000 2.39654000 1.94084000
4.93274000 2.13361000 1.97429000
4.96271000 2.65648000 1.38993000
5.13398000 2.66298000 1.91116000
5.25121000 2.66617000 2.44856000
5.15855000 2.39844000 2.46967000
5.22362000 2.90322000 1.88338000
5.34091000 2.90340000 2.42761000
5.40851000 2.90210000 2.97829000
5.31663000 2.66297000 2.99201000
5.44197000 3.07646000 2.40634000
5.51188000 3.07640000 2.96717000
5.52841000 3.07629000 3.53304000
5.42436000 2.90031000 3.53465000
5.54217000 3.18397000 2.38712000
5.61944000 3.19019000 2.95855000
5.63471000 3.18853000 3.53379000
5.60719000 3.18634000 4.11146000
5.49429000 3.07319000 4.10411000
5.61944000 3.19019000 2.95855000
5.72173000 3.24748000 3.52780000
5.63471000 3.18853000 3.53379000
5.69915000 3.24309000 4.11658000
5.60719000 3.18634000 4.11146000
5.60540000 3.24503000 4.70313000
5.51545000 3.18608000 4.68784000
5.78558000 3.29377000 4.12177000
5.69209000 3.29806000 4.71829000
5.54383000 3.29788000 5.30477000
5.46165000 3.24577000 5.28147000
5.76570000 3.35546000 4.73093000
5.61701000 3.35516000 5.32518000
5.34654000 3.29632000 5.87548000
5.41786000 3.35085000 5.90373000
5.65814000 3.43076000 5.33661000
5.45832000 3.42910000 5.91970000
5.17164000 3.35227000 6.46390000
5.20679000 3.42927000 6.48253000
5.45086000 3.51523000 5.91681000
5.19869000 3.51268000 6.47885000
4.89474000 3.51915000 7.00464000
4.91021000 3.44405000 7.01315000
5.15155000 3.57367000 6.45480000
4.84920000 3.57390000 6.97663000
4.55824000 3.51681000 7.49013000
4.51323000 3.57040000 7.45643000
4.78551000 3.58951000 6.93628000
4.45073000 3.59355000 7.40993000
4.12752000 3.56946000 7.91538000
4.06659000 3.58547000 7.85912000
4.38630000 3.57039000 7.36193000
4.00494000 3.56541000 7.80278000
3.58146000 3.55693000 8.20478000
3.64053000 3.58027000 8.27067000
3.94673000 3.51664000 7.75002000
3.52724000 3.50887000 8.14420000
3.12901000 3.55672000 8.56704000
3.08183000 3.50754000 8.50140000
3.47403000 3.45265000 8.08455000
3.03396000 3.44826000 8.43508000
2.61710000 3.50854000 8.81339000
2.57558000 3.45183000 8.74616000
2.98387000 3.38949000 8.36634000
2.53138000 3.39189000 8.67484000
2.04281000 3.38635000 8.93003000
2.08021000 3.44451000 9.00497000
2.48180000 3.32610000 8.59560000
2.00271000 3.32308000 8.84967000
2.00271000 3.32308000 8.84967000
1.50111000 3.31954000 9.06084000
1.53431000 3.38339000 9.14546000
2.04281000 3.38635000 8.93003000
1.94796000 3.22763000 8.74016000
1.94796000 3.22763000 8.74016000
1.45490000 3.22068000 8.94245000
0.94590200 3.21387000 9.10269000
0.98251800 3.31393000 9.22798000
1.88145000 3.06752000 8.61120000
1.40328000 3.06176000 8.81136000
0.90712200 3.05415000 8.96424000
0.39842000 3.05121000 9.07930000
0.42509100 3.21045000 9.21941000
0.90712200 3.05415000 8.96424000
1.40328000 3.06176000 8.81136000
0.87538100 2.79814000 8.85817000
0.37759600 2.79221000 8.96746000
0.39842000 3.05121000 9.07930000
-0.12839600 2.78479000 9.03271000
-0.12041100 3.04149000 9.14492000
0.36101800 2.52043000 8.87477000
-0.13615400 2.51515000 8.93536000
-0.63777200 2.51025000 8.95245000
-0.64020500 2.77978000 9.05070000
-0.14429000 2.25059000 8.82070000
-0.63431200 2.24586000 8.83800000
-1.13924000 2.50644000 8.92429000
-1.12483000 2.24298000 8.80610000
-0.63098000 1.98565000 8.71348000
-1.11024000 1.98172000 8.68368000
-1.61062000 2.23723000 8.73155000
-1.58488000 1.97371000 8.61430000
-1.09265000 1.73024000 8.54161000
-1.55410000 1.72291000 8.47297000
-1.55410000 1.72291000 8.47297000
-2.00477000 1.71719000 8.35558000
-2.04933000 1.96821000 8.49349000
-1.58488000 1.97371000 8.61430000
-1.52016000 1.47682000 8.32583000
-1.95872000 1.46982000 8.21170000
-1.52016000 1.47682000 8.32583000
-2.38231000 1.46955000 8.05090000
-2.44152000 1.71343000 8.19587000
-1.48163000 1.24497000 8.15715000
-1.90494000 1.23794000 8.04713000
-2.31661000 1.23882000 7.89241000
-2.71451000 1.23811000 7.70066000
-2.79287000 1.46642000 7.85949000
-3.18418000 1.46183000 7.63331000
-3.26976000 1.70126000 7.77514000
-2.86480000 1.70677000 8.00409000
-3.09208000 1.23142000 7.48006000
-3.45012000 1.22174000 7.23057000
-3.55437000 1.45298000 7.37440000
-3.90044000 1.44468000 7.08491000
-4.00233000 1.69136000 7.20686000
-3.64746000 1.69668000 7.50601000
-3.78389000 1.21235000 6.94775000
-4.09033000 1.20535000 6.63770000
-4.21568000 1.44114000 6.76370000
-4.50050000 1.43889000 6.41670000
-4.62240000 1.68806000 6.52094000
-4.32912000 1.68782000 6.87774000
-4.36615000 1.19987000 6.30191000
-4.61090000 1.19698000 5.94693000
-4.75459000 1.43956000 6.04849000
-4.22438000 0.96357900 6.18576000
-4.45366000 0.96362500 5.83880000
-4.65384000 0.97023700 5.47227000
-4.81960000 1.20228000 5.57017000
-4.28823000 0.74042300 5.72290000
-4.47550000 0.74991400 5.36750000
-4.63794000 0.75843400 5.00032000
-4.81856000 0.98519000 5.08913000
-4.29545000 0.52875100 5.26231000
-4.44985000 0.53717000 4.90759000
-4.57202000 0.55293600 4.54106000
-4.76902000 0.77186200 4.61989000
-4.24966000 0.32698500 4.81073000
-4.36755000 0.34005600 4.45855000
-4.45836000 0.36013500 4.09796000
-4.67108000 0.56876900 4.16636000
-4.14202000 0.14957000 4.37082000
-4.23110000 0.16749600 4.02585000
-4.29650000 0.18433700 3.67265000
-4.52767000 0.37648400 3.72973000
-3.99464000 -0.01634280 3.95105000
-4.05482000 0.00501744 3.61497000
-4.09525000 0.02394100 3.27283000
-4.33555000 0.20725200 3.31540000
-3.81723000 -0.18183800 3.55111000
-3.85009000 -0.15427000 3.22512000
-3.86123000 -0.12040500 2.89822000
-4.10726000 0.05654320 2.92890000
-3.57567000 -0.36559200 3.48559000
-3.60923000 -0.33999100 3.17343000
-3.61314000 -0.29639400 2.86012000
-3.58977000 -0.23601100 2.55039000
-3.84618000 -0.07921250 2.57079000
-3.61314000 -0.29639400 2.86012000
-3.60923000 -0.33999100 3.17343000
-3.34327000 -0.43668900 2.82347000
-3.32569000 -0.38442700 2.52805000
-3.58977000 -0.23601100 2.55039000
-3.29685000 -0.34368800 2.23134000
-3.55583000 -0.19578000 2.24008000
-3.05611000 -0.51939000 2.49915000
-3.02905000 -0.47494800 2.21517000
-2.98542000 -0.43635200 1.93253000
-3.24923000 -0.30858400 1.93575000
-2.75867000 -0.59633900 2.19371000
-2.71762000 -0.54841300 1.92110000
-2.65983000 -0.49814400 1.65279000
-2.92390000 -0.38906500 1.65557000
-2.84201000 -0.33013400 1.39030000
-3.09322000 -0.20632900 1.37452000
-3.18108000 -0.26067600 1.64910000
-2.58578000 -0.43651600 1.39403000
-2.49536000 -0.36116100 1.14588000
-2.74245000 -0.26537100 1.14230000
-2.33104000 -0.53041600 1.37662000
-2.24541000 -0.43184300 1.13007000
-2.16415000 -0.33434600 0.87671900
-2.39758000 -0.27573500 0.90638200
-2.32806000 -0.15316300 0.66347200
-2.63535000 -0.18637900 0.90106600
-2.09722000 -0.20208300 0.62950300
-2.29060000 -0.01600650 0.44144400
-2.30257000 0.13993500 0.22942200
-2.85585000 -0.06671220 0.89042600
-2.98456000 -0.14133000 1.11871000
-3.05385000 0.09252750 0.84260100
-3.19967000 0.01929950 1.08323000
-3.32591000 -0.05342480 1.34792000
-3.32591000 -0.05342480 1.34792000
-3.19967000 0.01929950 1.08323000
-3.40527000 0.18698500 1.03512000
-3.54388000 0.11880600 1.31438000
-3.66089000 0.05214130 1.60776000
-3.43058000 -0.11784900 1.63061000
-3.43058000 -0.11784900 1.63061000
-3.74676000 0.00159743 1.91990000
-3.50170000 -0.15862000 1.93202000
-3.50170000 -0.15862000 1.93202000
-3.80760000 -0.03871490 2.24252000
-3.55583000 -0.19578000 2.24008000
-3.98212000 0.17583500 1.90655000
-4.04918000 0.13263000 2.24290000
-4.09092000 0.09395140 2.58561000
-4.28055000 0.31819000 2.24005000
-4.32869000 0.27665200 2.59671000
-4.34715000 0.23963100 2.95629000
-4.55013000 0.47795900 2.60729000
-4.57191000 0.44012800 2.98291000
-4.56387000 0.40420300 3.35734000
-4.78819000 0.64742200 3.00706000
-4.78100000 0.61347800 3.39707000
-4.74078000 0.58860400 3.78345000
-4.99151000 0.82901700 3.43269000
-4.94925000 0.80467000 3.83412000
-4.87498000 0.78586500 4.23073000
-5.14267000 1.03438000 3.88006000
-5.06733000 1.01219000 4.29137000
-4.96031000 0.99526200 4.69569000
-5.24336000 1.25133000 4.34778000
-5.13466000 1.23104000 4.76653000
-4.99244000 1.21667000 5.17558000
-5.29768000 1.47512000 4.83221000
-5.15254000 1.45863000 5.25403000
-4.97489000 1.44327000 5.66205000
-5.29821000 1.70969000 5.32514000
-5.11137000 1.69729000 5.74377000
-4.88416000 1.69085000 6.14213000
-5.23761000 1.95636000 5.82021000
-5.00178000 1.94942000 6.22791000
-4.73351000 1.94465000 6.61666000
-5.10822000 2.21417000 6.30554000
-4.82968000 2.20874000 6.70123000
-4.52015000 2.20560000 7.07556000
-4.42939000 1.94367000 6.98088000
-4.17895000 2.20492000 7.42269000
-4.09594000 1.94397000 7.32093000
-3.80945000 2.20712000 7.73796000
-3.73246000 1.94886000 7.62617000
-3.41036000 2.21275000 8.01341000
-3.34398000 1.95185000 7.90198000
-2.98976000 2.21686000 8.25473000
-2.93103000 1.95677000 8.13808000
-2.54624000 2.22382000 8.45442000
-2.49701000 1.96429000 8.33231000
-2.08573000 2.23056000 8.61306000
-2.59174000 2.48889000 8.56469000
-2.12102000 2.49611000 8.72605000
-1.63548000 2.50318000 8.84492000
-1.61062000 2.23723000 8.73155000
-2.15191000 2.76808000 8.82255000
-1.65699000 2.77422000 8.94412000
-1.15128000 2.77775000 9.02188000
-1.63548000 2.50318000 8.84492000
-1.65699000 2.77422000 8.94412000
-1.68209000 3.03114000 9.06017000
-1.16544000 3.03543000 9.13653000
-0.64280100 3.03526000 9.16252000
-1.18080000 3.19822000 9.28336000
-0.64442300 3.20572000 9.31608000
-0.64280100 3.03526000 9.16252000
-1.16544000 3.03543000 9.13653000
-0.10674600 3.21312000 9.29610000
-0.12041100 3.04149000 9.14492000
-0.64549900 3.30366000 9.44446000
-0.09602810 3.30560000 9.41875000
0.44664700 3.30391000 9.33957000
-0.08784830 3.36794000 9.50742000
0.46357400 3.37122000 9.43287000
1.00670000 3.37825000 9.31570000
0.47959500 3.43130000 9.51734000
1.02973000 3.43719000 9.39701000
1.56472000 3.44482000 9.22377000
1.05205000 3.49806000 9.47488000
1.59424000 3.50214000 9.30043000
2.11659000 3.50265000 9.07808000
2.08021000 3.44451000 9.00497000
1.62369000 3.55137000 9.37619000
2.15298000 3.55419000 9.15095000
2.15298000 3.55419000 9.15095000
2.65881000 3.55386000 8.88089000
2.11659000 3.50265000 9.07808000
2.19050000 3.57468000 9.22739000
2.70180000 3.57380000 8.95027000
3.17837000 3.57301000 8.63554000
2.74240000 3.56289000 9.01702000
3.22513000 3.56301000 8.70010000
3.69763000 3.56364000 8.33441000
3.25867000 3.50869000 8.74435000
3.73448000 3.49846000 8.37465000
4.16844000 3.50512000 7.95203000
3.74233000 3.41780000 8.38164000
4.17697000 3.42108000 7.95850000
4.57082000 3.43857000 7.49948000
4.15301000 3.34492000 7.93475000
4.54855000 3.35855000 7.48244000
4.88587000 3.36455000 6.99619000
4.48716000 3.29875000 7.43584000
4.82349000 3.30155000 6.95542000
5.10408000 3.29605000 6.42941000
4.74241000 3.24804000 6.90361000
5.02620000 3.24323000 6.38940000
5.26885000 3.24645000 5.84502000
4.94474000 3.18401000 6.34784000
5.18880000 3.18653000 5.81433000
5.37641000 3.18658000 5.25765000
5.08505000 3.07535000 5.77153000
5.27361000 3.07593000 5.22792000
5.37641000 3.18658000 5.25765000
5.18880000 3.18653000 5.81433000
5.40755000 3.07308000 4.67031000
5.51545000 3.18608000 4.68784000
5.16296000 2.88351000 5.19660000
5.29943000 2.88526000 4.65299000
5.38704000 2.89006000 4.09748000
5.20420000 2.62993000 4.63663000
5.28981000 2.63771000 4.09280000
5.33098000 2.65227000 3.54123000
5.19915000 2.36577000 4.08632000
5.23976000 2.38088000 3.54576000
5.22420000 2.39625000 3.00468000
5.12663000 2.11390000 3.54438000
5.11508000 2.13110000 3.01278000
5.04725000 2.13434000 2.48937000
4.98338000 1.87333000 3.01889000
4.91726000 1.87689000 2.51002000
4.80623000 1.87634000 2.00845000
4.76990000 1.62735000 2.53491000
4.66383000 1.62623000 2.04863000
4.51179000 1.62676000 1.57443000
4.51241000 1.38042000 2.08832000
4.36437000 1.38201000 1.62867000
4.18095000 1.37889000 1.18204000
4.20671000 1.14370000 1.68585000
4.02909000 1.14149000 1.25234000
3.80858000 1.14162000 0.83637400
3.87433000 0.90573800 1.31875000
3.66196000 0.90276700 0.91816400
3.39999000 0.89676800 0.54875200
3.49852000 0.67705100 1.00692000
3.24696000 0.66964600 0.65258600
2.96907000 0.66270700 0.31862200
3.08795000 0.45032400 0.76367600
2.81532000 0.44617100 0.44491400
2.53318000 0.44221800 0.14630600
2.65906000 0.23880500 0.57987700
2.38112000 0.23324400 0.29606600
2.09267000 0.23591000 0.03405830
2.22793000 0.03454570 0.44940900
1.94929000 0.03137890 0.20007900
1.64582000 0.03498400 -0.01239390
1.80387000 -0.16242400 0.37357400
1.51448000 -0.15765100 0.16999400
1.20008000 -0.15332000 -0.00014223
1.37954000 -0.34054500 0.36063300
1.08390000 -0.33492100 0.19728000
0.76821400 -0.33553000 0.06050530
0.97056600 -0.51095700 0.39965100
0.67596900 -0.51071600 0.27036700
0.36937900 -0.51095500 0.16942500
0.58449700 -0.68023800 0.48548300
0.29720900 -0.68081000 0.39384900
0.00665345 -0.67900600 0.32873500
0.22771600 -0.83547700 0.62525800
-0.04187410 -0.83480500 0.56643200
-0.31795400 -0.83627800 0.53268100
-0.08825200 -0.98442100 0.79888000
-0.34110800 -0.98232200 0.76891700
-0.59814300 -0.98568500 0.75473200
-0.36229100 -1.12821000 0.98372000
-0.59722500 -1.12817000 0.96606200
-0.83351700 -1.12558000 0.97681700
-0.59600200 -1.22508000 1.12069000
-0.81600000 -1.22173000 1.13562000
-1.03530000 -1.22492000 1.17138000
-0.80178200 -1.30373000 1.25351000
-1.01051000 -1.30770000 1.28445000
-1.21238000 -1.31690000 1.33656000
-0.98888700 -1.37603000 1.37529000
-1.18050000 -1.37586000 1.43027000
-1.36009000 -1.38807000 1.50369000
-1.39802000 -1.32115000 1.41772000
-1.15667000 -1.42946000 1.50289000
-1.33174000 -1.44860000 1.56960000
-1.33174000 -1.44860000 1.56960000
-1.49861000 -1.45976000 1.66036000
-1.36009000 -1.38807000 1.50369000
-1.31872000 -1.52170000 1.59501000
-1.48070000 -1.52873000 1.68982000
-1.64027000 -1.53047000 1.80926000
-1.64027000 -1.53047000 1.80926000
-1.48070000 -1.52873000 1.68982000
-1.47018000 -1.61974000 1.70628000
-1.64496000 -1.62902000 1.80155000
-1.82226000 -1.62963000 1.88531000
-1.82135000 -1.53995000 1.88745000
-1.66138000 -1.72852000 1.77586000
-1.82738000 -1.71921000 1.87692000
-1.97863000 -1.70916000 1.99792000
-1.83214000 -1.80330000 1.86963000
-1.98280000 -1.79159000 1.99529000
-2.11292000 -1.77925000 2.14106000
-1.98511000 -1.87197000 1.99497000
-2.11389000 -1.85487000 2.14382000
-2.22995000 -1.84414000 2.29775000
-2.10994000 -1.92791000 2.15042000
-2.22489000 -1.91675000 2.30432000
-2.32254000 -1.91219000 2.46981000
-2.20299000 -1.98062000 2.32313000
-2.30677000 -1.97712000 2.48271000
-2.39239000 -1.97539000 2.65264000
-2.25457000 -2.00713000 2.51690000
