-2.16249000 1.33640000 -6.28555000
-2.00431000 3.08285000 -7.94061000
-1.50036000 3.00184000 -8.00786000
-1.72829000 3.11033000 -8.03795000
2.07983000 0.11097900 3.94909000
1.92087000 0.15363500 4.08231000
-5.48152000 3.66207000 -5.96761000
-4.09156000 0.48960000 -2.31140000
1.65938000 -2.44666000 1.49060000
-1.67406000 -1.17806000 1.31291000
4.60888000 -0.54702900 -0.70419600
4.74701000 -0.43685300 -0.79297100
-1.19533000 -1.81935000 2.32704000
-1.29308000 -1.79060000 2.30224000
3.26251000 1.78744000 6.42861000
3.55069000 1.74087000 6.20460000
-0.70736900 -2.05082000 -2.16848000
-1.43796000 -1.78753000 2.22580000
2.00477000 -2.23674000 0.37190700
2.03061000 -2.24501000 0.19282700
4.38749000 -0.71143200 -0.34982900
4.29836000 -0.78199000 -0.31728300
4.47098000 -0.40328200 -2.05042000
4.51049000 -0.32399800 -2.20133000
0.48596200 2.98431000 -7.46654000
0.21631800 3.25908000 -7.72539000
0.16123000 3.30894000 -7.76493000
1.52353000 -2.44247000 1.41279000
1.55182000 -2.45130000 1.43023000
1.56226000 -2.44648000 1.56296000
1.47529000 -2.44344000 1.51385000
-0.41674000 -1.17688000 2.33982000
-0.42885200 -1.13373000 2.41652000
1.92646000 2.37481000 -6.74099000
2.00811000 2.38314000 -6.72060000
1.19598000 -0.88952500 -2.87572000
1.59847000 -2.43151000 1.36458000
1.59974000 -2.44646000 1.49018000
-2.64350000 0.42328000 4.01018000
3.30421000 -0.09606050 -2.76463000
3.25859000 -0.17447400 -2.64592000
3.36499000 -0.08974290 -2.71514000
-6.83935000 2.19033000 -2.69671000
4.14497000 0.15034600 -2.32384000
4.07301000 0.06537230 -2.23783000
-0.15262900 -0.85310000 -4.06330000
8.63130000 4.38059000 -2.60275000
-2.20754000 0.37309700 -4.17175000
-1.93894000 0.39671300 -4.36114000
6.08859000 3.26674000 5.77532000
6.77311000 1.69829000 2.25367000
1.81627000 -2.14380000 0.44399300
1.91531000 -2.16903000 0.31335500
-2.83043000 4.62073000 -9.36239000
6.05520000 3.16176000 5.69872000
6.45169000 1.60032000 -1.28227000
-2.16777000 1.89587000 6.38109000
-0.59219100 -1.93324000 -0.74631000
-0.70915900 -1.88632000 -0.76250500
1.46594000 -2.14508000 0.44138100
6.34599000 1.50492000 -1.25250000
6.38087000 1.50832000 -1.11102000
4.78793000 4.09279000 8.21698000
-3.09345000 4.13344000 -8.64480000
-4.53690000 4.15247000 -7.26080000
-4.39614000 4.07948000 -7.26716000
8.59561000 4.08183000 -1.03065000
8.60948000 4.13102000 -1.28337000
-0.99937200 2.78466000 7.99652000
-1.24515000 -2.10875000 0.42306700
2.77560000 -1.04541000 0.81149800
5.98458000 2.57068000 -4.21744000
5.98687000 2.64084000 -4.32251000
5.94379000 2.67451000 -4.41778000
5.88917000 2.58171000 -4.35473000
-3.68159000 -0.02785360 -0.94986600
6.00631000 1.51523000 -3.59663000
5.60145000 1.12282000 -3.52241000
-7.97066000 3.65687000 1.12425000
-7.98746000 3.72202000 1.34596000
-1.04818000 -2.40719000 1.86498000
-1.22518000 -2.40300000 1.78154000
5.87449000 1.22825000 -3.33010000
5.87200000 1.31970000 -3.48786000
-7.12428000 2.88924000 -3.62919000
-7.21552000 2.92497000 -3.50581000
-6.42189000 3.51628000 5.49422000
-6.18737000 3.21309000 5.41523000
0.56008100 -2.19979000 1.82592000
-2.23774000 0.72470600 4.72274000
-0.53811900 -2.33530000 -2.82170000
-2.22687000 -0.36678900 -3.89598000
6.17234000 2.84156000 5.18971000
6.22477000 2.79721000 5.08288000
-2.20785000 4.54630000 9.50288000
-9.70329000 4.63086000 0.26989600
2.72350000 -0.85460900 2.93263000
2.90724000 -0.80646700 2.83280000
2.64539000 -0.85685300 2.99962000
-0.37564100 -2.31985000 -2.90130000
-5.77335000 4.70414000 -7.87303000
-6.77589000 2.07732000 0.24104600
-5.52000000 3.91767000 -6.84809000
6.68987000 1.63576000 -2.69489000
6.48478000 1.47258000 -2.80175000
0.31377100 4.74813000 -9.36933000
8.30647000 3.59657000 2.81903000
3.58169000 -1.32628000 -0.59491000
6.52831000 1.46049000 -2.65621000
-0.43386400 -1.52690000 1.71597000
-0.40646500 -1.63078000 1.52069000
5.85374000 1.09722000 1.02577000
5.94810000 1.21361000 1.17943000
5.93378000 1.13412000 0.90439500
0.75948700 -1.09829000 -3.75925000
4.32493000 0.29026200 -2.35496000
4.50069000 0.38269400 -2.32533000
5.83499000 1.07953000 -3.13460000
-5.49888000 2.46416000 4.57825000
-5.46320000 2.40685000 4.50632000
-8.52862000 4.25725000 1.08525000
-8.62379000 4.35972000 1.23673000
-8.65079000 4.39202000 1.36338000
6.62094000 1.47366000 -2.47493000
6.52302000 1.38296000 -2.51532000
-4.19336000 3.92534000 -7.73522000
-6.82417000 1.58863000 0.17196900
6.48341000 1.12021000 -1.71507000
6.54378000 1.25574000 -2.03392000
8.51303000 3.25890000 -0.07900400
7.72590000 3.80803000 -4.51406000
7.10117000 3.33579000 -3.56524000
6.27888000 1.10814000 -2.38750000
6.21406000 1.10863000 -2.50251000
1.67807000 1.63335000 6.29108000
5.75298000 1.69571000 3.05662000
5.82381000 1.73510000 2.99042000
-8.50927000 4.22880000 0.96435900
5.09321000 1.53078000 4.67375000
5.17314000 1.50017000 4.53719000
5.26874000 1.58766000 4.56567000
-5.27861000 2.24111000 -4.49543000
-2.90092000 2.95292000 -6.99648000
-3.21591000 3.58293000 -7.91580000
-3.06079000 3.54363000 -7.95243000
-4.25759000 0.29678200 3.22609000
-4.33795000 0.29536000 3.10951000
-4.37918000 0.36933300 3.23516000
4.04548000 4.41904000 8.96429000
0.73673200 1.03518000 -5.60099000
0.68002800 0.95715200 -5.49588000
5.43214000 2.17934000 -4.34900000
5.50953000 2.10361000 -4.11638000
0.63749800 1.06343000 -5.66373000
7.39466000 2.94600000 1.85541000
5.21720000 1.86606000 -4.10987000
3.53902000 3.89375000 8.22395000
-1.58933000 -0.29685000 -4.39817000
-1.45523000 -0.41265700 -4.28675000
-1.45679000 -0.55982900 -4.09966000
6.88909000 1.32082000 -0.57465100
6.69102000 1.13383000 -0.52251400
5.36574000 2.45751000 -4.78660000
2.09663000 1.20134000 6.24041000
1.78340000 1.05923000 6.15815000
3.67991000 1.33439000 4.87761000
3.72766000 1.40585000 4.94995000
3.69487000 1.44406000 5.04975000
2.57916000 2.42656000 -6.56985000
2.70280000 2.30519000 -6.42832000
8.95223000 3.83789000 2.03192000
8.95372000 3.82061000 1.84040000
8.85984000 3.83507000 2.34141000
-0.69093200 4.43296000 -9.74027000
5.46717000 2.50499000 -4.74308000
0.37101700 3.18358000 7.82503000
-5.52827000 1.47397000 -2.59524000
-5.55266000 1.53009000 -2.68361000
-3.56374000 1.12098000 -4.51482000
-3.34674000 1.00253000 -4.51152000
0.11722900 0.85888500 -6.14018000
-5.54591000 0.62492100 1.07426000
-5.55282000 0.67333300 1.34873000
-5.79309000 1.23783000 0.54494000
-5.77085000 1.26529000 0.69218000
4.11484000 3.96898000 7.30731000
1.92116000 0.98234500 6.02298000
-2.56317000 3.55545000 -8.12701000
-2.35173000 3.33210000 -8.02696000
-2.34111000 -0.88412700 2.95142000
-2.25181000 -0.88130200 3.00437000
-0.45973400 3.05718000 -8.12586000
-0.43960100 3.25187000 -8.28527000
0.59498700 4.79217000 9.62142000
0.16559300 0.98221900 -6.28369000
0.00514696 1.04760000 -6.33491000
1.38034000 -2.21470000 -2.58255000
8.27524000 3.19689000 -1.70483000
0.63285400 -1.78210000 1.29430000
0.74726800 -1.78944000 1.23588000
-2.96175000 1.83671000 -5.90898000
-3.08098000 1.96589000 -6.01311000
-3.07569000 1.87564000 -5.89836000
7.97736000 2.68650000 1.13429000
7.76348000 2.48274000 1.38005000
-4.22644000 0.31151700 1.15273000
1.83324000 -2.44685000 1.29818000
1.88730000 -2.44941000 1.22368000
2.29730000 0.83066400 -4.93768000
2.11360000 0.76378200 -4.92897000
-7.94309000 3.61937000 3.06480000
5.90402000 0.53801300 0.92139400
-4.48036000 1.23831000 4.69862000
-4.68162000 1.26652000 4.46435000
-4.55987000 1.25874000 4.59352000
7.31711000 3.91893000 4.20479000
1.63800000 0.70842400 5.05045000
-8.50806000 3.99522000 -2.67005000
-8.56886000 3.99018000 -2.47775000
-8.56886000 3.99018000 -2.47775000
0.94753500 -0.86087800 3.78686000
-1.89742000 2.57365000 -6.97992000
-0.49675900 2.95227000 7.61216000
2.18723000 1.28687000 -6.29386000
-2.92011000 -0.55328900 -0.90813000
-2.82805000 -0.59137800 -1.05246000
8.67348000 4.14226000 0.94051100
0.27510100 -1.19594000 -2.49697000
0.21244800 -1.25605000 -2.40862000
0.14063200 -1.20258000 -2.49084000
-9.31243000 4.17012000 0.85550900
-8.96730000 4.07197000 1.26245000
-2.58858000 -1.84432000 0.94350100
-2.58127000 -1.89941000 0.93937900
-7.72900000 2.63729000 -0.63447000
-7.83307000 2.79741000 -0.93531600
5.42527000 0.14983300 0.87856400
5.67528000 0.34857100 0.86676000
5.41507000 0.17502600 0.97861000
1.29303000 -0.44738900 -3.51247000
1.45667000 -0.39499100 -3.52807000
1.55232000 -0.34009600 -3.58583000
1.49127000 -0.28060600 -3.70528000
-3.31821000 -0.98215100 1.05889000
1.39800000 2.79187000 -7.15852000
1.23029000 2.90579000 -7.29419000
-8.55228000 4.06232000 -3.04764000
-0.75317900 0.90893300 6.18181000
-9.09209000 4.61881000 3.39174000
6.37530000 2.73178000 -4.87338000
6.29790000 2.56522000 -4.77426000
6.30117000 2.46232000 -4.65466000
6.22459000 2.33436000 -4.58243000
3.59870000 4.27055000 -9.07216000
4.25051000 3.33185000 -6.58227000
4.09196000 3.43436000 -6.78808000
4.16983000 3.38114000 -6.67979000
4.23892000 3.51348000 -6.77950000
-3.51130000 2.27055000 -6.64688000
-3.69494000 2.20518000 -6.48415000
-8.76415000 4.01258000 1.66250000
-8.76415000 4.01258000 1.66250000
-8.26233000 4.55608000 -5.17379000
2.86819000 -1.96943000 -0.13976100
2.86636000 -1.98526000 -0.27259600
-3.97063000 2.22752000 -6.35110000
-3.73785000 1.99764000 -6.25106000
-3.77008000 2.16935000 -6.40504000
-5.55302000 2.60674000 4.73029000
-5.56458000 2.53665000 4.61374000
4.78124000 0.66863100 -2.57502000
4.72330000 0.67388500 -2.67646000
0.33131200 -2.06601000 -0.63091000
0.15141900 -2.05860000 -0.73794100
-7.09456000 3.99819000 5.47930000
4.29926000 2.25594000 -5.45106000
4.36224000 2.19213000 -5.35809000
4.45608000 2.20203000 -5.31880000
-9.39248000 4.23621000 1.63911000
-1.39750000 2.87612000 7.44661000
4.23000000 2.26509000 -5.54089000
4.32929000 3.54537000 -6.76882000
4.45426000 3.49957000 -6.64235000
4.32915000 3.60198000 -6.82139000
4.31046000 3.46361000 -6.69011000
6.64138000 4.16438000 -7.11505000
6.27641000 3.14573000 4.50376000
-0.82911600 0.41902300 -5.55867000
-0.88130200 0.23886000 -5.31175000
-1.15213000 0.29489600 -5.29255000
4.64605000 3.60593000 -6.61231000
4.75113000 3.52708000 -6.45299000
4.76155000 3.68590000 -6.62098000
-6.71374000 3.79018000 4.69188000
-2.49263000 -2.29201000 0.49025800
4.02579000 1.89075000 -5.27467000
4.16973000 1.96533000 -5.25734000
-2.87152000 2.22587000 6.38718000
-1.54517000 0.62847100 -5.59680000
-0.10733200 2.71795000 -7.27634000
-0.24957900 2.69812000 -7.26433000
2.45243000 -1.86102000 1.16519000
6.07292000 1.14376000 -0.68048300
6.00944000 1.08740000 -0.63802000
-1.28570000 -2.12873000 1.48890000
-1.06322000 -2.14925000 1.63519000
7.47531000 4.67474000 -6.04370000
4.44049000 2.49183000 -5.64973000
-8.11867000 4.30233000 3.01726000
-0.52652900 3.05447000 -7.56528000
1.41930000 2.33160000 -6.82124000
1.33690000 2.31395000 -6.82845000
6.84353000 4.41832000 -7.15269000
6.86512000 4.33342000 -7.10538000
6.85039000 4.37728000 -7.13956000
-0.87560300 -2.07365000 1.60757000
-0.27517900 0.52568700 -5.72647000
-0.49321900 0.58794400 -5.77861000
5.20640000 2.38978000 5.72034000
5.48826000 2.46739000 5.50839000
4.50428000 2.58340000 -6.41882000
6.98567000 4.67803000 -6.67805000
0.71964600 -2.03983000 -0.61743300
0.88500700 -2.03476000 -0.50101600
0.05811620 -2.18655000 -1.40656000
-2.77880000 -2.21492000 -0.30602200
-8.69222000 3.94177000 1.37926000
4.39796000 1.85833000 -4.95126000
2.66581000 -2.31736000 0.57361600
1.09135000 0.13667500 -4.42630000
-5.38350000 0.96433000 0.49660500
-5.37460000 0.96405900 0.59806400
-5.26047000 0.88817100 0.48462700
7.82483000 4.19452000 -5.92088000
2.04242000 0.55894900 -4.70879000
2.11173000 0.65135200 -4.80216000
7.98101000 2.62635000 -1.04909000
7.83684000 2.40391000 -0.84131600
-0.46637100 2.86808000 -7.42991000
-7.04449000 2.15097000 -2.12389000
-7.02711000 2.16425000 -2.19299000
6.68210000 2.15309000 1.86025000
4.14808000 -0.03855390 -3.23295000
3.96405000 -0.02521240 -3.46031000
4.34868000 0.05244680 -3.14584000
-0.98730800 -2.10742000 1.62509000
-3.73287000 0.58538000 -3.21057000
-3.40709000 0.51217100 -3.35111000
-3.38489000 0.43165800 -3.21084000
-6.31104000 4.71362000 -7.42271000
1.90090000 -2.39717000 0.88584900
-3.38903000 0.40138600 -3.12990000
-3.48810000 0.42555300 -3.04059000
5.29695000 1.00706000 -3.76917000
2.93084000 2.44087000 6.64303000
2.88040000 2.62259000 6.81062000
-4.44693000 1.45350000 4.20556000
2.95846000 0.07095460 3.27600000
4.97026000 0.65957600 -3.53906000
2.16267000 -0.02015250 -4.59124000
1.18099000 4.23235000 -8.54425000
1.64745000 0.16385100 4.20662000
1.72004000 0.26212800 4.35084000
-1.28056000 -0.55721700 -3.12957000
-0.79305800 0.71310600 -5.17273000
-5.85411000 4.75342000 -7.30312000
7.91658000 3.66083000 2.24373000
-1.97797000 -0.98458900 -1.61836000
-2.14953000 -0.91849100 -1.44743000
-5.13680000 0.79558300 0.54732900
-6.44738000 4.29737000 -7.07822000
2.85331000 3.90070000 -7.79076000
2.38555000 0.60128500 -5.31882000
7.46556000 2.03267000 -1.28942000
-2.17938000 -0.82306900 1.61305000
-1.97149000 -0.95325300 1.58195000
4.08091000 0.08627940 3.31862000
-8.87459000 4.50961000 0.81584200
-8.73225000 4.40183000 0.80532600
0.46345900 0.52532900 5.74323000
0.40369800 0.45723800 5.64602000
-5.08776000 0.76407300 0.64634100
7.88132000 3.51401000 1.81333000
7.85848000 3.54500000 2.04215000
-5.32158000 0.41210500 -0.83385700
-2.08662000 0.61923200 -4.61297000
-4.00411000 3.93267000 7.32956000
-4.15590000 3.99674000 7.30974000
-3.93383000 2.37908000 -5.90166000
0.36195200 1.16791000 5.92012000
-5.01067000 0.16781800 -0.65731200
-5.14071000 0.27645600 -0.88146600
-4.80376000 0.00732378 -0.52801900
-4.67893000 -0.08178060 -0.61390100
-8.84147000 4.51532000 1.11347000
-4.14346000 3.58111000 6.92674000
-3.57234000 1.22387000 -4.65719000
1.40842000 -0.73930500 2.82815000
-6.51293000 2.67755000 -4.31447000
4.84772000 3.47294000 -6.34071000
-2.41760000 -0.76447900 1.31295000
0.39195300 2.26223000 -6.86945000
0.35795600 2.19401000 -6.80287000
-1.04143000 -2.38311000 1.74822000
8.49119000 4.44001000 -5.15425000
8.36672000 4.35578000 -5.32461000
2.31671000 -0.86976000 3.17927000
-0.97662700 -2.38789000 1.80342000
-1.88731000 -2.33550000 1.00927000
-0.92789500 3.36098000 -7.82141000
-0.82327200 3.31394000 -7.77858000
-0.84664700 3.41201000 -7.86053000
-0.70354700 3.45626000 -7.90811000
-0.96382700 3.47772000 -7.90011000
0.90161800 -0.32749000 -3.81198000
7.34799000 3.94948000 -5.47993000
-6.54214000 2.83109000 -4.50518000
8.04571000 3.97095000 -4.56216000
2.56733000 1.02744000 5.88354000
2.75418000 1.04249000 5.82436000
-9.67129000 4.50145000 -1.18534000
1.94575000 0.27967800 -4.37846000
1.99035000 0.17755100 -4.20793000
0.81689700 -2.12723000 2.45931000
-1.35318000 -0.86708900 2.37950000
-0.84724600 4.25785000 -8.60604000
6.81044000 2.37584000 -2.43459000
5.01171000 0.57677900 -1.89788000
-1.84126000 3.69932000 8.54317000
4.78314000 3.18948000 -6.07812000
-0.83900400 4.35424000 -8.71944000
-5.95155000 3.41830000 -5.92991000
5.07737000 3.13183000 -5.79958000
0.35358300 -2.27152000 -0.72916600
0.41237600 -2.26715000 -0.82144400
4.54056000 0.08476040 -1.09617000
7.54904000 2.11974000 -1.22863000
4.56147000 -0.42397600 1.06326000
4.53510000 -0.47718700 0.91157400
4.43821000 -0.51133900 1.05651000
-4.10257000 1.02589000 3.75608000
0.83931300 4.79560000 -9.52856000
-0.83470800 2.72718000 7.46895000
-5.75791000 3.04279000 5.67357000
3.61575000 0.05916110 3.79077000
2.84875000 1.54184000 -5.61274000
1.71199000 -0.70816200 3.76587000
1.91878000 -0.52834700 3.94577000
2.02212000 -0.40478200 4.06848000
2.06126000 -0.32927000 4.16744000
-0.58927900 -1.97370000 0.44262000
-6.25289000 3.69625000 5.16899000
-6.25143000 3.61111000 5.07596000
5.01371000 3.09207000 -6.53421000
2.11417000 -0.49242500 3.88829000
2.56644000 -2.00443000 -1.43927000
1.76647000 0.56206400 4.76999000
4.43699000 0.19776100 -1.91862000
-8.95937000 4.67337000 2.04445000
-8.81018000 4.59805000 2.08934000
-8.89593000 4.65637000 2.18650000
-8.98019000 4.70248000 2.22173000
-7.77733000 3.35945000 -2.89559000
-1.67849000 -1.30485000 0.93532500
2.12521000 -1.50608000 0.45233300
2.12287000 -1.48774000 0.54973800
2.14228000 -0.25434900 3.24195000
0.67939900 -1.93032000 0.92552500
1.00272000 3.63516000 8.65014000
-4.41481000 4.24055000 8.55835000
3.06187000 -0.58527400 1.66428000
1.99394000 -2.07269000 1.77466000
4.51512000 0.49592700 -3.81700000
3.48507000 2.35108000 -6.74532000
4.04545000 0.02855020 3.24117000
3.77382000 -0.24084300 3.00207000
6.28035000 1.96711000 -2.76834000
6.10813000 1.88450000 -2.92515000
6.15491000 1.88176000 -2.84902000
8.00930000 4.64030000 -5.63815000
8.02053000 4.60840000 -5.69815000
1.24821000 -1.23093000 3.21142000
-6.01016000 3.65381000 -6.10616000
9.28558000 4.70097000 -3.07426000
9.26038000 4.69066000 -3.18691000
-1.55383000 1.08116000 5.51977000
0.72450300 -2.13624000 1.33001000
0.84463400 -2.17273000 1.10827000
8.19590000 4.60074000 -5.45863000
-0.35552800 -2.19851000 0.99559900
1.08484000 -1.59763000 1.47218000
1.11263000 -1.69630000 1.24371000
1.03215000 -1.75751000 1.16388000
9.03304000 4.57439000 -2.26968000
9.02673000 4.59680000 -2.48518000
-1.46214000 1.09332000 5.59150000
-6.15462000 3.67734000 -5.99239000
-3.56080000 0.16963700 2.32628000
-3.55858000 0.18862900 2.42528000
1.51493000 -2.36016000 -1.70642000
1.41470000 -2.37599000 -1.84405000
2.46378000 -0.42918100 -2.93675000
2.38917000 -0.50790500 -2.85017000
2.51439000 -0.49171900 -2.79445000
2.29006000 -0.47565900 -2.94566000
2.36346000 -0.43160000 -2.98194000
-4.00385000 4.78853000 8.67758000
0.49661400 3.78624000 8.81999000
1.89631000 -1.62246000 0.49545300
1.99123000 -1.55764000 0.56178300
1.19286000 3.03771000 8.18146000
1.11124000 2.89400000 8.09936000
-8.01247000 4.39246000 -3.70718000
-1.92305000 -2.09338000 -2.26110000
-1.73316000 1.10336000 -5.50546000
1.19281000 2.62999000 -7.06710000
3.74365000 -0.87641600 -2.11222000
3.91944000 -0.72722200 -2.16835000
2.35017000 -2.45379000 -0.76940300
-5.63830000 0.80664200 -1.72317000
-5.78011000 0.91431200 -1.72174000
-5.77124000 2.05952000 -3.49046000
-1.89644000 1.16289000 -5.52305000
-6.01034000 1.69838000 -1.89326000
-5.55761000 1.20417000 1.94487000
-3.26769000 0.98389300 -4.53568000
-1.82827000 1.09977000 -5.46407000
-4.09665000 -0.41013200 -1.31690000
-4.33313000 -0.21178000 -1.42349000
-1.20626000 -2.31609000 2.15007000
-1.12071000 -2.30025000 2.16946000
-1.18683000 -2.33444000 2.12392000
-6.07710000 2.25326000 -3.30946000
-6.24541000 1.10639000 -0.11573900
-4.19097000 -0.27423100 -1.58184000
-4.67940000 1.78687000 -4.53254000
9.40571000 4.66834000 -1.48949000
-1.03316000 -2.32134000 2.16536000
-0.95304000 -2.36204000 2.12724000
-0.97971300 -2.33227000 2.17188000
-1.52842000 -1.01968000 1.94131000
2.62507000 -1.19079000 -0.84472100
4.14653000 1.19652000 5.18466000
9.07118000 4.51993000 -1.65281000
9.12933000 4.53854000 -1.52971000
9.23705000 4.60107000 -1.54647000
-2.78495000 -2.03689000 -0.56736600
6.22669000 1.91887000 -2.76935000
6.15632000 1.83532000 -2.69281000
0.41527900 -2.07366000 -0.51089400
4.61115000 -0.14545000 2.02419000
4.74991000 0.00029024 2.14217000
4.61640000 -0.09396110 2.13566000
4.77601000 0.04681610 2.21929000
-5.71716000 1.57802000 -2.37355000
4.42092000 -0.31207800 1.90946000
-5.68366000 1.70734000 -2.78688000
-0.62991300 -2.23663000 0.19900900
-0.61985100 0.46326600 4.87714000
0.57929500 0.89615200 5.50478000
0.80463900 -0.56614700 -3.36411000
0.69533400 -0.52049200 -3.48648000
-3.85787000 4.11450000 -7.59924000
3.38381000 0.86666400 4.30064000
3.34401000 0.81068600 4.24107000
3.41391000 0.65547400 3.94584000
4.70638000 1.51729000 5.09918000
3.31448000 2.82003000 -6.62822000
0.41246300 -1.96016000 -2.99400000
-4.41599000 1.10459000 -3.53615000
-0.77750100 -1.66008000 -1.36721000
-0.88910900 -1.57059000 -1.45974000
-0.87915400 -1.65804000 -1.27258000
-0.81382000 -1.47786000 -1.69106000
-0.74720000 -1.61025000 -1.49268000
-2.11414000 2.18360000 -6.57115000
-0.67452300 0.35132900 4.71087000
-0.02840510 2.01964000 -6.68728000
0.07439880 2.03019000 -6.68987000
0.84641400 -1.91096000 -2.89642000
0.99099400 -1.92289000 -2.83894000
-7.97018000 4.72962000 -4.98705000
4.49746000 0.18573600 1.59329000
-2.21417000 -0.08238050 3.30185000
-3.75402000 -0.81726400 0.28135100
-1.45684000 1.00639000 -5.43999000
-5.87023000 2.84327000 -5.41276000
-6.15780000 2.87912000 -5.11022000
8.06174000 4.62124000 -4.86851000
8.69005000 4.30374000 -1.97450000
5.21818000 2.53499000 5.01975000
5.30214000 2.68571000 5.08473000
5.24843000 2.64364000 5.11404000
-4.19359000 -0.49468900 0.23835700
-4.21780000 -0.46973800 0.34846500
-3.65925000 0.35539200 2.84186000
-3.67674000 0.39295900 2.94375000
-4.02433000 0.48972600 2.63276000
-7.74882000 3.27294000 -0.48139600
-0.52104300 0.95645500 -6.18880000
-1.44144000 0.06765550 -4.01662000
2.38171000 -0.57597600 2.53197000
2.31045000 -0.54958400 2.64268000
-3.77812000 0.39081100 2.75431000
-3.72710000 0.35406700 2.67517000
-3.87698000 0.41525900 2.62670000
-3.60426000 0.27234400 2.62516000
-4.62280000 1.00926000 3.16878000
-9.54462000 4.25198000 0.71898800
7.36780000 3.45988000 -3.26764000
7.33104000 3.37866000 -3.18295000
7.35934000 3.51632000 -3.39816000
-1.92410000 -0.40952200 3.99837000
-3.53859000 0.27659100 2.78401000
-4.23806000 0.22358300 0.41181500
-4.26678000 0.23589900 0.18826100
-4.30078000 0.25078900 0.37628000
-4.16360000 0.17734800 0.34235100
2.97062000 -1.60159000 0.84582400
-5.65025000 3.99417000 6.97631000
-5.90687000 3.99515000 6.75417000
-6.18130000 3.99084000 6.48671000
1.75394000 -0.21224500 3.58259000
-3.80080000 4.84277000 -8.89113000
-3.68782000 4.85990000 -8.89443000
-3.41322000 -0.08460560 -1.67801000
3.77112000 1.58022000 5.16015000
-6.99078000 2.09980000 2.21510000
-7.03675000 2.11284000 2.10045000
-4.85938000 1.02866000 -2.65599000
-1.49126000 0.02924680 -3.92218000
-1.68574000 0.07045150 -3.88422000
-0.44648900 2.99715000 -7.52477000
7.80348000 3.47469000 3.72017000
1.29317000 3.15532000 -7.51305000
1.33709000 3.26908000 -7.62297000
2.37400000 2.92820000 7.26536000
2.40851000 2.97226000 7.29842000
0.97258300 -2.01260000 -0.53374600
1.29972000 3.40174000 -7.72996000
-0.04864460 -1.64195000 1.62629000
-4.89643000 3.45415000 6.88653000
-4.63901000 3.50669000 7.11898000
-6.10440000 4.77257000 -7.16847000
-5.76021000 4.78892000 7.59430000
5.92447000 1.07183000 0.49739800
1.89067000 1.71404000 -6.17099000
-1.07015000 1.29638000 -5.83716000
-0.96548100 1.39038000 -5.95508000
4.10772000 1.73446000 5.87190000
3.83785000 1.75694000 6.04185000
3.59084000 4.51476000 9.14722000
3.55688000 4.56400000 9.14565000
-5.60642000 0.61714200 -0.52724500
-5.58197000 0.57799800 -0.17204600
4.05603000 2.07913000 -5.45692000
-3.85624000 1.50700000 4.92193000
-7.52673000 2.33573000 -0.31115900
-6.31474000 1.23212000 -1.04244000
-1.42802000 2.36137000 7.05504000
4.43888000 1.24179000 4.02588000
4.48912000 1.27978000 4.06902000
4.60248000 1.30231000 3.95433000
4.51130000 1.14541000 3.80245000
1.54550000 2.22660000 -6.68822000
1.42513000 2.24782000 -6.74391000
0.05823230 0.91954600 5.54023000
1.12960000 -1.70973000 2.55364000
-8.46079000 4.29159000 -1.92026000
-8.31320000 4.16572000 -1.90676000
0.22882700 3.23949000 -8.27987000
0.80940900 -2.43419000 2.08175000
1.79828000 0.03328110 -4.06486000
1.89022000 0.07641110 -4.07452000
1.67074000 -0.08220630 -3.93537000
0.89287300 0.82380500 -5.34567000
0.75851900 0.87708300 -5.40719000
-8.60648000 4.75003000 3.63360000
9.59849000 4.63980000 -2.38440000
9.59923000 4.67072000 -2.25220000
9.62583000 4.68145000 -2.04381000
1.02783000 0.44589000 -4.82981000
1.00107000 0.36009400 -4.73595000
1.15189000 0.32071800 -4.64844000
1.11276000 0.39692600 -4.75785000
0.62751400 1.93641000 6.77507000
6.84793000 2.68520000 -2.86474000
6.80637000 2.68404000 -2.95064000
1.81073000 -0.02171980 -3.97839000
1.84813000 -0.07358610 -3.86969000
-1.18006000 -2.13342000 -2.05568000
4.27817000 2.02409000 5.32350000
6.46464000 4.69340000 -7.23171000
6.37113000 4.69508000 -7.34559000
6.49375000 4.68664000 -7.28594000
7.03138000 2.99757000 -3.09547000
-0.05487520 1.96856000 6.79155000
2.96235000 1.20965000 5.18808000
-2.31555000 1.91981000 -6.25376000
-2.54534000 1.94500000 -6.20189000
-2.45750000 1.97710000 -6.26325000
-1.62100000 -0.03823460 -3.73887000
-2.53657000 2.08617000 -6.35226000
-3.96032000 -0.06556570 2.77576000
0.07599510 -2.18035000 -2.34751000
-9.27543000 4.73958000 -1.94381000
-9.31686000 4.74399000 -2.04081000
-9.34789000 4.74831000 -1.81295000
-9.38482000 4.73751000 -2.13398000
1.67755000 -2.12811000 0.57266700
1.70013000 0.65661500 -4.95077000
-6.24130000 3.80416000 5.31956000
0.51010100 3.17236000 -7.60436000
0.56670800 3.25637000 -7.67525000
0.42057100 3.29327000 -7.72853000
-9.45254000 4.75233000 -1.75411000
-9.47499000 4.73513000 -1.81191000
-9.41779000 4.74777000 -1.81877000
-9.41467000 4.74815000 -1.92818000
4.92149000 3.74885000 6.56972000
-9.48944000 4.73721000 -1.67685000
1.03433000 4.35459000 9.73007000
0.96150500 4.30690000 9.71066000
1.33931000 3.00195000 7.60046000
1.32484000 2.81961000 7.45750000
-8.51439000 4.68554000 3.52418000
-8.66795000 4.74190000 3.43170000
-8.68022000 4.77231000 3.59506000
-8.61626000 4.74271000 3.56727000
0.33900300 3.08147000 -7.55844000
0.46881900 3.10025000 -7.56054000
0.38311000 3.17937000 -7.63866000
-2.62090000 1.91660000 -6.14641000
-2.46468000 1.85699000 -6.13618000
4.55261000 0.75490100 -3.06777000
2.18645000 -1.06632000 -1.96632000
2.85571000 -1.93443000 0.09838250
7.48201000 2.69103000 -0.60252400
-1.39189000 0.74914500 5.79796000
2.95785000 1.59533000 -5.63685000
-4.08291000 0.37598000 -2.00208000
2.14535000 4.14996000 8.32060000
8.10272000 3.59960000 -3.36399000
1.47531000 1.12433000 -5.63715000
-2.73655000 -1.72370000 0.70709800
-2.72170000 -1.76842000 0.66991800
4.24005000 -0.14067100 2.70089000
-7.43167000 3.89800000 4.73760000
-7.53043000 3.88427000 4.52675000
-8.62910000 4.72360000 -4.26203000
-5.15092000 4.07515000 -7.44469000
-5.26484000 4.05926000 -7.29907000
5.13923000 4.74772000 7.99388000
2.84236000 1.59303000 -5.70031000
2.77054000 1.66237000 -5.82401000
7.03288000 2.56720000 2.00086000
2.33216000 0.23424500 3.99708000
2.25217000 0.11646500 3.85534000
1.73864000 -0.79388100 3.61242000
1.73372000 -1.64931000 -0.96973800
1.52235000 -1.66573000 -1.23265000
1.56916000 -1.68791000 -1.13674000
2.22879000 0.25408800 4.10918000
0.12245300 -2.16000000 1.36383000
0.28114800 -2.14004000 1.43869000
-4.68269000 0.17654500 -1.99297000
-4.75320000 0.31530000 -2.34536000
1.25025000 0.52228100 -5.68894000
2.49010000 -2.41394000 0.78406100
4.54350000 4.24891000 -8.65479000
4.34894000 4.26764000 -8.76636000
-4.45406000 0.10591900 -2.36284000
9.66689000 4.58539000 -2.24677000
9.66588000 4.62022000 -2.17437000
-0.77624400 3.56197000 -7.97860000
-0.89604600 3.57452000 -7.98429000
-1.77693000 -0.54270500 3.89453000
4.12304000 -0.02453520 -1.80429000
-0.31290100 -1.78911000 -3.00193000
-0.10817300 -1.84354000 -3.00497000
-0.32712200 -2.15401000 1.84549000
-0.41820100 -2.12180000 1.79462000
0.86266800 -0.62654600 -4.27344000
0.97737200 -0.67023700 -4.22483000
4.01931000 -0.11803200 -1.74042000
3.98490000 -0.18632600 -1.58835000
-0.64786900 3.33012000 -7.78277000
-0.66786700 3.24579000 -7.71718000
5.86036000 2.69947000 -4.53033000
-5.36297000 2.32486000 -5.31143000
-5.22985000 2.31225000 -5.40617000
-5.26813000 2.12612000 -5.17146000
2.96984000 4.36900000 -8.32918000
-1.75584000 -0.30200700 4.27435000
8.13194000 4.56849000 4.63849000
-0.73132400 3.36625000 -7.83143000
-0.75337200 3.31238000 -7.78476000
-1.37675000 2.10766000 -6.65051000
-1.26396000 2.13484000 -6.70853000
7.51253000 4.64916000 -6.30654000
-0.64346700 -1.75702000 -2.97500000
-2.49736000 -0.66582600 3.22157000
-2.70382000 -0.51877000 3.33027000
-2.58107000 -0.65057800 3.18501000
3.62337000 -0.20477600 -2.21480000
3.73921000 -0.16225500 -2.10367000
3.80830000 -0.09702800 -2.18403000
3.68674000 -0.22971700 -2.01345000
2.90387000 3.33015000 -7.81786000
3.03236000 3.23673000 -7.69067000
2.72736000 3.33446000 -7.88123000
0.08992680 -2.22867000 1.92444000
1.72135000 -2.34935000 -2.17149000
1.46859000 -2.33759000 -2.43985000
-6.00677000 1.40036000 -2.71331000
-2.43824000 -0.92936600 0.22542200
-0.59425200 -0.20449500 3.84801000
4.05269000 1.99589000 -5.37475000
4.19374000 2.01670000 -5.30337000
-2.09372000 -1.15815000 0.03497420
2.15320000 -0.43486000 -3.08936000
-5.24973000 2.25401000 5.27323000
-5.38502000 2.25829000 5.12723000
-5.47078000 2.22598000 4.99951000
7.16704000 3.50757000 -3.75612000
2.44144000 0.41283100 -4.29351000
-3.22934000 0.38123300 3.45176000
-3.31164000 0.43264500 3.46163000
-3.13772000 0.41316000 3.60785000
-2.11765000 0.30111700 -4.98317000
9.26346000 3.91791000 -0.02011380
1.96867000 -0.61326300 -2.85592000
2.05154000 -0.66294300 -2.74938000
7.01403000 3.23069000 -3.55410000
-5.30661000 2.40530000 5.40602000
1.23342000 4.62075000 9.69328000
2.94327000 -0.19385300 -2.96886000
2.87490000 -0.24870900 -2.90682000
2.99384000 -0.19877700 -2.87129000
2.77259000 -0.21150900 -3.09168000
2.82612000 -0.25608100 -2.97253000
-6.05585000 2.88491000 4.44803000
-6.23600000 1.46162000 -2.21244000
-6.40596000 1.62131000 -2.23527000
-1.11578000 1.97680000 -6.57825000
-2.94271000 0.42554400 -3.65367000
7.86139000 4.31019000 6.04891000
0.51453200 0.26273700 -4.66148000
0.54942900 4.53675000 -9.80553000
0.40083400 4.58371000 -9.80537000
6.40073000 1.68093000 -1.79653000
0.51646700 -0.61406600 -4.32225000
0.48758800 -0.52413900 -4.44296000
5.36845000 1.42593000 -3.25522000
5.51451000 1.52370000 -3.20243000
5.64546000 1.55739000 -3.05637000
5.30204000 3.21922000 5.72281000
5.51122000 3.23275000 5.54553000
5.38952000 0.06646550 -0.18733200
-6.16819000 3.26396000 -5.53372000
5.53677000 1.61572000 -3.35389000
5.38141000 1.63736000 -3.63191000
5.82164000 0.40555600 0.04256890
9.24532000 3.89402000 0.36501800
0.60635500 0.73950900 5.28280000
9.00656000 4.62219000 -2.73950000
-3.94808000 0.71017500 -3.24991000
-3.40268000 -0.90263400 1.37170000
-3.40268000 -0.90263400 1.37170000
-2.07641000 -2.34463000 0.73776700
-2.05282000 -2.32280000 0.72973700
2.70622000 -0.53281700 -3.72389000
5.79540000 0.53838000 1.22460000
5.89494000 0.66688000 1.43845000
6.20889000 0.83943900 -1.58272000
6.09622000 0.76878400 -1.67239000
-7.89310000 3.96478000 2.59495000
2.07904000 -1.33892000 1.11243000
2.16741000 -1.33793000 0.97506900
-0.65295800 -2.19534000 -0.71254500
2.25014000 -1.26947000 1.04688000
2.36972000 -1.19471000 1.09749000
0.17446500 -0.06139590 4.04712000
0.29156800 -0.09377730 4.00891000
0.57178700 -0.17483200 3.91226000
0.59214300 -0.12014100 3.98542000
1.98475000 -1.59957000 0.36713700
1.99857000 -1.58097000 0.43874000
5.85147000 2.96253000 4.86148000
5.97520000 2.97743000 4.72071000
0.52334600 -0.21777900 3.82639000
-0.48424000 0.46084700 -4.90012000
-0.58242000 0.50659900 -4.95881000
5.45019000 1.61577000 4.40770000
0.04479410 4.25550000 -8.64476000
0.03793470 4.17217000 -8.54304000
2.48682000 -1.12819000 1.16207000
1.77876000 1.47740000 -5.97996000
1.98458000 1.52683000 -5.96718000
1.81043000 1.55735000 -6.04453000
-0.08385100 -0.10468100 -4.17026000
2.73032000 4.73436000 -9.36273000
-0.49219300 -1.50466000 -1.83844000
-1.51566000 -2.07143000 1.24297000
-6.79168000 4.45991000 -6.98253000
-2.10258000 -2.28120000 -1.08168000
1.99134000 -2.37942000 1.54395000
1.94140000 -2.39620000 1.50779000
-2.15328000 -0.42264100 3.81303000
9.79267000 4.61435000 -1.55916000
9.82763000 4.57863000 -1.46753000
3.78787000 0.24630000 -3.03457000
3.76897000 0.29246800 -3.14053000
3.64849000 0.17164000 -3.04032000
-8.93848000 4.01770000 -0.01026490
-8.93848000 4.01770000 -0.01026490
9.08362000 4.55678000 2.31576000
-2.28900000 -1.30044000 2.23578000
6.81905000 2.08995000 -1.74145000
-1.94696000 -1.20223000 -0.71879500
0.63055200 0.08385100 -4.38353000
0.46832500 0.07922650 -4.40034000
5.29491000 0.79982100 1.66390000
4.71065000 1.29456000 -4.76350000
4.82308000 1.37587000 -4.78396000
1.91138000 2.30813000 -6.65817000
1.85386000 2.36981000 -6.73860000
3.55468000 1.01995000 5.31820000
5.03932000 1.27786000 -3.40391000
-5.11608000 1.17022000 3.88017000
-5.24802000 1.31599000 3.95986000
-5.33423000 1.26736000 3.76972000
-7.42040000 2.77232000 0.49524100
0.81274600 4.10748000 -9.14955000
1.19020000 4.08706000 -9.07525000
-6.59089000 2.01579000 -1.32521000
-5.46997000 1.36603000 3.74679000
-5.37677000 1.40141000 3.93607000
-8.56446000 4.61383000 3.02014000
-5.83755000 0.73680000 0.18258200
1.80346000 3.37536000 7.74189000
1.62864000 3.22362000 7.66866000
1.68036000 3.35632000 7.75401000
-3.25313000 -1.03316000 1.12639000
-3.14312000 -1.12766000 1.17255000
-3.25634000 -1.03733000 1.19031000
8.71227000 4.00649000 4.10061000
-5.95609000 4.60268000 -6.87433000
-6.24047000 4.68263000 -6.80214000
-1.72237000 -0.72715400 -3.69963000
-1.59891000 -0.74547800 -3.76137000
-0.53997700 -2.39714000 2.20638000
-0.62438900 -2.37404000 2.26590000
4.42967000 1.27727000 4.12235000
4.47986000 1.32961000 4.15171000
5.35222000 3.89725000 -7.17164000
5.35597000 3.84970000 -7.08062000
5.20291000 2.70399000 -5.21468000
2.90725000 4.71949000 9.28520000
2.90949000 4.75038000 9.24760000
2.91721000 3.45728000 8.02662000
3.20899000 3.46008000 7.91048000
-6.18461000 1.74800000 -1.60677000
-6.14050000 1.66985000 -1.45021000
3.09133000 -0.65489300 -1.86950000
-9.12898000 4.28189000 -3.16148000
-4.65026000 0.82954200 -2.44274000
3.82914000 3.98179000 -8.14429000
8.16339000 3.83023000 -1.99475000
2.46936000 4.44334000 9.51090000
-5.50409000 3.31686000 6.25227000
4.55268000 3.93696000 -7.74339000
1.29295000 1.80878000 -6.39156000
1.42683000 1.86273000 -6.41028000
-5.15858000 2.62367000 5.87005000
-5.15235000 1.08555000 3.66960000
-0.80846000 4.78065000 9.60155000
-2.03352000 0.81970200 5.00313000
8.55049000 3.51508000 1.67612000
8.62674000 3.55335000 1.49980000
-7.33346000 2.92694000 -3.19960000
-7.39565000 2.87502000 -2.86549000
4.81282000 1.81654000 -4.56174000
4.98235000 1.88701000 -4.49068000
-2.06665000 0.48393100 4.43333000
-3.58845000 4.14116000 -7.75433000
-3.34099000 4.02573000 -7.74163000
1.16250000 -2.21481000 -0.54897400
0.67014100 4.29202000 9.71968000
0.11584500 -0.96843200 -2.91012000
-1.78799000 3.33398000 -7.65786000
-1.79912000 3.41434000 -7.72988000
0.06695890 3.41105000 -7.86763000
0.19446200 3.39322000 -7.84610000
1.54420000 -2.14175000 -0.69972600
1.79114000 -2.41395000 -1.40751000
9.03520000 4.51635000 3.96002000
-5.97541000 3.49786000 5.94102000
-4.40039000 2.77571000 -6.00776000
-0.87657100 -1.85957000 -0.54171800
-0.49901400 4.75887000 9.65924000
0.94321000 -1.85218000 -1.22218000
0.85182300 -1.89117000 -1.15180000
0.73033700 -1.91573000 -1.14521000
6.05529000 1.37391000 -3.31786000
6.15769000 1.40435000 -3.21450000
5.11928000 1.61161000 -4.84289000
3.66756000 1.12462000 -5.43474000
3.54250000 1.08068000 -5.45339000
-5.25328000 0.30858600 0.37834100
-5.28238000 2.53986000 -4.97647000
-5.32673000 2.51296000 -4.87539000
5.04164000 2.91665000 5.62029000
0.76456600 1.38788000 -6.04619000
3.57035000 1.58408000 -5.20433000
3.63440000 1.65024000 -5.23218000
-1.25897000 -1.06897000 -2.18757000
-6.83976000 3.11982000 -3.57329000
-6.93533000 3.13284000 -3.42931000
-6.82115000 3.03815000 -3.39731000
-7.00870000 3.20232000 -3.41744000
4.82322000 0.22523800 0.52238800
4.71823000 0.17611900 0.66931800
4.83007000 0.26960600 0.75508500
-3.61852000 4.84300000 -8.96853000
-3.53599000 4.83866000 -9.01882000
-0.50580500 1.04482000 5.68581000
-3.29338000 2.61104000 -6.52102000
-4.59844000 4.11152000 7.16375000
2.96276000 3.83994000 7.73065000
2.41945000 -0.58949200 -2.68597000
2.55192000 -0.58102600 -2.61380000
2.63993000 -0.47620100 -2.70176000
2.65063000 -0.53806100 -2.60251000
0.62844200 0.18100500 4.43436000
2.63457000 3.96849000 -8.55382000
-0.57539600 3.43189000 -8.40958000
6.33470000 3.85484000 6.35920000
6.26774000 3.81325000 6.33193000
5.21045000 1.54687000 -3.70884000
2.47813000 -1.81816000 1.17269000
2.51849000 -1.82388000 1.08692000
3.74822000 0.70741700 -3.89557000
3.73475000 0.62163100 -3.77222000
-0.89113100 -2.17971000 -0.06957110
-0.78179700 -2.18909000 -0.12069200
-0.77867200 -2.19788000 0.03404540
1.12462000 0.00918133 -5.01991000
1.01890000 0.16083300 -5.21806000
-7.25335000 2.34429000 -2.05248000
-7.15459000 2.30004000 -2.20989000
-7.13147000 2.21174000 -2.05008000
-0.60688700 3.67000000 8.69659000
7.70584000 2.94060000 -0.15229000
7.81500000 3.06414000 -0.02701190
7.86761000 3.13040000 -0.05254350
4.73579000 0.40970600 -3.33107000
4.93076000 0.47585200 -3.22248000
4.90463000 0.53153000 -3.35132000
3.65596000 0.78007500 -4.07547000
7.56405000 2.77779000 -0.34136400
-3.43628000 -0.90337000 1.22021000
-4.30605000 2.29722000 5.57775000
2.00111000 0.67567400 -5.69136000
1.87364000 0.60541700 -5.65381000
2.02000000 0.58560300 -5.56388000
9.45463000 4.58815000 2.69812000
-5.76709000 1.21519000 0.42396700
-3.97176000 0.79180000 3.45725000
-4.23664000 2.32099000 5.63698000
1.09232000 -2.24328000 1.64347000
6.35036000 2.79351000 3.89645000
2.94072000 -0.93287800 -1.25310000
-0.29772100 -1.95657000 -0.99528000
-4.98322000 0.88790900 2.10053000
-1.32402000 1.98690000 6.63419000
8.36775000 3.10511000 0.69305000
-4.71801000 0.71440300 1.96966000
7.81747000 4.61295000 -5.94578000
-5.72968000 2.16843000 -3.78217000
-5.79087000 2.26344000 -3.85912000
-5.81242000 2.18067000 -3.66535000
0.09285820 0.16338700 -4.54044000
-0.02008480 0.29657000 -4.71844000
-2.81093000 3.85668000 8.40329000
-7.78175000 4.00301000 4.40402000
-4.25962000 0.43269300 1.91629000
-4.09557000 0.30635100 1.69412000
-4.19111000 0.37279700 1.68632000
-8.06814000 3.01930000 -0.07190270
9.41433000 4.60448000 0.71240900
8.27722000 3.52044000 2.65755000
8.20265000 3.42748000 2.59269000
8.20826000 3.50471000 2.80435000
-1.98627000 -0.61568100 2.31632000
6.98122000 3.77364000 -5.50993000
9.18980000 4.49080000 0.66913400
-0.65467100 -2.00814000 2.48512000
-2.53475000 2.44433000 -6.68805000
-2.45806000 2.43631000 -6.72450000
-2.36213000 2.42902000 -6.75337000
5.42627000 0.33445600 1.63104000
5.24233000 0.17271400 1.56063000
-0.77671800 -2.05807000 1.50178000
-2.90661000 -1.19354000 -1.87064000
-3.10391000 -1.01091000 -1.88011000
5.39628000 0.29482800 1.52028000
4.15736000 3.05952000 -6.37900000
4.13533000 3.15167000 -6.48169000
-2.75296000 -1.85086000 0.45056300
1.86113000 -1.48172000 -1.30013000
1.96922000 -1.45812000 -1.20810000
1.75368000 -1.59819000 -1.12266000
6.48509000 2.83646000 -3.92122000
6.46545000 2.87217000 -3.99832000
2.31660000 1.79169000 -6.12302000
-2.08189000 -0.40763600 2.65961000
2.98918000 -1.80240000 -0.59823800
1.81893000 -1.57819000 -1.06783000
1.84207000 -1.51913000 -1.16469000
6.44859000 2.75899000 -3.82846000
6.43665000 2.80660000 -3.92977000
-4.19111000 0.37279700 1.68632000
-4.55841000 4.83961000 -8.50801000
-4.48089000 4.84430000 -8.50579000
2.23949000 2.72790000 -7.52038000
3.03683000 -1.74431000 -0.51942700
1.04964000 3.20529000 7.79553000
-2.44524000 4.75368000 9.30124000
-1.43695000 1.07567000 6.21105000
1.81689000 -1.51949000 -1.24959000
1.90656000 -1.48269000 -1.21817000
4.65738000 2.44666000 -6.18000000
4.74929000 2.47005000 -6.11183000
-9.61755000 4.74732000 0.43315800
-9.59685000 4.75127000 0.63982000
-9.57851000 4.77143000 0.47608500
2.88734000 -0.70970100 -2.02526000
2.92884000 -0.72150400 -1.92860000
2.77104000 -0.75755200 -2.06240000
-6.74318000 4.72629000 6.39248000
-6.72113000 4.77563000 6.55717000
1.91592000 -2.40885000 -1.76444000
5.72839000 0.87827300 -0.03804110
2.97907000 -1.00233000 0.41039300
2.88667000 -1.05804000 0.44916000
2.77750000 -1.11693000 0.37660900
-5.69996000 1.95824000 -3.44952000
2.93225000 -0.96127300 0.77302200
5.12666000 2.06645000 4.52604000
4.98796000 2.21576000 4.89382000
-1.17868000 -2.30718000 -2.34564000
-7.49324000 2.30601000 -0.16842800
-0.28210600 -1.40124000 -3.36618000
-1.49282000 -1.47985000 0.69827500
-1.60223000 -1.38218000 0.83874200
-1.49282000 -1.47985000 0.69827500
2.91160000 2.73135000 -7.30693000
2.31797000 1.86371000 -6.17787000
-3.36760000 -0.09634110 -3.41500000
-6.31731000 1.44176000 2.23570000
-0.60071500 0.29422800 4.64092000
-4.01918000 0.26930600 1.73178000
-2.48661000 3.86650000 -7.89596000
-5.90477000 4.70388000 -7.77172000
-1.86435000 -0.53710300 -2.71352000
-1.83894000 -0.59049800 -2.64048000
-1.23383000 1.46417000 6.11165000
-1.24198000 1.55299000 6.23847000
-0.31765100 2.03742000 6.87245000
4.09760000 2.44804000 6.60120000
4.39443000 2.52469000 6.49083000
4.39480000 2.62213000 6.57906000
3.81866000 -0.07646920 -2.26209000
3.97106000 -0.00937483 -2.20772000
0.53447200 -1.17698000 -2.49618000
0.71719800 -1.13853000 -2.56274000
5.35790000 2.13811000 -4.40070000
6.57627000 2.03863000 -2.21089000
3.40969000 -0.61381400 2.63896000
3.46004000 -0.51992100 2.77795000
3.42815000 -0.66471300 2.52419000
2.37001000 -2.36201000 -1.46176000
2.19825000 2.07708000 -6.40619000
4.93693000 2.52479000 6.10489000
5.09501000 2.56286000 6.01107000
2.52714000 -1.21002000 -1.08385000
6.33196000 4.69617000 -7.29697000
2.56296000 -2.34176000 -1.09180000
-2.81389000 2.14621000 -6.87052000
-2.51821000 1.93716000 -6.79688000
-5.15640000 1.08753000 -3.53741000
4.37096000 -0.60900600 -1.24476000
-5.90516000 1.15556000 -2.11211000
-5.86964000 1.08199000 -1.97020000
-5.87349000 2.05449000 4.36347000
-6.00815000 2.02191000 4.13560000
-5.83839000 1.95985000 4.26777000
0.39325900 2.47752000 -7.05896000
0.40465600 2.38739000 -6.97394000
1.53118000 0.17198800 -5.23559000
-0.71184800 -1.67132000 -3.04381000
-9.11460000 4.76470000 2.18128000
-9.09471000 4.74438000 2.07455000
-2.64918000 0.51187100 -5.00137000
-2.51153000 0.40664900 -4.92261000
0.30204600 4.14887000 9.49841000
-1.26137000 1.71965000 6.37894000
-3.03005000 0.80183300 -4.37183000
-2.88899000 -0.33454300 3.49313000
-4.21028000 0.30915600 -3.24003000
-4.27444000 0.24540000 -3.00034000
5.71498000 1.41685000 3.74334000
5.97153000 1.68334000 3.80386000
1.71637000 4.59471000 9.63948000
3.22301000 -0.87002100 -2.71786000
-3.02784000 0.41979700 3.70491000
5.73286000 4.50791000 7.03560000
-2.67234000 1.72063000 -5.92865000
-1.67137000 0.40494600 -4.49377000
-1.50668000 0.29522500 -4.39065000
-1.59485000 0.29816600 -4.36100000
-3.76042000 2.34662000 -6.58196000
4.63439000 2.98014000 6.06682000
8.73085000 4.60418000 3.76162000
0.00690777 0.01478300 -4.34507000
-2.55510000 -0.88969900 -0.28305400
3.40839000 1.65039000 -5.40582000
4.55286000 3.18175000 6.32559000
4.63118000 3.08996000 6.18031000
4.51073000 3.02983000 6.21796000
-1.99737000 -0.13138300 -3.32125000
-2.01044000 -0.09248090 -3.39661000
-2.14720000 -0.10289100 -3.26088000
5.74030000 4.33734000 -6.79652000
5.50004000 1.28718000 -2.82114000
-5.65376000 1.21771000 1.20348000
2.17799000 -2.44367000 1.06652000
2.17643000 -2.44445000 1.18519000
-3.84316000 1.36111000 -4.69764000
-3.85980000 1.43626000 -4.79242000
-1.05783000 1.24772000 5.92578000
6.03411000 1.12255000 -0.77135800
-4.25375000 3.81851000 7.69362000
-6.87343000 2.87728000 4.08038000
6.47213000 3.65546000 4.97197000
6.24928000 1.48811000 -3.20457000
3.30269000 3.51315000 -7.24150000
3.05090000 3.49865000 -7.32278000
3.17712000 3.40160000 -7.18940000
3.23361000 3.17976000 -6.99468000
3.11813000 1.07697000 -5.60548000
4.54568000 0.12427200 -3.03965000
-1.34166000 1.25580000 5.84147000
5.44676000 1.31429000 -2.95074000
5.44101000 1.25894000 -2.85863000
5.45334000 1.36480000 -3.04285000
-3.27817000 -1.13872000 0.54973800
-3.17591000 -1.21120000 0.65193300
5.52420000 1.34237000 2.65665000
7.48653000 3.39322000 -2.83307000
7.38774000 3.24038000 -2.78300000
9.42944000 4.63278000 -0.67906100
9.37181000 4.59692000 -0.52585100
9.51143000 4.66214000 -0.57389600
9.61171000 4.69667000 -0.74285600
9.52725000 4.67493000 -0.82727800
-3.28688000 -0.46114700 -2.86547000
3.23211000 -0.65467100 -1.54068000
4.56810000 3.35556000 7.10978000
-2.84971000 -0.08573760 2.65937000
-3.94475000 3.26450000 7.35756000
-3.79056000 3.36271000 7.52866000
1.08550000 -1.21880000 3.28362000
4.47942000 3.71306000 -6.83707000
4.50273000 3.83394000 -6.94236000
-2.69049000 -0.02652810 3.06656000
-2.57234000 -0.08345440 3.05721000
-1.28224000 2.66319000 -7.17068000
6.41409000 0.93517000 0.59595500
-1.95201000 -1.98893000 -0.79869900
-2.00276000 -2.00249000 -0.67455200
-1.88852000 -1.97844000 -0.69909700
-1.70214000 -2.14685000 1.97892000
-1.88322000 -2.10540000 1.83975000
6.52374000 1.55781000 -0.28697200
-2.06240000 1.31861000 5.72675000
-1.93245000 1.31663000 5.77563000
-2.02959000 1.35194000 5.79249000
2.30249000 -2.20668000 1.30009000
4.86790000 -0.32481000 -0.33051800
-3.19395000 2.76098000 -7.28105000
-1.88392000 -2.02252000 1.85474000
-1.83903000 -2.06680000 1.89612000
-1.73376000 -2.05647000 1.98414000
-2.41902000 0.89834800 -4.92863000
-1.32769000 -1.61727000 -0.67095300
-3.34698000 1.65816000 5.47585000
-3.46576000 1.69693000 5.44846000
6.59406000 2.31783000 2.63618000
1.34791000 -0.55402400 3.14017000
1.34852000 -0.47901600 3.25754000
-4.21955000 2.74038000 6.14653000
-4.16630000 2.75936000 6.20792000
-1.09014000 -1.71452000 -0.81427500
4.21552000 -0.04023730 2.96620000
-3.21367000 1.61557000 5.52249000
3.37234000 4.75575000 -9.08282000
3.33610000 4.75650000 -9.04000000
-5.94513000 3.75659000 -5.62821000
-2.34432000 4.47227000 -9.47066000
3.58024000 4.73724000 -9.02537000
3.38389000 4.74704000 -9.10800000
5.63081000 0.87889300 -1.28075000
5.62651000 0.81629700 -1.06229000
-2.80420000 4.28548000 -9.10516000
1.28870000 2.66287000 7.31698000
-9.29011000 4.71414000 -0.54922600
0.85512200 -2.13634000 -1.89018000
0.70638200 -2.11998000 -1.97712000
-1.73871000 -2.33461000 1.73743000
2.84623000 1.17680000 -5.16332000
2.96793000 1.15794000 -5.05108000
0.70159300 -1.97836000 -0.92994600
0.00807841 3.42046000 8.53353000
-0.23411900 3.26982000 8.41626000
0.44379000 0.65926600 -5.15213000
4.09464000 3.30131000 6.70615000
4.25146000 4.47616000 7.91685000
3.95628000 4.43756000 8.00331000
-7.46900000 3.60066000 -4.10027000
-0.48747200 3.01421000 8.21196000
1.03887000 -1.33308000 -2.17808000
0.89318200 -1.44995000 -2.04911000
-3.86922000 4.82501000 -8.90023000
-3.87577000 4.85210000 -8.85147000
6.39775000 4.68412000 -7.37903000
6.41727000 4.66416000 -7.40429000
-6.69892000 4.77378000 6.80911000
-6.79761000 4.75523000 6.77296000
-3.23937000 -0.93036200 1.61081000
-3.15975000 -1.02535000 1.46831000
-6.87518000 2.85773000 -4.02957000
2.69251000 3.63036000 -7.57784000
3.53773000 2.28762000 -6.02499000
3.35776000 2.30656000 -6.13802000
4.21777000 0.78048100 -3.54049000
4.26749000 0.83336300 -3.58582000
4.36969000 -0.11365900 0.15201900
4.41007000 -0.07403120 0.30631200
5.02914000 0.26928700 2.32958000
4.66293000 0.02606380 2.36861000
4.33153000 0.86191300 -3.58242000
3.00500000 3.45386000 -7.29170000
-5.16104000 1.16631000 2.63192000
0.99263900 0.08440250 -4.37459000
0.96400100 -0.00685939 -4.26293000
1.07590000 0.02434170 -4.26808000
-2.38398000 4.57264000 -8.71779000
-2.50677000 4.68025000 -8.85201000
-2.17650000 -2.33091000 0.81383000
-2.15642000 -2.32283000 0.86658600
-2.12084000 -2.33615000 0.85050700
3.26310000 0.64205500 -4.15093000
3.17892000 0.54813200 -4.08550000
-6.68603000 2.81282000 -3.22951000
1.33066000 0.93221000 5.45248000
5.42873000 4.17580000 6.69792000
5.37773000 4.08094000 6.60019000
5.33440000 3.99974000 6.53386000
-7.85614000 3.97890000 -4.15492000
0.34179900 -2.27253000 -0.91539500
1.10603000 0.07326680 -4.34587000
-2.56722000 -0.68064700 -1.36724000
-2.63650000 -0.59030500 -1.57071000
7.53285000 2.01945000 0.10916000
3.61205000 0.11267200 3.89137000
-5.30082000 0.73671200 2.47155000
-1.87201000 2.82538000 -7.20410000
-1.68476000 2.81871000 -7.23327000
-1.72606000 2.90820000 -7.30773000
6.73694000 2.24546000 -3.66990000
6.61238000 2.16216000 -3.73536000
-3.65753000 -0.86751500 0.03197500
-3.49166000 -1.00640000 0.21968400
-3.69627000 -0.83915800 -0.06870040
5.10861000 1.86691000 -4.24215000
-1.13973000 2.08142000 -6.68797000
-5.60170000 2.38467000 -4.33021000
4.70864000 1.31702000 3.81711000
-2.78160000 -0.97458500 2.28239000
3.15027000 0.35752100 -4.76640000
3.26265000 0.52000800 -4.90817000
5.32377000 0.06862300 0.85890500
5.34612000 0.05228230 0.65918900
5.42128000 0.09307110 0.48539200
-0.31181700 -0.90591400 3.81838000
-0.53679400 -0.82578800 3.88339000
1.88624000 0.52042400 -5.55329000
