-4.64783000 2.77213000 7.71919000
-4.20732000 2.52448000 7.97403000
-4.62703000 2.56811000 7.63461000
-5.09981000 2.55215000 7.36585000
-5.13138000 2.74192000 7.43494000
-5.56050000 2.54718000 7.05690000
-5.60032000 2.73997000 7.12011000
-5.98093000 2.56535000 6.67932000
-6.02635000 2.74630000 6.73944000
-6.31785000 2.59448000 6.23807000
-6.36641000 2.77394000 6.29537000
-6.66142000 2.61320000 5.82776000
-6.71090000 2.79597000 5.87765000
-7.00544000 2.64363000 5.39804000
-7.05634000 2.83706000 5.44611000
-7.30666000 2.65868000 4.92012000
-7.36203000 2.85098000 4.96565000
-7.54214000 2.66183000 4.41451000
-7.60313000 2.85427000 4.45541000
-7.70346000 2.69048000 3.88579000
-7.76209000 2.87075000 3.91597000
-7.84221000 2.69997000 3.35761000
-7.89558000 2.87344000 3.37664000
-8.05541000 2.66735000 2.86809000
-8.11488000 2.85290000 2.87912000
-8.16663000 2.65147000 2.36166000
-8.23192000 2.82972000 2.37796000
-8.20103000 2.65311000 1.80961000
-8.26240000 2.83015000 1.82406000
-8.30263000 2.61952000 1.25628000
-8.36382000 2.79723000 1.26150000
-8.37655000 2.57808000 0.69098300
-8.43702000 2.75470000 0.69020700
-8.37674000 2.55371000 0.10985600
-8.43511000 2.72928000 0.10578400
-8.30075000 2.53208000 -0.47195400
-8.36496000 2.70852000 -0.47958100
-8.18308000 2.50545000 -1.02588000
-8.24280000 2.68320000 -1.04094000
-8.09253000 2.48796000 -1.58012000
-8.14808000 2.66638000 -1.60053000
-7.91681000 2.47786000 -2.13630000
-7.97320000 2.66319000 -2.16056000
-7.67639000 2.47003000 -2.65991000
-7.73184000 2.65139000 -2.68771000
-7.38320000 2.46738000 -3.13589000
-7.43596000 2.63882000 -3.17241000
-7.12847000 2.43476000 -3.62167000
-7.17163000 2.60887000 -3.66134000
-6.90597000 2.37710000 -4.13334000
-6.94798000 2.54884000 -4.17550000
-6.53486000 2.36214000 -4.55260000
-6.57770000 2.53885000 -4.59907000
-6.18386000 2.33352000 -4.97629000
-6.22118000 2.50941000 -5.02844000
-5.83762000 2.30306000 -5.41306000
-5.87053000 2.48775000 -5.46952000
-5.44405000 2.27416000 -5.82230000
-5.47491000 2.46125000 -5.87777000
-4.98878000 2.25217000 -6.16328000
-5.02054000 2.42967000 -6.22583000
-4.52008000 2.22820000 -6.44705000
-4.54781000 2.40818000 -6.51512000
-4.07832000 2.20099000 -6.78202000
-4.10034000 2.38794000 -6.85248000
-3.56209000 2.18444000 -7.04746000
-3.58128000 2.37142000 -7.11527000
-3.02847000 2.17778000 -7.24051000
-3.04222000 2.35900000 -7.31084000
-2.49057000 2.17383000 -7.37362000
-2.49840000 2.35233000 -7.45046000
-1.97191000 2.12952000 -7.56271000
-1.97474000 2.30959000 -7.64183000
-1.97474000 2.30959000 -7.64183000
-1.97191000 2.12952000 -7.56271000
-1.42069000 2.10446000 -7.66352000
-1.42426000 2.28161000 -7.74784000
-0.87901500 2.06571000 -7.72477000
-0.87542400 2.23849000 -7.81382000
-0.35214100 2.01317000 -7.82831000
-0.33862100 2.19319000 -7.91397000
0.19821200 1.97717000 -7.87280000
0.21513500 2.16244000 -7.95240000
0.76109400 1.95019000 -7.83575000
0.78053700 2.13877000 -7.91552000
1.26964000 1.96094000 -7.71005000
1.29139000 2.15391000 -7.79510000
1.78123000 1.96151000 -7.66303000
1.80808000 2.16422000 -7.74762000
2.34092000 1.95859000 -7.57063000
2.37156000 2.16698000 -7.64800000
2.86947000 1.96051000 -7.38236000
2.90410000 2.16438000 -7.46590000
3.34769000 1.98631000 -7.12065000
3.39634000 2.18935000 -7.20940000
3.84381000 1.99011000 -6.89215000
3.89915000 2.19872000 -6.97249000
4.35920000 1.96839000 -6.67523000
4.41641000 2.18240000 -6.74947000
4.79620000 1.98082000 -6.32811000
4.86213000 2.18555000 -6.40835000
5.26417000 1.94016000 -6.05217000
5.33385000 2.14339000 -6.12264000
5.71888000 1.90328000 -5.75030000
5.79628000 2.11834000 -5.81413000
6.13991000 1.90197000 -5.38130000
6.21606000 2.11987000 -5.44145000
6.52487000 1.89959000 -4.94757000
6.60039000 2.10380000 -5.00597000
6.80619000 1.90771000 -4.48981000
6.88857000 2.10833000 -4.54678000
7.16587000 1.90215000 -4.09439000
7.24637000 2.11576000 -4.14298000
7.49716000 1.92622000 -3.60819000
7.57270000 2.14614000 -3.65008000
7.73930000 1.94347000 -3.07991000
7.82112000 2.16180000 -3.12063000
7.90837000 1.97932000 -2.54546000
7.99313000 2.19017000 -2.57349000
8.10982000 1.98257000 -2.02519000
8.20499000 2.20307000 -2.04832000
8.28531000 1.97301000 -1.47725000
8.37857000 2.18533000 -1.49889000
8.35504000 1.96987000 -0.91724500
8.44226000 2.16138000 -0.93376200
8.47760000 1.92223000 -0.38762100
8.55962000 2.10839000 -0.39806400
8.56733000 1.89817000 0.16037800
8.64923000 2.08839000 0.15152300
8.59725000 1.89324000 0.73141500
8.68297000 2.08273000 0.73025600
8.52081000 1.93880000 1.26490000
8.61290000 2.12954000 1.27094000
8.50209000 1.97116000 1.80245000
8.59267000 2.16588000 1.81323000
8.43169000 1.98450000 2.37632000
8.52022000 2.18742000 2.38671000
8.28270000 1.98473000 2.93164000
8.37641000 2.18717000 2.94585000
8.05343000 2.00454000 3.43469000
8.15249000 2.20242000 3.45887000
7.84700000 2.00289000 3.94023000
7.94774000 2.20235000 3.97150000
7.66086000 1.96921000 4.47113000
7.75235000 2.17000000 4.50405000
7.35419000 1.97344000 4.93781000
7.44456000 2.17763000 4.97611000
7.05404000 1.96632000 5.38584000
7.13973000 2.17096000 5.42903000
6.77355000 1.94487000 5.85357000
6.85931000 2.15439000 5.90470000
6.42797000 1.92957000 6.30693000
6.51168000 2.14424000 6.35894000
6.02298000 1.91824000 6.72079000
6.10514000 2.12668000 6.78143000
5.59634000 1.93171000 7.05131000
5.68115000 2.13770000 7.12150000
5.19149000 1.93854000 7.41626000
5.27805000 2.15641000 7.49486000
4.73048000 1.95021000 7.77091000
4.80806000 2.17341000 7.84852000
4.22788000 1.96455000 8.06576000
4.30118000 2.18254000 8.14525000
3.69045000 1.99533000 8.26769000
3.75631000 2.21425000 8.35686000
3.14775000 2.04624000 8.41740000
3.19663000 2.26642000 8.50778000
2.67226000 2.04547000 8.62145000
2.71067000 2.27317000 8.72648000
2.22824000 2.04494000 8.78821000
2.29906000 2.27155000 8.90244000
1.69238000 2.08829000 8.85485000
1.76354000 2.32163000 8.95439000
1.15653000 2.07785000 9.00790000
1.20675000 2.30468000 9.11796000
0.61244300 2.07917000 9.11957000
0.65025300 2.30573000 9.23326000
0.61244300 2.07917000 9.11957000
0.03995550 2.11617000 9.14733000
0.06857140 2.34913000 9.25830000
0.65025300 2.30573000 9.23326000
0.09066130 2.55966000 9.35782000
0.67776100 2.51783000 9.33562000
-0.51030700 2.39155000 9.22032000
-0.49214000 2.60467000 9.31939000
-0.47760300 2.77823000 9.39402000
-1.03804000 2.64677000 9.23077000
-1.03044000 2.80858000 9.29446000
-1.60267000 2.70957000 9.19758000
-1.60054000 2.87380000 9.27086000
-2.19568000 2.76374000 9.05094000
-2.19851000 2.92857000 9.12388000
-2.73362000 2.80518000 8.80679000
-2.19071000 2.54420000 8.94888000
-2.71781000 2.60681000 8.70954000
-3.20316000 2.67655000 8.44580000
-2.70319000 2.37631000 8.59992000
-3.18008000 2.45489000 8.34699000
-3.70222000 2.49579000 8.16634000
-3.16100000 2.21970000 8.24377000
-3.67253000 2.26263000 8.07264000
-4.17757000 2.29558000 7.87318000
-3.64622000 2.01745000 7.97510000
-4.14100000 2.05637000 7.76227000
-4.57429000 2.11324000 7.44673000
-4.60296000 2.34967000 7.54266000
-5.02844000 2.11832000 7.18712000
-5.06505000 2.34588000 7.28039000
-5.46959000 2.12480000 6.89379000
-5.51654000 2.34635000 6.98247000
-5.86926000 2.14937000 6.52144000
-5.92851000 2.36778000 6.60699000
-6.19407000 2.18330000 6.09440000
-6.25865000 2.39827000 6.17028000
-6.53597000 2.19797000 5.70064000
-6.60165000 2.41226000 5.76829000
-6.87581000 2.21108000 5.28213000
-6.94555000 2.43570000 5.34455000
-7.16616000 2.22472000 4.81177000
-7.24220000 2.44765000 4.86993000
-7.39298000 2.24020000 4.31802000
-7.47358000 2.45782000 4.36978000
-7.55449000 2.26344000 3.80936000
-7.63384000 2.48578000 3.85026000
-7.70064000 2.27805000 3.30682000
-7.77521000 2.49659000 3.33535000
-7.90613000 2.24572000 2.82546000
-7.98753000 2.46797000 2.85184000
-7.99880000 2.24142000 2.30482000
-8.09258000 2.46088000 2.33858000
-8.04367000 2.24417000 1.76810000
-8.12832000 2.45760000 1.79090000
-8.15427000 2.20637000 1.23666000
-8.23357000 2.42260000 1.24827000
-8.23031000 2.17160000 0.68751600
-8.31282000 2.38823000 0.69115400
-8.22509000 2.15056000 0.11675100
-8.30923000 2.36729000 0.11291100
-8.13752000 2.12817000 -0.44985900
-8.22740000 2.34154000 -0.46277600
-8.02705000 2.10075000 -0.98630400
-8.11166000 2.31249000 -1.00759000
-7.94215000 2.07024000 -1.52724000
-8.02427000 2.29256000 -1.55546000
-7.77664000 2.05443000 -2.07050000
-7.85176000 2.27445000 -2.10649000
-7.53866000 2.05747000 -2.58230000
-7.61240000 2.27638000 -2.62533000
-7.25302000 2.06191000 -3.04642000
-7.32411000 2.27825000 -3.09498000
-7.00796000 2.02986000 -3.52169000
-7.07226000 2.24179000 -3.57469000
-6.77581000 1.98025000 -4.01578000
-6.84873000 2.18967000 -4.08072000
-6.41445000 1.96745000 -4.42575000
-6.48087000 2.17523000 -4.49471000
-6.08565000 1.93369000 -4.84776000
-6.13812000 2.14132000 -4.91568000
-5.75184000 1.89219000 -5.27700000
-5.79776000 2.10799000 -5.34920000
-5.36182000 1.86226000 -5.67935000
-5.40654000 2.07725000 -5.75748000
-4.90639000 1.84315000 -6.00551000
-4.94955000 2.05285000 -6.08912000
-4.44573000 1.82441000 -6.27906000
-4.48562000 2.03572000 -6.36902000
-4.02012000 1.78789000 -6.61270000
-4.05236000 2.00344000 -6.70294000
-3.52045000 1.77339000 -6.87734000
-3.54229000 1.98510000 -6.96797000
-2.99354000 1.76381000 -7.05616000
-3.01196000 1.97951000 -7.15530000
-2.46647000 1.76535000 -7.17854000
-2.47980000 1.97769000 -7.28394000
-1.95934000 1.72005000 -7.36699000
-1.96741000 1.93553000 -7.47513000
-1.96741000 1.93553000 -7.47513000
-1.95934000 1.72005000 -7.36699000
-1.41625000 1.69807000 -7.45578000
-1.41791000 1.91431000 -7.56836000
-0.88714300 1.67182000 -7.51376000
-0.88247200 1.87957000 -7.62672000
-0.37528400 1.60779000 -7.61325000
-0.36320700 1.82314000 -7.72886000
0.16059500 1.56081000 -7.67189000
0.18054100 1.77904000 -7.78257000
0.70663300 1.53109000 -7.63914000
0.73668800 1.75099000 -7.74509000
1.20910000 1.53073000 -7.51642000
1.24160000 1.75064000 -7.61602000
1.71455000 1.51369000 -7.45541000
1.74999000 1.74017000 -7.56408000
2.25450000 1.49778000 -7.36815000
2.30154000 1.73038000 -7.47699000
2.76635000 1.51200000 -7.17082000
2.82232000 1.73794000 -7.28220000
3.23204000 1.54250000 -6.91585000
3.29173000 1.76664000 -7.02117000
3.71550000 1.53731000 -6.69867000
3.78138000 1.76405000 -6.80063000
4.21763000 1.50608000 -6.48772000
4.29157000 1.73786000 -6.58604000
4.64463000 1.52829000 -6.14878000
4.72287000 1.75739000 -6.24044000
5.09824000 1.48975000 -5.87795000
5.18335000 1.71799000 -5.96763000
5.54300000 1.44849000 -5.58996000
5.63369000 1.67720000 -5.67497000
5.95964000 1.43407000 -5.23242000
6.05272000 1.66936000 -5.31006000
6.32892000 1.44106000 -4.80850000
6.43195000 1.67346000 -4.88049000
6.61428000 1.46784000 -4.36135000
6.71441000 1.69120000 -4.42761000
6.96639000 1.44662000 -3.96895000
7.06962000 1.67639000 -4.03319000
7.29168000 1.44953000 -3.50608000
7.40024000 1.68761000 -3.55985000
7.53275000 1.47639000 -2.99241000
7.64226000 1.71157000 -3.03717000
7.70201000 1.51413000 -2.47370000
7.81153000 1.74777000 -2.51233000
7.89733000 1.51715000 -1.96404000
8.00704000 1.75067000 -1.99635000
8.07110000 1.51184000 -1.42943000
8.18313000 1.74483000 -1.45411000
8.14667000 1.53773000 -0.88159900
8.25893000 1.76523000 -0.90011400
8.27323000 1.50296000 -0.35962100
8.38503000 1.72615000 -0.37483600
8.36521000 1.46933000 0.17604800
8.47469000 1.69110000 0.16860300
8.38913000 1.46442000 0.72398800
8.50015000 1.68695000 0.72915200
8.30528000 1.51065000 1.24262000
8.41865000 1.73384000 1.25535000
8.28189000 1.51856000 1.77534000
8.39915000 1.75246000 1.78944000
8.22333000 1.52036000 2.34150000
8.33361000 1.76246000 2.36029000
8.07412000 1.51891000 2.89077000
8.17952000 1.76083000 2.91264000
7.84130000 1.54550000 3.38322000
7.94874000 1.78108000 3.41071000
7.62736000 1.54992000 3.87567000
7.73843000 1.78272000 3.90831000
7.43977000 1.51251000 4.38969000
7.55676000 1.74507000 4.43303000
7.14351000 1.51970000 4.84429000
7.25514000 1.74912000 4.89482000
6.85234000 1.51236000 5.28445000
6.95782000 1.74528000 5.33741000
6.57722000 1.47742000 5.74323000
6.67782000 1.71459000 5.79930000
6.24227000 1.45678000 6.18561000
6.33832000 1.69762000 6.25000000
5.83792000 1.46146000 6.56802000
5.93273000 1.69447000 6.64810000
5.41523000 1.47993000 6.89550000
5.50792000 1.70987000 6.97613000
5.01553000 1.46930000 7.25586000
5.10233000 1.70766000 7.33545000
4.56613000 1.46874000 7.59647000
4.64925000 1.71024000 7.68544000
4.07305000 1.48707000 7.87729000
4.15078000 1.72804000 7.97429000
3.56048000 1.52070000 8.08567000
3.62653000 1.76071000 8.18051000
3.04804000 1.57000000 8.22876000
3.10124000 1.81006000 8.32565000
2.57490000 1.57067000 8.42062000
2.62732000 1.80927000 8.52207000
2.08982000 1.58164000 8.56884000
2.15680000 1.81348000 8.68051000
1.56991000 1.61797000 8.64866000
1.62898000 1.85128000 8.75762000
1.05582000 1.61172000 8.78570000
1.10500000 1.84637000 8.89655000
0.52778400 1.60858000 8.89462000
0.57015200 1.84617000 9.00564000
0.52778400 1.60858000 8.89462000
-0.02420750 1.63913000 8.91572000
0.00786316 1.87685000 9.03460000
0.57015200 1.84617000 9.00564000
-0.56838700 1.69407000 8.85596000
-0.54794600 1.92795000 8.98010000
-0.52930100 2.16159000 9.10200000
-1.07732000 1.97258000 8.91344000
-1.06047000 2.20855000 9.02845000
-1.04711000 2.43739000 9.13692000
-1.61192000 2.24511000 8.98159000
-1.60428000 2.48553000 9.09353000
-2.18759000 2.30260000 8.83714000
-1.62605000 1.99959000 8.87078000
-2.18876000 2.05479000 8.73023000
-2.69257000 2.13570000 8.49266000
-2.19139000 1.80565000 8.62661000
-2.68294000 1.89226000 8.38913000
-3.14307000 1.97834000 8.14107000
-2.67153000 1.64979000 8.28025000
-3.12571000 1.73566000 8.03608000
-3.62089000 1.77061000 7.86952000
-3.10692000 1.49524000 7.92368000
-3.59547000 1.52530000 7.75604000
-4.06079000 1.57355000 7.51665000
-4.10151000 1.81360000 7.64193000
-4.49280000 1.62839000 7.22382000
-4.53628000 1.86959000 7.33987000
-4.93804000 1.63495000 6.96905000
-4.98648000 1.87778000 7.08179000
-5.36597000 1.63767000 6.68630000
-5.42147000 1.88182000 6.79463000
-5.74067000 1.66926000 6.32590000
-5.80821000 1.91052000 6.42796000
-6.05012000 1.71724000 5.91663000
-6.12302000 1.95339000 6.00891000
-6.38914000 1.72811000 5.53709000
-6.46525000 1.96615000 5.62326000
-6.71820000 1.73071000 5.13242000
-6.80024000 1.97308000 5.21140000
-6.99517000 1.74528000 4.67770000
-7.08375000 1.98593000 4.74818000
-7.20888000 1.76963000 4.19636000
-7.30417000 2.00657000 4.26046000
-7.36475000 1.79843000 3.70625000
-7.46404000 2.03160000 3.76135000
-7.51596000 1.81015000 3.21988000
-7.61467000 2.04546000 3.26832000
-7.69997000 1.78236000 2.74274000
-7.80777000 2.01477000 2.78722000
-7.78695000 1.78124000 2.22985000
-7.89522000 2.01350000 2.26885000
-7.84783000 1.77728000 1.71219000
-7.94990000 2.01304000 1.74192000
-7.95601000 1.73608000 1.20108000
-8.06077000 1.97473000 1.22120000
-8.02432000 1.69640000 0.67238000
-8.13427000 1.93680000 0.68142900
-8.01119000 1.67202000 0.12411500
-8.12599000 1.91219000 0.12039200
-7.92243000 1.66214000 -0.41733800
-8.03629000 1.89710000 -0.43409100
-7.82471000 1.64125000 -0.93859700
-7.93061000 1.87454000 -0.96311100
-7.74609000 1.60099000 -1.46400000
-7.85049000 1.83609000 -1.49702000
-7.58527000 1.58513000 -1.98387000
-7.68828000 1.82187000 -2.03002000
-7.35168000 1.58795000 -2.47456000
-7.45127000 1.82297000 -2.53119000
-7.07554000 1.59837000 -2.92794000
-7.16888000 1.83045000 -2.99011000
-6.84518000 1.56610000 -3.39709000
-6.93113000 1.80113000 -3.46255000
-6.58987000 1.52608000 -3.85807000
-6.68748000 1.75355000 -3.93972000
-6.24318000 1.52393000 -4.25648000
-6.33377000 1.74675000 -4.34570000
-5.93769000 1.48270000 -4.67542000
-6.01795000 1.71019000 -4.76661000
-5.62269000 1.43138000 -5.09663000
-5.69465000 1.66313000 -5.19312000
-5.23915000 1.39709000 -5.48028000
-5.30535000 1.63052000 -5.58601000
-4.79812000 1.38558000 -5.79395000
-4.85485000 1.61630000 -5.90641000
-4.35490000 1.37031000 -6.07244000
-4.40189000 1.60111000 -6.17997000
-3.93687000 1.32458000 -6.38957000
-3.98156000 1.55700000 -6.50716000
-3.45891000 1.30668000 -6.64480000
-3.49274000 1.54073000 -6.76870000
-2.94501000 1.30763000 -6.81004000
-2.97105000 1.53611000 -6.93939000
-2.43174000 1.31345000 -6.93091000
-2.45006000 1.53964000 -7.05908000
-1.93767000 1.26565000 -7.11088000
-1.94970000 1.49296000 -7.24455000
-1.94970000 1.49296000 -7.24455000
-1.93767000 1.26565000 -7.11088000
-1.41420000 1.24573000 -7.20045000
-1.41517000 1.47225000 -7.33120000
-0.89877400 1.22555000 -7.25590000
-0.89252900 1.44877000 -7.38714000
-0.39831000 1.16571000 -7.34736000
-0.38634700 1.38668000 -7.48272000
0.11553800 1.10874000 -7.40804000
0.13822200 1.33182000 -7.54430000
0.63718100 1.07993000 -7.39002000
0.67210900 1.30341000 -7.51869000
1.13586000 1.08308000 -7.29453000
1.17414000 1.30554000 -7.41202000
1.63372000 1.06886000 -7.21533000
1.67615000 1.28993000 -7.33881000
2.14817000 1.04913000 -7.12049000
2.20219000 1.27107000 -7.24781000
2.64364000 1.06413000 -6.93455000
2.70626000 1.28678000 -7.05494000
3.10415000 1.09451000 -6.69507000
3.16945000 1.31806000 -6.80712000
3.57336000 1.09121000 -6.47848000
3.64664000 1.31174000 -6.59265000
4.05282000 1.06093000 -6.26451000
4.13716000 1.28074000 -6.37947000
4.47404000 1.07938000 -5.95063000
4.56227000 1.30077000 -6.05354000
4.91613000 1.04259000 -5.68538000
5.00975000 1.26405000 -5.78438000
5.35081000 0.99790000 -5.40505000
5.44972000 1.22095000 -5.50053000
5.75462000 0.97844200 -5.06041000
5.86111000 1.20272000 -5.14981000
6.10837000 0.98834600 -4.65674000
6.22077000 1.21286000 -4.73421000
6.40339000 1.01583000 -4.22735000
6.51295000 1.24025000 -4.29635000
6.73544000 0.99994600 -3.82847000
6.85555000 1.22061000 -3.90031000
7.04359000 0.99577900 -3.38512000
7.17213000 1.21890000 -3.44774000
7.27811000 1.02297000 -2.89268000
7.41001000 1.24667000 -2.94408000
7.44874000 1.06420000 -2.38607000
7.58083000 1.28599000 -2.43118000
7.64557000 1.06404000 -1.89047000
7.77500000 1.28880000 -1.92744000
7.82126000 1.05153000 -1.37856000
7.94868000 1.28092000 -1.40332000
7.89170000 1.07963000 -0.84468000
8.02276000 1.30650000 -0.86287600
8.01354000 1.05140000 -0.33148200
8.14757000 1.27570000 -0.34540200
8.11083000 1.01743000 0.18505900
8.24413000 1.24260000 0.18155200
8.12801000 1.01751000 0.71104600
8.26480000 1.23958000 0.71734400
8.05322000 1.05767000 1.22121000
8.18258000 1.28351000 1.23132000
8.02750000 1.05296000 1.74518000
8.16034000 1.28341000 1.75894000
7.96690000 1.04283000 2.29094000
8.10109000 1.27807000 2.31867000
7.82647000 1.04482000 2.82902000
7.95937000 1.27747000 2.86358000
7.60035000 1.07848000 3.31454000
7.72750000 1.30890000 3.35266000
7.37968000 1.08825000 3.79343000
7.50749000 1.31656000 3.83768000
7.19186000 1.05249000 4.28764000
7.31986000 1.28002000 4.34158000
6.89759000 1.06732000 4.72358000
7.02388000 1.29146000 4.78670000
6.61646000 1.05476000 5.15842000
6.73766000 1.28136000 5.22457000
6.35191000 1.01116000 5.60864000
6.46965000 1.24072000 5.68076000
6.02465000 0.98801800 6.03068000
6.13623000 1.22027000 6.11139000
5.63276000 0.99957500 6.39286000
5.73830000 1.22897000 6.48321000
5.22440000 1.01558000 6.72294000
5.32212000 1.24659000 6.81245000
4.82991000 0.99731800 7.07630000
4.92414000 1.23187000 7.17003000
4.39205000 0.99265800 7.39990000
4.48164000 1.22789000 7.50245000
3.91453000 1.01131000 7.66528000
3.99529000 1.24727000 7.77502000
3.41983000 1.05096000 7.86256000
3.49201000 1.28337000 7.97926000
2.92712000 1.09802000 8.01247000
2.99067000 1.33086000 8.12564000
2.45479000 1.10078000 8.19810000
2.51648000 1.33334000 8.31377000
1.96217000 1.12556000 8.32135000
2.02603000 1.35195000 8.44925000
1.45857000 1.15666000 8.41086000
1.51327000 1.38697000 8.53212000
0.96035300 1.14313000 8.54905000
1.00750000 1.37656000 8.67092000
0.44442400 1.13951000 8.64584000
0.48571800 1.37274000 8.77473000
0.44442400 1.13951000 8.64584000
-0.08629320 1.17426000 8.65275000
-0.05575620 1.40528000 8.78787000
0.48571800 1.37274000 8.77473000
-0.60956900 1.23116000 8.59247000
-0.58914400 1.46156000 8.72694000
-1.13019000 1.25882000 8.55410000
-1.11421000 1.49477000 8.68090000
-1.09617000 1.73353000 8.79932000
-1.65143000 1.51469000 8.63595000
-1.64050000 1.75499000 8.75822000
-2.18848000 1.56273000 8.50884000
-1.65906000 1.27674000 8.50775000
-2.18065000 1.32574000 8.37887000
-2.65558000 1.41195000 8.15936000
-2.16989000 1.09432000 8.23834000
-2.63627000 1.18043000 8.02634000
-3.08534000 1.25918000 7.80116000
-2.61245000 0.95706400 7.87938000
-3.05867000 1.03102000 7.66444000
-3.53163000 1.05370000 7.49439000
-3.56621000 1.28532000 7.63179000
-3.96751000 1.11173000 7.24168000
-4.01759000 1.33807000 7.38465000
-4.38428000 1.16383000 6.96259000
-4.44151000 1.39222000 7.09847000
-4.81839000 1.16712000 6.71603000
-4.88113000 1.39796000 6.84595000
-5.23423000 1.16569000 6.44384000
-5.30297000 1.39902000 6.56786000
-5.59391000 1.19877000 6.10033000
-5.66962000 1.43130000 6.21694000
-5.88889000 1.25564000 5.70725000
-5.97156000 1.48424000 5.81605000
-6.22129000 1.26052000 5.34315000
-6.30737000 1.49255000 5.44368000
-6.53574000 1.26051000 4.95085000
-6.62868000 1.49391000 5.04340000
-6.79386000 1.27935000 4.51379000
-6.89829000 1.51015000 4.59852000
-6.99508000 1.30665000 4.05179000
-7.10694000 1.53516000 4.12716000
-7.14688000 1.33962000 3.57807000
-7.25854000 1.56738000 3.64436000
-7.30428000 1.34505000 3.11055000
-7.41151000 1.57662000 3.16657000
-7.46569000 1.32337000 2.64043000
-7.58621000 1.55138000 2.69332000
-7.55848000 1.31902000 2.14784000
-7.67507000 1.54926000 2.18880000
-7.63044000 1.30563000 1.65238000
-7.74184000 1.54071000 1.68233000
-7.71763000 1.26590000 1.15701000
-7.83982000 1.49973000 1.17966000
-7.77180000 1.22509000 0.64900100
-7.90295000 1.45837000 0.66085600
-7.75416000 1.20343000 0.13112500
-7.88690000 1.43523000 0.12699600
-7.67335000 1.19681000 -0.38156400
-7.80064000 1.42865000 -0.39944400
-7.58853000 1.17403000 -0.88486800
-7.71103000 1.40620000 -0.91344300
-7.50400000 1.13636000 -1.38748000
-7.62990000 1.36707000 -1.42671000
-7.34700000 1.12171000 -1.88109000
-7.47117000 1.35074000 -1.93397000
-7.11664000 1.13325000 -2.34545000
-7.24019000 1.35715000 -2.41318000
-6.85084000 1.15171000 -2.78306000
-6.96919000 1.37141000 -2.85875000
-6.62816000 1.11651000 -3.23778000
-6.74405000 1.33622000 -3.32273000
-6.36868000 1.08517000 -3.67486000
-6.48266000 1.30304000 -3.76945000
-6.04100000 1.08530000 -4.06210000
-6.14466000 1.30293000 -4.16168000
-5.75662000 1.03362000 -4.47577000
-5.84927000 1.25673000 -4.57800000
-5.45121000 0.97736400 -4.88024000
-5.53973000 1.20288000 -4.99157000
-5.08704000 0.94076800 -5.24567000
-5.16601000 1.16703000 -5.36568000
-4.67055000 0.92786700 -5.55171000
-4.73685000 1.15494000 -5.67520000
-4.24738000 0.91208600 -5.83291000
-4.30286000 1.14014000 -5.95640000
-3.83674000 0.86899000 -6.12912000
-3.88867000 1.09444000 -6.26349000
-3.37962000 0.84926600 -6.36853000
-3.42182000 1.07443000 -6.51228000
-2.88698000 0.86070500 -6.52550000
-2.91788000 1.08087000 -6.67270000
-2.39168000 0.86903300 -6.65288000
-2.41332000 1.08792000 -6.79739000
-1.90962000 0.82690800 -6.81695000
-1.92424000 1.04359000 -6.96757000
-1.92424000 1.04359000 -6.96757000
-1.90962000 0.82690800 -6.81695000
-1.40990000 0.80583200 -6.91553000
-1.41255000 1.02261000 -7.06298000
-0.91127500 0.79002500 -6.97346000
-0.90566200 1.00485000 -7.11965000
-0.42422800 0.73425200 -7.05814000
-0.41114400 0.94765600 -7.20631000
0.06843590 0.67625200 -7.11843000
0.09223500 0.89037000 -7.26652000
0.56751300 0.64768600 -7.10825000
0.60199300 0.86141100 -7.25306000
1.05520000 0.65009600 -7.02829000
1.09580000 0.86429500 -7.16626000
1.54104000 0.63974800 -6.94352000
1.58821000 0.85210000 -7.08332000
2.03381000 0.61954300 -6.84628000
2.09178000 0.83144000 -6.98749000
2.51190000 0.63169300 -6.67395000
2.57885000 0.84534900 -6.80781000
2.96191000 0.66260800 -6.44736000
3.03525000 0.87580000 -6.57491000
3.41597000 0.66211500 -6.23343000
3.49701000 0.87401300 -6.35936000
3.87466000 0.63338800 -6.02330000
3.96580000 0.84423200 -6.14697000
4.28551000 0.65076100 -5.72837000
4.38232000 0.86218400 -5.84287000
4.71003000 0.61987600 -5.46393000
4.81629000 0.82779300 -5.57814000
5.13116000 0.57219400 -5.19215000
5.24424000 0.78168200 -5.30199000
5.52129000 0.54902200 -4.86523000
5.64121000 0.76031900 -4.96589000
5.86254000 0.55818800 -4.48305000
5.98852000 0.77015800 -4.57301000
6.16185000 0.58253600 -4.07409000
6.28712000 0.79561900 -4.15403000
6.47374000 0.57338300 -3.67609000
6.60898000 0.78331200 -3.75430000
6.76674000 0.56620600 -3.25109000
6.90858000 0.77784900 -3.32002000
6.99441000 0.59131000 -2.78148000
7.13997000 0.80392800 -2.83880000
7.16091000 0.63735800 -2.29087000
7.30902000 0.84782900 -2.33928000
7.35902000 0.63172700 -1.81324000
7.50589000 0.84537000 -1.85160000
7.54674000 0.60456400 -1.32639000
7.68918000 0.82466500 -1.35377000
7.61044000 0.64164500 -0.80974700
7.75337000 0.85879400 -0.82701800
7.71390000 0.62323600 -0.30768900
7.87010000 0.83271500 -0.31925700
7.80715000 0.58875000 0.19115900
7.96581000 0.79851200 0.18876400
7.81743000 0.59271200 0.69726900
7.97725000 0.80190100 0.70386500
7.75931000 0.62605400 1.19713000
7.91183000 0.83824100 1.21000000
7.73011000 0.61402900 1.70840000
7.88223000 0.83017100 1.72833000
7.66263000 0.59966700 2.23089000
7.82064000 0.81615200 2.26294000
7.52100000 0.60735800 2.74261000
7.67679000 0.82385500 2.78627000
7.31354000 0.64019300 3.21866000
7.46142000 0.85591100 3.26950000
7.10521000 0.64689000 3.68773000
7.24594000 0.86458500 3.74362000
6.91919000 0.61033500 4.16430000
7.06009000 0.82749800 4.22979000
6.62911000 0.63146500 4.58401000
6.76565000 0.84778600 4.65529000
6.35826000 0.61493300 5.00877000
6.49021000 0.83203200 5.08686000
6.09615000 0.56893900 5.44179000
6.22752000 0.78707200 5.52871000
5.77976000 0.54363700 5.84610000
5.90544000 0.76266100 5.94172000
5.40247000 0.55529400 6.19426000
5.52249000 0.77359000 6.29801000
5.00249000 0.57561500 6.51313000
5.11821000 0.79129600 6.62307000
4.61881000 0.55114100 6.85559000
4.72733000 0.77034700 6.97078000
4.19621000 0.54361000 7.16219000
4.29741000 0.76414300 7.28663000
3.73560000 0.56459900 7.40860000
3.82785000 0.78390500 7.54181000
3.26015000 0.60751400 7.59782000
3.34297000 0.82395300 7.73769000
2.78480000 0.65315100 7.75098000
2.85908000 0.87034800 7.89001000
2.32061000 0.65746600 7.92682000
2.38862000 0.87677500 8.06690000
1.83675000 0.68921500 8.03651000
1.89968000 0.90465400 8.18324000
1.34825000 0.71330300 8.13400000
1.40396000 0.93156400 8.27855000
0.86504300 0.69194200 8.26952000
0.91262800 0.91550400 8.41381000
0.36441200 0.68787700 8.35534000
0.40396600 0.91078200 8.50628000
0.36441200 0.68787700 8.35534000
-0.14517000 0.72566000 8.35483000
-0.11634900 0.94742100 8.50844000
0.40396600 0.91078200 8.50628000
-0.64849400 0.78327200 8.29684000
-0.62944200 1.00531000 8.44837000
-1.15401000 0.80295200 8.26753000
-1.14329000 1.02733000 8.41745000
-1.66323000 0.81556200 8.22116000
-1.66252000 1.04362000 8.36932000
-2.15663000 0.86912000 8.08736000
-1.66065000 0.59364500 8.06219000
-2.14006000 0.65128400 7.92509000
-2.58443000 0.74188400 7.72059000
-2.11971000 0.44345600 7.74970000
-2.55307000 0.53568600 7.54879000
-2.98816000 0.59955200 7.35416000
-3.02550000 0.81145900 7.51476000
-3.43931000 0.61959700 7.18093000
-3.48893000 0.83235800 7.34250000
-3.84844000 0.68361300 6.92845000
-3.90947000 0.89579700 7.08694000
-4.25738000 0.72214900 6.67588000
-4.32327000 0.94056200 6.82164000
-4.67441000 0.72416700 6.43690000
-4.74877000 0.94261300 6.57905000
-5.07402000 0.72296600 6.17312000
-5.15770000 0.94030100 6.31192000
-5.41690000 0.75860700 5.84356000
-5.50972000 0.97411700 5.97551000
-5.70222000 0.81829700 5.46818000
-5.79878000 1.03380000 5.59094000
-6.02702000 0.81618100 5.11985000
-6.12717000 1.03480000 5.23513000
-6.32621000 0.81313800 4.74443000
-6.43587000 1.03252000 4.85161000
-6.56372000 0.83576000 4.32489000
-6.68288000 1.05405000 4.42305000
-6.74409000 0.87335900 3.87980000
-6.87220000 1.08716000 3.96885000
-6.89155000 0.90620000 3.42700000
-7.02248000 1.12020000 3.50567000
-7.05459000 0.90309900 2.98018000
-7.18430000 1.12082000 3.04824000
-7.19943000 0.88443500 2.52386000
-7.33824000 1.10023000 2.58458000
-7.27427000 0.88873200 2.04961000
-7.42276000 1.09951000 2.10058000
-7.35890000 0.86255700 1.57914000
-7.50196000 1.07939000 1.61819000
-7.43891000 0.81765100 1.10626000
-7.58348000 1.03875000 1.13332000
-7.48332000 0.77646900 0.62470700
-7.63326000 0.99658400 0.63713100
-7.46130000 0.75588700 0.13834400
-7.61152000 0.97719100 0.13403400
-7.38877000 0.74952900 -0.34448700
-7.53550000 0.97054600 -0.36317200
-7.31287000 0.72557600 -0.82323400
-7.45584000 0.94732300 -0.85441900
-7.22026000 0.69466400 -1.30053000
-7.36652000 0.91222200 -1.34537000
-7.06256000 0.68691600 -1.76362000
-7.20956000 0.90072100 -1.82430000
-6.84247000 0.70452700 -2.20354000
-6.98281000 0.91643600 -2.27504000
-6.58967000 0.72860800 -2.62217000
-6.72399000 0.93716300 -2.70410000
-6.38100000 0.68860800 -3.05999000
-6.50631000 0.90132000 -3.14973000
-6.13341000 0.65763800 -3.47836000
-6.25155000 0.87073400 -3.57734000
-5.82392000 0.65803700 -3.85453000
-5.93414000 0.87025400 -3.95946000
-5.54271000 0.61164500 -4.24714000
-5.65173000 0.82061800 -4.36351000
-5.25368000 0.54728400 -4.63668000
-5.35566000 0.75903500 -4.76089000
-4.91428000 0.50259800 -4.98917000
-5.00371000 0.71812100 -5.12107000
-4.52094000 0.49083500 -5.28494000
-4.59814000 0.70677400 -5.42092000
-4.11713000 0.47555700 -5.55844000
-4.18467000 0.69090400 -5.69973000
-3.71772000 0.43719400 -5.83577000
-3.77933000 0.64976100 -5.98678000
-3.28219000 0.41975100 -6.06065000
-3.33311000 0.63048700 -6.21903000
-2.81424000 0.43622900 -6.21312000
-2.85132000 0.64636200 -6.37155000
-2.34044000 0.44963900 -6.33843000
-2.36660000 0.65683300 -6.49919000
-1.87657000 0.41359200 -6.49019000
-1.89371000 0.61679700 -6.65740000
-1.89371000 0.61679700 -6.65740000
-1.87657000 0.41359200 -6.49019000
-1.40078000 0.38965900 -6.59629000
-1.40576000 0.59508000 -6.75954000
-0.92217300 0.37757900 -6.65739000
-0.91689900 0.58072700 -6.81957000
-0.45181200 0.32593400 -6.73609000
-0.43768300 0.52655900 -6.90175000
0.02118060 0.26929700 -6.79418000
0.04484310 0.46859500 -6.96153000
0.49954200 0.24113900 -6.78889000
0.53350400 0.44065100 -6.95370000
0.97152500 0.24002800 -6.72230000
1.01363000 0.44169300 -6.88035000
1.44096000 0.23006100 -6.64105000
1.49186000 0.43286500 -6.79535000
1.91150000 0.21453400 -6.53932000
1.97401000 0.41317800 -6.69731000
2.37019000 0.22454400 -6.37937000
2.44250000 0.42411000 -6.53149000
2.80592000 0.25408800 -6.16891000
2.88538000 0.45486100 -6.31283000
3.24362000 0.25313900 -5.96510000
3.33177000 0.45410000 -6.10342000
3.68198000 0.22695100 -5.76017000
3.78149000 0.42540500 -5.89672000
4.07877000 0.24413800 -5.48282000
4.18400000 0.44483000 -5.60854000
4.48189000 0.22262400 -5.21908000
4.59821000 0.41844800 -5.34400000
4.88396000 0.17778000 -4.95355000
5.01040000 0.37131900 -5.07535000
5.26140000 0.14759500 -4.64727000
5.39462000 0.34478200 -4.75864000
5.59330000 0.15248100 -4.28849000
5.73071000 0.35231300 -4.38803000
5.88695000 0.17553600 -3.89992000
6.02729000 0.37652300 -3.98909000
6.18361000 0.16977300 -3.51334000
6.33190000 0.36856400 -3.59623000
6.46125000 0.16186800 -3.10567000
6.61732000 0.36066800 -3.17962000
6.68372000 0.18425200 -2.65977000
6.84154000 0.38528700 -2.72171000
6.84575000 0.23390400 -2.18984000
7.00603000 0.43283200 -2.24118000
7.03626000 0.22863900 -1.73048000
7.20208000 0.42637400 -1.77239000
7.21851000 0.19782300 -1.26520000
7.38891000 0.39571100 -1.29683000
7.29336000 0.23046200 -0.77237000
7.45599000 0.43276000 -0.79135300
7.37937000 0.22370700 -0.28655100
7.54831000 0.42186700 -0.29670600
7.46439000 0.19115100 0.19517600
7.63861000 0.38720900 0.19379000
7.47814000 0.19033100 0.68271000
7.65009000 0.38910600 0.69051300
7.42788000 0.21984800 1.16669000
7.59671000 0.42087900 1.18300000
7.39901000 0.20204100 1.65836000
7.56832000 0.40524900 1.68369000
7.33526000 0.18266000 2.15600000
7.50101000 0.38922900 2.19439000
7.19745000 0.19207300 2.64466000
7.36148000 0.39704000 2.69486000
6.99788000 0.22748900 3.10537000
7.15753000 0.43109100 3.16499000
6.80214000 0.23027100 3.56093000
6.95707000 0.43550900 3.62695000
6.61675000 0.19536400 4.01660000
6.77041000 0.40027100 4.09305000
6.34768000 0.20861700 4.42870000
6.48931000 0.41941300 4.50660000
6.08061000 0.19581900 4.83676000
6.22225000 0.40184200 4.92611000
5.81755000 0.15123900 5.24900000
5.95979000 0.35681300 5.34887000
5.51257000 0.12503200 5.63593000
5.64929000 0.33014700 5.74451000
5.14554000 0.13920600 5.96819000
5.27650000 0.34388000 6.08438000
4.75797000 0.15915200 6.27421000
4.88089000 0.36615500 6.39547000
4.38577000 0.12994200 6.60019000
4.50461000 0.33787100 6.73209000
3.98236000 0.11770300 6.89102000
4.09054000 0.32773000 7.03020000
3.54342000 0.14029100 7.12408000
3.64114000 0.35166400 7.26791000
3.08740000 0.18881100 7.29904000
3.17448000 0.39780000 7.44930000
2.62775000 0.23599000 7.44827000
2.70755000 0.44304400 7.60154000
2.17627000 0.23985800 7.61616000
2.24928000 0.44599500 7.77537000
1.70809000 0.26962600 7.72518000
1.77244000 0.47748200 7.88378000
1.23618000 0.29026800 7.82069000
1.29233000 0.49918000 7.98170000
0.76978900 0.26329500 7.94821000
0.81713000 0.47453600 8.11380000
0.28842300 0.25754600 8.02627000
0.32600900 0.46908600 8.19655000
0.28842300 0.25754600 8.02627000
-0.19936300 0.29792500 8.02173000
-0.17316300 0.50769800 8.19411000
0.32600900 0.46908600 8.19655000
-0.68214200 0.35458200 7.96872000
-0.66582500 0.56727300 8.13585000
-1.16849000 0.36619000 7.94611000
-1.16261000 0.58147300 8.11167000
-1.65523000 0.37972100 7.89196000
-1.17248000 0.15801600 7.76994000
-1.64435000 0.17882700 7.70571000
-2.09454000 0.24751400 7.56103000
-1.63263000 -0.01541390 7.51199000
-2.06748000 0.05860820 7.36512000
-2.48298000 0.14696600 7.17945000
-2.51892000 0.33798200 7.36771000
-2.90589000 0.19705000 7.00366000
-2.94608000 0.39946300 7.17847000
-3.33467000 0.21474100 6.83501000
-3.38635000 0.41660200 7.00880000
-3.72500000 0.27568600 6.59574000
-3.78770000 0.47645900 6.76548000
-4.12079000 0.30404100 6.36318000
-4.19071000 0.51050300 6.52236000
-4.51891000 0.30001200 6.13881000
-4.59840000 0.50956600 6.29044000
-4.89296000 0.30489800 5.88015000
-4.98649000 0.51044900 6.03029000
-5.21352000 0.34724500 5.56311000
-5.31708000 0.55061500 5.70605000
-5.49527000 0.40255800 5.21137000
-5.60052000 0.60803800 5.34174000
-5.80330000 0.39844400 4.87894000
-5.91724000 0.60499100 5.00145000
-6.08334000 0.39673800 4.51579000
-6.20889000 0.60072600 4.63268000
-6.30204000 0.42386800 4.11382000
-6.43660000 0.62558100 4.22189000
-6.46638000 0.46838500 3.68576000
-6.60781000 0.66774600 3.78575000
-6.61391000 0.49661800 3.25445000
-6.75451000 0.69886200 3.34333000
-6.77654000 0.48248400 2.82847000
-6.91980000 0.69017800 2.90663000
-6.89787000 0.47357100 2.39205000
-7.05213000 0.67597900 2.45933000
-6.96679000 0.47599900 1.94397000
-7.12269000 0.68116600 1.99724000
-7.04849000 0.44339900 1.49929000
-7.20729000 0.65054500 1.53919000
-7.12146000 0.39444100 1.05449000
-7.28525000 0.60229300 1.08046000
-7.15798000 0.35299100 0.60464000
-7.32350000 0.56282400 0.61463000
-7.13750000 0.33207600 0.14855400
-7.30307000 0.54080700 0.14270500
-7.07142000 0.32420600 -0.30511100
-7.23431000 0.53322700 -0.32592500
-6.99561000 0.30325400 -0.75746200
-7.15989000 0.50981200 -0.79146400
-6.89983000 0.27865700 -1.20296000
-7.06342000 0.48441100 -1.25315000
-6.75012000 0.27584100 -1.63627000
-6.90839000 0.47900800 -1.70114000
-6.53521000 0.30604200 -2.04793000
-6.69161000 0.50253700 -2.12672000
-6.30080000 0.32736100 -2.44899000
-6.44724000 0.52643300 -2.53697000
-6.10931000 0.28171800 -2.86782000
-6.24812000 0.48199000 -2.96625000
-5.87509000 0.25251500 -3.26480000
-6.00931000 0.44988200 -3.37544000
-5.58851000 0.25104300 -3.62867000
-5.71046000 0.45035300 -3.74521000
-5.31239000 0.20929300 -4.00105000
-5.42910000 0.40779700 -4.12608000
-5.03642000 0.14237100 -4.36952000
-5.14895000 0.33977700 -4.50718000
-4.71726000 0.09533490 -4.70509000
-4.81806000 0.29539800 -4.84991000
-4.35110000 0.07954460 -4.99189000
-4.43846000 0.28208200 -5.14111000
-3.96786000 0.06362640 -5.25605000
-4.04423000 0.26663100 -5.41001000
-3.58151000 0.03194790 -5.51268000
-3.65089000 0.23203900 -5.67659000
-3.17167000 0.01600740 -5.72756000
-3.22824000 0.21589000 -5.89576000
-2.73245000 0.03235230 -5.87965000
-2.77546000 0.23186900 -6.04884000
-2.28150000 0.05190540 -5.99950000
-2.31238000 0.24811700 -6.17153000
-1.83688000 0.02670310 -6.13581000
-1.85807000 0.21769800 -6.31515000
-1.85807000 0.21769800 -6.31515000
-1.83688000 0.02670310 -6.13581000
-1.38694000 0.00116074 -6.24514000
-1.39490000 0.19280800 -6.42338000
-0.92998700 -0.00938361 -6.30884000
-0.92600500 0.18185900 -6.48570000
-0.47784500 -0.05256480 -6.37874000
-0.46525500 0.13233200 -6.56218000
-0.02598330 -0.10585700 -6.43264000
-0.00260537 0.07840190 -6.61706000
0.43001200 -0.13545600 -6.43338000
0.46483900 0.04847300 -6.61594000
0.88361000 -0.14397100 -6.38218000
0.92815300 0.04506710 -6.55567000
1.33548000 -0.15573500 -6.30785000
1.38909000 0.03309640 -6.47898000
1.78386000 -0.16632900 -6.20590000
1.84862000 0.02104980 -6.37570000
2.22003000 -0.15478900 -6.05405000
2.29607000 0.03185840 -6.21966000
2.63903000 -0.12870300 -5.86144000
2.72373000 0.05979410 -6.01826000
3.05823000 -0.12962600 -5.66775000
3.15232000 0.05815290 -5.82004000
3.47277000 -0.14808400 -5.46607000
3.57852000 0.03719730 -5.61529000
3.85989000 -0.14303300 -5.21637000
3.97138000 0.04753840 -5.35229000
4.24004000 -0.15427300 -4.95597000
4.36257000 0.03153140 -5.08966000
4.62077000 -0.19380800 -4.69776000
4.75424000 -0.01103990 -4.82785000
4.98163000 -0.22638600 -4.40922000
5.12394000 -0.04329880 -4.53115000
5.30247000 -0.22719400 -4.07494000
5.45206000 -0.04229560 -4.18517000
5.59117000 -0.21197600 -3.71135000
5.74256000 -0.02198040 -3.80803000
5.87349000 -0.21488800 -3.34083000
6.03188000 -0.02626540 -3.42912000
6.13690000 -0.22147600 -2.95222000
6.30229000 -0.03375340 -3.03056000
6.35012000 -0.19928900 -2.52991000
6.52078000 -0.01138150 -2.59627000
6.51060000 -0.14999800 -2.08561000
6.68110000 0.03892510 -2.13839000
6.68505000 -0.14633200 -1.64387000
6.86393000 0.03714780 -1.68814000
6.85473000 -0.17436100 -1.19999000
7.03988000 0.00771696 -1.23324000
6.94780000 -0.15701600 -0.73450000
7.12409000 0.03381330 -0.75378600
7.03149000 -0.16206200 -0.27004500
7.20820000 0.02813050 -0.27787800
7.10773000 -0.19127000 0.19307200
7.28828000 -0.00238035 0.19538500
7.12191000 -0.19462600 0.66116900
7.30191000 -0.00417949 0.67293300
7.08379000 -0.17624100 1.12928000
7.25715000 0.02000990 1.14993000
7.04997000 -0.19203500 1.60031000
7.22642000 0.00270166 1.63172000
6.98464000 -0.21096100 2.07448000
7.16376000 -0.01816430 2.11743000
6.85190000 -0.19800900 2.53595000
7.02712000 -0.00575249 2.59194000
6.66205000 -0.16064500 2.97543000
6.83209000 0.03107910 3.04122000
6.47396000 -0.15649900 3.41212000
6.63968000 0.03448420 3.48808000
6.28844000 -0.18980200 3.84864000
6.45518000 -0.00078070 3.93464000
6.04172000 -0.18761900 4.25120000
6.19824000 0.00625403 4.34302000
5.77841000 -0.19451400 4.64115000
5.93318000 -0.00481098 4.74294000
5.51896000 -0.23862500 5.03337000
5.67058000 -0.04735820 5.14452000
5.22541000 -0.26831500 5.40200000
5.37050000 -0.07462400 5.52228000
4.87466000 -0.25581100 5.72000000
5.01213000 -0.06128810 5.84716000
4.50299000 -0.24050600 6.01352000
4.63188000 -0.04209490 6.14629000
4.14264000 -0.27195500 6.31987000
4.26336000 -0.07169640 6.46157000
3.75438000 -0.28561800 6.59491000
3.87058000 -0.08769460 6.74654000
3.33608000 -0.26425900 6.81737000
3.44227000 -0.06644370 6.97526000
2.89908000 -0.21129600 6.98138000
2.99508000 -0.01487850 7.14406000
2.45800000 -0.16184300 7.12165000
2.54455000 0.03429010 7.28878000
2.02191000 -0.15424500 7.27513000
2.09999000 0.03964800 7.44871000
1.57211000 -0.12552600 7.37961000
1.64136000 0.06898270 7.55666000
1.11990000 -0.11258600 7.47538000
1.17945000 0.08606610 7.65187000
0.67197300 -0.13922000 7.58867000
0.72137200 0.06055720 7.77111000
0.21309600 -0.14368900 7.65673000
0.25115100 0.05268940 7.84679000
0.21309600 -0.14368900 7.65673000
-0.25012800 -0.10338000 7.65130000
-0.22532000 0.09450090 7.84022000
0.25115100 0.05268940 7.84679000
-0.71078900 -0.05487760 7.61081000
-0.69687300 0.14784400 7.79302000
-1.17425000 -0.04396780 7.58511000
-0.72385500 -0.25239400 7.42124000
-1.17445000 -0.23901900 7.39176000
-1.61785000 -0.20182900 7.31051000
-1.17430000 -0.42587600 7.18871000
-1.60215000 -0.38296600 7.10344000
-2.01217000 -0.30707400 6.96158000
-2.03976000 -0.12591900 7.16507000
-2.40988000 -0.22626100 6.79299000
-2.44654000 -0.04104920 6.98814000
-2.81899000 -0.19290500 6.63898000
-2.86359000 -0.00140210 6.82432000
-3.21932000 -0.16569500 6.46552000
-3.27883000 0.02014810 6.65392000
-3.59293000 -0.11114600 6.24597000
-3.65978000 0.07938920 6.42398000
-3.97225000 -0.09486720 6.03298000
-4.04833000 0.10103000 6.20116000
-4.34802000 -0.10082800 5.81943000
-4.43627000 0.09591080 5.98205000
-4.69495000 -0.08691010 5.56393000
-4.79729000 0.10448700 5.72535000
-4.99202000 -0.03540360 5.25818000
-5.10571000 0.15102700 5.41405000
-5.27054000 0.00613433 4.93907000
-5.38598000 0.20139300 5.07838000
-5.55781000 0.00602396 4.61963000
-5.68419000 0.19699000 4.75193000
-5.81536000 0.01406130 4.26932000
-5.95343000 0.20031300 4.39545000
-6.01606000 0.04578190 3.88322000
-6.16253000 0.23047600 4.00008000
-6.16985000 0.09298830 3.47379000
-6.32003000 0.27646000 3.58266000
-6.31625000 0.11190900 3.06376000
-6.46876000 0.30091300 3.16047000
-6.46527000 0.08912780 2.66123000
-6.62481000 0.28254600 2.74513000
-6.56455000 0.08670590 2.24899000
-6.73475000 0.27683600 2.32169000
-6.63648000 0.07985940 1.83467000
-6.80402000 0.27635500 1.88894000
-6.71342000 0.04135600 1.42091000
-6.88356000 0.24050300 1.45902000
-6.77662000 -0.00912539 1.00762000
-6.95100000 0.19119700 1.02969000
-6.80443000 -0.04783340 0.58799000
-6.98295000 0.15074300 0.59532500
-6.78465000 -0.06827360 0.16597300
-6.96504000 0.12871100 0.15655700
-6.72354000 -0.07490790 -0.25598800
-6.90072000 0.12165300 -0.28156700
-6.65206000 -0.09629510 -0.67824700
-6.82817000 0.09962900 -0.71951500
-6.55325000 -0.11391200 -1.09614000
-6.73007000 0.07830610 -1.14979000
-6.40566000 -0.10518100 -1.50150000
-6.58091000 0.08251380 -1.56893000
-6.20838000 -0.07248810 -1.88650000
-6.37413000 0.11412700 -1.96808000
-5.99488000 -0.05610250 -2.26750000
-6.14972000 0.13449800 -2.35772000
-5.80943000 -0.09616530 -2.66071000
-5.96444000 0.08743980 -2.76646000
-5.58328000 -0.11649800 -3.03223000
-5.73269000 0.06444070 -3.14991000
-5.31749000 -0.12001100 -3.37989000
-5.45461000 0.06278060 -3.50612000
-5.06236000 -0.16652700 -3.73411000
-5.18832000 0.01974400 -3.86959000
-4.79675000 -0.22992500 -4.07968000
-4.92082000 -0.04955720 -4.22810000
-4.49886000 -0.27961300 -4.39640000
-4.60986000 -0.09515630 -4.55307000
-4.15795000 -0.29936200 -4.67242000
-4.25709000 -0.11366400 -4.83476000
-3.80006000 -0.31926200 -4.92809000
-3.88732000 -0.13309100 -5.09583000
-3.43136000 -0.34415300 -5.16574000
-3.50899000 -0.16121400 -5.34304000
-3.04420000 -0.35913400 -5.36956000
-3.11040000 -0.17675600 -5.55266000
-2.63300000 -0.34270400 -5.52044000
-2.68554000 -0.16040800 -5.70466000
-2.20970000 -0.32092100 -5.63807000
-2.24703000 -0.13726200 -5.82147000
-1.78848000 -0.33827400 -5.76342000
-1.81330000 -0.15828500 -5.95197000
-1.81330000 -0.15828500 -5.95197000
-1.78848000 -0.33827400 -5.76342000
-1.36512000 -0.36708600 -5.87268000
-1.37647000 -0.18569300 -6.06149000
-0.93365300 -0.37932100 -5.94074000
-0.93248900 -0.19704100 -6.12739000
-0.50169400 -0.40681700 -5.99587000
-0.49029800 -0.23096900 -6.18865000
-0.07160060 -0.45222200 -6.04270000
-0.04887900 -0.28147800 -6.23992000
0.36088800 -0.48674900 -6.05076000
0.39535200 -0.31331500 -6.24401000
0.79399100 -0.50169400 -6.01397000
0.83917900 -0.32513400 -6.20058000
1.22422000 -0.51350100 -5.94562000
1.28082000 -0.33905800 -6.13089000
1.64974000 -0.52005500 -5.84618000
1.71732000 -0.34563100 -6.02790000
2.06435000 -0.50994900 -5.70639000
2.14294000 -0.33513300 -5.88255000
2.46680000 -0.49287100 -5.53457000
2.55352000 -0.31272200 -5.69988000
2.86516000 -0.49247500 -5.35153000
2.96242000 -0.31303500 -5.51131000
3.25394000 -0.50002900 -5.15142000
3.36412000 -0.32637400 -5.31044000
3.62723000 -0.50455600 -4.92551000
3.74558000 -0.32777000 -5.07451000
3.98640000 -0.51019300 -4.67643000
4.11476000 -0.33505100 -4.81870000
4.34192000 -0.53888700 -4.42330000
4.48226000 -0.36812400 -4.56162000
4.68099000 -0.56949500 -4.15100000
4.83306000 -0.40099800 -4.28207000
4.98978000 -0.57752400 -3.84203000
5.14836000 -0.40535300 -3.96055000
5.27138000 -0.56997400 -3.50463000
5.43341000 -0.39433200 -3.61035000
5.54323000 -0.57372700 -3.15465000
5.71074000 -0.39772400 -3.24929000
5.78826000 -0.57423200 -2.78425000
5.96459000 -0.40071300 -2.86939000
5.99035000 -0.55095900 -2.38779000
6.17278000 -0.37860700 -2.46040000
6.15513000 -0.51116700 -1.97286000
6.33593000 -0.33414600 -2.03032000
6.31736000 -0.50241900 -1.55457000
6.50205000 -0.32502900 -1.59898000
6.47196000 -0.52286400 -1.13359000
6.66476000 -0.35067600 -1.16666000
6.57589000 -0.51920300 -0.69575700
6.76445000 -0.34084000 -0.71473900
6.66042000 -0.52840900 -0.25532500
6.84809000 -0.34708600 -0.26247500
6.73119000 -0.55500300 0.18478600
6.92208000 -0.37524900 0.18820700
6.74998000 -0.56126600 0.63147500
6.93871000 -0.38092700 0.64680000
6.72321000 -0.55315600 1.08061000
6.90721000 -0.36966600 1.10575000
6.67886000 -0.56068800 1.53232000
6.86705000 -0.38014200 1.56628000
6.60771000 -0.57176000 1.98125000
6.79955000 -0.39587600 2.02820000
6.48288000 -0.56067800 2.41898000
6.67045000 -0.38372000 2.47899000
6.30733000 -0.52688700 2.83819000
6.48785000 -0.34706300 2.90741000
6.12936000 -0.52519600 3.25422000
6.30382000 -0.34300200 3.33406000
5.94781000 -0.55368900 3.66694000
6.11942000 -0.37324800 3.75849000
5.71312000 -0.55324200 4.05292000
5.88119000 -0.37595500 4.15552000
5.45837000 -0.56167400 4.42684000
5.62013000 -0.38108100 4.53539000
5.20302000 -0.60020000 4.79612000
5.36281000 -0.42099600 4.91605000
4.91947000 -0.63133400 5.14326000
5.07457000 -0.45415200 5.27580000
4.58725000 -0.62313700 5.44500000
4.73252000 -0.44285100 5.58605000
4.23242000 -0.61226700 5.72323000
4.36940000 -0.43003700 5.87130000
3.88079000 -0.63540400 6.00583000
4.01356000 -0.45846900 6.16694000
3.50931000 -0.64612300 6.26051000
3.63366000 -0.47171000 6.43197000
3.11199000 -0.62332900 6.46600000
3.22527000 -0.44871300 6.64648000
2.69836000 -0.57511700 6.62578000
2.80007000 -0.39727700 6.80740000
2.27907000 -0.53818800 6.76909000
2.36914000 -0.35250300 6.94804000
1.85922000 -0.52655500 6.90654000
1.94070000 -0.34380700 7.09544000
1.43318000 -0.50102400 7.00580000
1.50318000 -0.31439400 7.19501000
1.00473000 -0.49585600 7.10066000
1.06230000 -0.30704600 7.29105000
0.57645900 -0.51799800 7.19867000
0.62418100 -0.33087900 7.39656000
0.13971800 -0.51566400 7.25209000
0.17605400 -0.33421700 7.45908000
0.13971800 -0.51566400 7.25209000
-0.29835500 -0.47815400 7.24786000
-0.27415400 -0.29344800 7.45320000
0.17605400 -0.33421700 7.45908000
-0.73639500 -0.44293300 7.22254000
-0.32390700 -0.66081600 7.04040000
-0.74954600 -0.63002700 7.01898000
-1.17344000 -0.60813400 6.97959000
-0.76322900 -0.81229400 6.80905000
-1.17366000 -0.78653200 6.76636000
-1.57334000 -0.73287900 6.67589000
-1.58787000 -0.56110300 6.89337000
-1.95622000 -0.65315600 6.53991000
-1.98350000 -0.48177600 6.75325000
-2.33691000 -0.58538900 6.39013000
-2.37389000 -0.40835600 6.59371000
-2.72410000 -0.55841800 6.24787000
-2.77206000 -0.37711900 6.44613000
-3.09491000 -0.52050100 6.07508000
-3.15872000 -0.34447100 6.27156000
-3.45393000 -0.47840500 5.87648000
-3.52430000 -0.29677100 6.06277000
-3.81225000 -0.46824200 5.67783000
-3.89402000 -0.28604800 5.85903000
-4.16220000 -0.46943000 5.47087000
-4.25602000 -0.28836200 5.64824000
-4.47685000 -0.44257800 5.22475000
-4.58800000 -0.26790700 5.39633000
-4.75172000 -0.39073600 4.93699000
