-10.99690000 6.27870000 2.63920000
0.62100000 6.37640000 11.99220000
0.62240000 6.25840000 11.89770000
0.42890000 6.22150000 11.89900000
-8.43070000 2.02220000 6.13020000
0.07450000 6.49970000 12.00460000
6.35620000 1.72090000 -7.89360000
6.41600000 2.29800000 -8.01940000
10.58650000 5.86660000 4.83510000
-11.10470000 6.71400000 2.81130000
5.67250000 -5.50080000 -4.38710000
-1.79960000 6.43710000 11.32840000
-2.18900000 6.47650000 11.26740000
-1.48400000 6.47720000 11.38830000
7.21460000 -1.76360000 5.89080000
0.02390000 -6.26030000 -1.64840000
-0.19400000 -6.26360000 -1.70740000
0.01420000 -6.24200000 -1.80290000
-9.13760000 3.67310000 -5.50980000
-9.20630000 3.84230000 -5.46120000
7.86360000 -4.18150000 -1.10430000
7.67610000 -4.30710000 -1.46930000
9.05970000 1.36240000 4.36240000
-10.16710000 3.98650000 -5.34560000
-5.80000000 4.80670000 9.38340000
4.27110000 -6.57600000 3.03000000
4.29450000 -6.88130000 3.07220000
4.05770000 -6.67630000 3.33720000
4.49810000 -6.72380000 2.70200000
-0.57100000 2.49920000 -10.27450000
-0.46950000 2.29860000 -10.24270000
-0.74050000 2.26240000 -10.21870000
3.79450000 -7.90410000 -4.82940000
0.10870000 -6.27590000 -1.54850000
0.32300000 -6.29920000 -1.24140000
0.13420000 -6.27130000 -1.32600000
-4.28940000 4.31050000 10.05340000
-10.88080000 0.44830000 1.66550000
-5.95340000 6.03910000 10.27050000
-4.78330000 7.70060000 10.99250000
-4.47370000 7.83250000 11.28180000
-9.69400000 5.52940000 -5.38520000
-9.43630000 5.92360000 -6.02940000
-9.22970000 6.08680000 -6.42240000
11.48060000 5.77230000 -0.01489900
2.75730000 7.38960000 11.85880000
-8.82310000 4.54500000 -6.30670000
-3.63560000 -2.73170000 8.41650000
9.25040000 -0.13080000 2.89530000
9.20370000 -0.37320000 2.83570000
9.39890000 -0.24600000 2.22230000
2.80000000 -3.81240000 -7.74780000
-7.64840000 0.67359900 8.00520000
-7.43700000 1.10400000 8.30700000
-6.99930000 0.77939900 8.61630000
-3.33450000 -5.66630000 -6.03810000
7.65180000 7.46220000 9.65140000
7.19040000 7.41800000 9.85660000
-0.42890000 4.39180000 11.51440000
0.21440000 4.17190000 11.48050000
-2.21490000 7.43710000 11.62670000
-0.39100000 0.42069800 10.05860000
-0.01210000 -6.17390000 -1.86220000
7.41160000 -2.46610000 -4.84750000
7.52330000 -2.53960000 -4.61250000
-3.29370000 7.55360000 11.41290000
7.55100000 -2.36660000 -4.70600000
6.93400000 3.07010000 -7.80570000
6.60140000 2.74570000 -8.00450000
4.01960000 1.39740000 -9.23810000
3.78420000 1.20780000 -9.28920000
0.09080000 -6.22090000 -1.77630000
-0.10620000 -0.13640200 9.94590000
-10.24680000 5.97400000 -6.23570000
8.41160000 -3.36770000 1.14750000
8.27290000 -3.45670000 1.68510000
8.23980000 -3.43870000 1.94050000
-8.18780000 -4.81630000 1.85750000
4.53950000 -7.65410000 -2.37270000
4.57730000 -4.92130000 5.79500000
4.50940000 -4.79310000 6.06280000
5.85210000 4.30560000 -9.77910000
-2.37980000 2.94350000 10.36430000
-6.46650000 -5.37550000 -4.29010000
-6.48060000 -5.47320000 -4.16920000
-6.25160000 -5.55610000 -4.08630000
7.65770000 -0.92830100 5.64880000
-9.99820000 -1.09810000 -3.47210000
-10.00840000 -1.21390000 -3.26160000
-10.05600000 -1.07760000 -3.30940000
11.36260000 6.25710000 -3.01700000
11.37030000 6.26540000 -2.90180000
11.52990000 6.29530000 -2.62320000
7.16150000 -3.61820000 4.49850000
7.15140000 3.35230000 -7.69220000
7.40590000 3.26040000 -7.41070000
6.67510000 3.28610000 -8.10060000
-5.00950000 -2.60880000 -8.53900000
-5.29930000 -2.45250000 -8.45960000
-5.31480000 -2.01870000 -8.65510000
7.00780000 -5.14380000 -3.16720000
-10.32710000 3.73430000 -2.83540000
-6.83910000 -5.36240000 -3.96280000
-6.50800000 -5.44730000 -3.99820000
-3.10380000 6.15920000 -10.65320000
-2.76330000 6.38320000 -10.80630000
6.87720000 7.28670000 9.89820000
6.31320000 7.36730000 10.33490000
6.44860000 7.27960000 10.20910000
6.71390000 7.35030000 10.04630000
6.55430000 7.43550000 10.29850000
8.63520000 -0.13040100 4.40570000
-2.74170000 6.67440000 -10.91320000
-2.85530000 6.91600000 -10.98380000
-2.53010000 7.07210000 -11.12590000
-1.14590000 -6.24600000 -0.46130100
-1.30320000 -6.23530000 -0.59470100
-7.01800000 -5.47910000 1.64630000
-7.32480000 -5.40000000 1.74850000
-1.39400000 -6.21660000 -0.69190100
-2.78990000 -6.30670000 -4.00550000
-2.65570000 -6.32020000 -4.04010000
-6.81340000 -0.99030100 6.95870000
-5.67630000 -0.33919900 -7.95520000
-7.66710000 -1.08320000 -5.75970000
-2.89740000 7.37330000 11.92010000
8.34890000 7.29120000 8.71590000
-8.22520000 -4.15850000 1.40210000
-8.79000000 -0.81689900 -4.10870000
7.12760000 5.31930000 -9.02640000
2.34310000 -0.93969900 -9.17730000
2.08360000 -0.97989900 -9.22520000
2.22730000 -1.10750000 -9.15650000
5.84780000 -7.34590000 -2.06520000
5.81600000 -7.17540000 -2.07700000
-1.61360000 5.88690000 11.18590000
-1.30740000 5.65290000 11.15770000
-6.85580000 -0.68040100 7.03430000
7.75040000 -5.26610000 -0.77690100
7.73640000 -5.17520000 -0.83580100
7.79220000 -5.08350000 -0.91120100
11.65520000 7.54600000 -3.78640000
1.01050000 7.27240000 12.18720000
-9.90840000 4.87610000 -4.63300000
-9.94030000 5.21750000 -4.74530000
8.28120000 4.85440000 -7.85700000
-7.12800000 -4.40890000 3.81330000
-6.87930000 -4.70520000 3.65340000
-7.01750000 -4.59580000 3.63700000
-6.89760000 -4.60760000 3.83250000
6.56820000 -4.87270000 -2.78580000
-5.52250000 -4.96570000 -4.76860000
-5.25670000 -5.11130000 -4.73580000
-6.94590000 -4.73270000 3.42640000
1.73030000 0.36450200 -9.65650000
-8.16760000 5.09000000 7.46370000
-8.26700000 5.45200000 7.47360000
-7.66860000 5.76190000 8.18640000
-9.74710000 0.44690000 2.46000000
-9.71010000 0.62519900 2.76170000
-9.73640000 0.78490000 2.80010000
4.86330000 -2.54700000 7.72910000
4.65440000 -2.83470000 7.72570000
4.61040000 -2.63520000 7.85480000
4.80350000 -2.32430000 7.87500000
7.67170000 3.86810000 -8.29840000
10.01790000 1.81340000 1.39460000
6.00620000 -5.33320000 4.83110000
-4.95910000 -4.50890000 -7.10940000
-4.54340000 -4.62400000 -7.23840000
-5.67440000 -5.11870000 -5.85420000
6.47180000 -5.36940000 4.12800000
-10.48750000 2.69680000 -0.44830000
3.32280000 5.82720000 11.17960000
-9.09900000 5.92700000 -7.49840000
-9.35720000 5.65720000 -7.01810000
-9.43570000 5.99540000 -7.07740000
-9.13460000 5.67730000 -7.35810000
10.07510000 0.97189900 4.22590000
9.91050000 0.68359900 4.50520000
10.23450000 0.97259900 3.74740000
-9.24720000 2.11430000 -4.66500000
7.77900000 -5.22610000 0.54909900
7.95710000 -5.10780000 0.53549900
2.62400000 -6.23240000 1.15460000
2.58510000 -6.20930000 1.32520000
2.42220000 -6.24070000 0.87019900
9.58570000 -0.32150000 0.25890000
-10.49930000 3.21390000 -1.47410000
-10.57730000 3.58430000 -1.41650000
-10.59310000 3.40520000 -0.93059900
-5.38990000 -5.53090000 -2.79350000
-4.99600000 -5.57800000 -2.88720000
-3.44980000 7.72820000 -11.61530000
-4.15790000 7.71300000 -11.40610000
-4.02300000 7.74720000 -11.25070000
-1.67940000 3.32260000 -11.00660000
-1.46110000 3.05160000 -10.98160000
10.65330000 3.50750000 3.70750000
10.74990000 3.62260000 3.36350000
-1.54290000 1.01070000 10.10800000
-5.16860000 -5.27580000 5.79550000
-4.89630000 -5.44860000 5.53740000
-1.42180000 3.26310000 -11.00370000
0.92800000 -2.83370000 9.01860000
-4.22760000 -5.54210000 -4.21360000
-4.11050000 -5.50050000 -4.54540000
-3.69810000 -5.61050000 -4.19310000
10.49880000 5.36210000 -2.99130000
-3.16900000 4.80420000 10.56920000
-2.56040000 4.91360000 10.76370000
1.30500000 -5.91040000 6.32920000
4.08850000 7.65510000 -11.42340000
-7.22830000 -3.39240000 -4.71950000
-9.07100000 -2.01290000 -2.32330000
-9.15730000 -1.68820000 -2.43760000
1.02320000 -5.86160000 6.41190000
-8.26030000 5.10640000 -7.21240000
1.68540000 -4.70960000 7.64850000
2.01990000 -4.46860000 7.83640000
3.33790000 4.43930000 10.38740000
11.48360000 7.21900000 -3.38660000
11.56790000 7.22410000 -3.07760000
11.75260000 7.19860000 -2.51850000
2.06100000 7.68090000 -11.74090000
10.02180000 1.79870000 -1.38710000
3.33550000 3.85630000 10.25600000
3.60170000 4.07770000 10.21190000
-2.43000000 -6.80010000 -5.71530000
-2.14180000 -6.59780000 -5.77050000
10.07150000 2.04570000 -1.40710000
-8.97480000 -2.12450000 -2.54040000
2.51350000 6.55540000 -10.95910000
-3.86550000 6.01230000 -10.38360000
-11.73170000 7.25290000 -3.12170000
-11.72210000 7.15440000 -3.11730000
-8.28230000 -0.05030100 7.12270000
-4.27860000 5.64970000 -10.13100000
-4.03460000 5.78260000 -10.25910000
-10.80270000 5.76120000 4.57160000
10.78890000 7.66260000 -5.48040000
9.99690000 2.51540000 2.35010000
10.04930000 2.42500000 2.02790000
3.09780000 -4.00760000 7.82730000
3.17840000 -3.74880000 7.99100000
3.34770000 -5.95710000 -5.01120000
-1.41590000 -6.85010000 5.22290000
-3.25500000 3.00770000 -9.89400000
2.99560000 -6.56460000 5.73620000
5.88300000 6.03500000 10.07370000
6.02660000 6.02080000 10.06790000
10.88810000 7.19820000 -4.96440000
10.81680000 7.19440000 -5.15280000
10.72110000 7.20670000 -5.27480000
4.56550000 2.70030000 9.50610000
-0.59620000 7.17710000 -11.44330000
-0.92680000 7.05790000 -11.34750000
-4.32720000 0.10990100 -8.83620000
-4.46480000 0.27810100 -8.81270000
5.80240000 5.96410000 10.06420000
5.95910000 5.79860000 9.95420000
7.85770000 -0.43849900 -5.45610000
5.51810000 -2.33310000 -7.04040000
5.94060000 -2.07950000 -6.82770000
12.00440000 7.68940000 -1.38210000
12.01910000 7.69710000 -0.84619900
1.39570000 -2.69100000 -9.63750000
3.17390000 1.50730000 9.78960000
3.07820000 1.75210000 9.87560000
3.33690000 1.76010000 9.79990000
11.71930000 7.51320000 -0.70439900
11.80720000 7.58830000 -0.36599900
11.84830000 7.64550000 -0.53799900
5.96950000 -2.64150000 -6.46380000
5.76450000 -2.51540000 -6.72520000
9.13100000 3.86650000 5.53140000
9.27810000 4.11330000 5.38320000
9.41120000 4.00670000 5.07030000
9.50240000 4.02240000 4.89100000
10.74490000 2.09650000 2.57650000
10.67220000 1.85580000 2.74470000
10.79850000 2.01740000 2.16590000
11.04200000 2.50020000 0.48380000
-0.77540000 -7.72230000 -6.17320000
-0.50030000 -7.89200000 -6.14930000
-0.16770000 -7.93190000 -6.12580000
9.28540000 2.78320000 4.67170000
9.12770000 2.78520000 4.99920000
9.31810000 3.06350000 4.76060000
7.04270000 6.33360000 9.55150000
7.19570000 6.46920000 9.47490000
3.47390000 -5.59900000 -5.84720000
3.50840000 1.50880000 9.67990000
3.86100000 1.55350000 9.55350000
-11.11490000 7.29800000 3.57220000
-6.15360000 -6.17320000 2.01800000
-6.03500000 -5.99240000 2.33710000
10.13140000 1.98100000 -4.29390000
10.50620000 2.53510000 -3.52570000
-4.78280000 1.31080000 -8.90290000
-3.43970000 6.65560000 10.98380000
-5.81280000 -7.72400000 -2.85420000
10.58660000 7.12880000 5.70690000
-10.71070000 5.81990000 -5.57440000
-0.95570000 0.30360200 -9.79960000
-1.34800000 0.52170200 -9.81460000
-6.41480000 -5.23480000 2.71990000
1.70110000 -0.09709800 -9.54640000
1.54480000 -0.03559800 -9.59000000
-0.58170000 0.99810200 -9.97410000
-0.87830000 0.92710200 -9.94730000
-10.78410000 7.22600000 -5.50700000
-10.96000000 7.36600000 -5.14700000
-10.78530000 7.30970000 -5.52120000
-2.91610000 6.21800000 11.00560000
-3.17180000 6.29990000 10.95880000
-2.42920000 6.06780000 11.08460000
9.48290000 3.23610000 4.50800000
9.38880000 3.43310000 4.81730000
-6.98970000 7.63650000 -9.63540000
-9.48900000 2.00750000 4.25230000
-2.69420000 6.38790000 11.11790000
-3.11900000 6.52060000 11.04090000
-2.08290000 6.25660000 11.21830000
5.08670000 7.72480000 11.26460000
3.86780000 7.74110000 11.75730000
-8.78810000 5.39950000 7.73520000
-8.22820000 5.40130000 8.30940000
-5.15840000 -7.22410000 1.46720000
1.10200000 -6.25260000 2.82810000
2.66050000 -3.40750000 9.28950000
4.72290000 7.74750000 11.40790000
0.95490000 7.29170000 -11.47530000
7.55870000 4.39780000 -7.61710000
1.57930000 -6.21470000 -1.59350000
1.82540000 -6.19400000 -1.43810000
4.21220000 -4.92530000 7.04530000
-1.74380000 -5.43800000 7.37770000
5.42300000 7.32550000 -10.97940000
9.89900000 0.37250100 -3.99940000
10.09610000 0.59170100 -3.62650000
9.80530000 0.69760100 -4.39530000
1.90350000 -2.67480000 9.93500000
1.89600000 -3.16770000 9.63540000
-1.44350000 3.40370000 -11.07510000
-0.78120000 3.35290000 -11.09840000
-1.18840000 3.49240000 -11.05710000
0.60090000 3.82540000 -11.11100000
0.28210000 3.20500000 -11.05950000
0.65780000 3.17160000 -11.03830000
1.09320000 3.15520000 -11.00050000
1.37610000 2.81750000 -10.93720000
0.59330000 7.64230000 12.48740000
0.38030000 7.64470000 12.49830000
-7.10500000 -5.49860000 -2.26260000
-9.65820000 -1.07490000 0.62040000
-9.63110000 -1.19640000 0.54900000
9.30940000 -0.34260100 5.30230000
7.65640000 -4.01450000 -4.56730000
8.82750000 -2.33510000 4.85720000
9.16540000 -1.83920000 4.63610000
-1.52440000 -4.96290000 8.12420000
10.64290000 0.72580000 -1.57080000
-9.50150000 1.86400000 6.02900000
-9.60180000 1.38190000 5.72060000
2.97940000 3.37620000 11.01010000
-3.16640000 -6.27260000 -3.08380000
-0.58660000 7.50270000 -11.61050000
-0.50380000 7.56990000 -11.73740000
-3.50040000 -6.20740000 1.80300000
-4.61080000 -6.31970000 -4.20980000
6.90810000 5.67030000 9.39940000
-9.69880000 4.11050000 6.26020000
-9.79760000 4.61630000 6.24260000
-10.00350000 4.15790000 5.76040000
-9.31990000 3.99670000 6.80960000
-9.56120000 4.37200000 6.54320000
-9.68770000 4.01260000 6.26860000
5.89910000 7.65250000 10.38470000
5.69040000 7.74810000 10.65010000
6.32600000 7.64880000 10.10800000
-5.04100000 -7.23200000 -3.91060000
-3.42030000 -4.80410000 -7.47430000
-6.46610000 -1.81810000 6.94780000
-9.69090000 -0.94920000 0.42910000
-9.65070000 -1.12010000 0.44830000
3.29710000 6.06620000 11.29690000
7.79830000 7.58360000 9.63590000
5.86360000 5.42920000 9.40800000
-9.94590000 0.69550000 -1.73690000
-9.89540000 0.48380000 -1.77830000
1.25190000 3.72570000 10.67340000
-0.74420000 6.29020000 -11.72750000
8.56800000 2.22420000 5.73060000
8.41280000 2.07260000 5.89920000
8.45980000 2.31350000 5.93940000
-1.05890000 6.60790000 -11.80330000
8.02760000 1.88190000 6.37030000
-7.06080000 1.23190000 -8.41770000
-6.77060000 0.81650100 -8.55190000
-7.06030000 0.72200100 -8.29950000
-6.78010000 0.31870100 -8.41640000
-7.11440000 0.44250100 -8.15470000
9.35260000 -0.07110000 2.57460000
-11.56420000 7.55500000 2.57030000
-11.59890000 7.63710000 2.61480000
-11.73200000 7.66600000 2.07220000
-6.26820000 0.28530100 -8.78390000
8.47930000 6.32590000 -8.13600000
1.72990000 -6.07040000 2.30610000
-10.11730000 1.17580000 -1.25610000
-8.57760000 -1.48710000 4.31430000
8.70740000 -4.27780000 1.06890000
9.27710000 -0.42310000 2.53850000
9.35130000 -0.48240000 2.15760000
9.27620000 -0.60160000 2.33380000
-4.77260000 -5.48470000 3.79200000
9.78430000 7.53450000 7.57610000
9.64800000 7.49070000 7.66500000
9.61750000 7.38290000 7.63060000
-0.49190000 -3.96280000 8.51160000
-0.26050000 -3.96220000 8.52380000
-7.14390000 0.96870100 -8.28760000
-7.53090000 0.91530100 -7.93230000
-7.71270000 1.17610000 -7.82890000
-8.26770000 0.85230100 -7.16360000
9.52600000 7.37510000 7.76640000
-1.14430000 4.35450000 -11.16120000
7.48050000 7.25620000 9.45270000
2.66400000 2.66970000 -9.97130000
3.10520000 2.63210000 -9.83830000
5.76780000 0.03669900 8.04950000
-7.48020000 0.29130100 -7.80270000
-7.23870000 0.27730100 -8.02480000
-4.98560000 7.20860000 11.17490000
3.38170000 2.39450000 -9.70260000
-3.38770000 4.82010000 11.11340000
2.00890000 -6.08430000 -1.40200000
-6.51700000 -0.37350100 8.71280000
-10.74480000 4.40020000 1.60790000
10.04980000 -0.15330100 3.55580000
9.96510000 -0.24370100 3.77490000
10.04580000 -0.38740100 3.39870000
9.94890000 -0.54420100 3.53520000
10.06430000 -0.53420100 3.12870000
6.41660000 -4.02850000 -6.13710000
-10.68980000 4.50930000 2.05080000
-3.91070000 -5.01440000 -6.03420000
2.26680000 -1.51200000 9.25420000
-0.98100000 -4.84950000 -8.08950000
-0.84220000 -4.94990000 -8.05910000
7.38810000 -2.10300000 7.07690000
5.19950000 -3.85110000 -7.40220000
5.35840000 -3.73390000 -7.39450000
5.37190000 -4.03600000 -7.10510000
-11.84980000 6.42380000 1.93050000
1.29450000 -0.27000200 9.82560000
-11.73670000 6.24400000 1.89960000
0.70730000 -6.27370000 -0.84240100
6.46210000 3.01490000 -8.20290000
6.11380000 2.92640000 -8.44470000
-2.19600000 -3.41490000 9.48210000
2.22590000 -1.23440000 9.36340000
10.93040000 5.68730000 -3.45500000
-7.65940000 -4.30440000 4.85150000
-6.25000000 5.82360000 9.88150000
-4.10270000 -4.27950000 7.23720000
-3.91320000 -4.11160000 7.47520000
-5.16500000 6.66770000 10.28980000
-4.95980000 6.93210000 10.49210000
-0.56440000 -3.71230000 -8.38040000
-0.65260000 -3.45510000 -8.52190000
-5.32820000 6.38880000 10.68650000
9.50800000 0.86230100 -5.09730000
-11.46420000 5.63050000 -2.26610000
8.18240000 6.23590000 8.46110000
-5.48490000 0.73370100 -8.38840000
-5.26120000 0.54700100 -8.47100000
-11.91230000 7.74420000 -1.53990000
-0.41200000 -6.22020000 -2.03930000
-1.56490000 -6.22700000 -2.12710000
-1.06950000 -6.14690000 -1.96600000
-7.76410000 7.46930000 9.56510000
-8.54310000 -2.87770000 -2.90720000
-8.46280000 -2.70910000 -3.30410000
-8.61660000 -2.61390000 -3.03610000
6.51660000 -3.08550000 5.92760000
6.33530000 -3.02760000 6.17030000
6.65620000 -2.85720000 5.91470000
6.46380000 -2.87880000 6.12460000
6.53570000 -2.64150000 6.19040000
8.77470000 1.82740000 -5.07840000
8.99630000 1.97620000 -4.73930000
-2.55880000 7.32350000 -11.24480000
5.46800000 -5.38080000 -4.87330000
-8.41440000 -2.45590000 -3.64650000
-8.60800000 -2.41790000 -3.27430000
9.83560000 4.04690000 -4.05510000
9.58400000 4.04930000 -4.61050000
9.71070000 3.98270000 -4.29500000
-9.26340000 0.87010100 -4.07390000
-9.19560000 1.04770000 -4.30820000
6.86720000 -2.81930000 5.67710000
-8.42440000 -2.90310000 -3.19090000
2.31750000 -5.86450000 -5.74570000
9.43370000 3.98450000 -4.86990000
8.25910000 5.71220000 8.22420000
-7.98840000 3.50730000 -8.11600000
-11.39040000 7.79230000 -4.02880000
-11.54960000 7.79250000 -3.74490000
-0.80960000 7.63320000 12.48300000
0.05420000 7.59880000 12.50070000
8.01650000 -3.70820000 -1.91700000
4.11680000 5.88470000 -10.26130000
11.73710000 6.64050000 2.40470000
11.61360000 6.52660000 2.59160000
2.52350000 2.07810000 -9.88000000
-4.27660000 -0.65309900 -8.64610000
-4.01710000 -0.66459900 -8.75970000
1.24530000 -6.21560000 5.05860000
0.76420000 -6.20430000 5.12760000
1.48700000 -6.21190000 4.89310000
-3.27690000 6.01010000 -11.17380000
-7.10640000 -4.94340000 4.66330000
-0.25160000 2.49480000 11.31540000
-9.94740000 6.43130000 -5.46030000
-9.80370000 6.22330000 -5.57900000
-9.83870000 5.98210000 -5.36750000
-9.66280000 5.86770000 -5.62120000
-1.22090000 3.32590000 -10.37920000
-1.06380000 3.60450000 -10.44840000
8.97960000 -2.16710000 0.85410000
8.97690000 -2.12130000 1.04410000
9.02800000 -2.00060000 0.96890000
-9.94790000 6.18070000 -5.28440000
4.00020000 5.49320000 -10.19860000
5.45160000 -2.13140000 8.70020000
-5.66300000 -2.06300000 -7.33770000
-5.54500000 -2.80130000 -7.05690000
2.44210000 -2.70180000 -8.47920000
2.79790000 -2.33170000 -8.52600000
-7.89800000 7.32130000 -8.55020000
-7.59810000 0.02509900 6.50450000
-0.09410000 -3.54460000 -8.48960000
6.60180000 1.91700000 7.91400000
6.20660000 1.95870000 8.26400000
-1.45470000 -5.87070000 6.35860000
-0.95840000 -6.00060000 6.42000000
7.07940000 3.32300000 7.90780000
7.09980000 3.11410000 7.82920000
6.95410000 3.05870000 7.94500000
6.65440000 3.19470000 8.24560000
6.68560000 2.88500000 8.13000000
6.46040000 3.12090000 8.38430000
-2.02860000 -6.21800000 -0.04740100
-1.89060000 -6.24310000 -0.25330100
2.90900000 -4.52510000 8.29360000
-6.14790000 -5.50630000 -0.21800100
-11.11130000 6.02950000 -1.62210000
4.65110000 -7.79810000 4.49530000
4.38160000 -7.81100000 4.76480000
4.54560000 -7.85370000 4.55940000
10.61480000 1.19650000 -2.26510000
-8.85190000 3.18520000 -5.77430000
-8.68040000 3.07420000 -5.99270000
-8.63450000 3.29160000 -6.12810000
-0.28890000 -5.44330000 6.29110000
-0.51610000 -5.37030000 6.54220000
-7.42410000 -2.94440000 -6.42310000
-7.41110000 -2.63790000 -6.66960000
-7.24670000 -2.66470000 -6.80330000
4.29660000 -5.64830000 -4.89130000
4.23130000 -5.80250000 -4.68540000
8.45740000 -1.37530000 -3.79870000
-8.57560000 2.78630000 -6.04510000
-8.45190000 3.06250000 -6.30370000
8.32000000 -1.35730000 4.30190000
8.11780000 -1.28940000 4.72920000
8.07510000 -1.49320000 4.69390000
11.04110000 6.04300000 3.87530000
11.06490000 6.03600000 3.80400000
10.93170000 5.81710000 3.87070000
9.14660000 -1.68590000 0.91700000
9.04430000 5.65280000 -7.10550000
-1.40040000 -2.30160000 -8.98850000
-1.55550000 -2.10140000 -9.03820000
8.45250000 -1.02870000 -4.09560000
-11.06530000 7.34270000 -3.81840000
-10.82370000 7.06700000 -4.08970000
-10.91230000 7.29350000 -4.10660000
-10.84080000 6.56460000 5.11390000
-10.89760000 6.84680000 5.13710000
2.00810000 -2.59380000 -9.58380000
2.54980000 -2.93650000 -9.28460000
8.12410000 -1.89490000 4.34370000
4.72430000 -6.23040000 1.97670000
6.09180000 -3.38250000 6.17990000
5.72110000 -3.77970000 6.22670000
-2.08210000 -1.04020000 -9.28600000
-1.69500000 -1.38600000 -9.25420000
-0.07300000 -5.44400000 6.25060000
1.90990000 7.46050000 11.68270000
7.77550000 -1.42180000 5.23670000
-1.21790000 -5.84390000 -6.15420000
-1.08310000 -5.91160000 -6.03780000
2.05320000 -2.70490000 8.85110000
8.95960000 -1.73920000 2.02810000
-11.47740000 7.07420000 1.60010000
-11.40750000 6.84940000 1.58690000
7.97160000 -1.66540000 4.78150000
7.72260000 -1.85960000 5.10060000
7.82390000 -1.65140000 5.04360000
-0.88360000 -6.22360000 -0.34700100
-0.64730000 -6.23590000 -0.31950100
-0.85690000 -6.18480000 -0.19620100
0.28540000 -3.51980000 -9.28230000
1.40350000 -6.21620000 -1.53480000
8.87630000 -1.84440000 2.27000000
11.74790000 6.79310000 -2.44130000
11.62580000 6.50870000 -2.58160000
-9.56460000 -0.48190000 -2.26290000
-9.14500000 7.81510000 7.97930000
11.61190000 6.67950000 -2.71230000
2.27070000 -2.80570000 8.75560000
-0.78430000 -6.21420000 -0.47220100
-0.80420000 -6.19040000 -0.63560100
-10.72960000 7.64890000 -5.11530000
3.01710000 3.70340000 10.32190000
0.65380000 -5.49790000 -5.81750000
0.31940000 -5.49780000 -5.91060000
11.58860000 7.13790000 -3.06000000
-1.07690000 -6.16150000 -1.90180000
-0.04860000 -5.74530000 6.63020000
-10.70840000 3.65200000 0.48190100
-10.62530000 3.42420000 0.82630100
-10.63290000 3.32860000 0.30930100
-10.66610000 3.55480000 -0.20189900
-10.70610000 3.70460000 0.12900100
7.32790000 -0.94780100 6.08870000
-10.73490000 3.89840000 -0.17069900
-7.72210000 -0.77149900 -5.83710000
9.12370000 -3.49500000 -1.77240000
5.58460000 -1.50080000 -8.57430000
6.09480000 -1.25460000 -8.31040000
-1.14390000 -6.22820000 -1.75960000
12.26060000 7.49380000 -1.16770000
-6.79030000 -5.58180000 2.92700000
-1.28320000 -4.54140000 7.96580000
-0.94680000 -4.55990000 8.00180000
6.76260000 -5.00360000 -3.94650000
-9.20710000 1.02870000 4.41030000
-9.16290000 0.69859900 4.33880000
-9.29170000 0.85869900 4.12730000
2.10570000 4.01820000 -10.36510000
2.59610000 -5.82070000 5.88860000
-10.18710000 3.02820000 -4.99280000
-1.68110000 -1.34260000 9.50410000
-2.02190000 -1.49660000 9.37920000
-1.58860000 -1.60670000 9.42250000
-10.30010000 3.06790000 -4.88050000
7.52060000 -4.25320000 -2.22090000
-1.28820000 -0.51220200 9.80340000
9.01170000 -2.12920000 -0.72680000
8.75490000 -2.73700000 -0.69580000
8.90220000 -2.42010000 -0.65640000
-7.62150000 -3.75970000 -3.70400000
-10.41010000 6.34270000 -6.14800000
-10.45340000 6.24640000 -6.03950000
4.22960000 -6.22110000 -4.26030000
9.66500000 7.16690000 7.20340000
9.47510000 7.22290000 7.51260000
10.85930000 2.97120000 2.60600000
10.75310000 2.83860000 2.98930000
10.67420000 2.59260000 3.20580000
10.67330000 2.37300000 3.02020000
-1.16680000 -0.60600200 9.79110000
9.65720000 7.04920000 7.29800000
-7.85610000 -3.29840000 -3.84210000
-10.54400000 7.79050000 6.39600000
-10.23010000 7.81140000 6.57810000
-0.92630000 6.14330000 -11.66150000
-10.44150000 7.80050000 6.07000000
-10.40370000 3.39630000 -4.71800000
-10.18490000 3.15340000 -5.09040000
-10.31050000 2.96100000 -4.73190000
2.19930000 -2.03740000 9.07400000
-10.64720000 4.15710000 4.39480000
-1.01020000 -0.92580200 9.71560000
-0.95100000 -0.58780200 9.81350000
-0.77850000 -0.57650200 9.82730000
-1.03140000 -0.73600200 9.76800000
-4.19120000 -6.22850000 -4.55680000
-10.48260000 4.24170000 -4.72300000
-10.35170000 3.55520000 -4.84800000
-3.05360000 -6.38180000 -3.88700000
-9.10460000 -1.90120000 2.57100000
-9.13930000 -1.68330000 2.69130000
-1.34630000 6.18420000 -11.64140000
-10.64150000 5.02630000 -4.59900000
4.88020000 -5.02020000 6.52240000
-5.24780000 6.96710000 11.00780000
1.71980000 -4.55100000 8.57020000
1.58750000 -4.37520000 8.77530000
6.24900000 -7.18960000 0.43609900
2.22230000 -6.31850000 -5.60780000
2.40700000 -6.14880000 -5.51400000
8.59630000 -1.44960000 -3.38210000
8.50030000 -1.49440000 -3.57920000
-12.09590000 6.68930000 -0.64539900
8.81050000 5.72650000 -6.64300000
9.00710000 5.68640000 -6.35100000
8.69680000 5.90470000 -6.87440000
0.18390000 -7.75050000 -5.06200000
11.44430000 5.43090000 -1.33700000
3.07900000 -6.20240000 1.53840000
10.91530000 7.27070000 -5.11720000
-9.08950000 -2.84780000 0.44290000
-9.08030000 -2.83690000 0.85210000
-9.20600000 -2.58860000 0.78760000
-3.72370000 -4.97550000 -6.21850000
-3.82630000 -4.89050000 -6.30570000
0.59960000 -0.78819800 -9.47900000
-5.42860000 -7.48680000 3.78570000
2.20820000 4.92100000 -10.56070000
-11.48260000 7.45270000 -4.43400000
9.83220000 0.72339900 4.71480000
9.66100000 0.67259900 5.04420000
-3.02780000 -4.90690000 -6.68030000
-2.79930000 -4.91750000 -6.75470000
-2.85960000 -5.03880000 -6.51800000
0.63010000 -1.22950000 -9.34320000
0.54900000 -1.03840000 -9.40830000
-3.08320000 -5.15410000 -6.19880000
6.94210000 -5.50350000 -1.25190000
0.61060000 7.70630000 -12.01510000
0.28660000 7.66580000 -12.13800000
-0.64750000 -6.25070000 -0.52450100
-11.51130000 7.42440000 -4.14270000
-8.52230000 -1.18930000 4.61950000
-8.40300000 -1.15680000 4.86180000
-2.54970000 -6.27900000 4.66820000
8.09240000 -3.39830000 5.05140000
1.73280000 5.56710000 -11.35780000
-1.29670000 3.63230000 -11.07250000
-1.61460000 3.81290000 -11.04510000
-10.15900000 2.70160000 -2.69170000
-8.96160000 -2.40090000 -4.72000000
10.31190000 7.67270000 -6.10880000
-4.48210000 -7.22350000 -2.59180000
-4.30810000 -7.19560000 -2.83350000
-10.09290000 2.68960000 -2.93810000
0.86130000 -5.71240000 -6.71590000
-7.33600000 -5.39920000 1.62850000
-7.34000000 -5.48930000 1.45490000
-5.71550000 4.49460000 9.35930000
-5.96820000 4.46540000 9.19130000
-1.94370000 -3.10030000 8.80480000
-8.47630000 -3.10590000 5.14110000
-0.42240000 6.72200000 12.09800000
-0.38730000 6.64320000 12.10390000
8.04680000 3.10940000 6.82330000
7.89910000 2.92300000 6.93580000
7.16950000 1.59800000 8.53530000
7.49970000 1.94600000 8.30270000
11.62850000 7.26370000 -3.00220000
-4.86660000 -0.98870100 8.44100000
-5.15800000 -1.05740000 8.24030000
-4.99420000 -0.73380100 8.44870000
-7.72360000 5.12330000 -7.76880000
-10.07490000 0.53390000 -0.01970000
4.25400000 7.69050000 11.22040000
-5.27170000 -0.63790100 8.31170000
7.58260000 2.39440000 7.10050000
10.30100000 4.36160000 4.99220000
10.23640000 3.90870000 4.96230000
10.37650000 4.74110000 4.91650000
4.11720000 4.26010000 -9.86760000
-7.16470000 7.31570000 -9.14790000
10.33000000 3.69880000 -2.01100000
10.25880000 3.76110000 -2.42740000
-9.44520000 4.03010000 5.25640000
7.94230000 1.79790000 -7.52830000
7.57470000 0.91720100 -7.68970000
2.43630000 2.31920000 11.01530000
10.05280000 4.53480000 5.55590000
9.82800000 4.99930000 6.04700000
9.85930000 4.72920000 5.97210000
10.02760000 4.92980000 5.72780000
11.46490000 5.34320000 -0.89589900
11.54170000 5.51790000 -0.38889900
-8.82620000 -0.03140100 4.66620000
4.89840000 1.39460000 9.01000000
10.40850000 3.69700000 -1.52020000
10.45070000 3.94960000 -1.63180000
10.54740000 4.25900000 -1.42940000
-8.53750000 0.47010100 -5.22380000
-3.18680000 -5.35330000 6.93900000
-3.30540000 -5.37310000 7.04900000
-9.06300000 4.78410000 -6.05840000
-8.54640000 0.98220100 -5.42220000
-3.64340000 6.14550000 -11.11530000
4.67460000 1.14820000 9.07450000
8.24430000 7.17290000 8.78250000
-3.70740000 -0.77029900 -8.85830000
-3.31390000 -1.11240000 -8.91150000
9.09530000 -0.70590000 2.87980000
-11.01060000 6.63300000 3.05070000
-11.12740000 6.94140000 3.04380000
5.22690000 -1.50030000 -8.79150000
-8.49070000 0.42469900 5.43820000
-8.66080000 0.55539900 5.22600000
4.22850000 -2.44060000 8.16160000
-3.31660000 -5.52400000 6.31890000
-1.07910000 0.09479800 9.95850000
-1.33040000 0.12259800 9.94640000
-5.74150000 -4.72500000 -5.00410000
-5.74120000 -4.60560000 -5.23170000
0.33310000 -4.49720000 -7.71870000
0.03480000 -4.56040000 -7.66200000
5.63950000 -5.72950000 -3.57030000
-1.60010000 -4.66690000 8.42790000
0.31100000 -5.73520000 -6.72840000
0.41030000 -5.75230000 -6.62200000
-2.84510000 -1.19280000 -9.04540000
-2.97490000 -0.99369900 -9.06290000
-2.95150000 -0.86109900 -9.10770000
-6.23500000 -6.01700000 -1.27230000
0.67890000 6.50980000 11.44740000
0.48870000 6.34730000 11.40060000
0.91740000 6.56900000 11.45330000
-7.28480000 -2.84870000 -6.66270000
-7.22580000 -3.17990000 -6.46440000
-6.35310000 -6.07860000 -0.64450100
-6.82330000 -2.53270000 -7.31690000
-6.45150000 -2.91340000 -7.40890000
-6.23680000 -3.07310000 -7.46140000
7.42310000 -1.24880000 -5.64030000
-1.65360000 6.89680000 12.09420000
-1.31260000 -6.22960000 -1.42100000
2.81000000 -0.52330200 9.39670000
0.08340000 6.67110000 -11.90390000
-0.05140000 6.89570000 -11.83920000
-6.84220000 3.55040000 8.30250000
-5.75410000 7.17740000 10.84180000
-5.94950000 7.30400000 10.65790000
-6.00170000 7.36560000 10.61160000
3.37770000 -0.76350100 9.13090000
-1.61730000 0.54880200 -9.78100000
-1.65850000 0.80450200 -9.82980000
-4.75160000 7.81200000 11.49790000
4.29090000 -1.90810000 -8.08260000
4.25220000 -0.98940200 9.78870000
-2.15630000 -3.92930000 9.12200000
-10.10700000 6.47550000 6.27080000
-10.12350000 6.51550000 6.40960000
0.25330000 2.69720000 -10.31440000
0.21650000 2.93860000 -10.36090000
-8.32090000 -1.88570000 -4.31380000
-8.23450000 -1.73100000 -4.58230000
-8.42610000 -1.61450000 -4.31910000
-8.17870000 -2.00820000 -4.47010000
1.26800000 1.57220000 -10.01100000
4.03110000 -5.15910000 -5.26890000
3.83860000 -5.26160000 -5.15390000
1.15650000 -1.68940000 -9.15150000
1.17620000 -1.92990000 -9.06520000
-0.71070000 -5.33970000 7.64090000
-8.09880000 -2.22430000 -4.43050000
11.10060000 6.19180000 1.50220000
5.96910000 -6.47590000 -1.40320000
1.81360000 -1.06680000 -9.24830000
1.89450000 -1.22210000 -9.18970000
2.03750000 -1.16080000 -9.18120000
11.02940000 6.50080000 2.52010000
1.84560000 0.14319800 9.83430000
-2.46810000 -6.23180000 3.99710000
-2.49200000 -6.23030000 4.29990000
-2.15790000 -6.21670000 4.59020000
-8.41470000 -0.41749900 -5.02060000
-8.34960000 -0.27369900 -5.19780000
-8.06300000 -1.89570000 -4.74550000
-1.70980000 -6.22410000 4.42190000
0.47870000 5.95270000 -11.00580000
1.05240000 5.87850000 -10.96100000
-2.42630000 -0.29239800 -9.40230000
-10.55480000 2.91770000 -4.12590000
-2.48300000 -5.47290000 5.63840000
-2.82910000 -5.42730000 5.63630000
-5.06040000 -4.59050000 7.17390000
-2.81480000 -5.52800000 -6.64950000
7.70690000 5.77770000 8.04650000
-5.15060000 4.11040000 -9.34400000
0.72400000 -0.76299800 -10.43370000
3.91200000 7.28170000 11.46720000
9.59090000 -2.96990000 0.68960000
9.77080000 -2.62200000 0.44220000
3.22930000 6.54400000 10.96120000
2.90400000 6.82550000 11.16290000
-9.38450000 7.31570000 -6.95110000
-9.54730000 7.32110000 -6.69280000
-6.31390000 -5.31750000 5.03730000
2.46930000 7.08050000 -11.17930000
2.23740000 6.98970000 -11.18770000
2.35250000 6.82800000 -11.09830000
2.22660000 6.33480000 -10.94460000
2.69770000 6.10880000 10.97320000
8.08800000 -3.27480000 -2.53040000
8.05610000 -3.21710000 -2.71300000
-9.14430000 2.07460000 5.02150000
-9.03120000 1.99610000 5.19510000
2.66580000 1.16960000 10.80580000
7.93870000 -3.55700000 -2.51350000
-7.85690000 1.82410000 8.06630000
-5.49590000 -5.85160000 3.55850000
-6.27440000 2.33750000 8.45090000
-6.03400000 2.37940000 8.63430000
10.31050000 3.55790000 1.98640000
-6.27670000 2.58300000 8.51660000
-6.38250000 2.19070000 8.32300000
-4.87850000 -6.18400000 -3.88510000
-4.84290000 -6.01510000 -3.92270000
-1.20320000 7.62190000 12.43790000
7.97360000 -2.32210000 4.33130000
-6.53850000 6.11870000 9.95020000
-5.19540000 -6.67120000 4.04680000
6.44320000 3.79360000 -9.32670000
6.75070000 3.31410000 -9.00610000
-6.61840000 1.91500000 8.05500000
3.15160000 6.79150000 -10.88540000
7.62290000 -2.39960000 4.89470000
-6.14850000 5.64040000 -9.82900000
-6.30250000 5.92550000 -9.83740000
-6.52670000 6.15290000 -9.81470000
-0.79770000 -7.60700000 5.45500000
9.36660000 6.29030000 -7.05570000
9.44460000 6.10490000 -7.02260000
-5.86650000 5.32080000 -9.91750000
5.55100000 -1.76710000 8.79620000
5.79840000 -1.80790000 8.61240000
-0.58720000 5.69930000 -11.52530000
5.55270000 -2.71500000 8.32170000
7.26110000 -4.51070000 2.38840000
7.45040000 -4.39960000 2.05270000
10.19350000 -0.71750000 2.42990000
10.36910000 5.86370000 5.35590000
-4.37720000 -6.45090000 -2.53810000
4.34030000 -6.25650000 -1.54530000
-11.55070000 5.94600000 -1.71920000
-7.50140000 -4.61970000 -2.39740000
7.97980000 -3.14310000 3.35890000
8.19670000 -2.99070000 2.97310000
-11.49360000 7.09680000 -3.98670000
6.04950000 -2.05770000 -8.00030000
-10.27970000 1.54550000 -0.08350000
-10.37790000 2.02290000 0.02440000
-10.42190000 2.35410000 -0.45170000
-10.39160000 2.13910000 -0.29230000
-10.33900000 1.85600000 -0.32420000
-3.17850000 -7.86160000 -4.33010000
-10.06770000 2.98640000 -5.30280000
-9.93190000 2.92680000 -5.47380000
4.88100000 4.51660000 -10.31110000
4.31690000 4.23840000 -10.47240000
4.21120000 3.95830000 -10.45500000
-7.92530000 4.53320000 -7.39670000
-7.85320000 4.21780000 -7.37990000
-3.48110000 4.60810000 10.42230000
4.70050000 4.53240000 -10.38610000
-6.26080000 -3.07000000 6.53370000
8.18980000 1.86030000 -6.00400000
8.23160000 1.53830000 -5.80380000
-2.52090000 -6.39330000 -5.60890000
-3.07160000 -6.39170000 -5.35950000
-3.26590000 -6.36200000 -5.24820000
-10.50110000 6.70760000 5.88640000
11.91960000 7.23460000 -1.51140000
-8.51120000 6.15580000 8.26030000
0.05150000 2.23080000 10.42080000
-6.33620000 -3.01780000 7.70950000
-9.19110000 -0.98860000 -3.03030000
0.33230000 7.69000000 12.03830000
-6.30700000 -5.56940000 -3.57130000
5.46100000 -1.22760000 -7.60380000
-4.79600000 -3.69680000 7.27250000
11.36910000 5.80380000 -1.72630000
-2.77330000 2.99960000 -10.75120000
-2.98860000 3.14510000 -10.73240000
-0.56170000 1.17510000 -10.01510000
2.72240000 -6.41320000 -5.38590000
2.94380000 -6.19620000 -5.25020000
6.70900000 -3.66060000 5.18910000
6.55610000 -3.64680000 5.40600000
7.65360000 7.62350000 9.07790000
7.15310000 7.39730000 9.25100000
-10.41280000 5.75100000 -5.50020000
-11.10170000 6.38720000 4.36960000
-5.01890000 -6.26820000 1.04320000
-4.98850000 -6.24370000 0.77459900
-4.76680000 -6.23680000 1.04600000
-4.61730000 -6.22310000 1.11320000
-1.78640000 5.52890000 11.57780000
-2.14980000 5.33960000 11.48480000
-2.16910000 5.20710000 11.46740000
-5.56970000 -5.26150000 -3.94430000
-6.02190000 -5.12480000 -3.75950000
-10.45620000 3.93400000 2.60330000
-10.57800000 7.28530000 -4.88790000
-10.42680000 4.08100000 2.82890000
10.42800000 5.11300000 3.22740000
9.09390000 6.31760000 7.52420000
6.84300000 3.34030000 8.12290000
6.60980000 3.42580000 8.34620000
-5.60040000 -5.31370000 -3.69650000
-5.81520000 -5.23440000 -3.75930000
10.82160000 5.16090000 1.13710000
7.40660000 7.58720000 9.27410000
-8.06460000 -2.75280000 -5.80870000
-8.89780000 7.07390000 -8.23130000
1.91480000 -4.64720000 7.64340000
11.55020000 7.27860000 -0.90849900
-10.95880000 6.82820000 -4.96840000
-11.09460000 7.22300000 -4.86360000
4.53090000 1.40900000 -9.90620000
-9.54680000 -0.39399900 -4.92430000
-6.30630000 -5.65390000 3.27550000
1.07130000 0.56899800 10.03700000
1.35180000 0.67609800 10.02400000
4.80620000 6.91530000 10.97990000
4.86050000 7.08230000 11.06420000
4.74770000 7.05360000 11.07040000
-9.17820000 7.54900000 7.46460000
-4.78980000 6.94740000 -10.37360000
-4.72990000 6.62320000 -10.25450000
-4.90590000 6.28560000 -10.05490000
-3.61900000 -4.20720000 7.54070000
10.51670000 6.04610000 -5.21160000
-6.95840000 -3.56420000 -6.41140000
-11.51370000 6.95740000 3.86660000
10.23430000 -0.97320000 -1.65120000
3.31390000 -7.71240000 5.62420000
2.31390000 3.15530000 -10.15610000
2.57000000 2.94900000 -10.05830000
-1.79720000 -6.27810000 -4.20480000
-1.69230000 -6.26170000 -3.70920000
-1.98600000 -6.25450000 -3.72000000
-1.89410000 -6.24310000 -3.38360000
5.22880000 2.00860000 -8.77320000
4.75340000 1.96000000 -9.04370000
-11.98410000 7.41000000 -2.78660000
-11.94790000 7.37340000 -2.60980000
4.34750000 2.26990000 -9.31400000
-5.69960000 -3.55920000 6.68320000
-6.97850000 -4.22490000 4.40760000
7.79720000 -4.10230000 -4.20850000
-6.17690000 7.67710000 -10.20480000
1.22650000 7.56770000 12.35400000
0.72230000 7.69200000 12.45950000
7.99440000 0.69530100 -5.77280000
7.39210000 -0.20630100 6.32650000
7.31620000 -0.14120100 6.44950000
1.09080000 -5.79020000 3.31810000
0.02740000 -5.79210000 3.39230000
11.35580000 5.84180000 -2.19080000
5.72200000 -1.79390000 -7.15300000
1.37940000 -5.65830000 -6.76640000
1.48560000 -5.69460000 -4.36760000
8.23680000 -4.70180000 -0.57450100
-4.25980000 -6.24180000 -1.20480000
-3.93390000 -6.22710000 -1.10000000
-4.13270000 -6.22300000 -0.60120100
-3.97570000 -6.21020000 -0.51240100
5.71460000 -7.86700000 -2.39130000
-8.72070000 -3.53600000 0.70789900
-1.78490000 -6.22860000 -0.49250100
-1.63530000 -6.17650000 -0.62520100
2.86150000 2.90630000 -10.67880000
3.45510000 2.80870000 -10.51410000
3.67530000 2.72480000 -10.42980000
8.55530000 1.86470000 -6.85160000
8.84350000 2.34440000 -6.62790000
2.38040000 -5.02950000 6.89860000
2.27810000 -4.90330000 7.18140000
-6.40760000 -5.34080000 -1.88030000
-6.58610000 -5.30120000 -1.57840000
2.44680000 -4.74550000 7.36520000
11.22130000 7.12370000 -4.15490000
6.43980000 -5.40060000 3.86880000
6.14860000 -5.55830000 3.73110000
-7.24740000 -0.61510100 6.65830000
-7.25860000 -0.91280100 6.52250000
-7.37640000 -0.49860100 6.56380000
8.51130000 -1.64050000 3.67690000
8.39970000 -1.79430000 3.80390000
8.51120000 -1.81000000 3.52030000
-10.61260000 7.68670000 5.41810000
-10.19000000 7.45100000 5.90270000
9.57530000 7.04450000 6.42690000
9.69490000 7.43920000 6.60570000
10.90450000 3.86380000 2.96800000
-8.18790000 7.65200000 9.37330000
-8.19630000 7.75810000 9.33550000
1.61310000 2.65380000 11.21380000
11.20210000 4.79890000 2.00580000
11.21350000 4.64840000 1.93450000
8.97490000 -2.41040000 -4.03280000
-2.72230000 0.89919800 9.87390000
-1.63980000 7.45510000 -12.02300000
3.03790000 -6.72340000 4.32340000
2.78870000 -6.54680000 4.47150000
2.46850000 -6.90590000 4.71970000
-8.01320000 7.77480000 9.52190000
-4.43070000 7.52580000 11.54960000
-4.24020000 7.47970000 11.54420000
-4.50610000 7.48660000 11.43720000
-0.14220000 3.18920000 10.63790000
-0.27140000 2.99830000 10.58910000
-0.50560000 3.43900000 10.68920000
7.87670000 -3.25940000 3.44850000
9.51010000 -0.08250000 -1.79510000
9.54690000 -0.10130000 -1.54840000
9.44080000 -0.17130000 -1.98760000
3.23650000 -3.87300000 7.88030000
-4.19180000 -5.20720000 6.94310000
8.57460000 5.27680000 7.83110000
6.87030000 7.20800000 -9.83470000
9.63440000 0.17870000 -1.45850000
-9.50060000 -1.27280000 -1.39700000
9.49570000 -0.40780000 -1.30630000
-9.58630000 -1.19380000 -0.79310000
-9.58650000 -1.04820000 -1.23430000
-9.68770000 -0.75750000 -1.07660000
11.23770000 6.99210000 -4.26980000
4.37530000 4.87660000 10.73430000
8.46620000 4.88610000 7.85130000
-5.13280000 5.59000000 -9.72270000
-2.74960000 -5.11760000 7.90790000
8.58200000 4.70490000 7.73100000
-1.21700000 -6.15730000 -1.50920000
10.64920000 6.55000000 5.28890000
-10.97970000 7.74280000 -5.55300000
-10.62210000 7.71070000 -6.25320000
8.39070000 4.74850000 7.93540000
11.09710000 2.88890000 -0.52810000
11.06720000 2.68450000 -0.34580000
10.77620000 5.74120000 -3.83780000
2.77960000 6.32220000 11.53810000
-8.41570000 5.94910000 8.07740000
11.02160000 5.76210000 -3.10860000
5.70480000 -5.95850000 -2.12970000
-9.90440000 4.55140000 -4.47890000
9.75850000 3.11710000 5.68830000
10.13030000 3.89450000 5.21240000
11.21420000 6.73900000 4.21570000
1.13330000 -5.29750000 -7.37600000
1.27810000 -2.14170000 -8.97050000
1.15950000 -2.33970000 -8.91010000
6.59820000 -5.10900000 4.56580000
-11.86660000 6.74360000 2.14970000
5.75870000 -5.87700000 -2.19950000
-5.66630000 -7.84930000 -0.44620100
-5.91040000 -7.87200000 -1.02390000
-5.94700000 -7.87180000 -0.39860100
-5.40960000 -7.77040000 -0.40280100
-9.77430000 -3.22220000 -0.56290100
-7.25660000 3.26010000 -7.71200000
8.06300000 6.63340000 -8.65800000
8.06550000 6.49170000 -8.73680000
-3.97100000 -7.80240000 -4.91060000
-4.20470000 -7.59830000 -4.74210000
-7.14500000 -3.11690000 5.53170000
-7.41670000 -3.29680000 4.97740000
-7.41050000 -3.05490000 5.22070000
-4.58980000 -7.66470000 -4.37110000
1.67330000 -7.47570000 -4.76770000
-7.33270000 2.56240000 -7.45880000
-7.50550000 2.69590000 -7.31520000
-2.85580000 -3.56400000 -8.07080000
-9.98230000 1.29120000 2.28160000
-10.03900000 1.45210000 2.18560000
-2.94670000 6.62170000 11.69780000
11.28310000 4.38240000 -0.72229900
11.31370000 4.43670000 -0.01009900
-0.75630000 1.50390000 10.25690000
5.16090000 -7.54620000 0.62909900
5.13970000 -7.68700000 1.00200000
6.66790000 -4.34170000 -3.91160000
6.33980000 -4.57210000 -3.95860000
9.72590000 0.59890000 1.51320000
-4.17750000 -6.06900000 5.01610000
-4.43910000 -6.02660000 4.77330000
-1.18530000 -5.82930000 -1.54700000
-9.43140000 -1.65220000 -1.01070000
7.31030000 -5.33540000 1.28530000
7.48870000 -5.23970000 1.37300000
-5.46690000 -5.43630000 3.24700000
-7.89340000 0.77470100 -6.25270000
-7.44230000 4.94450000 8.96520000
-5.11500000 -5.49070000 3.32080000
-9.52670000 -1.29180000 -1.13340000
-9.49900000 -1.43270000 -1.00100000
-8.85820000 -3.19850000 -0.97930100
-5.61970000 -5.37030000 3.49270000
4.65680000 -5.38960000 -5.46170000
3.49460000 -6.03800000 -4.88550000
-1.18800000 -5.45340000 -7.21650000
-1.13320000 -5.33220000 -7.46010000
-1.10590000 -5.49990000 -7.07180000
-6.93530000 -5.23270000 4.33210000
-7.08410000 -5.08400000 4.41700000
4.47700000 -3.49490000 7.43140000
3.48140000 -6.78460000 -3.60710000
3.33330000 -6.86850000 -3.76010000
-6.17310000 -7.77970000 2.32400000
-6.11950000 -7.83600000 2.34320000
-6.28600000 -0.50240100 7.62060000
-6.47230000 -0.48820100 7.46140000
7.08010000 -4.13490000 -5.25400000
7.30900000 -3.73630000 -5.41550000
-8.48940000 -1.46320000 4.51320000
-4.65910000 -6.24500000 0.92629900
7.53130000 0.86319900 6.60600000
-1.19650000 2.73340000 -10.98920000
-0.92870000 2.95780000 -11.02210000
7.93900000 3.62620000 7.12070000
-11.62890000 5.91880000 1.13170000
0.59420000 6.10910000 11.31940000
2.53190000 -6.21190000 4.48650000
2.21370000 -6.19210000 4.59820000
-4.57420000 1.14840000 9.23780000
-4.55050000 0.90979900 9.19380000
-10.53810000 7.59710000 6.57510000
8.92820000 2.55120000 5.26580000
8.73610000 2.33580000 5.50260000
-4.56500000 -5.02900000 5.77550000
2.93930000 7.50480000 12.04700000
3.10110000 7.60100000 12.05100000
9.58360000 1.34410000 5.49210000
5.29350000 -4.84500000 -4.80580000
5.24800000 -4.91470000 -4.68100000
4.66530000 4.18050000 -10.33850000
-0.28720000 -1.68010000 -9.26260000
-0.49750000 -1.37470000 -9.34440000
4.37490000 -2.63730000 7.99160000
-1.86050000 -6.09930000 6.24640000
6.07120000 -6.37130000 1.29270000
6.11850000 -6.58170000 1.12520000
6.09320000 -6.24410000 0.97239900
3.41690000 -2.79330000 8.38090000
3.66460000 -3.18800000 8.09000000
-6.59190000 1.50750000 9.10370000
6.05910000 -6.22800000 1.07920000
6.09400000 -6.02510000 0.91679900
-11.32250000 3.61330000 1.34320000
-11.32940000 3.29540000 0.92630100
-11.22560000 3.41220000 1.88630000
-4.37060000 -5.48950000 -4.33840000
-0.38270000 -0.18119800 -9.69680000
-7.02570000 2.49140000 -8.71880000
-7.28920000 2.28770000 -8.45250000
-6.87260000 1.88250000 -8.70860000
-6.75860000 2.32040000 -8.88940000
-6.52710000 1.63660000 -8.92070000
11.19600000 7.69160000 4.34300000
11.06700000 7.66310000 4.60420000
-3.33080000 -5.31040000 -7.03270000
8.99770000 6.56860000 -7.76730000
8.99710000 6.69760000 -7.76310000
-2.11910000 -5.78600000 1.59900000
10.97020000 6.98130000 -4.81670000
9.09000000 6.66820000 -7.62010000
6.21610000 -3.39780000 -5.72150000
-8.98320000 -4.06580000 1.93290000
9.06910000 6.51270000 -7.70920000
-9.31550000 -2.10260000 -0.70980000
-9.34150000 -1.94080000 -0.98780000
0.09680000 3.43130000 -10.46360000
7.33230000 -4.63370000 -1.45730000
9.10170000 -3.18500000 -2.64310000
4.26060000 1.53260000 -9.16970000
4.50320000 1.46780000 -9.03770000
-9.37570000 -1.91050000 -0.76060000
-3.37910000 -6.22710000 -0.71320100
-3.45330000 -6.23520000 -0.07770100
-3.87690000 -6.21040000 -0.01480100
-2.62810000 -6.24830000 -0.07420100
3.66290000 1.07000000 -9.30540000
1.39440000 -5.52810000 6.87020000
1.45920000 -5.62180000 6.78290000
-9.27810000 -2.27600000 -0.46410000
-7.73090000 7.55710000 -9.58990000
-7.37600000 7.51460000 -9.85110000
-7.57410000 7.45670000 -9.64570000
-7.47150000 5.70650000 8.35330000
-7.27180000 5.72900000 8.53710000
7.23370000 2.13140000 -7.22480000
0.64720000 -4.77250000 8.44750000
10.69240000 7.28360000 5.75350000
10.59880000 7.26330000 5.81480000
7.52410000 2.23630000 -6.95500000
-6.91810000 -4.84330000 3.15760000
-6.38530000 -5.93940000 0.79999900
-6.39200000 -5.95080000 0.40889900
-6.33580000 -6.04710000 1.09880000
-7.00930000 5.86700000 8.80190000
-7.15670000 5.53100000 8.57250000
-0.29880000 -5.53690000 -5.79660000
-0.55070000 -5.51390000 -5.88180000
-4.98010000 -1.84250000 -7.89890000
-5.00960000 -1.52880000 -7.99230000
-7.02630000 5.62670000 8.71370000
6.81920000 6.03970000 9.50710000
-5.48820000 7.71190000 -10.61040000
7.88000000 5.95830000 8.57200000
-5.29100000 -1.86460000 7.84560000
-4.93590000 -2.11710000 7.97250000
11.74730000 6.19940000 -1.34260000
-5.72580000 -2.63610000 7.20050000
-5.42150000 -2.62940000 7.43040000
-5.50990000 -2.33720000 7.49460000
5.77890000 -4.75150000 4.82710000
8.98190000 5.43540000 -6.27340000
9.08600000 5.28390000 -6.04890000
5.94670000 -6.79950000 2.03690000
9.89730000 7.71580000 6.95730000
9.20570000 5.58630000 -6.00600000
9.33350000 5.27600000 -5.64490000
-1.18360000 -1.62700000 9.46990000
-0.89820000 -1.70400000 9.46960000
0.34910000 -7.76120000 -6.18690000
6.60350000 4.82240000 -9.35960000
4.54730000 -6.46340000 -3.99500000
7.81490000 -0.71709900 -5.38310000
7.89040000 -0.83159900 -5.21690000
6.29590000 -4.35190000 4.85870000
8.87520000 -3.74020000 2.45600000
8.79520000 -3.85940000 2.35030000
8.94920000 -3.73780000 2.07280000
-0.38700000 -5.44650000 -7.46030000
7.71430000 -4.53800000 -3.55000000
8.46460000 7.70100000 8.95010000
-5.37030000 -5.41990000 5.17380000
12.23390000 7.32490000 -0.25639900
12.23160000 7.33060000 0.06660100
12.28960000 7.45170000 -0.02169900
-9.72300000 -0.49250000 -1.38730000
-9.73010000 -0.31870000 -1.63020000
-9.40060000 2.58960000 -6.23660000
-9.30100000 2.77140000 -6.42810000
-9.21520000 2.43160000 -6.44320000
-8.88780000 2.79980000 -6.96190000
0.16520000 -7.07080000 5.40690000
-4.76110000 -7.66500000 2.74450000
-5.18800000 -6.38700000 0.33699900
-5.21850000 -6.62510000 0.30629900
-5.17390000 -6.35690000 0.00329900
-5.18650000 -6.53160000 0.76979900
-9.43150000 3.04630000 -6.33620000
-3.14030000 -4.63940000 -7.90070000
-3.41470000 4.71420000 -10.19660000
-5.19300000 -6.52940000 -0.18790100
-5.12900000 -6.59730000 -0.77130100
-4.59850000 -5.61810000 -5.26540000
1.78800000 0.86099800 10.96120000
-3.24330000 -4.70010000 7.18690000
-3.32530000 -4.84650000 6.91740000
1.20790000 3.02280000 -10.31290000
-8.89210000 -2.59450000 -2.17420000
-8.82400000 -2.62730000 -2.38890000
-3.54300000 -4.70030000 7.07610000
2.31620000 -6.21900000 0.09739900
-10.10650000 1.68590000 -1.99750000
-9.52900000 1.35300000 -3.70120000
-8.66760000 7.44690000 8.62860000
-8.60170000 7.24670000 8.55880000
11.04730000 2.88460000 -1.24090000
11.16390000 3.34710000 -0.23689900
11.10340000 3.02550000 -0.69550000
-5.13500000 -5.23070000 6.26420000
