-4.84966000 -2.82089000 -7.52983000
-4.76709000 0.56829400 -8.00996000
-4.85929000 0.46729000 -8.05701000
-5.02491000 -1.76440000 -8.03561000
-5.04478000 -1.82055000 -8.00094000
-4.87876000 -1.70032000 -8.12265000
8.02705000 -2.11925000 3.49612000
8.10782000 -1.95189000 3.54317000
8.00940000 -2.23174000 3.37218000
7.95724000 -2.35601000 3.29421000
-7.18639000 -2.11945000 5.43258000
-7.16558000 -1.94019000 5.56974000
0.62158600 -7.93475000 -0.98662900
0.83935800 -7.94269000 -1.00888000
-3.43657000 -6.95593000 1.47029000
1.44345000 -6.89209000 3.41161000
1.61237000 -6.57909000 -4.19154000
1.66873000 -6.79707000 -3.96270000
1.54449000 -6.77234000 -4.02699000
1.28750000 -6.89177000 -3.99110000
1.43056000 -6.63164000 -4.19538000
1.33120000 -6.94629000 -3.92899000
-1.21884000 -7.42291000 -3.51383000
-1.19267000 -7.44592000 -3.47149000
-1.06796000 -7.45469000 -3.51292000
-1.05804000 -7.48587000 -3.47307000
-7.06108000 -3.47991000 3.04116000
-7.00128000 -3.55434000 2.96628000
3.65019000 -1.85231000 -8.40320000
3.78023000 -1.86765000 -8.33832000
-6.31533000 0.77154000 -7.23281000
-1.64926000 -7.57206000 3.03690000
-9.17403000 -2.35858000 -1.05236000
-9.14800000 -2.39722000 -1.19848000
-9.08592000 -2.52551000 -1.18448000
-9.11805000 -2.47712000 -1.03667000
-0.87297900 -5.59330000 4.97599000
-0.61471200 -5.63807000 4.97903000
-0.95490300 -5.45305000 5.08378000
-1.22597000 -5.38692000 5.09967000
-2.86269000 -4.32301000 -5.74601000
-2.90647000 -4.37074000 -5.67357000
-2.87283000 -4.42035000 -5.60495000
-2.15701000 -3.55460000 -7.42490000
-2.13186000 -3.51429000 -7.46822000
-2.03465000 -3.50892000 -7.48773000
-2.49834000 -3.58098000 -7.34299000
-2.34539000 -3.56429000 -7.38020000
-7.85591000 -0.34340900 4.93441000
-7.72441000 -0.34039400 5.11911000
1.67986000 -0.02614610 9.00105000
-6.47770000 -2.78244000 -5.59743000
-6.50044000 -2.87168000 -5.38278000
8.41407000 -2.26020000 -2.07202000
8.35698000 -2.25616000 -2.28225000
3.29410000 0.03357710 8.65500000
3.17520000 0.02608620 8.67097000
9.78762000 -0.61007700 0.23982300
9.76820000 -0.66712000 0.05923020
-8.96317000 0.43930300 -2.92623000
-8.97801000 0.33742600 -3.13176000
-8.93209000 0.30823000 -3.33467000
-8.85605000 0.41213400 -3.33144000
-3.90391000 -6.57358000 1.34556000
-3.77350000 -6.70572000 1.33643000
-3.63172000 -6.91632000 1.15157000
-3.85248000 -6.66085000 1.25642000
-0.31048000 -2.15426000 -9.03220000
-0.21443800 -2.15125000 -9.02681000
-0.21718000 -2.19760000 -9.00503000
-0.11799500 -2.16088000 -9.04158000
-5.01268000 0.63958800 8.21462000
-5.02003000 0.59491600 8.23383000
-1.76629000 -7.83820000 -0.17286200
-1.63612000 -7.84002000 -0.22172900
-5.48941000 -5.60774000 0.56202600
-5.34744000 -5.75130000 0.63148300
-5.47072000 -5.60375000 0.78064500
-2.14026000 -5.48700000 4.77083000
-2.24366000 -5.52311000 4.70002000
-2.33826000 -5.53841000 4.64309000
1.86502000 -5.93842000 4.15235000
2.08589000 -5.68377000 4.30545000
2.14713000 -5.50322000 4.44773000
-9.11585000 -0.13105200 2.45354000
-9.07436000 -0.19512500 2.56442000
-0.52981900 -7.73410000 2.58212000
-0.55712700 -7.70717000 2.69715000
-0.48563400 -7.73468000 2.61962000
-0.40251000 -7.75903000 2.58506000
-2.92750000 -6.79475000 2.41595000
-2.87999000 -6.88901000 2.33887000
-2.68797000 -3.57701000 6.13159000
-2.81163000 -3.50516000 6.17824000
-2.56475000 -3.37396000 6.42978000
7.58543000 -2.17714000 -4.18480000
7.72543000 -1.87713000 -4.25261000
7.77209000 -1.94304000 -4.10635000
-9.95822000 -0.00095343 -1.26880000
-9.94360000 0.10335400 -1.26411000
-9.95396000 0.05168440 -1.26734000
-9.97172000 0.05865320 -1.04128000
-9.25163000 0.04269370 -2.75561000
-9.27929000 0.00150692 -2.69231000
-9.20046000 0.00522272 -2.96374000
-9.17039000 0.04662010 -3.02541000
8.53479000 -0.74731100 4.62715000
8.36244000 -1.13082000 4.63405000
8.44296000 -0.86018000 4.70069000
1.07502000 0.45123500 -9.65795000
1.22197000 0.44824300 -9.63776000
-6.15596000 -2.02855000 6.04866000
-6.20945000 -1.89144000 6.07211000
-4.77982000 -6.20031000 1.30689000
-4.58708000 -6.31951000 1.50399000
-4.54910000 -6.38705000 1.42709000
3.82687000 -4.11662000 5.10781000
8.62976000 -2.65087000 1.62208000
8.46390000 -2.79117000 1.56834000
8.41834000 -2.79838000 1.86480000
2.74541000 -7.52647000 1.59040000
2.80209000 -7.47730000 1.60698000
7.27806000 -2.48565000 4.41719000
7.19357000 -2.51037000 4.47690000
7.22805000 -2.48133000 4.50028000
7.25766000 -2.44882000 4.52184000
7.37601000 -2.36732000 4.37549000
7.30344000 -2.44705000 4.43431000
2.65935000 -3.69399000 -6.97766000
2.88111000 -3.71509000 -6.83851000
2.89340000 -3.67835000 -6.86835000
2.97151000 -3.67355000 -6.82985000
-1.80361000 1.10213000 8.77226000
-1.42471000 1.10616000 8.83722000
3.11911000 -7.38608000 1.86887000
3.16396000 -7.35708000 1.89278000
3.17058000 -7.31857000 1.80406000
3.16204000 -7.33283000 1.84693000
3.11496000 -7.36152000 1.82341000
-8.73097000 -2.31589000 0.58531100
-8.76827000 -2.11913000 1.15543000
9.41823000 0.76683600 0.26258200
9.42536000 0.75074700 -0.17043800
9.39173000 0.75068800 0.15913800
-9.92937000 0.21145100 -0.91170000
-9.94110000 0.22613200 -0.44667400
-9.91178000 0.26325500 -0.71026800
-9.93795000 0.21786600 -0.71480500
9.54492000 -0.29848400 0.11857100
9.57118000 -0.19987700 0.20701400
2.90778000 -4.36588000 5.77611000
3.28695000 -4.29265000 5.71942000
3.36394000 -4.17786000 5.81827000
1.58246000 -4.66757000 5.79384000
-5.00282000 -5.87932000 -1.47794000
-4.91957000 -5.94496000 -1.50377000
-4.97874000 -5.91253000 -1.42517000
-1.83918000 -7.76078000 2.18954000
-1.89890000 -7.78639000 2.10401000
-1.85030000 -7.80567000 2.09821000
9.26927000 0.48189500 3.22133000
9.34324000 0.42844200 3.13825000
9.31461000 0.53455500 3.02591000
8.21191000 -2.51340000 -2.01320000
7.09705000 0.14326400 -6.85052000
6.36421000 0.00016399 -7.00712000
0.26010800 -2.86630000 7.63462000
0.03991270 -2.90951000 7.58004000
-4.28159000 0.64074200 -8.68962000
-3.88886000 0.67159400 -8.84927000
-4.22846000 0.57321000 -8.77491000
-4.40793000 0.55864100 -8.69926000
-4.42435000 0.48763600 -8.74714000
2.90307000 -2.21280000 7.93616000
2.59384000 -2.22039000 8.04121000
-4.98690000 -3.64468000 5.20893000
-4.97185000 -3.68010000 5.18095000
-4.89325000 -3.66995000 5.24168000
-5.13374000 -3.63789000 5.16293000
-5.10531000 -3.66671000 5.12802000
-3.31708000 -4.35789000 -6.02426000
-3.50066000 -4.41775000 -5.85177000
-3.48981000 -4.55438000 -5.67464000
1.11641000 -6.32640000 3.98593000
1.26397000 -6.25976000 4.01774000
0.84857600 -6.38972000 3.97021000
1.01497000 -6.44485000 3.90307000
3.88528000 0.11331300 8.90566000
3.97746000 -0.06618010 8.82158000
7.03376000 0.97906900 6.06859000
6.85506000 0.97198100 6.22019000
6.86669000 0.99215800 6.23517000
-8.26496000 0.19287300 5.22145000
-8.37862000 0.19302600 5.05050000
-8.27691000 0.24617800 5.21849000
5.06400000 -5.73632000 -1.37789000
4.73810000 -5.98529000 -1.58331000
0.13566400 -7.58314000 3.42345000
0.15798600 -7.69367000 3.32460000
6.25910000 -3.75996000 2.81494000
6.15108000 -3.81074000 2.84899000
6.26015000 -3.70569000 2.90428000
5.09387000 0.79799200 -7.83344000
5.27525000 0.79686400 -7.72549000
5.43317000 0.79245600 -7.62742000
6.10770000 -2.40522000 5.94191000
6.26299000 -2.41748000 5.78017000
-1.02352000 -7.62001000 -3.40288000
3.58313000 -6.84706000 2.25621000
3.67125000 -6.77770000 2.25258000
3.78978000 -6.62944000 2.32780000
-1.82681000 -7.94530000 -2.06820000
-1.94642000 -7.91967000 -2.06024000
6.52934000 -0.41714600 6.70246000
6.69636000 -0.39398900 6.56021000
6.43904000 -0.26921700 6.83861000
6.56406000 -0.27318000 6.72913000
-6.15257000 0.81270500 -7.21582000
-6.10337000 0.81557700 -7.28985000
-6.09170000 0.80386600 -7.22846000
1.97429000 0.35354700 -9.55133000
1.97456000 0.30604900 -9.56907000
1.97312000 0.25616100 -9.57797000
9.38769000 -0.32408100 1.61411000
9.34838000 -0.32023900 1.82712000
-4.48329000 -1.31005000 7.96482000
-4.61229000 -1.39409000 7.87150000
-4.52274000 -1.38920000 7.91826000
-4.71960000 -1.35414000 7.84472000
-4.78966000 -1.40089000 7.76878000
-4.68570000 -1.44018000 7.80031000
5.01158000 -0.55269400 -7.80006000
4.86771000 -0.84025100 -7.77890000
7.85446000 0.18618200 5.46285000
7.82471000 0.14871100 5.50565000
2.44623000 -7.95107000 -1.60027000
2.42858000 -7.92631000 -1.68013000
2.40020000 -7.94936000 -1.66656000
-3.57497000 -5.96510000 -3.67626000
-3.55398000 -5.91583000 -3.78865000
8.12475000 -2.90519000 2.49563000
-2.65273000 -7.58311000 -2.49821000
-2.35504000 -7.77569000 -2.53372000
-2.46708000 -7.73761000 -2.47367000
-1.93357000 -7.92365000 -1.63031000
-2.00140000 -7.91617000 -1.53010000
-2.33312000 -7.91505000 -1.24536000
-7.34383000 -2.65015000 -4.74190000
-7.30862000 -2.73717000 -4.60030000
2.86070000 -0.83255900 8.98158000
3.00563000 -0.91467700 8.90815000
3.99040000 -6.51895000 -2.19218000
4.07088000 -6.37761000 -2.32426000
4.08865000 -6.47832000 -2.06939000
4.00710000 -6.29555000 -2.59986000
4.01477000 -6.40223000 -2.38681000
3.95165000 -6.44005000 -2.43311000
0.83497700 -7.98269000 -2.58693000
0.82658100 -7.97032000 -2.62663000
3.37749000 -7.74652000 0.71763700
3.44717000 -7.70794000 0.56940900
3.54755000 -7.53087000 0.84211900
-1.75470000 -8.13033000 -0.13090300
-1.75244000 -8.13116000 -0.21784800
-1.73421000 -8.12426000 0.04550010
-3.12425000 0.66837000 8.62200000
-2.87933000 -4.15638000 -5.96626000
-2.89389000 -4.12359000 -6.00057000
-2.88261000 -4.03968000 -6.08432000
-2.86669000 -4.08517000 -6.05408000
4.22861000 -2.32747000 -7.48053000
4.36235000 -2.21129000 -7.46798000
4.16399000 -2.23433000 -7.56665000
4.34821000 -2.09230000 -7.53839000
-5.99141000 -4.27028000 -3.68969000
-5.95884000 -4.27581000 -3.75473000
-3.74383000 -6.92385000 -1.98229000
-3.52963000 -7.13715000 -1.97250000
-0.41502500 -8.11288000 1.79971000
-0.47412600 -8.13896000 1.89057000
-0.46140300 -8.12285000 1.79916000
0.33356400 -4.48259000 -6.52673000
9.05478000 0.77842000 2.47166000
9.05781000 0.72895300 2.35733000
7.69341000 -0.54365200 5.37078000
-5.81612000 -3.72464000 3.56498000
-6.02984000 -3.46108000 3.77317000
-5.86061000 -3.55615000 3.81369000
-5.84348000 -3.52809000 3.90539000
-9.27297000 -2.16136000 -0.64374200
0.26608800 -6.87973000 4.06296000
0.34824700 -6.83164000 4.10044000
0.27476300 -6.62314000 4.27084000
-8.19076000 -2.58846000 3.39116000
-8.29021000 -2.52865000 3.26155000
2.89666000 -5.28495000 4.82549000
2.96912000 -5.27637000 4.81247000
3.01594000 -5.10851000 4.96575000
-4.34417000 -6.31425000 -1.80118000
-4.31752000 -6.31050000 -1.84248000
-4.30008000 -6.36043000 -1.83631000
-4.35573000 -6.28197000 -1.85702000
-4.34417000 -6.31425000 -1.80118000
-4.37435000 -6.27800000 -1.81198000
3.52927000 0.07356690 8.63969000
3.62491000 0.02557540 8.58252000
3.53147000 0.02306360 8.65054000
3.52927000 0.07356690 8.63969000
3.53147000 0.02306360 8.65054000
3.41630000 0.02741790 8.66147000
-2.34646000 -8.23208000 -1.72874000
-2.29391000 -8.23194000 -1.79651000
-2.27292000 -8.23996000 -1.75020000
-2.34120000 -8.21483000 -1.80369000
3.21281000 0.78269500 8.96117000
3.31947000 0.79477200 8.94748000
3.30528000 0.82330500 8.90744000
3.43027000 0.81644600 8.94263000
3.44071000 0.78031400 8.97602000
0.09868570 -3.09003000 7.90565000
0.06696270 -3.18689000 7.76823000
0.17198900 -3.19887000 7.74699000
0.81046300 -7.04473000 3.80549000
0.91487700 -7.08974000 3.74526000
0.93329600 -7.05887000 3.78631000
-7.39708000 0.92235200 5.27141000
-7.27648000 0.89099800 5.43908000
-7.40357000 0.90287600 5.24018000
-7.27320000 0.86832100 5.43058000
-7.13937000 0.82905000 5.61722000
-4.65762000 -0.03856720 -8.36253000
-4.66192000 0.00924391 -8.37325000
-4.74795000 0.14267600 -8.30963000
-4.65388000 0.10100100 -8.36538000
-6.85465000 -0.36116200 6.66501000
-6.96654000 -0.25505800 6.60169000
9.20104000 -0.22262100 -3.55321000
-3.94843000 -5.09014000 4.12174000
-4.28355000 -4.91824000 4.08668000
-4.17328000 -4.97203000 4.10710000
2.98566000 -1.80210000 -8.69598000
3.17868000 -1.89862000 -8.57778000
3.23286000 -2.18569000 -8.42133000
-3.25940000 -5.51347000 -4.56085000
-3.21422000 -5.47844000 -4.63495000
-2.87351000 -5.68890000 -4.57695000
1.90619000 -0.07299810 8.95812000
2.12694000 -0.16675400 8.90463000
-9.54959000 0.13133900 2.59148000
-2.58338000 1.12215000 8.62899000
9.26916000 0.69705300 -1.18006000
9.31210000 0.71701200 -1.03270000
3.58392000 -5.70953000 3.95536000
-5.76363000 -2.41124000 -7.24815000
-6.09632000 -4.45823000 -2.94761000
-6.10874000 -4.42836000 -3.02376000
-6.06294000 -4.45284000 -3.00868000
0.99443800 0.05502990 -9.37221000
0.97717100 -0.05338410 -9.35356000
-1.60987000 -2.20890000 8.68864000
-1.48534000 -2.21537000 8.70803000
9.18879000 0.71755400 1.78958000
9.19881000 0.69495400 1.64207000
9.25450000 0.69548200 1.20543000
-4.71957000 0.18349500 -8.70756000
-4.61792000 0.19213100 -8.75460000
-4.62211000 0.14203500 -8.75664000
-4.61064000 0.25132200 -8.74752000
-4.70369000 0.28120300 -8.68305000
-4.70021000 0.33178700 -8.68012000
-4.84024000 0.49583000 -8.50578000
-4.75506000 0.45715400 -8.57125000
-4.92017000 0.52901800 -8.43124000
-5.01719000 0.52218000 -8.37574000
-4.99360000 0.55103100 -8.34183000
-2.38244000 -7.83567000 1.39666000
0.98624700 -2.64413000 8.38517000
-1.47596000 -0.43285400 -9.24185000
-1.46621000 -0.63947900 -9.18539000
-7.54643000 0.96304000 5.30340000
-7.43811000 0.93639100 5.53963000
-5.20495000 -2.63528000 6.00986000
8.33212000 -2.21431000 3.64197000
8.29715000 -2.28493000 3.62439000
8.21421000 -2.26463000 3.81867000
4.42808000 -5.43514000 2.61186000
4.47814000 -5.42789000 2.57406000
4.41159000 -5.48854000 2.53708000
-5.26159000 -5.72460000 -0.79099500
-5.24321000 -5.71920000 -0.84375800
-5.21785000 -5.76592000 -0.84050300
-5.27613000 -5.69730000 -0.90424400
-5.28325000 -5.69102000 -0.84888700
-5.33063000 -5.67018000 -0.85555000
2.19321000 -7.27314000 -3.21685000
2.38410000 -7.20156000 -3.16522000
2.38112000 -7.02672000 -3.35115000
-9.86617000 0.09367730 1.17048000
-9.87381000 0.04542950 1.20538000
-9.83685000 0.05676410 1.41643000
0.66650500 -3.80656000 -7.32986000
1.07333000 -3.78652000 -7.29788000
1.05711000 -3.81429000 -7.25499000
0.99190200 -3.83757000 -7.21334000
-8.87900000 -2.76997000 -0.00635009
-8.78593000 -2.85519000 -0.11796900
-8.79928000 -2.83308000 0.05617410
-8.71292000 -2.90645000 -0.00973556
-1.89182000 -7.90525000 -2.15175000
-1.81840000 -7.86698000 -2.29136000
-2.00499000 -7.87812000 -2.09592000
-1.83921000 -7.88997000 -2.23592000
8.50050000 0.76132900 -3.93565000
8.42351000 0.77715000 -4.15181000
8.58672000 0.74541200 -3.67069000
8.53428000 0.72088500 -3.75361000
8.60488000 0.72330600 -3.57266000
-1.99338000 0.46138500 8.96420000
-1.13846000 -7.60564000 3.20357000
-1.23920000 -7.47802000 3.31360000
-1.38485000 -7.54062000 3.19272000
-0.54646800 -8.18068000 0.70218500
-0.42511500 -8.18551000 0.67691100
-0.43350300 -8.18956000 0.48165900
-0.33408200 -8.19139000 0.44293100
-0.29139600 -8.19393000 0.50536100
-7.53076000 0.80606700 -5.59555000
-7.54981000 0.82647600 -5.60313000
-7.42050000 0.84573000 -5.80203000
-0.00351155 -6.13506000 4.21881000
-0.14008500 -6.24466000 4.13399000
-0.26046100 -6.18603000 4.16151000
0.08087840 -6.11289000 4.23937000
-0.04005740 -6.21803000 4.15971000
-3.90525000 -3.52825000 5.58348000
-3.82549000 -3.48875000 5.67812000
-3.99747000 -3.37104000 5.66777000
-4.03394000 -3.49321000 5.53793000
-4.07379000 -3.36994000 5.62103000
2.61403000 0.76005300 -8.60751000
2.69423000 0.71590100 -8.58042000
2.61742000 0.72415700 -8.61121000
-3.26773000 -3.78895000 -6.24044000
-3.22775000 -3.47065000 -6.73031000
-3.19180000 -3.72428000 -6.37278000
-3.04103000 -3.73075000 -6.43258000
-6.33108000 -4.74637000 -1.15980000
-6.27936000 -4.79023000 -1.18274000
-6.30696000 -4.78659000 -1.02519000
7.74318000 -2.81858000 3.85401000
-6.96716000 -1.43618000 -6.15856000
-7.42283000 -1.64195000 -6.09090000
-7.50442000 -1.68883000 -5.96817000
-3.25520000 -5.57129000 3.53688000
-3.27119000 -5.31637000 3.80059000
-3.17858000 -5.56312000 3.60407000
-3.42583000 -5.28776000 3.71617000
-6.02578000 -1.37656000 -7.06100000
-5.89732000 -1.72819000 -7.00906000
0.38445700 -3.25138000 -7.52360000
0.25072200 -3.59939000 -7.09047000
0.47250900 -3.71412000 -6.92305000
0.68003200 -3.64387000 -6.97528000
0.39545400 -3.67469000 -6.98344000
-9.57163000 -0.26711000 -0.09300590
-9.57051000 -0.31024900 -0.24463900
-6.89198000 -3.64479000 2.91267000
-6.92304000 -3.61084000 2.92777000
-6.78875000 -3.67335000 3.04277000
-0.71319000 -2.32251000 8.24321000
-0.94859000 -2.20287000 8.34616000
-0.63440300 -2.28057000 8.29673000
0.18821800 -2.81610000 8.25025000
-6.20086000 -2.55137000 6.09854000
-2.95514000 -7.73240000 -0.76808200
-2.83665000 -7.79308000 -0.95880800
-2.41778000 -4.83065000 4.80954000
-2.29426000 -5.06358000 4.63042000
-2.37912000 -4.99325000 4.66301000
9.94785000 0.20301900 0.14312900
9.94712000 0.16342800 0.66767900
-8.46145000 -2.17495000 -3.25705000
-8.54605000 -2.09044000 -3.13050000
1.67101000 -3.27199000 7.41457000
1.58194000 -3.43358000 7.17761000
1.00427000 -6.97412000 -3.93164000
0.95913700 -6.96010000 -3.92722000
0.84970700 -6.87926000 -4.00945000
0.92555600 -6.91759000 -3.96379000
0.91559200 -6.95015000 -3.92794000
9.36064000 -0.65231300 0.94506500
9.47311000 -0.38164700 0.85392200
9.43042000 -0.51127100 0.79601200
9.41809000 -0.49671600 0.97691200
-0.89810400 -8.01755000 2.65889000
-0.86613800 -8.00890000 2.66208000
-0.87861200 -7.97811000 2.70150000
-0.87059000 -8.05925000 2.62740000
2.32922000 -7.67364000 -2.12419000
2.37516000 -7.71271000 -2.02903000
2.01092000 0.87318400 -8.95946000
2.20404000 0.84289100 -8.94606000
2.10168000 0.85387700 -8.97127000
5.16803000 -2.03529000 7.45333000
5.21651000 -1.78461000 7.54940000
3.46545000 0.94507400 8.34243000
3.46552000 1.00137000 8.32685000
-9.63198000 -1.27110000 -1.20841000
-9.59933000 -1.33341000 -1.31108000
-9.53837000 -1.49598000 -1.23856000
-9.45527000 -1.71919000 -1.10694000
-6.27236000 -2.22436000 -6.45003000
-6.34760000 -2.08459000 -6.45384000
6.19775000 -2.37985000 -6.44660000
6.25835000 -2.29074000 -6.45024000
6.28655000 -2.39136000 -6.34912000
4.28395000 0.41960300 8.22787000
-6.78310000 -2.52682000 4.82364000
-8.35345000 0.78441500 -4.61323000
-8.06124000 0.80736200 -5.04904000
0.11509600 1.10435000 9.22001000
0.05326460 1.06861000 9.26241000
-3.55299000 -0.64447700 8.58632000
-3.64341000 -0.64197600 8.53523000
-3.63698000 -0.69002900 8.52996000
-3.66103000 -0.59896200 8.56107000
-3.57320000 -0.54652600 8.60432000
-3.68179000 -0.55711900 8.59328000
-2.52618000 -0.75996800 8.91593000
-2.63594000 -0.75898300 8.90578000
-2.41053000 -0.81265200 8.91400000
-2.40515000 -0.86341200 8.90255000
2.34546000 -3.54033000 -7.29682000
8.73483000 0.65253900 4.25066000
-0.51486100 -8.20967000 -0.46848300
-0.45632200 -8.21383000 -0.56755400
-0.31241500 -8.21719000 -0.54270600
7.16649000 -3.50018000 2.87066000
7.04243000 -3.60788000 2.77853000
7.86409000 -2.93927000 3.20424000
-7.32259000 -3.10414000 -4.69771000
-7.30285000 -3.17523000 -4.54211000
-7.36840000 -3.21099000 -4.32951000
4.51915000 -6.49695000 -0.41423900
4.79033000 -6.21681000 -0.43447900
4.52741000 -6.49990000 -0.31069100
4.46400000 -6.57574000 -0.18604100
-4.05893000 -1.10468000 -8.72365000
-4.13188000 -1.30927000 -8.62535000
3.16760000 0.43342700 9.22946000
3.13087000 0.38330700 9.23135000
3.26880000 0.35871500 9.18448000
9.33345000 0.38019700 3.24189000
9.25448000 0.44091500 3.32256000
9.30849000 0.36282000 3.34301000
9.23334000 0.42926700 3.42717000
-1.58881000 -8.22556000 -2.57323000
2.85565000 -6.44533000 3.67347000
2.85384000 -6.60103000 3.48606000
2.92407000 -6.45960000 3.60659000
2.59099000 -6.56924000 3.70992000
2.68248000 -6.65421000 3.54817000
2.75245000 -6.50711000 3.67157000
6.39098000 -0.27833700 -6.88145000
6.29983000 -0.12757800 -7.02506000
6.31034000 -0.06846130 -7.03662000
0.27795100 -7.51945000 -3.14657000
2.52147000 -4.09499000 -6.56893000
2.41999000 -4.38889000 -6.24904000
5.06650000 -2.42348000 7.26990000
4.65029000 -2.38076000 7.53263000
4.51721000 -2.41233000 7.57394000
6.33873000 -4.13349000 -2.48568000
6.38686000 -4.14008000 -2.38500000
6.35490000 -4.17444000 -2.37467000
-6.08339000 -4.40141000 -3.17396000
-6.04908000 -4.39571000 -3.23534000
-6.01888000 -4.43273000 -3.21400000
-5.99085000 -4.40322000 -3.36294000
-6.02462000 -4.36770000 -3.38093000
-0.59724800 -5.05146000 5.04690000
-1.08368000 -5.29663000 4.75410000
-4.66302000 -5.13981000 -3.83238000
-4.80425000 -5.15598000 -3.62370000
-4.66518000 -5.21283000 -3.70295000
-2.78230000 0.38494700 -9.02941000
-2.77419000 0.42496800 -9.00978000
-1.67513000 -1.93844000 8.42208000
-1.66622000 -1.86802000 8.45248000
-1.83285000 -1.80615000 8.43898000
4.57034000 -4.97539000 3.20596000
-5.12725000 -5.80171000 -1.04684000
-5.09184000 -5.83475000 -1.04144000
-5.11023000 -5.83889000 -0.99074500
-5.07156000 -5.84709000 -1.14638000
-5.15935000 -5.79539000 -1.11902000
-5.75932000 -0.20368400 7.61485000
-5.92700000 -0.23060100 7.48923000
-6.78747000 -3.37655000 3.78264000
-6.80000000 -3.31480000 3.90824000
-6.69245000 -3.33685000 4.01526000
-6.79278000 -3.22185000 4.12394000
-9.86459000 -0.13633200 -1.93684000
-9.90460000 -0.11670700 -1.68515000
-9.83362000 -0.19370300 -2.05851000
0.79598200 0.18761700 9.54486000
0.59323900 0.03681620 9.52369000
0.76139900 0.01690530 9.51359000
-1.56051000 -5.73266000 -5.01007000
-1.54486000 -5.77438000 -4.95322000
-5.81506000 0.98774200 7.25356000
-2.64611000 -7.82883000 1.91563000
-2.50079000 -8.04425000 1.74224000
-2.45233000 -7.99233000 1.91329000
-2.39041000 -8.09014000 1.82076000
-1.84863000 0.36177900 -9.67612000
-9.62352000 -0.82212000 -2.29514000
-3.14041000 -6.81886000 -3.01620000
-3.06572000 -6.93471000 -2.94346000
-3.11866000 -6.88770000 -2.93400000
-3.26896000 -6.66800000 -3.02016000
-3.21823000 -6.65576000 -3.14909000
-3.19083000 -6.77053000 -3.00311000
-8.08675000 0.07368010 4.74462000
-8.18649000 -0.05754930 4.55828000
-8.13965000 0.01248470 4.65155000
-0.31544800 -8.20391000 -0.12255400
-0.27341900 -8.20140000 -0.19720000
-0.39206900 -8.20326000 -0.09821510
-0.34711700 -3.87831000 -6.74086000
-0.48748000 -3.77505000 -6.85835000
-0.39226000 -4.14370000 -6.42480000
0.04171600 -6.96494000 -4.08379000
-0.00957841 -7.13927000 -3.94064000
-0.09831720 -7.20570000 -3.88584000
-0.00480252 -7.21163000 -3.87532000
-2.86057000 -7.41430000 -2.41548000
-2.80449000 -7.51741000 -2.32062000
-1.11107000 -1.93679000 -9.13126000
-0.99564700 -2.05288000 -9.08719000
-2.48910000 -5.20732000 4.39541000
1.49113000 -7.35607000 3.41970000
1.35083000 -7.34954000 3.47279000
1.34705000 -7.30661000 3.51062000
1.21037000 -7.29954000 3.55516000
-3.92355000 -1.04973000 -8.40709000
3.57175000 -1.16707000 8.63128000
-5.35365000 0.81820300 -7.85399000
-5.26273000 0.79610600 -7.92463000
-5.23662000 0.72882400 -8.04190000
-5.24227000 0.69888200 -8.08302000
8.46098000 0.18879500 -4.31950000
8.51874000 0.15182400 -4.23387000
8.55967000 0.18759400 -4.13466000
8.70909000 0.14802600 -3.85918000
8.68254000 0.18530500 -3.88943000
8.61585000 0.15022900 -4.04766000
-4.78036000 0.78931700 7.76493000
0.15751600 -0.35285000 -9.69098000
-0.53048500 -6.98354000 3.86539000
-4.72141000 -4.20747000 -4.59519000
8.09698000 -1.70758000 -4.52452000
8.14491000 -1.88955000 -4.26759000
-3.22019000 0.95827200 8.81759000
-3.44406000 0.95365600 8.73960000
-4.53789000 0.45817200 8.50975000
-1.61995000 -3.71875000 6.79044000
-1.85737000 -3.72024000 6.71523000
-3.27157000 -3.06517000 7.09052000
-3.12256000 -3.22982000 6.95991000
-2.93109000 -3.10279000 7.20747000
-2.95617000 -3.21918000 7.04917000
9.56971000 -0.04512870 -0.75919900
9.58321000 -0.04402340 -0.54541400
9.55164000 -0.04529460 -0.97150400
9.55059000 -0.00593003 -0.97017300
0.79091800 -4.11002000 -6.91964000
0.65069200 -4.10075000 -6.95936000
0.89578200 -4.00717000 -7.03102000
0.80769300 -4.07487000 -6.95748000
0.81022500 -4.01579000 -7.01729000
-3.92709000 -4.57118000 4.29125000
-3.95183000 -4.53206000 4.31245000
-4.01681000 -4.55126000 4.27902000
-3.98955000 -4.58593000 4.25725000
9.07349000 -1.25040000 -2.83808000
9.07631000 -1.05836000 -3.05364000
9.16229000 -1.02502000 -2.84092000
8.24794000 -2.19595000 2.78228000
8.17351000 -2.27731000 2.85660000
8.24396000 -2.08264000 2.99770000
8.25687000 -1.99072000 3.11668000
9.29119000 -0.83309600 -0.91259600
0.98729100 0.86938200 8.93099000
-4.61961000 -1.80467000 7.72389000
-4.58778000 -1.88880000 7.70944000
-4.71636000 -1.73122000 7.68384000
-0.56174700 -7.25387000 3.66797000
-5.02662000 0.22290200 -8.58132000
-5.03723000 0.11649300 -8.58299000
-7.65476000 -2.13348000 4.12019000
-7.66615000 -2.22366000 4.01361000
-7.75831000 -2.13454000 3.93714000
4.16851000 -6.40934000 0.31166200
3.99656000 -6.59357000 0.44638700
4.11916000 -6.45608000 0.43450900
4.07948000 -6.51490000 0.16485800
4.03739000 -6.55649000 0.33216300
-1.06333000 -8.12050000 1.09753000
-1.07389000 -8.11606000 1.13376000
-1.10334000 -8.12056000 1.11658000
-1.16476000 -8.14065000 1.17558000
-2.56461000 1.15525000 8.74510000
-2.45462000 1.15797000 8.77200000
-6.55180000 -4.48034000 -1.72958000
-6.44917000 -4.55963000 -1.71299000
-6.70656000 -4.34329000 -1.80437000
7.59889000 0.45856200 6.31273000
7.49733000 0.55107400 6.34476000
3.38923000 -7.80924000 0.38235100
3.22550000 -8.00270000 0.32308700
-2.22589000 -4.49359000 5.22559000
-2.29470000 -4.34672000 5.35875000
-2.11906000 -4.39113000 5.36789000
-2.05249000 -4.24969000 5.53897000
-4.29099000 -3.68295000 -6.47812000
-4.11809000 -3.68147000 -6.59304000
-3.94146000 -3.70379000 -6.63106000
-7.22538000 -3.74284000 1.97070000
-7.38945000 -3.65159000 1.78304000
-7.31479000 -3.75601000 1.62905000
-7.50882000 -3.63418000 1.48658000
-7.45008000 -3.69365000 1.43224000
0.33539900 -7.81332000 2.73965000
4.80633000 -5.55974000 1.30847000
4.19064000 -6.23932000 1.16621000
4.60594000 -5.75320000 1.35557000
4.23827000 -6.21332000 1.08454000
4.50780000 -5.93027000 1.09664000
8.18662000 -1.55749000 3.84612000
8.19345000 -1.50451000 3.86823000
8.08165000 -1.49593000 4.08041000
-8.61213000 -2.43678000 -2.21192000
-8.63722000 -2.39834000 -2.22061000
9.67726000 0.56083700 -0.88675600
9.64542000 0.59417300 -0.91266300
9.64588000 0.62677100 -0.52618600
9.61975000 0.62479600 -0.87216200
8.60445000 -2.25698000 -0.92726500
8.67556000 -2.14850000 -0.83615600
8.67896000 -2.16825000 -0.63614500
-1.05604000 -5.48776000 -4.92099000
-1.00887000 -5.45168000 -4.96262000
-0.99999400 -5.49240000 -4.93261000
-9.31502000 -0.18386100 3.06812000
-9.30134000 -0.28994800 3.02359000
-1.87126000 -5.92652000 -4.77629000
-1.96370000 -5.93975000 -4.73585000
-1.92899000 -5.72930000 -4.95105000
4.83639000 -3.91614000 -5.30062000
4.86933000 -3.94280000 -5.20611000
4.73783000 -3.95715000 -5.25065000
4.77271000 -3.93409000 -5.28501000
3.25234000 0.21006100 -9.23237000
3.18686000 0.15636300 -9.25373000
3.42121000 0.21082300 -9.17251000
4.34022000 -1.74349000 8.07092000
4.45249000 -1.81993000 7.97862000
4.19460000 -1.94197000 8.04693000
4.22651000 -2.07579000 7.96437000
7.92339000 -3.23506000 0.25481200
5.81517000 0.40488600 7.94404000
-0.65450100 -8.24983000 -1.52235000
-0.61880400 -8.24660000 -1.43115000
-5.04333000 -3.12352000 6.01393000
-4.83996000 -3.24528000 5.96954000
-4.86242000 -3.18350000 6.04031000
-4.55504000 -3.24098000 6.14878000
-0.65943400 -4.65532000 -6.33429000
-0.80899900 -4.56773000 -6.41703000
-0.90038500 -4.31093000 -6.69653000
-1.04762000 -4.40035000 -6.57871000
-1.37349000 -4.26387000 -6.69257000
-8.67599000 -1.16656000 2.82842000
-8.60681000 -1.20272000 2.97661000
4.64853000 -4.39260000 -4.06513000
4.74678000 -4.19500000 -4.26696000
4.55604000 -4.37278000 -4.19502000
4.52192000 -4.57362000 -3.92384000
7.45134000 0.78212300 6.14036000
7.34450000 0.78189600 6.26688000
-5.13549000 -5.26599000 -2.86061000
-4.99643000 -5.36526000 -2.89787000
-1.97018000 -1.88388000 -8.67154000
4.57855000 -6.40278000 -0.64239600
4.55228000 -6.40927000 -0.75291400
4.67786000 -6.24985000 -0.92814300
-3.33719000 -3.79470000 5.56160000
-3.26971000 -3.87911000 5.48597000
-3.58925000 -3.66113000 5.60504000
0.78754200 -2.42173000 -8.52121000
0.57569000 -2.44880000 -8.51932000
0.78471400 -2.47372000 -8.48966000
0.46708000 -2.49550000 -8.49137000
-2.82730000 -1.04064000 -9.15958000
-2.91860000 -1.03397000 -9.12404000
-3.00789000 -0.98030400 -9.11263000
-3.20634000 -0.97019200 -9.05165000
-3.20073000 -1.02447000 -9.05208000
-3.37680000 -0.99623900 -9.01067000
-0.19411500 -7.95739000 -2.75463000
-0.27356400 -7.97303000 -2.72247000
-3.48622000 -4.87055000 4.72450000
-3.57884000 -4.76763000 4.78714000
-6.07885000 -4.58660000 -0.13992700
-6.34267000 -4.35033000 -0.19149400
-6.21823000 -4.45858000 -0.12986300
-6.20611000 -4.46986000 -0.29278800
-6.10892000 -4.55552000 -0.45852100
-5.88865000 -4.76478000 -0.36316400
-6.01223000 -4.64937000 -0.25918500
-2.39296000 -5.17551000 -5.34065000
-2.50662000 -5.24524000 -5.22668000
-2.28286000 -5.21218000 -5.34847000
-2.94602000 -4.66627000 4.72640000
-3.21932000 -4.51687000 4.74385000
-3.31997000 -4.22987000 5.02501000
-3.08609000 -4.47526000 4.86615000
4.37054000 -6.56244000 1.10995000
4.44683000 -6.48565000 1.09877000
-9.64139000 0.31527700 -2.43543000
-9.64562000 0.27011100 -2.53575000
-9.70835000 0.34113500 -2.02683000
-3.50259000 -6.15275000 3.24269000
-3.33552000 -6.23414000 3.30116000
-3.43410000 -5.98344000 3.50310000
-3.58729000 -6.03525000 3.30576000
-2.82706000 -7.51836000 2.17771000
-2.92782000 -7.30025000 2.39507000
-2.95502000 -7.44689000 2.12432000
-3.28839000 -7.15770000 2.14694000
-3.24306000 -7.25512000 2.05274000
2.97333000 -5.40877000 4.65745000
2.97538000 -5.45074000 4.61096000
3.05530000 -5.45799000 4.56752000
3.01323000 -5.53476000 4.50811000
2.96851000 -5.49314000 4.57798000
2.93185000 -5.55076000 4.55726000
-9.08800000 -2.44505000 -1.63420000
-9.12351000 -2.31723000 -1.84318000
-4.13725000 -3.10814000 -6.86375000
-3.81911000 -3.32694000 -6.67993000
-8.80468000 0.58355300 -4.22550000
-8.65762000 0.65714800 -4.37323000
-8.70147000 0.58654800 -4.43768000
-8.83974000 0.51580100 -4.29038000
2.87674000 -7.49931000 1.53276000
2.85417000 -7.49325000 1.55959000
2.89844000 -7.45372000 1.54274000
2.82289000 -7.56401000 1.46196000
9.09456000 0.43767400 -2.29242000
8.91535000 0.49565900 -2.77957000
8.97653000 0.44747100 -2.69231000
-1.23206000 -7.88947000 -1.30691000
-0.96379700 -7.91122000 -1.52363000
-1.26996000 -7.89524000 -1.39355000
-1.22649000 -7.87676000 -1.09653000
-1.17446000 -7.88568000 -1.22721000
-0.73668600 -8.11710000 1.50797000
-0.73582600 -8.11193000 1.55486000
-0.77107400 -8.11937000 1.54378000
-0.74787800 -8.12254000 1.59841000
-0.77107400 -8.11937000 1.54378000
1.54719000 -7.84877000 -2.98879000
1.66801000 -7.94637000 -2.82689000
-5.03557000 -5.87788000 -1.37301000
-5.00957000 -5.90388000 -1.30196000
-5.05128000 -5.87477000 -1.31289000
-5.00957000 -5.90388000 -1.30196000
-5.01602000 -5.89497000 -1.24581000
-5.06083000 -5.86874000 -1.25745000
-0.01261940 -6.70257000 -3.86943000
-0.08371250 -6.75323000 -3.82866000
-0.02345240 -6.42992000 -4.09309000
-8.41078000 -0.70120100 -4.56814000
-8.30504000 -0.69685800 -4.75584000
0.80949100 -7.93132000 -2.69880000
0.99147400 -7.95483000 -2.60761000
-4.13693000 -3.34829000 6.13161000
-4.11926000 -3.37688000 6.09695000
-4.06376000 -3.39556000 6.15456000
-4.25053000 -3.39486000 6.01236000
-4.16123000 -3.39496000 6.00846000
-4.17818000 -3.37151000 6.04658000
-3.17531000 -2.03804000 -8.71905000
-0.64803700 -1.79129000 -8.85466000
-0.39734400 -1.76214000 -8.88069000
-0.25329100 -1.76834000 -8.88214000
-0.10720800 -1.67721000 -8.92196000
0.83496500 -2.83777000 -8.62201000
1.04857000 -2.85056000 -8.60071000
1.05405000 -2.81426000 -8.63844000
-1.21472000 -2.40744000 8.07607000
-1.16572000 -2.62131000 7.83957000
-1.19840000 -2.71691000 7.71696000
3.30711000 -0.91706200 -8.90968000
3.01961000 -1.08677000 -8.95944000
2.95170000 -0.91691700 -9.03976000
3.13041000 -0.93172400 -8.97206000
-6.23398000 -4.74840000 1.13285000
-6.27482000 -4.71309000 1.07334000
-6.23848000 -4.74491000 1.06586000
-6.24555000 -4.72255000 1.34288000
-6.25486000 -4.71024000 1.20886000
-5.74856000 -2.51851000 6.32092000
-5.67331000 -2.49907000 6.37587000
-5.77475000 -2.49650000 6.35362000
-5.69193000 -2.46854000 6.40216000
-5.67331000 -2.49907000 6.37587000
-5.61026000 -2.52122000 6.45414000
-2.05970000 0.36915500 -9.21949000
-1.67780000 0.32399700 -9.30573000
-1.84739000 0.35730700 -9.26551000
-1.95873000 0.32346900 -9.25689000
6.12054000 0.94372900 6.84141000
6.48259000 0.92325600 6.51425000
6.65709000 0.84253300 6.37133000
6.70878000 0.89832500 6.31554000
6.80869000 0.84835100 6.22807000
-0.45200200 -6.35281000 4.42667000
-0.29060700 -6.36220000 4.44392000
1.83078000 -2.14577000 8.29326000
1.67186000 -2.11075000 8.33932000
1.99606000 -2.08348000 8.32057000
2.07557000 -2.13995000 8.26473000
1.81286000 -0.50994300 -9.45939000
1.69863000 -0.55862000 -9.47250000
1.80827000 -0.62167500 -9.43382000
1.99619000 -0.59853600 -9.39409000
-1.66361000 -3.85797000 -6.65559000
-1.37793000 -3.85187000 -6.70634000
-1.81959000 -3.89760000 -6.59965000
-1.82843000 -3.85950000 -6.63368000
5.09741000 -5.42335000 -0.38053400
4.80214000 -5.73607000 -0.31486000
4.79907000 -5.74574000 -0.20890900
5.89330000 -4.31542000 -1.86546000
6.10844000 -4.09701000 -1.97165000
5.89280000 -4.23857000 -2.11961000
9.21444000 0.48602500 -1.59773000
9.25958000 0.42254600 -1.57354000
9.25989000 0.48221500 -1.34773000
9.37727000 0.30051300 -1.37854000
9.30247000 0.41360700 -1.35180000
9.34182000 0.30477400 -1.58413000
-9.91747000 -0.11558700 1.03410000
-9.87825000 -0.10917100 1.21757000
0.90858500 -4.36959000 6.21006000
1.04344000 -4.23450000 6.33921000
1.02797000 -4.01617000 6.56904000
0.95786600 -4.17603000 6.40804000
-0.48115800 -7.69586000 -2.99824000
-0.55704000 -7.84241000 -2.85962000
-0.44635100 -7.84513000 -2.87109000
-0.61536700 -7.73348000 -2.94436000
2.29808000 -4.57001000 5.71115000
0.77145700 -6.79568000 -4.09473000
0.76386600 -6.83090000 -4.06073000
0.71753100 -6.82245000 -4.06226000
0.71117100 -6.87000000 -4.04440000
0.75699700 -6.87205000 -4.03449000
1.77782000 -5.50972000 -4.70889000
2.01704000 -5.52863000 -4.61538000
1.53515000 -5.31336000 -4.97747000
1.62123000 -5.41793000 -4.84722000
1.73107000 -5.18261000 -5.07034000
8.42229000 -2.43100000 -1.39062000
-6.40140000 -0.05789900 -7.68391000
-6.34876000 0.01353070 -7.73404000
-6.12399000 -0.04979710 -7.88971000
-6.17103000 -0.09930590 -7.84678000
-5.94103000 -3.21348000 4.48799000
-6.08081000 -3.04691000 4.58337000
8.58291000 -0.20076300 4.16670000
8.66820000 -0.04612500 4.07754000
8.67836000 -0.10968800 4.02760000
8.61347000 -0.09933190 4.16366000
3.18082000 -4.88315000 -4.69124000
3.20720000 -4.94107000 -4.62419000
3.16694000 -5.01061000 -4.59428000
6.43496000 -4.07508000 2.73173000
6.39268000 -4.08201000 2.80107000
6.49796000 -4.04657000 2.66963000
6.56039000 -4.02923000 2.56596000
7.35641000 -0.43236300 -6.33944000
7.01100000 -0.76575900 -6.54557000
7.24063000 -0.63221700 -6.36537000
-1.66768000 -8.11196000 0.36034300
-1.69397000 -8.11477000 0.30906900
-1.64409000 -8.11089000 0.39378900
-2.62144000 -4.12468000 -6.12267000
-2.63412000 -4.08896000 -6.15713000
-2.70407000 -4.09055000 -6.12977000
-2.43505000 -4.05236000 -6.26990000
-2.50687000 -4.06067000 -6.24995000
-2.49171000 -4.08602000 -6.20593000
0.38482900 -8.11781000 2.89456000
0.58586600 -8.10071000 2.90586000
0.59507500 -8.06645000 2.94594000
-8.56563000 -2.43549000 1.23887000
-8.58327000 -2.47616000 0.90612300
0.18739600 -3.06456000 7.34103000
0.05698570 -3.13005000 7.24309000
-0.77133100 -0.54299900 8.99461000
-0.83599900 -0.12266100 9.07852000
-0.71472200 -0.33220600 9.04658000
2.82882000 -5.23817000 4.89586000
2.81342000 -5.27337000 4.85810000
2.81774000 -5.20164000 4.94769000
-4.68553000 -4.75598000 -3.69157000
3.18466000 0.45101800 8.64424000
3.29615000 0.37463400 8.63117000
3.18619000 0.36887000 8.65901000
-1.00627000 -3.57216000 -7.06373000
-1.04901000 -3.66911000 -6.94712000
-1.13783000 -3.64961000 -6.95153000
-1.23069000 -3.73589000 -6.84473000
0.66551700 0.46048300 -9.69964000
-1.18530000 -8.01686000 2.72451000
-1.22296000 -8.00340000 2.72881000
-3.68430000 -4.46581000 -5.10126000
-3.47728000 -4.49524000 -5.20278000
-3.51497000 -4.53727000 -5.13068000
-3.44010000 -4.54007000 -5.14668000
-6.04110000 -1.58376000 6.37514000
-6.16132000 -1.45878000 6.32606000
-6.10746000 -1.35666000 6.41824000
-0.58788900 -7.03577000 3.40798000
-0.43652900 -7.02536000 3.43950000
-0.38597400 -7.22418000 3.26100000
-0.27612300 -7.28368000 3.22010000
6.69140000 -0.32030700 7.08216000
6.62818000 -0.23219300 7.16881000
6.58061000 -0.44320200 7.13104000
-9.05401000 0.68559600 1.52023000
-9.05071000 0.71069000 1.56830000
-9.00010000 0.70336300 1.77710000
-9.12524000 0.66060700 1.11148000
-2.06260000 -6.15949000 4.17161000
-1.96613000 -6.18610000 4.18723000
-2.36018000 -3.72214000 -7.22069000
-2.14785000 -3.68427000 -7.29571000
-2.35063000 -3.75731000 -7.17977000
-0.61090300 -3.56583000 6.60989000
-0.89117100 -3.67903000 6.44676000
-2.22750000 -5.41305000 -5.16157000
-2.15386000 -5.46918000 -5.12456000
-2.27377000 -5.44149000 -5.11847000
-2.38423000 -5.31627000 -5.20728000
-4.83047000 -6.20194000 1.11272000
-5.00914000 -6.02755000 1.10218000
-5.45333000 -5.57409000 1.07885000
-5.28895000 -5.76651000 0.96975400
6.47079000 -4.00191000 -0.67433500
6.59820000 -3.88656000 -0.61123700
-8.94850000 0.81075700 2.70965000
-1.90489000 1.14479000 8.97433000
-1.64970000 1.14440000 9.01960000
-1.71427000 1.17096000 8.95011000
-1.89732000 1.16091000 8.94698000
-1.65051000 1.16058000 8.99050000
-9.51034000 -0.37410100 -1.48048000
-9.52831000 -0.37220200 -1.31450000
3.35033000 -5.80891000 4.00366000
3.38529000 -5.88964000 3.88149000
3.38852000 -5.80522000 3.95957000
3.31942000 -5.95314000 3.89028000
3.34497000 -5.88935000 3.93322000
9.45942000 -0.08697870 1.52409000
9.39645000 -0.12262800 1.84322000
9.38094000 -0.07687110 1.95232000
9.42239000 -0.08171730 1.73932000
5.43545000 0.92229500 7.38078000
3.44525000 -5.35258000 4.46556000
3.58843000 -5.32122000 4.40173000
3.52777000 -5.46250000 4.28998000
-0.57605600 -8.04103000 2.56755000
-0.57838200 -8.13228000 2.48945000
-0.52416700 -8.12400000 2.49355000
-0.40482300 -8.12318000 2.45481000
-0.69196900 -2.46146000 8.58571000
-0.84111600 -2.38313000 8.64739000
-0.31404000 -2.43992000 8.64041000
-3.34077000 0.71648600 -9.03287000
-3.10411000 0.71467600 -9.11455000
-3.05484000 0.83242800 -9.00855000
-3.95818000 -6.25659000 -1.90697000
0.03634610 -7.83006000 2.69580000
-4.42824000 -6.24360000 -1.77963000
-4.42122000 -6.28291000 -1.72502000
-4.44772000 -6.24184000 -1.73435000
-4.50041000 -6.20414000 -1.70107000
-4.52796000 -6.18319000 -1.76466000
-4.48520000 -6.21003000 -1.74847000
6.75369000 -3.39536000 2.86138000
6.68178000 -3.39984000 2.92116000
8.39694000 0.78626900 -4.25914000
8.46167000 0.78303400 -4.19996000
8.27213000 0.79613600 -4.51862000
-2.73795000 -0.53463000 8.57617000
-2.58600000 -0.33589300 8.68466000
-2.44955000 -0.48360400 8.68475000
-2.98878000 -0.75150500 8.45131000
-2.57085000 -0.67102300 8.59933000
3.95234000 -7.01198000 0.95063300
3.99953000 -6.98034000 0.94063100
3.94105000 -6.99586000 1.18258000
3.92743000 -7.02877000 1.08985000
3.97367000 -6.99355000 1.07409000
-5.87391000 -4.72718000 0.66512800
-5.93825000 -4.65918000 0.72519700
-5.97856000 -4.61188000 0.84514000
-5.90218000 -4.70761000 0.50194700
-5.79018000 -4.82302000 0.56004400
-5.79199000 -4.84241000 0.26423700
-5.55058000 -1.68000000 6.72921000
-5.39477000 -1.06818000 7.10591000
-5.32866000 -1.33969000 7.04292000
-5.47294000 -1.28055000 6.96131000
3.77308000 -3.87706000 -6.16224000
3.72360000 -3.84414000 -6.23985000
3.79083000 -3.83645000 -6.18801000
3.50576000 -3.85365000 -6.37279000
8.48876000 -1.54269000 4.05859000
8.56088000 -1.35690000 4.08918000
8.46295000 -1.42989000 4.21273000
-9.19921000 0.65578500 0.40347000
-9.19287000 0.59044800 0.59529600
-9.17041000 0.60121400 0.79663300
-5.84610000 0.48104600 -7.91282000
2.46568000 0.87613000 -8.76113000
2.62615000 0.88317100 -8.70523000
4.62916000 0.30910600 -8.12317000
4.49137000 0.36520900 -8.14959000
4.67277000 0.33900000 -8.07461000
-1.07152000 0.74551300 -9.48475000
-0.96012300 0.68621900 -9.54802000
-0.75386600 0.68050700 -9.56501000
9.57721000 0.04765990 0.42514300
9.58740000 0.00648352 0.31556900
9.57495000 0.01094330 0.53517400
9.56283000 0.08860140 0.53376900
9.56013000 0.13555700 0.31820600
-8.84885000 0.37525300 4.19134000
-8.99326000 0.31396500 3.94449000
-0.36071700 -4.86762000 5.72493000
-0.00927919 -5.06905000 5.55339000
3.38936000 -2.70162000 -8.08015000
3.11371000 -2.70355000 -8.19201000
2.69068000 -6.17703000 3.53198000
2.48930000 -6.35743000 3.46147000
5.10241000 -2.19024000 -7.45558000
5.29816000 -2.07993000 -7.38236000
2.14359000 -5.54844000 -4.55102000
9.57131000 0.27551600 2.69542000
-2.05857000 -4.19823000 -6.12693000
1.73194000 -3.97367000 -6.96844000
1.61366000 -4.19550000 -6.72301000
1.55385000 -4.01025000 -6.95910000
1.38323000 -4.20973000 -6.74453000
-7.93946000 -2.16338000 3.56218000
-0.89377100 -7.86811000 -0.64990300
-0.80490700 -7.87360000 -0.74964000
-0.57524000 -7.87601000 -0.59248500
0.37186600 -0.38548600 9.43571000
0.54658300 -0.44979900 9.41749000
0.72088800 -0.37636800 9.42998000
-2.24035000 -1.13852000 -9.27811000
-2.23343000 -0.73012500 -9.40073000
1.66963000 -0.73495900 -9.08160000
1.66524000 -0.82234800 -9.06526000
1.67214000 -0.63113300 -9.10728000
1.67916000 -0.54400200 -9.13771000
3.43797000 -3.03872000 -6.96237000
3.67460000 -2.93000000 -7.01284000
3.23195000 -2.89554000 -7.27628000
3.18336000 -2.98244000 -7.16602000
-6.58451000 -0.35813700 -7.47358000
-6.54055000 -0.24490800 -7.53825000
0.04916700 0.09763390 9.15453000
0.05061780 0.19197600 9.16301000
-0.12780500 -0.02395470 9.13709000
0.88625600 -8.26818000 -0.68526500
1.00271000 -8.27468000 -0.74406700
1.13437000 -8.28361000 -0.95339600
1.48677000 -6.37878000 4.31721000
1.59581000 -6.48786000 4.20179000
-8.45764000 -1.22398000 3.31740000
-8.44458000 -1.07472000 3.46886000
-8.50524000 -1.20830000 3.22092000
-3.96407000 -0.98533400 8.31431000
-4.04342000 -1.03478000 8.25733000
-3.96340000 -1.04106000 8.32363000
-3.96407000 -0.98533400 8.31431000
-4.05182000 -0.98563800 8.26417000
-4.04342000 -1.03478000 8.25733000
-2.17533000 -7.88237000 -1.86354000
-0.61916000 -6.13662000 4.53669000
-0.61321000 -6.18247000 4.51150000
-0.45449300 -6.18187000 4.52222000
-0.77174000 -6.05622000 4.57165000
-0.80600100 -6.09481000 4.53701000
-0.71477700 -6.09859000 4.55473000
-9.04368000 -0.61751800 -3.23098000
-8.37242000 -1.73846000 3.04140000
-8.43738000 -1.76512000 2.84528000
9.35568000 -1.63194000 0.32878800
9.44546000 -1.43532000 0.36049100
9.49943000 -1.32374000 0.20247800
-8.08682000 -3.14763000 -2.91623000
-8.04627000 -3.24546000 -2.59335000
-8.14533000 -3.05105000 -3.15174000
-3.96922000 -1.41685000 8.23099000
-4.04867000 -1.61824000 8.11565000
-3.92569000 -1.58813000 8.18446000
-9.19863000 -0.91734900 -2.40656000
-9.25206000 -0.81607600 -2.31208000
7.95574000 0.56788500 -5.46986000
8.00224000 0.48565200 -5.51042000
7.89357000 0.44702400 -5.70138000
4.65160000 -6.00018000 -1.68618000
4.64254000 -5.95771000 -1.80424000
4.61275000 -5.99572000 -1.79291000
0.36302100 -1.76710000 8.66268000
-6.22928000 -4.89842000 -0.49813000
-6.37302000 -4.76321000 -0.51303500
-6.44234000 -4.68476000 -0.60179200
-6.39525000 -4.72975000 -0.72601900
-6.42872000 -4.71191000 -0.38173900
-3.34870000 -4.14274000 -5.73376000
-4.82575000 -5.78450000 -0.52034200
-4.63506000 -5.97973000 -0.52405300
-3.18927000 -7.55765000 -0.41580400
-3.37686000 -7.37533000 -0.30831000
-3.45398000 -7.28997000 -0.37589800
-8.85710000 -1.63059000 2.92242000
0.56956700 -3.24047000 7.65290000
-2.11642000 -7.92373000 -1.61677000
-2.07356000 -7.92798000 -1.75197000
-2.16201000 -7.92383000 -1.65906000
-2.22798000 -7.92046000 -1.63860000
-2.25122000 -7.91316000 -1.66670000
5.58406000 -2.06751000 -7.18010000
5.54786000 -1.93355000 -7.28129000
-7.36163000 0.62239400 -5.78471000
-7.20486000 0.55996300 -6.02319000
-7.22325000 0.62372100 -5.95607000
-7.50492000 0.69443700 -5.57592000
3.50878000 1.19361000 8.40719000
3.60844000 1.19026000 8.38973000
3.83516000 1.19363000 8.28892000
-3.12061000 0.53707700 9.07399000
-3.02033000 0.48267500 9.09917000
-2.79030000 0.47391100 9.16510000
-3.03302000 0.36903900 9.07628000
2.40137000 -3.92848000 -6.27250000
2.50742000 -4.02245000 -6.11077000
2.25015000 -3.96791000 -6.29656000
2.29311000 -4.03614000 -6.19847000
-4.15203000 -6.90913000 1.05529000
-4.12147000 -6.92249000 1.12228000
-3.93192000 -7.12838000 1.06463000
-3.50670000 -2.77115000 -8.22136000
-0.53343900 -3.59968000 -7.08890000
-0.68971300 -3.69578000 -6.99801000
-0.76973200 -3.69824000 -6.99257000
-0.76481600 -3.72281000 -6.94551000
4.02908000 -2.35477000 7.86395000
3.94924000 -2.31431000 7.93698000
7.91206000 -2.76382000 -1.42267000
7.91763000 -2.77101000 -1.26057000
-7.88946000 -1.59713000 -4.87050000
4.25862000 -5.82475000 2.09347000
4.36492000 -5.75749000 2.01142000
4.82135000 -5.25099000 2.17180000
4.55602000 -5.56711000 2.01756000
1.70491000 -5.76976000 4.77606000
1.62467000 -5.80963000 4.76073000
1.83701000 -5.82502000 4.69687000
0.27782000 -5.24248000 4.95121000
0.17111100 -5.13985000 5.04161000
0.38248200 -5.38482000 4.82278000
0.25016100 -5.37031000 4.83980000
6.67222000 -3.27314000 -3.16679000
6.95624000 -3.08761000 -3.12180000
6.98006000 -3.12216000 -2.95865000
7.08968000 -3.09607000 -2.78746000
0.29199400 -7.84083000 2.15940000
-5.56752000 -1.93805000 6.59544000
-5.43949000 -2.03031000 6.64270000
-5.33461000 -2.07281000 6.69523000
-8.74071000 0.76068000 -3.85343000
0.17819100 0.43482100 9.15304000
0.40687300 0.44612900 9.13962000
-4.27067000 -0.22260600 -8.53977000
-4.26503000 -0.11173800 -8.53105000
-4.36833000 -0.12025900 -8.50410000
-6.27713000 -0.80609400 -7.09450000
-6.12940000 -0.90216100 -7.17681000
3.58912000 -1.05764000 8.66363000
3.05435000 -0.86317800 8.89614000
3.16059000 -0.84417400 8.86683000
6.24015000 -1.07643000 6.66806000
6.35555000 -1.08314000 6.56249000
6.24143000 -1.22151000 6.59692000
2.80199000 -8.24676000 0.14254000
2.84613000 -8.26367000 -0.29937800
-5.60235000 -5.47985000 -0.56519100
-5.53156000 -5.53777000 -0.65174600
-5.62815000 -5.44985000 -0.47204200
-8.34984000 -3.20037000 -0.51966000
-8.08778000 -3.39952000 -0.33630800
-8.50170000 -2.45886000 2.85391000
-6.63220000 0.08237550 -6.96401000
-6.70648000 0.14511300 -6.87691000
-0.05676900 0.02164480 9.52081000
-0.12522400 -0.18387400 9.47400000
0.04210490 -0.18944600 9.47847000
-8.85415000 -0.25273600 -4.71762000
-4.49426000 0.80208400 -8.40142000
-4.57299000 0.76005900 -8.41000000
-8.02286000 -1.43341000 4.01107000
-7.87549000 -1.39028000 4.29455000
-7.85122000 -1.53322000 4.22103000
-7.80872000 -1.61996000 4.23175000
-7.68868000 -1.67303000 4.41158000
-3.25873000 -4.06398000 -6.45613000
-3.08084000 -4.13486000 -6.44113000
-3.17366000 -4.25804000 -6.22894000
-3.67098000 -4.16587000 -6.09348000
-3.85610000 -4.06761000 -6.13340000
-6.83632000 -2.89654000 4.80165000
-2.45111000 -6.03334000 -3.87257000
2.26891000 0.34418600 -9.06051000
-2.03478000 -6.96488000 -3.15052000
-2.09096000 -6.92476000 -3.16146000
2.15875000 0.64739400 -8.81967000
2.04159000 0.68349700 -8.83487000
1.98108000 0.64433500 -8.87319000
-1.73777000 -0.51938900 -9.54827000
-1.73437000 -0.70342000 -9.49798000
-4.38340000 -5.53855000 -2.60510000
-4.62853000 -5.38036000 -2.50828000
-4.39963000 -5.60332000 -2.43227000
-4.49805000 -5.31616000 -2.88383000
-4.67241000 -5.23119000 -2.77263000
-4.42704000 -5.43983000 -2.74159000
3.45975000 -5.17750000 -4.70507000
3.49981000 -5.16156000 -4.65174000
3.48773000 -5.20928000 -4.63328000
3.44548000 -5.22367000 -4.68443000
3.48773000 -5.20928000 -4.63328000
3.50471000 -5.29255000 -4.55970000
0.93455700 0.44995300 -9.67754000
1.03446000 0.53069500 -9.60285000
-0.87457600 -7.94548000 -1.93299000
-0.97941000 -7.92102000 -1.65209000
5.07517000 -5.45128000 2.27134000
5.16999000 -5.30328000 2.42184000
5.23941000 -5.29013000 2.27873000
-0.96214600 -7.74069000 -2.85121000
-1.15894000 -7.66952000 -2.85071000
-1.22614000 -7.78976000 -2.71702000
6.01083000 -1.95786000 6.39685000
2.98788000 -7.60759000 -2.10892000
2.92196000 -7.79624000 -1.90708000
