-1.32120000 58.99410000 -63.33690000
0.26250000 58.91140000 -63.38010000
-10.28580000 20.03170000 38.28400000
15.17740000 9.16480000 15.46120000
14.07780000 9.32620000 16.23170000
14.54820000 9.25590000 15.96220000
-41.45260000 22.40640000 -21.32560000
-40.61760000 22.48530000 -22.89980000
0.49540000 47.16290000 -58.25170000
1.93890000 47.83290000 -58.44500000
3.41490000 46.82730000 -57.96150000
-2.90680000 9.49890000 17.16050000
-3.17770000 9.39380000 17.52670000
-3.54080000 9.37480000 17.19570000
-2.48070000 9.49650000 17.07790000
-2.10000000 9.36540000 17.37400000
-36.62990000 52.10310000 45.51440000
-37.56360000 53.76350000 45.54420000
-39.09920000 55.34310000 45.05790000
-12.69580000 7.34210000 23.03330000
-12.20510000 7.59630000 23.52320000
-11.60900000 7.56180000 23.82120000
-11.06500000 7.65140000 24.21630000
-7.36480000 9.71570000 19.03140000
-7.24550000 9.72330000 18.73820000
-7.74620000 9.71400000 18.69870000
9.31300000 0.16590000 20.95250000
17.19840000 9.68870000 11.75490000
17.59970000 9.66190000 11.10460000
-52.09190000 58.75570000 -35.76770000
-51.25400000 58.66870000 -37.11000000
-53.38590000 58.75750000 -33.78490000
-10.70260000 45.49560000 -54.46760000
-11.35170000 43.80900000 -53.66530000
-10.74950000 47.95440000 -55.29020000
-10.01630000 46.87520000 -55.03780000
1.05050000 59.11080000 -63.15170000
2.63280000 59.09660000 -63.13510000
-44.48140000 51.96300000 -39.97610000
-45.68650000 52.70830000 -38.97740000
-43.27210000 49.26050000 -39.92520000
-12.37980000 16.84220000 40.44670000
-10.62120000 16.25300000 40.13730000
23.11380000 34.50500000 47.02670000
56.78360000 49.20570000 18.05840000
57.11420000 48.89810000 16.60110000
56.75570000 48.86580000 18.03820000
56.83620000 48.56030000 17.28240000
-10.65810000 38.91160000 -51.90690000
-11.33250000 38.92480000 -51.86810000
-8.03600000 38.06100000 -52.03240000
-7.36850000 38.65790000 -52.49940000
-9.33690000 39.16590000 -52.28440000
-51.21750000 57.86280000 -37.09090000
-50.39380000 58.09170000 -38.48840000
-48.91250000 58.04010000 -40.40840000
-49.88240000 58.01990000 -39.11650000
-31.98310000 15.39040000 -22.63720000
-29.75510000 13.86620000 -22.15950000
-28.23610000 13.24640000 -22.71260000
-20.03750000 5.33700000 -9.88220000
-20.60010000 5.53940000 -8.49430000
-33.74500000 30.10120000 40.21390000
-31.58130000 31.46270000 42.77010000
-33.67600000 31.45940000 41.13360000
20.89940000 0.09100000 10.40270000
-19.96220000 26.75870000 -45.86590000
-17.79260000 27.62770000 -47.42570000
-25.23350000 29.36820000 -44.89630000
-22.14800000 28.71430000 -46.10680000
-19.52900000 0.29630000 -14.97330000
-19.32860000 0.11290000 -14.81160000
4.54250000 18.45510000 43.80590000
6.27590000 19.97270000 45.38690000
5.75740000 21.10470000 46.37530000
5.65890000 18.96530000 44.31450000
55.44820000 59.51630000 -27.41880000
56.16340000 59.54590000 -25.99850000
56.40210000 59.60270000 -26.10710000
57.35480000 59.57350000 -23.90820000
25.20390000 59.49130000 -57.35140000
24.38850000 59.53850000 -57.54920000
26.65190000 59.53890000 -56.55960000
24.38750000 58.27700000 58.06030000
23.55100000 58.09040000 58.14980000
26.47410000 7.46390000 3.00210000
26.54560000 7.65730000 4.35140000
27.09340000 7.84460000 2.74040000
-10.31400000 19.20640000 36.93880000
-11.26320000 17.63400000 33.62850000
-9.86500000 18.21070000 35.27000000
-8.52100000 17.10950000 33.26020000
45.26720000 58.25790000 -43.44570000
44.87250000 58.57560000 -44.16930000
-40.46580000 35.88990000 -32.29840000
-38.66850000 33.94370000 -33.07270000
16.80240000 58.45380000 -61.03350000
17.60590000 58.65740000 -60.80140000
-37.76870000 50.35300000 46.44620000
-36.50880000 50.08630000 47.35490000
-39.51500000 50.36290000 44.90910000
-40.10310000 50.64860000 44.39420000
38.18030000 30.69980000 37.21320000
40.18310000 31.44240000 35.46480000
41.08860000 32.78070000 35.38410000
34.50530000 26.97440000 -36.37260000
32.98690000 29.34760000 -39.45290000
-21.84910000 51.24120000 54.30140000
-23.10040000 50.49890000 53.34110000
-24.35450000 49.23760000 52.35800000
-21.64790000 20.87670000 -33.60540000
-20.85120000 19.75640000 -32.12180000
-49.09840000 34.09230000 22.32800000
-48.13350000 33.77030000 24.15890000
-48.25490000 34.78550000 24.96780000
-48.33120000 31.08010000 20.63810000
-30.55970000 58.48470000 55.10700000
8.64080000 8.92570000 3.59540000
8.37650000 8.88900000 2.81750000
7.79110000 8.87560000 3.58270000
7.04730000 8.83870000 2.06740000
-11.71230000 26.14550000 45.19250000
-10.12050000 23.80150000 43.28000000
-9.84560000 28.37440000 47.46370000
59.37890000 58.46740000 -21.25490000
17.56600000 6.94020000 -13.95940000
17.63610000 6.63040000 -14.01960000
17.62010000 7.38430000 -13.63300000
-44.92460000 21.02300000 8.66010000
-44.61800000 20.20080000 5.14530000
41.74420000 55.62640000 43.67140000
39.44450000 55.37920000 45.59040000
36.83120000 54.36500000 47.23510000
36.67850000 55.85990000 48.21300000
0.13010000 9.26490000 13.62040000
-0.36020000 9.25920000 13.55170000
-0.03660000 9.27300000 13.27370000
-0.35540000 9.19770000 12.90840000
-0.04470000 9.18110000 12.95650000
-57.71350000 57.87640000 -25.26980000
-57.45430000 57.94260000 -26.05970000
8.59060000 57.41690000 63.94870000
10.16220000 57.46900000 63.70020000
9.37300000 57.64260000 63.82730000
13.84290000 6.85350000 22.27630000
17.71550000 9.70990000 26.18540000
14.21940000 9.99260000 28.66140000
13.82690000 21.78140000 -38.78060000
4.61110000 57.78590000 64.26960000
3.82180000 57.50750000 64.37640000
-54.44580000 50.21850000 23.77170000
-55.70280000 50.27780000 20.27740000
-54.46710000 53.28940000 26.16890000
-52.99850000 51.69580000 27.95270000
-41.59070000 36.58900000 36.25630000
-42.37460000 40.77980000 37.72110000
-42.47520000 38.02930000 36.02770000
-9.54570000 34.20190000 51.12110000
-6.79440000 36.37180000 52.63460000
43.72560000 58.64090000 -45.33710000
43.14060000 58.73800000 -45.91040000
-18.40500000 19.97580000 41.73850000
-42.54960000 36.61810000 35.23320000
-45.44060000 36.84380000 31.29910000
-46.35440000 36.14280000 29.42320000
28.54270000 20.74380000 29.30260000
-48.34090000 59.03310000 -38.88790000
-48.71220000 58.97010000 -38.17620000
-50.33560000 59.09150000 -36.44930000
-48.90000000 59.10190000 -38.32640000
-50.18440000 32.82400000 5.27270000
-49.96650000 32.03060000 1.67280000
3.01970000 9.18660000 15.70410000
3.28980000 9.08350000 15.14550000
3.53540000 9.15140000 15.37540000
3.78260000 9.28490000 15.59170000
3.21070000 9.20330000 15.67820000
25.75470000 57.23020000 58.99150000
25.00320000 57.22800000 59.32950000
47.10350000 48.35200000 36.47470000
44.73660000 47.93200000 39.30490000
41.21770000 47.77290000 43.04000000
-13.98320000 0.09630000 18.12870000
-14.09740000 0.00670000 18.26680000
-12.93630000 -0.00630000 19.09360000
-58.48760000 58.82790000 20.33560000
5.85720000 6.73840000 25.48660000
7.11880000 6.97690000 25.24410000
10.61450000 44.95360000 55.70720000
0.61220000 1.00300000 22.16220000
22.12870000 7.77820000 -15.09550000
22.12250000 7.92970000 -15.51180000
-3.31860000 7.60670000 -26.17030000
-2.64470000 7.77440000 -26.34850000
-1.26160000 7.67720000 -26.40670000
-57.34820000 53.31760000 18.48800000
-58.45160000 54.45810000 16.41090000
-12.71600000 5.05870000 18.51830000
-15.42020000 4.22630000 16.17780000
-16.93810000 4.80180000 14.62120000
17.95180000 43.28900000 53.11520000
23.46040000 44.18210000 51.35530000
19.36150000 43.57900000 52.77000000
21.44640000 47.83740000 53.62280000
60.77810000 58.70660000 18.65990000
60.88870000 58.53050000 18.68750000
61.11760000 58.81300000 17.13100000
12.62220000 19.05110000 36.19660000
-21.84740000 57.74400000 -59.77450000
-20.40240000 58.16680000 -60.41520000
-21.13050000 57.92410000 -60.11430000
-21.89900000 58.01580000 -59.87600000
49.71980000 26.68690000 -7.60250000
49.35140000 26.41090000 -8.82360000
13.94130000 8.91300000 -16.67650000
13.59960000 9.15030000 -16.68580000
13.39130000 9.45260000 -16.41590000
30.23840000 16.05330000 -26.67410000
31.48020000 15.87440000 -24.97270000
29.42390000 13.87940000 -23.20770000
-15.82350000 4.12800000 20.21530000
-17.16770000 2.02980000 18.46830000
29.27170000 26.34440000 41.61360000
28.40340000 26.86340000 42.67090000
27.89580000 27.19630000 43.10750000
29.82770000 27.91750000 42.46380000
-13.16800000 0.30900000 -18.35350000
-13.02590000 0.60750000 -18.16220000
23.90930000 58.84800000 -58.48820000
25.43370000 58.49610000 -57.82600000
23.92110000 58.58000000 -58.50550000
15.34400000 58.29880000 61.45220000
19.24550000 58.30090000 60.36320000
-30.14160000 57.25340000 56.01140000
11.68930000 55.26580000 59.44830000
9.36670000 54.21460000 59.37760000
35.21310000 40.85420000 42.40710000
35.53810000 38.35930000 40.77920000
48.44740000 34.95340000 -17.46480000
-9.59220000 54.73880000 -58.12800000
-14.21510000 56.24670000 -57.95590000
-8.47090000 59.16440000 -61.60730000
-4.48430000 59.09990000 -61.98470000
-6.89240000 59.19760000 -61.90340000
55.17960000 37.12250000 5.84240000
55.21790000 37.48360000 7.23680000
55.14020000 38.59840000 10.02450000
3.26880000 12.18140000 35.60400000
-62.15260000 58.17680000 11.38170000
-0.15030000 5.85710000 -22.17710000
-0.43560000 6.06180000 -22.14670000
-0.73520000 5.87730000 -22.21740000
6.35290000 1.01480000 -21.42820000
8.78940000 1.24940000 -20.51040000
52.46570000 59.58030000 -33.92490000
52.09680000 59.61960000 -33.69190000
51.46120000 59.64930000 -35.17610000
50.36520000 59.63940000 -36.35560000
-11.84180000 9.43000000 17.48410000
18.47470000 35.85270000 52.52840000
16.16270000 33.01000000 52.08530000
18.36800000 34.77860000 52.18470000
28.60130000 34.69760000 47.24060000
28.00860000 32.01670000 46.06780000
28.87230000 33.02410000 46.21870000
27.75760000 33.65890000 47.14020000
-9.16260000 44.23970000 55.50180000
-9.86850000 43.27290000 54.92340000
-10.58810000 42.58570000 54.60990000
-10.54350000 44.34690000 55.24940000
-9.72090000 34.11220000 53.88330000
-9.82550000 37.20350000 55.19960000
62.07620000 59.31350000 7.83470000
61.85660000 59.22060000 6.22100000
62.04820000 59.30700000 7.03250000
30.39720000 29.67340000 39.24120000
-46.01490000 37.74290000 -30.45270000
-47.31720000 37.10050000 -27.83920000
-3.20120000 9.15530000 15.54270000
-2.74690000 9.30080000 15.11050000
-2.61800000 9.30420000 15.44580000
-2.22460000 9.29290000 15.29150000
-2.35690000 9.23490000 14.95850000
20.61290000 1.40660000 8.45200000
20.52910000 0.88910000 9.00420000
20.65010000 1.19430000 8.45920000
21.00980000 1.01050000 7.69580000
7.93960000 56.46010000 -61.10390000
19.06920000 18.12110000 -38.12790000
20.82890000 18.62580000 -37.88880000
16.88610000 18.92910000 -39.99940000
61.17040000 55.63810000 6.80120000
-17.00780000 11.78130000 30.47740000
-11.73070000 9.81610000 29.36050000
49.91430000 32.55530000 -18.72320000
-10.78270000 0.59640000 -19.57310000
-2.89160000 0.76580000 -22.20470000
1.63830000 9.21470000 12.75430000
0.70870000 9.04290000 12.74060000
0.38400000 9.02500000 12.39180000
59.18560000 56.16110000 -6.14740000
61.49630000 59.18660000 -4.05730000
-61.67270000 59.00920000 -12.00210000
-35.28880000 24.80860000 34.25640000
-36.04020000 25.44690000 34.12500000
-33.80700000 25.30720000 36.33740000
-10.65120000 40.48710000 -55.22620000
-13.50640000 40.80370000 -54.64080000
-13.48210000 40.42140000 -54.60720000
-16.16290000 39.70420000 -53.58320000
-5.03460000 8.80320000 4.10930000
-4.80970000 8.76040000 4.67170000
-5.26200000 8.81480000 4.85380000
-4.19230000 8.79230000 4.05350000
-42.93020000 47.56650000 -39.60070000
-41.28870000 46.90020000 -41.09910000
-35.06120000 19.33920000 27.01610000
-21.43200000 16.50000000 24.72200000
-22.54850000 16.16810000 22.44710000
-8.38420000 52.34660000 58.64920000
-5.48120000 51.10130000 58.61730000
48.24660000 34.95850000 26.36410000
49.35060000 36.39600000 25.42440000
-17.58200000 5.06820000 -13.60490000
-17.22560000 5.05440000 -14.07810000
-17.30790000 4.72610000 -14.15460000
-17.64470000 4.57960000 -13.67020000
-18.72660000 9.47230000 -9.30960000
-19.30260000 9.35090000 -8.65670000
-19.61780000 9.28430000 -7.85940000
50.16220000 59.57470000 -36.20930000
50.66230000 59.62070000 -36.56720000
-51.96670000 39.35780000 -11.98160000
-52.32640000 40.49340000 -11.40790000
-52.02960000 40.07590000 -12.66500000
-17.96340000 0.69000000 13.08810000
6.49450000 43.32060000 57.95030000
5.09470000 45.07800000 58.67870000
8.02710000 45.45250000 58.54530000
8.06790000 46.89420000 58.95080000
6.56360000 45.44400000 58.65920000
-42.70610000 58.65680000 45.66190000
-17.31120000 32.05320000 50.88730000
-17.74850000 31.00390000 50.20030000
-15.87200000 30.68320000 50.77620000
-31.72040000 47.61070000 47.29350000
-29.61820000 50.05090000 49.72550000
-29.46840000 49.07450000 49.38750000
-26.48670000 50.77150000 51.84680000
-28.23120000 49.28280000 50.22080000
-7.69360000 9.62580000 -18.88030000
-7.93360000 9.44740000 -19.42350000
54.55820000 57.89320000 33.42350000
54.90120000 57.72630000 32.67650000
55.70150000 57.72580000 31.23570000
56.53630000 57.91420000 29.81780000
23.11480000 35.03310000 -48.73820000
21.75640000 34.29630000 -49.05950000
-14.20120000 9.70310000 -11.73820000
-13.84470000 9.75780000 -13.55550000
-11.68680000 9.37270000 -12.77130000
-0.15510000 5.66560000 -22.24270000
1.29720000 5.22280000 -22.26330000
2.16210000 4.73440000 -22.20060000
43.46230000 23.54140000 -20.02280000
44.22820000 23.87590000 -19.05980000
15.55760000 59.28750000 -59.73380000
23.37810000 26.57730000 -43.87860000
24.86560000 24.36840000 -41.39050000
23.43200000 24.97540000 -42.67060000
-18.22780000 1.10540000 -12.45630000
-5.15890000 26.34770000 50.36680000
-6.07270000 28.84010000 51.92590000
-53.46840000 58.04300000 -33.84870000
-53.38260000 57.89540000 -33.79800000
-45.45980000 58.90910000 -43.76890000
-44.38040000 58.86340000 -44.95460000
-43.19510000 58.91150000 -46.03050000
-14.24580000 9.33790000 -8.67390000
-14.48430000 9.25830000 -8.26490000
-14.39160000 9.22470000 -7.92880000
-17.83240000 6.82690000 19.00680000
-58.98550000 59.18150000 -18.70430000
-58.57490000 59.20830000 -20.26010000
-59.35510000 59.23500000 -17.99240000
-59.48960000 59.18800000 -17.20380000
45.81680000 58.44290000 44.56400000
47.98520000 58.34250000 42.35410000
46.96860000 58.32160000 43.52080000
46.48570000 58.22870000 44.12910000
-19.66860000 7.05420000 17.12350000
-20.07390000 7.01900000 16.60270000
-20.23290000 7.47210000 16.72040000
-20.65820000 7.42300000 16.20890000
-18.29800000 2.59490000 12.41480000
-18.97880000 0.83390000 11.42980000
-0.72580000 48.90000000 -56.65560000
-0.09710000 46.74370000 -55.89460000
-26.25480000 7.98510000 4.53790000
16.97330000 9.46740000 3.38100000
17.22520000 9.49770000 3.20110000
16.85560000 9.41700000 2.49460000
37.97520000 16.71550000 17.50310000
38.68410000 16.92760000 16.68080000
39.27810000 17.96560000 18.06710000
-21.86280000 7.38320000 -14.39580000
-22.34900000 7.71870000 -13.90420000
16.71180000 54.65170000 60.01500000
62.37990000 58.26330000 -9.71120000
62.15260000 58.37420000 -11.28310000
32.70040000 58.66080000 -53.95120000
32.63080000 59.11470000 -53.85650000
33.35710000 58.96820000 -53.46820000
31.87200000 58.44000000 55.15790000
-21.03960000 24.89560000 -39.25980000
-25.36100000 26.37370000 -38.25540000
-31.25360000 59.07560000 -53.96680000
-38.85250000 57.29910000 50.06800000
-38.23910000 56.17610000 49.37060000
-27.38530000 59.16870000 -56.53980000
-26.02450000 59.15070000 -57.29680000
52.21890000 35.79560000 2.78030000
52.60210000 36.59610000 0.14170000
52.61080000 37.09490000 -3.87640000
-48.03520000 45.83800000 -32.27570000
-46.23300000 45.46980000 -34.61100000
-44.92630000 27.00400000 -11.95160000
-43.16290000 24.67750000 -10.40070000
23.42150000 59.53330000 -57.41020000
-48.27830000 26.60120000 13.05320000
-48.60970000 26.27020000 11.14390000
-48.10870000 25.38230000 10.40700000
-47.79880000 24.13630000 7.20620000
-48.75990000 26.00160000 9.21610000
40.75290000 22.66760000 -12.15210000
9.52980000 6.73370000 24.36960000
8.62400000 6.70490000 24.68920000
5.79710000 9.47380000 20.40580000
5.26080000 9.54130000 20.40300000
6.55970000 32.02620000 50.63930000
0.35520000 30.07960000 49.82780000
-16.76750000 0.24160000 -17.94860000
-15.87540000 0.31930000 -18.82760000
-15.48450000 0.14260000 -18.84870000
-16.42680000 17.20800000 30.33770000
-19.39500000 17.61000000 29.48150000
-17.91910000 18.02220000 31.41320000
48.78680000 55.21590000 -32.47210000
39.26860000 15.29090000 5.88040000
38.88230000 14.79710000 3.87950000
39.91180000 15.97230000 7.47240000
-21.51970000 6.60080000 -5.91590000
34.76930000 58.73870000 -52.61940000
20.66830000 7.09750000 16.36390000
19.98440000 6.95650000 17.07300000
20.97000000 7.23110000 16.18080000
20.59830000 6.91990000 16.31280000
21.46970000 7.03900000 15.33700000
-24.34700000 21.83670000 -39.38400000
-21.72530000 20.38290000 -39.41120000
-18.33110000 21.19180000 -41.73640000
41.02920000 26.67790000 30.33330000
40.69020000 26.04930000 30.08450000
5.25860000 9.30090000 14.64510000
6.06070000 9.37890000 14.61210000
5.34880000 9.36260000 14.88620000
4.90000000 9.36430000 14.75240000
1.86080000 58.34360000 -63.50980000
-57.34640000 51.91930000 -4.54740000
-56.98050000 51.02560000 -5.23950000
-57.12930000 51.28090000 -5.97230000
-55.44650000 46.16120000 -5.15280000
-55.96080000 48.27630000 -6.57480000
-49.89710000 35.17940000 -12.72570000
-50.76530000 36.59120000 -11.67640000
61.95270000 57.86840000 14.07800000
11.75300000 9.77770000 -15.06920000
11.97170000 9.76500000 -15.37360000
6.50010000 0.83960000 21.32670000
6.30510000 0.51200000 21.61440000
6.81130000 0.58350000 21.40110000
7.53150000 0.81950000 20.99040000
-5.93150000 6.70630000 25.44130000
-5.33110000 7.00650000 25.74080000
3.57680000 0.90000000 21.93660000
4.36810000 4.80030000 22.00320000
3.02020000 1.94020000 21.93090000
41.92870000 50.54710000 -41.30840000
40.49380000 48.42920000 -41.98870000
42.69420000 51.75940000 -40.99440000
8.13670000 58.50330000 -62.92400000
8.91420000 58.42290000 -62.80470000
-23.17910000 35.55270000 46.99820000
-24.58200000 38.05200000 47.49440000
-21.50950000 37.02280000 48.59280000
44.22000000 24.25530000 21.55450000
45.43330000 24.38090000 18.79100000
16.86220000 0.19410000 -15.75450000
34.69490000 55.31950000 -47.12290000
38.19580000 55.06650000 -44.18120000
48.07360000 52.69370000 37.37870000
47.33460000 51.33430000 37.70310000
46.09360000 52.19090000 39.63030000
46.40690000 51.11630000 38.86700000
27.00850000 20.28550000 37.21970000
28.43420000 21.92520000 38.16720000
24.95980000 1.00050000 3.46120000
42.48160000 33.93330000 29.95480000
44.16700000 35.36980000 28.67580000
-21.11770000 0.16280000 -12.24540000
-21.78410000 0.20200000 -11.16190000
-20.00190000 0.09520000 -13.76670000
-20.63620000 0.16630000 -13.06020000
24.08690000 0.26330000 5.19340000
23.64620000 0.27830000 6.97480000
24.19690000 0.25680000 4.59480000
-3.38500000 6.55680000 25.85900000
-2.42470000 6.34520000 25.91080000
-2.10890000 6.96090000 26.10730000
-8.80700000 34.97640000 -50.64620000
-9.39910000 36.07960000 -50.93310000
-8.12500000 36.28510000 -51.41170000
-9.38410000 37.73970000 -51.82280000
-16.51800000 8.24660000 -21.33580000
-15.77970000 8.31410000 -22.08350000
1.59890000 54.13640000 -58.41090000
0.15890000 55.84510000 -59.33220000
-0.61130000 54.64390000 -58.77340000
26.30090000 7.12560000 2.32370000
26.44450000 7.25400000 1.67780000
41.42600000 59.68640000 -46.46970000
42.35440000 59.61800000 -45.09300000
43.00080000 59.66970000 -44.59980000
15.51130000 9.43510000 -3.85550000
13.89500000 9.24580000 -5.34750000
-42.10530000 59.08020000 -46.01100000
-40.24860000 59.10160000 -47.52110000
-40.98600000 59.13050000 -47.15720000
-38.44880000 59.09150000 -49.10400000
15.21930000 58.80680000 -61.46920000
14.43040000 58.79820000 -61.67350000
-13.86690000 8.13520000 -22.94710000
-13.33130000 8.29050000 -23.40940000
29.87900000 58.65920000 -55.62740000
28.39920000 58.98620000 -56.35730000
-1.02100000 33.08320000 -53.40030000
-0.37470000 30.67690000 -52.28260000
1.63120000 31.70320000 -52.65110000
0.31420000 33.76000000 -53.67290000
3.01290000 33.08780000 -53.19410000
37.68390000 19.23240000 5.59880000
50.71270000 27.12120000 -0.04240000
50.48270000 26.74110000 3.80030000
50.34610000 26.46520000 -0.67930000
49.97430000 26.25670000 -3.84210000
20.33780000 0.36330000 -10.61660000
20.84750000 0.10090000 -10.55120000
6.66230000 8.76590000 28.72740000
5.04820000 7.58410000 26.29050000
5.44000000 7.79680000 26.54130000
-34.45920000 58.87250000 -51.68920000
-32.62100000 59.07450000 -53.22170000
-62.65310000 58.68250000 7.24930000
-62.57900000 58.85860000 6.40140000
-62.77900000 58.72860000 5.59000000
-62.74880000 58.88640000 3.96900000
-62.44310000 58.96830000 5.55220000
-2.16970000 42.27390000 57.90570000
-4.29550000 41.59480000 57.41340000
-2.15910000 41.23930000 57.49240000
-6.65840000 10.91980000 -31.75440000
-5.09830000 9.87640000 -30.20220000
-4.20240000 9.49990000 -29.64780000
-14.37240000 6.69710000 17.18320000
-31.23270000 58.36580000 -55.51690000
-29.84730000 58.46070000 -56.25410000
-11.34480000 8.95840000 1.17260000
-10.51930000 8.84680000 -1.99610000
-26.05390000 28.46200000 40.64480000
-23.49930000 28.69830000 42.40890000
44.03580000 36.97390000 -32.45990000
42.86680000 32.99210000 -31.56250000
-16.83230000 0.52630000 -14.65540000
-16.35810000 0.69280000 -14.99690000
-16.46630000 1.40390000 -14.69610000
-5.12640000 0.05300000 -22.54570000
-6.09750000 -0.06780000 -22.56240000
-3.97660000 -0.04100000 -23.05240000
-24.01920000 7.32750000 10.52260000
-24.29600000 7.65000000 10.27430000
17.51160000 9.12250000 12.89420000
17.49670000 8.86050000 13.20770000
17.15150000 9.26730000 13.29750000
-62.84980000 58.84460000 3.16920000
1.48620000 9.19400000 14.03240000
1.34790000 9.29200000 14.34560000
7.96600000 59.36430000 -61.95880000
8.70840000 59.35870000 -61.75620000
9.46450000 59.39000000 -61.64200000
-21.28140000 9.24300000 -0.16960000
-21.40870000 9.03020000 -1.89070000
-12.07640000 8.11910000 -24.01010000
-19.09850000 46.32960000 -54.92970000
-20.54640000 46.99550000 -54.61910000
-21.94140000 47.32510000 -54.16520000
15.94100000 9.50450000 -13.99750000
15.74460000 9.63320000 -13.81460000
15.28550000 9.57170000 -14.48930000
16.37370000 9.51770000 -13.30200000
15.71920000 9.73140000 -13.43120000
16.19940000 9.39550000 -13.86830000
-47.57390000 42.30450000 -30.98150000
-47.09590000 42.32500000 -31.54000000
-45.76770000 41.57350000 -33.23900000
17.37280000 0.27380000 14.94240000
18.67720000 0.04460000 14.14680000
2.40490000 8.86550000 7.02190000
1.90490000 8.90990000 6.92210000
48.26800000 31.41640000 23.39900000
47.44570000 31.08590000 24.46760000
48.11590000 30.12610000 21.93720000
-19.78370000 58.13790000 60.66740000
17.59040000 9.74640000 1.68920000
17.43490000 9.71190000 0.79220000
-5.05590000 43.67650000 58.05100000
-7.92680000 43.59100000 57.69790000
-6.50680000 44.35190000 58.05850000
15.62230000 50.25840000 58.56460000
0.35300000 0.16460000 22.86040000
-0.47930000 0.24940000 22.72080000
40.79180000 58.17430000 49.51330000
40.11880000 58.28490000 49.95000000
33.54050000 58.39960000 53.29610000
32.93160000 58.43020000 53.84510000
31.41500000 58.30620000 54.44090000
-13.13150000 31.47930000 -50.96230000
-16.26470000 30.21770000 -49.42630000
-14.42320000 31.16080000 -50.46320000
-5.65850000 58.21500000 62.83830000
-4.88620000 58.22280000 63.00960000
42.22380000 30.19240000 -30.28420000
42.98060000 30.27150000 -29.22530000
42.27780000 27.97020000 -27.95610000
13.74950000 29.29170000 50.93300000
14.95000000 28.70490000 50.12400000
16.13520000 27.70800000 49.29020000
18.72110000 4.59850000 -18.06490000
0.62830000 57.37390000 64.43750000
20.74910000 25.21390000 -44.22220000
22.38960000 25.32320000 -43.35140000
22.27510000 23.15740000 -41.72620000
-29.15710000 57.89370000 -56.65080000
-12.89740000 14.75400000 37.43570000
-14.15120000 15.41330000 37.84200000
-15.22290000 14.66120000 36.43220000
-18.44540000 16.24380000 37.07240000
-16.02460000 15.40400000 36.94080000
50.33120000 28.48050000 12.28980000
51.18490000 29.41670000 11.14140000
-58.18740000 58.89110000 21.87160000
-57.84090000 58.89510000 22.55860000
-57.73820000 58.88540000 23.35090000
0.38940000 0.66640000 24.87380000
0.98730000 0.39670000 24.69350000
39.45090000 24.65640000 -28.29920000
38.77460000 27.10390000 -31.73440000
38.58270000 25.23900000 -29.99730000
37.60570000 26.99980000 -33.21770000
-32.41030000 44.26570000 45.36210000
-34.32950000 45.84510000 44.50710000
7.59710000 9.17240000 -20.00140000
8.04500000 9.39480000 -19.60330000
56.35250000 40.03430000 3.81940000
9.03300000 9.32250000 19.46140000
8.59350000 9.24650000 19.74740000
7.65390000 9.16080000 20.20560000
-15.38380000 46.80870000 54.91900000
-14.72030000 47.43120000 55.39450000
-14.70320000 48.16560000 55.50800000
55.07070000 42.97250000 -0.31600000
55.94750000 45.45910000 0.45270000
56.98710000 48.67980000 -0.91300000
26.17270000 9.57610000 17.20910000
22.86360000 8.84750000 19.01690000
22.62950000 7.97130000 15.72950000
23.23410000 8.49140000 17.45170000
31.28630000 59.53100000 -53.23050000
32.73060000 59.59070000 -52.52320000
32.59370000 59.50020000 -52.31260000
-59.90170000 54.66490000 9.44480000
-14.01300000 59.14190000 -60.72670000
-14.09430000 59.16240000 -61.17570000
22.20400000 1.15360000 -3.48650000
21.95610000 1.36090000 -4.56910000
26.29090000 32.68390000 -45.93410000
23.38450000 32.96330000 -47.62590000
50.45190000 57.86310000 35.56300000
-16.91520000 29.05470000 45.86490000
55.26570000 57.63880000 31.93320000
54.07660000 57.71210000 34.07420000
-7.30860000 58.09320000 63.55750000
-11.24080000 58.05420000 62.98960000
-1.67700000 9.22740000 -15.30070000
-1.44060000 9.33620000 -16.67310000
-0.58050000 9.20470000 -14.48270000
-53.70290000 38.57850000 -13.83450000
-55.88980000 47.81250000 -16.25820000
8.20950000 9.10090000 11.53060000
8.89120000 9.14810000 11.01180000
8.56600000 9.06610000 10.88490000
8.76060000 9.17280000 10.35530000
21.63870000 8.99050000 2.46530000
21.50530000 9.22520000 2.18750000
21.09710000 17.06790000 27.22600000
43.16820000 26.41020000 26.51660000
42.58510000 26.99650000 28.35520000
42.40170000 26.03320000 27.49750000
-18.77510000 0.46540000 16.18890000
17.52590000 9.80360000 -7.41640000
17.52210000 9.92800000 -8.23300000
-35.11190000 33.93290000 37.39480000
-37.66010000 34.89200000 35.46260000
19.81660000 19.91630000 41.33870000
18.93390000 19.16190000 40.84610000
41.02860000 30.11220000 -31.83050000
39.40380000 30.45200000 -33.84520000
-16.91830000 0.21870000 17.84270000
-15.70300000 0.14760000 18.77910000
-32.99330000 33.01500000 -41.92750000
-34.34400000 35.99270000 -42.64390000
33.39030000 18.32640000 15.54010000
33.86330000 18.05490000 12.92290000
36.21630000 19.98460000 16.01400000
33.07170000 20.14320000 -30.07630000
35.64160000 19.92600000 -26.93300000
35.31340000 20.96580000 -28.92560000
10.13910000 57.83580000 63.60260000
10.16110000 57.26170000 63.65700000
-20.82400000 0.38350000 -8.25100000
-20.62190000 0.72230000 -8.14860000
29.25330000 56.42720000 -51.38150000
30.69740000 58.58720000 -52.25620000
-6.54800000 57.51580000 64.00210000
-5.74910000 57.34620000 64.05900000
-7.79980000 6.67210000 24.89740000
-7.48210000 6.65480000 24.96710000
-7.55520000 7.15320000 25.21700000
-58.87840000 58.52760000 22.99840000
-59.11380000 58.62160000 22.25250000
-61.33390000 59.18360000 -8.73990000
-21.88720000 0.22280000 11.19610000
-22.29070000 0.13620000 10.02250000
-21.54540000 0.17910000 11.72180000
-21.20890000 0.30250000 12.59270000
-4.27410000 0.34950000 -24.46280000
-4.60930000 0.44680000 -24.45140000
-2.97700000 0.37730000 -24.67560000
-8.09670000 29.78020000 52.09570000
-8.85690000 30.73890000 52.52350000
22.34330000 0.75600000 3.13900000
22.24750000 1.03800000 2.85350000
22.36520000 1.23030000 1.19790000
-60.49220000 55.13490000 -4.70370000
-61.05700000 56.28640000 -5.56480000
-11.88320000 14.94590000 -24.50740000
-13.46460000 15.83040000 -26.85310000
-8.26970000 9.77750000 18.13610000
-7.96760000 9.72830000 18.60800000
-8.41030000 9.75450000 18.42690000
45.21360000 44.90910000 -35.12830000
43.37370000 44.85510000 -37.43530000
44.60250000 46.32660000 -36.56080000
42.18920000 44.13590000 -38.34360000
-27.07720000 8.91600000 -8.67160000
-30.09500000 10.40220000 -9.26500000
-24.97920000 8.17750000 -9.44210000
-25.37380000 8.26730000 -8.83620000
3.38650000 59.30230000 -62.48040000
2.57290000 59.00590000 -61.86820000
11.18780000 9.40050000 -17.99100000
23.29690000 0.10830000 2.08950000
23.04430000 0.14400000 3.51000000
22.67590000 0.18420000 4.90810000
22.79670000 0.28730000 3.47660000
27.38350000 55.44810000 -54.30080000
29.55200000 55.83500000 -53.30830000
29.19470000 54.26340000 -52.64450000
-62.34420000 58.18150000 -9.70320000
-62.58310000 58.18640000 -8.12440000
-52.28030000 46.49040000 -19.18160000
-52.03010000 45.40470000 -19.04680000
-52.38330000 46.14690000 -18.46900000
-52.94460000 46.12000000 -17.20390000
-11.97460000 39.23490000 52.83390000
26.19010000 18.25060000 35.18330000
24.33130000 17.40120000 35.43920000
-3.60670000 13.57960000 37.68620000
0.00740000 15.19250000 40.11210000
15.24540000 12.86750000 33.67100000
14.23970000 15.42360000 37.89740000
62.45550000 59.23920000 -8.90630000
45.15730000 32.36790000 23.86570000
-39.32110000 56.01030000 48.13920000
-36.94900000 56.11060000 50.35750000
48.80380000 33.40890000 16.17390000
20.41590000 30.70880000 49.38410000
19.14500000 30.68630000 49.89810000
18.69680000 32.40070000 50.85880000
19.32680000 32.03550000 50.51900000
-16.77830000 29.27350000 -48.69760000
-34.35270000 13.57440000 -12.75770000
-35.74020000 15.06390000 -14.95970000
38.58270000 17.68570000 -17.61830000
39.55830000 18.26560000 -16.89640000
37.80620000 16.96020000 -17.21940000
37.97000000 18.20060000 -19.75280000
46.18710000 51.53030000 -36.96350000
46.47010000 52.72470000 -37.20760000
-17.10710000 9.20070000 -12.72750000
-17.77450000 9.20600000 -11.77380000
-17.60310000 8.99750000 -12.37820000
-18.30400000 9.13980000 -11.08380000
28.05180000 59.57380000 -55.67690000
-56.77380000 55.02740000 15.53970000
30.84400000 57.88840000 56.52240000
30.11010000 57.98620000 56.86950000
-51.72250000 36.60960000 -6.80380000
-51.22270000 36.61780000 -9.23730000
-51.31320000 36.26880000 -7.99770000
-22.38250000 0.12190000 -3.74230000
-22.10140000 0.27630000 -3.98250000
19.61050000 1.17150000 -10.87980000
18.97780000 1.89530000 -11.82850000
19.03010000 1.15680000 -11.86330000
18.73760000 1.04820000 -12.36000000
11.95320000 7.13170000 23.49400000
18.02570000 9.01670000 12.27070000
-9.67290000 6.09450000 20.34220000
-9.46240000 5.76270000 20.52470000
-9.92870000 5.77600000 20.23640000
-10.13830000 6.79030000 20.08070000
-15.58060000 52.28510000 56.88590000
-14.13910000 51.89570000 57.13830000
34.69210000 59.59070000 -51.11090000
54.57080000 53.20790000 26.99120000
52.78950000 51.96730000 29.49360000
-15.77750000 58.08810000 -61.71720000
-18.10030000 58.08000000 -61.11250000
-40.11360000 21.23960000 -21.96960000
-39.12610000 20.47590000 -22.10200000
-38.35520000 21.33050000 -25.00170000
-39.76230000 21.55690000 -23.11050000
-54.61570000 54.38730000 21.80270000
-55.11060000 56.33740000 22.92600000
-3.75680000 6.98110000 22.21760000
-4.25700000 7.30050000 21.95860000
-18.34180000 9.02610000 11.27790000
-36.69090000 45.51680000 -44.73150000
-36.48320000 44.07940000 -44.44680000
-35.79950000 43.36600000 -44.72420000
-2.92860000 58.94900000 -63.32520000
-3.73750000 59.06720000 -63.17520000
-1.31850000 59.10360000 -63.20450000
35.93640000 15.25320000 17.64430000
35.42720000 15.28360000 18.49620000
-32.54920000 16.42680000 -23.71020000
-32.85900000 16.40030000 -23.29250000
-32.89000000 16.16240000 -22.67850000
-9.73070000 7.91090000 -24.73040000
33.07580000 15.09710000 -21.01450000
-25.08630000 59.00980000 -57.07490000
-23.66530000 59.03590000 -57.67060000
22.51400000 0.95360000 -0.46670000
22.51190000 0.84970000 1.19560000
-45.88720000 55.54020000 41.19690000
-44.09800000 55.97760000 43.74120000
48.62060000 24.62960000 8.13810000
48.54610000 24.37450000 6.23900000
-16.30830000 1.29900000 -14.93950000
-16.06040000 1.61890000 -15.09290000
-15.93510000 1.94510000 -15.35670000
57.57530000 58.05190000 -24.84900000
57.87260000 58.44880000 -24.98590000
57.53230000 58.42780000 -25.71880000
59.67160000 58.98370000 -20.51290000
59.40490000 58.96300000 -21.26560000
59.07620000 59.12480000 -21.99790000
21.97890000 0.75860000 11.96090000
21.02870000 0.78250000 13.56760000
21.64150000 0.68020000 12.48620000
-34.28730000 23.36140000 -25.82790000
-40.80100000 26.76680000 -28.70540000
-39.41280000 25.50710000 -29.31690000
5.13310000 8.84490000 -7.35220000
4.02420000 8.78290000 -6.11420000
4.57510000 8.74380000 -6.15800000
-3.73390000 5.96360000 22.12750000
11.25020000 0.78390000 19.29050000
10.74780000 0.88710000 19.51290000
32.99320000 35.11610000 41.10630000
31.07510000 35.83890000 43.00410000
32.79880000 37.96170000 42.87970000
29.48550000 34.45310000 43.21690000
-22.53240000 58.97130000 -59.14310000
-23.27830000 58.92260000 -58.89900000
-23.94880000 59.00520000 -58.43820000
20.03850000 9.42870000 7.63650000
-15.00680000 58.81220000 -61.73390000
18.93570000 0.07070000 -13.57930000
28.88620000 15.72750000 9.61230000
30.37200000 16.23310000 9.94650000
34.63690000 18.15040000 11.10020000
-28.57150000 54.88170000 54.80330000
41.44070000 58.60030000 47.83190000
42.55540000 58.64580000 46.70970000
40.67260000 58.57550000 48.14620000
-17.46110000 9.25410000 12.29680000
-17.06500000 9.34270000 12.66540000
-13.34330000 49.78330000 58.58970000
-11.27030000 51.62430000 59.77150000
-9.03720000 51.84370000 60.26150000
10.46220000 58.35900000 -62.53130000
15.85660000 53.96000000 59.84490000
16.62380000 53.63260000 59.60230000
42.15660000 27.21510000 -20.24980000
42.72290000 27.45280000 -19.83270000
62.00700000 59.38730000 -1.70890000
-45.15860000 53.88030000 -37.06450000
29.06760000 17.14110000 18.62850000
26.27610000 17.40040000 23.37370000
-6.15050000 8.89230000 -27.67920000
-6.86390000 8.98980000 -27.47040000
-7.01560000 8.55530000 -26.62850000
11.46790000 7.60880000 -23.83130000
11.69780000 7.29870000 -23.49760000
11.83020000 7.77010000 -23.78690000
12.62930000 7.31080000 -23.05870000
-9.08630000 7.11290000 24.63970000
-8.75200000 6.92850000 24.67950000
-2.10300000 59.15610000 -63.08450000
0.25810000 59.16050000 -63.02350000
-0.52890000 59.07540000 -63.23860000
20.73680000 5.87940000 8.96180000
20.44930000 6.70230000 9.47510000
-57.87340000 46.34990000 1.60370000
-57.05530000 43.94850000 -2.83250000
-31.61800000 33.98360000 -43.62610000
-33.02170000 40.52280000 -45.71830000
-32.21080000 39.47060000 -45.77940000
52.69690000 55.64720000 -30.30310000
-43.37510000 42.58360000 -36.94230000
-42.89410000 42.98020000 -37.50680000
-42.95580000 43.34310000 -37.57430000
-43.38170000 42.96920000 -36.96520000
-50.37200000 49.66310000 -26.22230000
-51.12020000 47.91650000 -23.30190000
-50.55530000 48.94020000 -25.46220000
-27.61620000 17.12010000 -18.55690000
-24.36020000 17.31890000 -23.30000000
10.31290000 9.88140000 16.66700000
10.20310000 9.92750000 16.94090000
10.05460000 9.86610000 17.62740000
-12.05070000 57.28880000 63.04210000
53.07210000 51.57100000 28.76620000
51.54560000 52.83630000 32.34930000
-6.09740000 0.13610000 23.66720000
-7.00910000 0.23290000 23.58360000
-8.79760000 0.49690000 23.19190000
-21.32480000 0.50000000 12.64960000
-21.83180000 0.32030000 11.51150000
-23.40650000 58.14170000 -59.33020000
-23.38250000 57.93990000 -59.29220000
56.07570000 49.53140000 20.17270000
56.65140000 50.13780000 19.60050000
55.55620000 48.58950000 20.74840000
56.06070000 49.19510000 20.16020000
-50.39730000 56.53230000 -31.76800000
-50.82720000 55.85250000 -30.23100000
-43.41170000 30.37370000 29.30700000
-44.86300000 29.76000000 26.35600000
-12.00510000 0.77260000 -18.74060000
-12.20020000 1.07450000 -18.51290000
-12.65160000 1.51330000 -18.15140000
18.25740000 59.35150000 -60.13700000
19.80800000 59.39730000 -59.50540000
46.87170000 58.45800000 43.43360000
49.33870000 58.51060000 40.47170000
21.47010000 42.96820000 -50.04570000
-23.31670000 14.55320000 31.29480000
-25.75930000 17.04570000 33.47460000
-24.04310000 13.74040000 29.10380000
-22.99520000 14.93040000 -14.47020000
-27.29520000 15.87840000 -12.92440000
-23.04480000 14.59970000 -11.72950000
2.56190000 0.25060000 22.57290000
21.22360000 8.74740000 -5.44710000
20.75410000 8.91400000 -6.75090000
21.07780000 7.95600000 -7.16770000
21.08660000 9.23050000 -4.83640000
21.07580000 9.41920000 -3.99750000
46.72740000 53.36460000 36.47530000
46.26710000 53.08430000 37.02950000
46.39170000 53.68640000 37.13210000
47.68080000 52.13020000 34.45350000
2.17520000 9.28080000 13.04260000
-20.65950000 0.01330000 10.00900000
-11.32570000 0.21030000 19.73880000
-10.66980000 0.10140000 20.28460000
9.59970000 9.42660000 14.76810000
9.48100000 9.38070000 14.59300000
46.12280000 46.12400000 33.31210000
19.94420000 7.59530000 17.89850000
17.41570000 5.42930000 -14.21670000
17.32310000 5.11370000 -14.13880000
17.72620000 4.95100000 -13.73120000
56.93360000 54.46700000 -14.06540000
57.56930000 56.43030000 -14.98630000
-26.97480000 21.10020000 37.78240000
-27.29820000 21.60920000 38.21130000
-26.25330000 21.69280000 38.84670000
32.30460000 56.28810000 -51.71380000
34.36340000 56.41870000 -50.48430000
20.30230000 57.19150000 -56.16900000
22.59120000 57.50540000 -55.49550000
-44.64850000 49.21090000 35.71900000
-43.31590000 49.42880000 37.45790000
-43.54150000 52.45790000 38.82430000
-18.52020000 59.05530000 -59.35140000
-17.77840000 59.06060000 -59.60480000
-16.28610000 59.13050000 -60.07990000
21.77790000 1.35000000 -5.38300000
-6.34050000 -0.00530000 -22.29240000
-8.43850000 -0.06200000 -21.68700000
14.90250000 0.25380000 19.53200000
15.09970000 0.54120000 19.78630000
14.26450000 0.36790000 20.19140000
46.16400000 55.48320000 -36.15380000
46.39800000 57.13520000 -37.27020000
43.91800000 56.05790000 -39.16260000
43.31870000 54.27160000 -38.68700000
54.43700000 59.54750000 -29.56570000
12.81330000 53.59500000 60.44260000
10.56630000 53.35570000 60.82850000
44.44580000 19.28210000 0.29860000
45.77940000 20.56640000 1.95680000
43.83850000 18.78970000 3.11010000
-22.05620000 58.18100000 59.78530000
-21.24320000 58.25360000 59.92140000
-23.54590000 58.23130000 59.13130000
-30.39700000 58.81850000 -55.61600000
39.99550000 59.66110000 -47.29640000
21.89600000 0.84880000 -5.70090000
21.58740000 1.21980000 -6.20010000
21.83010000 1.13810000 -5.39670000
49.11670000 28.20670000 16.07200000
42.66450000 37.12990000 -30.06270000
28.16820000 9.81150000 14.75390000
28.90480000 9.69110000 12.51670000
11.88720000 9.69500000 15.59210000
11.91670000 9.67940000 16.01710000
11.94650000 9.78070000 16.45430000
11.73020000 9.66640000 16.17260000
10.73950000 6.94660000 23.93270000
11.61510000 6.98140000 23.53960000
11.01000000 6.78790000 23.75800000
24.44990000 0.49150000 -5.43260000
24.66020000 0.47400000 -4.20920000
24.73820000 0.46510000 -3.59820000
-15.48410000 9.43160000 4.37450000
-15.39910000 9.53470000 8.08470000
23.69150000 40.34720000 -50.54700000
27.51820000 40.52390000 -48.56620000
-62.29960000 58.74770000 9.71170000
-39.31050000 39.82310000 -39.90000000
-2.44750000 23.26980000 48.51040000
-3.64170000 23.55950000 48.61970000
-2.09570000 31.42910000 -49.55220000
0.85790000 30.24360000 -48.87000000
3.27360000 29.75150000 -48.44440000
33.09920000 43.38210000 -43.29260000
-21.71230000 0.69070000 4.40870000
-21.46760000 0.64530000 5.50930000
-21.62370000 0.41620000 5.53210000
-0.73770000 8.73650000 -4.12520000
-0.50460000 8.65180000 -3.92880000
-0.92260000 8.67690000 -3.73680000
12.66370000 59.38140000 -61.35360000
-49.37320000 36.50260000 17.36380000
-50.57110000 38.13370000 15.88800000
-54.35730000 43.66960000 -7.09770000
-53.90730000 42.59130000 -7.71350000
-37.44750000 15.74790000 13.51930000
-38.37350000 16.22960000 12.74050000
-37.99190000 15.48160000 11.09550000
-36.31800000 14.79040000 13.17970000
7.51200000 9.09020000 9.37560000
7.42400000 9.10300000 10.20480000
43.97370000 21.42530000 -13.93610000
46.15940000 23.01330000 -11.06260000
44.54660000 21.27730000 -11.16020000
42.23110000 20.21330000 -15.66460000
-22.97540000 0.20840000 8.62490000
-23.33540000 0.18210000 7.43810000
-22.49620000 0.06240000 9.11620000
2.76130000 12.70370000 -14.64290000
-0.03590000 12.91950000 -16.87520000
-21.01850000 0.60130000 7.13310000
-21.05920000 0.70020000 6.85700000
-21.33020000 0.63630000 6.05390000
-21.15680000 0.90420000 6.31190000
-20.43590000 21.10220000 41.85130000
-22.12220000 21.32950000 41.24690000
-11.26620000 42.63910000 54.45670000
-10.58040000 41.92260000 54.24260000
-11.28390000 42.27080000 54.37100000
22.24590000 0.16850000 6.58320000
22.48230000 0.17670000 5.74900000
6.60840000 19.52070000 -43.74620000
8.34790000 19.88160000 -43.56280000
8.20260000 19.02540000 -42.86020000
9.44230000 19.50280000 -43.10870000
9.56080000 20.03610000 -43.61470000
10.84060000 20.53370000 -43.84290000
13.97680000 0.13570000 18.33000000
14.38710000 0.03990000 18.39150000
12.66540000 0.05070000 19.42520000
15.11180000 0.13700000 17.47270000
-17.97160000 42.48630000 52.43000000
-16.64100000 42.74010000 52.93820000
-15.94930000 41.30110000 52.58720000
-17.36020000 44.16800000 53.30200000
-16.68870000 44.11270000 53.51510000
-16.66380000 43.42770000 53.22330000
-53.73050000 55.60620000 29.91300000
-52.18110000 55.59160000 32.57780000
-53.52890000 55.82740000 30.67570000
-16.06630000 7.32720000 -20.72620000
-16.11400000 7.50030000 -20.79290000
12.94590000 7.30150000 -22.91380000
-31.68310000 58.43790000 53.83900000
30.90650000 12.58150000 19.21310000
32.21020000 13.80680000 20.55830000
32.97210000 44.70280000 -46.73800000
33.43210000 44.00970000 -46.06370000
34.18490000 45.12140000 -45.92510000
31.90280000 34.90180000 -43.41250000
30.97770000 33.49040000 -43.28990000
31.26040000 34.54390000 -43.68230000
3.03200000 9.11860000 11.99750000
2.95410000 9.07610000 11.69450000
3.55120000 9.14400000 12.20180000
3.31730000 9.14710000 11.93350000
13.92650000 9.36720000 -6.41790000
13.97690000 9.20020000 -5.79850000
19.03160000 9.94320000 6.77220000
18.79990000 9.90890000 7.75780000
19.09230000 9.91770000 7.05820000
16.11890000 7.30800000 21.02290000
16.80790000 7.09270000 20.32260000
17.53960000 7.07350000 19.67850000
-27.45490000 18.25630000 -32.62870000
-23.28730000 17.02160000 -33.99090000
-26.86700000 18.02890000 -32.73900000
12.12900000 15.03590000 37.92420000
8.98420000 15.84800000 40.04980000
-14.02740000 41.88660000 -52.35470000
-12.25540000 0.18840000 21.26500000
-38.19300000 49.84980000 45.76620000
-56.90190000 55.79540000 23.12920000
7.84260000 0.51570000 23.56540000
26.72950000 12.00040000 -22.09040000
27.65010000 12.72910000 -22.91620000
7.18110000 59.36090000 -61.88900000
6.43830000 59.32340000 -62.09320000
4.92450000 59.33650000 -62.31530000
5.67200000 59.31830000 -62.11690000
53.00610000 31.40370000 4.08490000
53.62920000 32.82880000 2.86080000
-4.39160000 42.15730000 55.34490000
-6.46120000 42.28980000 55.14620000
-1.62290000 41.96480000 55.46040000
-3.57660000 44.21080000 56.21960000
-32.37480000 23.38560000 -34.82340000
-32.48170000 24.54760000 -35.89490000
-31.08820000 23.66390000 -36.18300000
-30.48660000 23.35110000 -36.42170000
-22.65200000 34.24640000 -49.03490000
-24.38510000 33.57650000 -47.81580000
-24.54730000 34.60940000 -48.14640000
-21.97450000 34.26930000 -49.22680000
-18.69180000 59.11220000 -60.03540000
29.74090000 41.56360000 46.75940000
28.28660000 43.01990000 48.33760000
29.21220000 44.45270000 48.38710000
-16.52390000 0.31800000 18.31720000
-15.47970000 0.54330000 19.44530000
-15.39350000 0.33920000 19.34800000
-50.42400000 46.50750000 -23.66910000
-50.13560000 47.55970000 -25.15650000
-50.81580000 45.80250000 -22.27770000
48.75880000 59.58730000 -39.14420000
49.03370000 59.67140000 -38.34310000
50.18460000 59.60550000 -37.20980000
4.65620000 9.06660000 9.95110000
5.29650000 9.08120000 10.33120000
4.89580000 9.04970000 9.83850000
19.05220000 7.39820000 -18.36890000
20.14670000 7.16340000 -17.04640000
19.65620000 7.01560000 -17.52950000
32.66570000 16.38280000 25.58160000
59.68520000 59.02510000 18.35590000
59.66690000 59.03750000 19.15430000
-19.48430000 9.39740000 8.04100000
-19.24840000 9.46310000 8.24080000
9.68600000 8.01730000 -25.03030000
9.96360000 7.90970000 -24.76420000
10.66170000 8.01710000 -24.62700000
-1.31430000 59.25690000 -62.77990000
-11.80290000 58.98570000 -62.22990000
-5.69190000 41.00980000 -56.10660000
-32.68830000 25.49040000 31.85530000
7.06200000 16.60650000 -40.22520000
6.06410000 16.80400000 -40.69940000
1.15270000 49.89720000 -59.08600000
61.89790000 59.27970000 7.81940000
61.68340000 59.22160000 9.36370000
61.13840000 59.10850000 11.60340000
59.42090000 57.66590000 13.58780000
-48.26750000 51.99230000 -35.18830000
-47.02990000 52.32610000 -37.11670000
1.27430000 20.80450000 -39.97530000
-14.05120000 9.03500000 -16.24090000
-13.31120000 9.11800000 -16.71560000
-12.67820000 9.02830000 -17.31910000
7.38630000 7.84710000 26.13000000
21.27130000 21.71430000 36.51720000
30.63620000 51.17720000 -50.41970000
20.05060000 9.45500000 -7.36840000
20.27550000 8.94300000 -8.05270000
35.19030000 20.93730000 21.13450000
-0.96740000 58.15780000 63.04500000
-0.18320000 58.23560000 63.29410000
-0.97000000 58.22050000 63.29070000
20.39260000 53.41950000 58.35220000
-25.54080000 33.60130000 48.00050000
-25.20370000 32.23570000 47.41360000
-11.36060000 40.65370000 56.12960000
-15.61940000 41.58840000 55.36830000
37.18050000 22.30060000 -19.40440000
27.56800000 46.90690000 -50.88830000
59.45800000 50.94850000 5.71240000
59.28880000 51.38460000 8.74380000
58.81780000 49.34140000 7.86200000
59.89340000 52.84120000 7.34320000
-9.81110000 51.07710000 57.82430000
-11.25290000 50.53980000 57.38270000
-11.29490000 52.28150000 58.08350000
-10.53110000 48.87120000 56.94780000
-9.81110000 46.78360000 56.23570000
-11.79510000 -0.06350000 -20.08080000
-13.46380000 0.00840000 -18.75150000
-39.24030000 58.15090000 -50.15010000
-41.10990000 58.12410000 -48.58210000
21.53600000 15.32970000 34.06600000
21.52860000 14.26760000 32.26080000
23.16200000 15.75810000 33.76850000
-54.94350000 58.83310000 29.56530000
-54.09480000 58.80390000 30.87140000
-53.31770000 58.79960000 32.21880000
-35.50070000 21.22000000 -28.72410000
-32.69040000 19.97470000 -30.12460000
-35.80360000 21.24730000 -28.21920000
-35.97420000 20.91760000 -27.62260000
-38.99940000 53.20460000 46.61830000
20.35070000 39.89100000 -51.84840000
17.47460000 37.72620000 -52.05140000
18.69890000 35.97490000 -50.97680000
14.52570000 9.08200000 -2.41770000
14.68160000 9.10370000 -1.87790000
14.67600000 9.15980000 -2.83150000
15.00000000 9.29050000 -2.70490000
13.84640000 0.51530000 20.64900000
12.72650000 0.36470000 21.15410000
14.14810000 0.60720000 20.55170000
42.81720000 54.63460000 44.80110000
45.03900000 51.57600000 40.67070000
-58.34460000 58.91710000 -23.70370000
-58.15710000 58.78170000 -24.52710000
-58.97890000 58.87570000 -22.17330000
-10.57030000 20.94090000 45.27670000
-9.71620000 19.83040000 44.46910000
18.69840000 9.38250000 -10.33100000
19.30320000 9.19340000 -9.72970000
-60.89550000 59.01060000 13.60990000
-61.59970000 58.95360000 12.10390000
-47.56430000 58.73320000 40.55130000
-48.51610000 58.75710000 39.31890000
26.74000000 7.73110000 4.72560000
26.01140000 7.48580000 5.93740000
17.15860000 9.86520000 -8.87140000
17.58520000 9.95500000 -8.54420000
29.59240000 46.25970000 48.88800000
57.12100000 59.60130000 -24.67710000
57.83430000 59.56680000 -23.23990000
0.46960000 8.66230000 1.39860000
-0.63440000 8.70690000 1.75140000
0.19010000 8.60860000 1.92290000
-0.93500000 8.67760000 2.64030000
-52.84790000 53.12210000 -23.59240000
-52.40540000 53.26330000 -25.02130000
40.89160000 59.64840000 -47.08880000
41.55010000 59.65160000 -46.60520000
26.78310000 15.10180000 -28.29690000
24.63430000 15.28380000 -30.47890000
-56.88240000 59.21110000 -24.84730000
51.73520000 55.33220000 -31.52670000
50.69790000 55.79050000 -33.63270000
-15.89220000 0.56500000 15.68700000
-46.15670000 59.13170000 -42.22800000
-45.22680000 59.08450000 -43.53720000
54.56330000 44.67590000 -10.05450000
-20.55850000 8.68920000 -7.02910000
-20.14810000 9.04580000 -7.47390000
