-19.80180000 7.98820000 -11.43220000
-20.41610000 8.22060000 -11.49420000
-20.48580000 8.21980000 -11.36610000
-20.55340000 8.22200000 -11.23690000
-20.62020000 8.22370000 -11.10730000
-20.68670000 8.22330000 -10.97770000
-20.59600000 8.00880000 -10.08850000
-20.75310000 8.22050000 -10.84810000
-20.81930000 8.21580000 -10.71850000
-21.20320000 8.62360000 -12.36900000
-22.15400000 8.65130000 -10.80580000
-20.88330000 8.21420000 -10.58790000
-20.94520000 8.21600000 -10.45620000
-21.00660000 8.21680000 -10.32440000
-21.06980000 8.21080000 -10.19370000
-21.13360000 8.20130000 -10.06350000
-21.19640000 8.19250000 -9.93280000
-21.25770000 8.18570000 -9.80130000
-21.31800000 8.17890000 -9.66950000
-21.37650000 8.17420000 -9.53690000
-21.43340000 8.17130000 -9.40360000
-21.48830000 8.17080000 -9.26940000
-21.54190000 8.17180000 -9.13470000
-21.59370000 8.17510000 -8.99940000
-21.64540000 8.17650000 -8.86410000
-21.69710000 8.17670000 -8.72890000
-22.00740000 8.06260000 -7.29960000
-21.75120000 8.16890000 -8.59490000
-22.41550000 8.35290000 -8.25590000
-21.80530000 8.16010000 -8.46100000
-21.85870000 8.15130000 -8.32690000
-21.91120000 8.14330000 -8.19250000
-21.96110000 8.13960000 -8.05700000
-22.01100000 8.13360000 -7.92170000
-22.05940000 8.12900000 -7.78590000
-22.10530000 8.12900000 -7.64900000
-22.14890000 8.13340000 -7.51130000
-22.19260000 8.13580000 -7.37380000
-22.23770000 8.13330000 -7.23680000
-22.28290000 8.12910000 -7.09990000
-22.33050000 8.11680000 -6.96420000
-22.37820000 8.10280000 -6.82850000
-22.42280000 8.09470000 -6.69150000
-22.46440000 8.09190000 -6.55340000
-22.30400000 7.80740000 -4.86350000
-22.50220000 8.09570000 -6.41420000
-22.95520000 8.32580000 -7.04240000
-22.53820000 8.10170000 -6.27450000
-22.57550000 8.10240000 -6.13510000
-22.61420000 8.09770000 -5.99620000
-22.65230000 8.09250000 -5.85710000
-22.68500000 8.09800000 -5.71660000
-22.71720000 8.10310000 -5.57590000
-22.74960000 8.10580000 -5.43520000
-22.78430000 8.10180000 -5.29520000
-22.81920000 8.09570000 -5.15540000
-22.85490000 8.08580000 -5.01580000
-22.88850000 8.07950000 -4.87570000
-22.92030000 8.07560000 -4.73510000
-22.95090000 8.07250000 -4.59430000
-22.21260000 7.41880000 -3.41060000
-22.98140000 8.06740000 -4.45350000
-23.01110000 8.06220000 -4.31250000
-23.03960000 8.05710000 -4.17130000
-24.04990000 8.57240000 -5.50420000
-24.14860000 8.44720000 -3.96790000
-23.06530000 8.05590000 -4.02950000
-23.09090000 8.05250000 -3.88770000
-23.11440000 8.05160000 -3.74550000
-23.13680000 8.05080000 -3.60320000
-23.15860000 8.04920000 -3.46070000
-22.61450000 7.70120000 -2.49800000
-23.17950000 8.04760000 -3.31820000
-23.19810000 8.04890000 -3.17530000
-23.21520000 8.05190000 -3.03220000
-23.23030000 8.05710000 -2.88890000
-23.24630000 8.05830000 -2.74560000
-23.26230000 8.05800000 -2.60240000
-23.27940000 8.05370000 -2.45940000
-23.29680000 8.04710000 -2.31640000
-23.31020000 8.04780000 -2.17290000
-23.32360000 8.04680000 -2.02940000
-23.33680000 8.04440000 -1.88600000
-23.55740000 8.19770000 -2.65030000
-23.79820000 8.19650000 -1.20660000
-23.34740000 8.04610000 -1.74220000
-23.35780000 8.04600000 -1.59850000
-23.36690000 8.04720000 -1.45460000
-22.40630000 7.40700000 -1.48840000
-23.38010000 8.03780000 -1.31120000
-23.39260000 8.02840000 -1.16760000
-23.40330000 8.02080000 -1.02390000
-23.40570000 8.02940000 -0.87970000
-23.40870000 8.03500000 -0.73550000
-23.41250000 8.03780000 -0.59130000
-22.87130000 7.71850000 0.57010000
-23.41980000 8.03220000 -0.44730000
-23.42580000 8.02810000 -0.30330000
-23.43060000 8.02480000 -0.15920000
-23.43350000 8.02350000 -0.01510000
-23.43550000 8.02280000 0.12910000
-23.43680000 8.02230000 0.27330000
-23.43820000 8.02080000 0.41750000
-23.74320000 8.14670000 0.84940000
-23.44090000 8.01560000 0.56170000
-23.44480000 8.00730000 0.70590000
-23.44520000 8.00460000 0.85010000
-23.23180000 7.92100000 1.42210000
-23.44320000 8.00510000 0.99440000
-23.43880000 8.00840000 1.13860000
-23.42910000 8.02070000 1.28270000
-23.42350000 8.02320000 1.42680000
-23.42170000 8.01660000 1.57110000
-23.41780000 8.01320000 1.71530000
-23.41480000 8.00640000 1.85950000
-23.41100000 7.99960000 2.00380000
-23.39850000 8.00860000 2.14740000
-22.69790000 7.65460000 2.52620000
-23.38540000 8.01690000 2.29090000
-23.37160000 8.02460000 2.43440000
-23.35970000 8.02710000 2.57810000
-23.34620000 8.03140000 2.72160000
-24.24160000 8.36620000 2.04580000
-23.33370000 8.03260000 2.86520000
-23.32290000 8.02920000 3.00880000
-22.56250000 7.54200000 3.49300000
-23.31150000 8.02550000 3.15240000
-23.29900000 8.02260000 3.29580000
-23.28640000 8.01770000 3.43920000
-23.27400000 8.01100000 3.58250000
-23.26070000 8.00380000 3.72580000
-23.24130000 8.00700000 3.86840000
-23.21840000 8.01520000 4.01050000
-23.19480000 8.02270000 4.15240000
-23.17350000 8.02380000 4.29460000
-23.15370000 8.02030000 4.43700000
-22.66240000 7.91970000 5.94150000
-23.13280000 8.01730000 4.57920000
-23.11160000 8.01320000 4.72120000
-23.08910000 8.00960000 4.86300000
-23.06540000 8.00630000 5.00460000
-23.45780000 8.10550000 3.75190000
-24.33430000 8.49050000 5.39980000
-23.03620000 8.01170000 5.14510000
-23.00540000 8.01830000 5.28530000
-22.97480000 8.02250000 5.42550000
-22.94340000 8.02630000 5.56560000
-22.91180000 8.02920000 5.70550000
-22.88170000 8.02710000 5.84590000
-22.85040000 8.02630000 5.98590000
-22.81940000 8.02300000 6.12590000
-22.78630000 8.02290000 6.26550000
-22.75340000 8.02060000 6.40510000
-22.26380000 7.92870000 7.45300000
-22.71940000 8.01930000 6.54440000
-22.68610000 8.01470000 6.68380000
-22.65140000 8.01170000 6.82280000
-22.61510000 8.01040000 6.96140000
-22.57740000 8.01060000 7.09960000
-22.53850000 8.01160000 7.23740000
-24.98110000 8.86480000 6.96330000
-22.49650000 8.01810000 7.37430000
-22.45620000 8.01930000 7.51160000
-22.41570000 8.02010000 7.64890000
-22.37510000 8.02040000 7.78620000
-22.33750000 8.01330000 7.92430000
-22.30310000 7.99860000 8.06310000
-22.26630000 7.98770000 8.20140000
-21.52940000 7.66270000 8.68800000
-22.22550000 7.98300000 8.33850000
-22.17820000 7.98960000 8.47330000
-22.12910000 7.99750000 8.60740000
-22.07960000 8.00450000 8.74130000
-22.02870000 8.01260000 8.87460000
-21.97740000 8.02010000 9.00780000
-21.92530000 8.02780000 9.14050000
-21.30150000 7.88530000 9.95730000
-21.87510000 8.03020000 9.27440000
-21.82000000 8.04110000 9.40580000
-23.57190000 8.55320000 8.32380000
-22.24830000 8.22600000 9.42180000
-21.76010000 8.05970000 9.53500000
-21.70230000 8.07270000 9.66550000
-21.64850000 8.07670000 9.79790000
-21.60320000 8.06380000 9.93380000
-21.56170000 8.04240000 10.07090000
-21.50940000 8.04000000 10.20410000
-21.45050000 8.04880000 10.33440000
-21.39130000 8.05700000 10.46430000
-20.52860000 7.84390000 11.46210000
-21.33310000 8.06160000 10.59470000
-21.27570000 8.06300000 10.72550000
-21.21770000 8.06370000 10.85610000
-21.15740000 8.06790000 10.98570000
-21.09720000 8.07050000 11.11540000
-21.04040000 8.06400000 11.24680000
-20.98150000 8.06030000 11.37730000
-20.92150000 8.05670000 11.50730000
-22.57700000 8.55060000 10.67970000
-21.29970000 8.31050000 11.86750000
-20.85530000 8.06410000 11.63410000
-20.78630000 8.07520000 11.75940000
-20.71450000 8.09090000 11.88290000
-20.64640000 8.09650000 12.00900000
-20.58010000 8.09660000 12.13620000
-20.27480000 8.00350000 12.29120000
-20.51300000 8.09690000 12.26300000
-20.44440000 8.09900000 12.38880000
-20.37360000 8.10440000 12.51340000
-19.70900000 7.82430000 12.77670000
-20.30090000 8.11200000 12.63690000
-20.22840000 8.11750000 12.76060000
-20.15620000 8.12090000 12.88450000
-20.08450000 8.12110000 13.00890000
-20.01460000 8.11560000 13.13430000
-19.94400000 8.10990000 13.25930000
-18.96790000 7.79030000 13.80040000
-19.87250000 8.10400000 13.38390000
-19.79580000 8.10940000 13.50520000
-21.16520000 8.55470000 13.49830000
-20.67090000 8.53820000 14.07650000
-19.71730000 8.11750000 13.62540000
-19.64090000 8.11820000 13.74690000
-19.56780000 8.10920000 13.87070000
-19.49150000 8.10580000 13.99240000
-19.41250000 8.10700000 14.11230000
-19.32910000 8.11640000 14.22920000
-19.24650000 8.12200000 14.34660000
-19.16510000 8.12290000 14.46500000
-19.08430000 8.12100000 14.58380000
-19.00290000 8.11880000 14.70230000
-18.91760000 8.12460000 14.81780000
-17.41660000 7.74180000 15.59720000
-18.83260000 8.12800000 14.93360000
-18.74910000 8.12600000 15.05060000
-18.66500000 8.12360000 15.16730000
-18.57950000 8.12280000 15.28280000
-18.49120000 8.12720000 15.39610000
-19.15080000 8.26360000 14.99510000
-18.19890000 8.42140000 16.67810000
-18.40120000 8.13390000 15.50800000
-18.30880000 8.14520000 15.61780000
-18.21560000 8.15680000 15.72690000
-18.12440000 8.16120000 15.83800000
-18.03380000 8.16270000 15.94950000
-17.94310000 8.16270000 16.06110000
-17.85220000 8.16160000 16.17240000
-17.76040000 8.16040000 16.28300000
-17.66770000 8.15980000 16.39280000
-17.57150000 8.16680000 16.49940000
-17.47290000 8.17890000 16.60360000
-17.37490000 8.18710000 16.70860000
-17.27890000 8.18770000 16.81560000
-17.18320000 8.18610000 16.92280000
-17.08740000 8.18220000 17.03000000
-16.99010000 8.18050000 17.13580000
-17.34720000 8.23200000 16.88130000
-16.89050000 8.18320000 17.23920000
-16.79000000 8.18600000 17.34190000
-16.68850000 8.18950000 17.44350000
-16.58730000 8.18990000 17.54550000
-16.48540000 8.19000000 17.64690000
-16.38250000 8.19090000 17.74730000
-15.51890000 8.13870000 18.28190000
-16.27850000 8.19320000 17.84660000
-16.17340000 8.19710000 17.94460000
-16.06840000 8.19790000 18.04280000
-15.96290000 8.19770000 18.14070000
-15.85460000 8.20510000 18.23530000
-15.74430000 8.21750000 18.32750000
-15.63580000 8.22160000 18.42210000
-15.52700000 8.22460000 18.51640000
-14.92300000 8.10430000 18.67810000
-15.41900000 8.22320000 18.61160000
-15.31040000 8.22180000 18.70640000
-17.50880000 8.80800000 18.96960000
-16.79800000 8.94910000 20.05740000
-15.20240000 8.21670000 18.80170000
-15.09420000 8.20990000 18.89690000
-14.98410000 8.20820000 18.98990000
-14.87260000 8.20930000 19.08150000
-14.76240000 8.20420000 19.17450000
-14.65160000 8.19860000 19.26700000
-13.00890000 7.53500000 19.12070000
-14.54110000 8.19010000 19.35970000
-14.42730000 8.19030000 19.44850000
-13.00290000 7.89610000 19.62590000
-14.31110000 8.19690000 19.53400000
-14.19370000 8.20560000 19.61780000
-14.07700000 8.20930000 19.70270000
-13.96090000 8.20810000 19.78870000
-13.84380000 8.20930000 19.87330000
-13.72730000 8.20570000 19.95900000
-13.60910000 8.20700000 20.04210000
-13.48940000 8.21200000 20.12320000
-14.28660000 8.35360000 20.00680000
-13.36870000 8.21900000 20.20290000
-13.24910000 8.21910000 20.28430000
-13.12870000 8.22000000 20.36460000
-13.00900000 8.21510000 20.44630000
-12.88650000 8.22000000 20.52370000
-12.76310000 8.22640000 20.59970000
-12.63970000 8.23080000 20.67580000
-12.51610000 8.23350000 20.75180000
-11.59910000 7.74360000 20.27830000
-12.39280000 8.23310000 20.82830000
-12.26890000 8.23230000 20.90420000
-12.14470000 8.23110000 20.97960000
-12.02070000 8.22580000 21.05550000
-11.89540000 8.22370000 21.12940000
-11.76760000 8.23140000 21.19870000
-11.63900000 8.24030000 21.26670000
-10.22760000 7.99300000 21.32220000
-11.51140000 8.24140000 21.33680000
-13.01430000 8.68900000 21.93370000
-11.38340000 8.24200000 21.40640000
-11.25490000 8.24340000 21.47490000
-11.12530000 8.24820000 21.54150000
-10.99460000 8.25660000 21.60610000
-10.86330000 8.26650000 21.66930000
-10.73360000 8.26280000 21.73640000
-10.60330000 8.26130000 21.80210000
-10.47190000 8.26330000 21.86600000
-10.34120000 8.25920000 21.93150000
-10.21070000 8.25210000 21.99740000
-10.08080000 8.23940000 22.06460000
-9.94830000 8.23740000 22.12690000
-9.81400000 8.24340000 22.18490000
-9.67930000 8.24890000 22.24230000
-9.54430000 8.25330000 22.29910000
-9.40950000 8.25390000 22.35650000
-11.99420000 8.74930000 22.63450000
-11.44700000 8.85900000 23.29520000
-9.27400000 8.25690000 22.41220000
-9.13890000 8.25390000 22.46940000
-9.00270000 8.25640000 22.52350000
-8.31900000 7.85810000 21.88590000
-8.86630000 8.25740000 22.57740000
-8.72970000 8.25640000 22.63120000
-8.59170000 8.26330000 22.68080000
-8.45380000 8.26670000 22.73090000
-8.31570000 8.26860000 22.78090000
-8.17720000 8.27140000 22.82950000
-8.03900000 8.27050000 22.87890000
-7.90100000 8.26460000 22.92920000
-7.76380000 8.25220000 22.98100000
-7.62480000 8.24890000 23.02810000
-6.87040000 7.87980000 22.46010000
-7.48460000 8.25230000 23.07130000
-7.34320000 8.26230000 23.11070000
-7.20260000 8.26340000 23.15270000
-9.47120000 8.94510000 24.29460000
-8.12020000 8.38630000 23.14110000
-7.06240000 8.25970000 23.19570000
-6.92080000 8.26540000 23.23380000
-6.77970000 8.26400000 23.27380000
-6.63850000 8.26140000 23.31330000
-6.49740000 8.25570000 23.35310000
-6.35560000 8.25280000 23.39080000
-6.21340000 8.25190000 23.42660000
-6.07060000 8.25460000 23.46020000
-5.92810000 8.25170000 23.49510000
-5.78500000 8.25300000 23.52740000
-5.64180000 8.25190000 23.55990000
-5.14840000 8.11960000 23.28730000
-5.49820000 8.25370000 23.59030000
-5.35390000 8.26140000 23.61760000
-5.20980000 8.26450000 23.64600000
-5.06580000 8.26360000 23.67530000
-4.92190000 8.25910000 23.70540000
-5.67610000 8.61540000 24.56240000
-4.77820000 8.25010000 23.73660000
-4.63410000 8.24410000 23.76600000
-4.48940000 8.24180000 23.79310000
-4.16490000 8.14710000 23.56680000
-4.34410000 8.24680000 23.81650000
-4.19840000 8.25580000 23.83750000
-4.05280000 8.26180000 23.85880000
-3.90690000 8.26790000 23.87930000
-3.76160000 8.26180000 23.90400000
-3.61630000 8.25390000 23.92890000
-3.47090000 8.24530000 23.95330000
-3.32470000 8.24850000 23.97200000
-3.17830000 8.25180000 23.99000000
-2.69820000 7.93990000 23.35010000
-3.03180000 8.25590000 24.00670000
-2.88540000 8.25480000 24.02470000
-2.73900000 8.25230000 24.04240000
-2.59230000 8.25280000 24.05800000
-3.65260000 8.40850000 24.30080000
-1.90680000 8.92800000 25.96390000
-2.44550000 8.25430000 24.07230000
-2.29850000 8.25910000 24.08440000
-2.15140000 8.26300000 24.09590000
-2.00430000 8.26280000 24.10810000
-1.85710000 8.26290000 24.11930000
-1.70980000 8.26340000 24.12930000
-1.56240000 8.26250000 24.13890000
-1.41490000 8.26260000 24.14730000
-1.26750000 8.25600000 24.15720000
-1.11980000 8.25420000 24.16430000
-0.97200000 8.25810000 24.16820000
-0.82420000 8.25790000 24.17250000
-0.27100000 7.86800000 23.28880000
-0.67630000 8.25820000 24.17540000
-0.52830000 8.25690000 24.17770000
-0.38030000 8.26410000 24.17590000
-0.23230000 8.27250000 24.17270000
-1.11470000 8.94780000 26.00500000
-0.08420000 8.28010000 24.16880000
0.06410000 8.27800000 24.16730000
0.21240000 8.27380000 24.16570000
0.36060000 8.26540000 24.16440000
0.50900000 8.26370000 24.15960000
0.65730000 8.26390000 24.15300000
0.80550000 8.26560000 24.14470000
0.95380000 8.26650000 24.13580000
1.10220000 8.26360000 24.12740000
1.25070000 8.25800000 24.11910000
1.39900000 8.25590000 24.10850000
2.11230000 8.18030000 23.84560000
1.54710000 8.25960000 24.09480000
1.69510000 8.26480000 24.07950000
1.84300000 8.27050000 24.06310000
1.99120000 8.26580000 24.04990000
2.13930000 8.26350000 24.03480000
0.84640000 8.42050000 24.64180000
2.28740000 8.26170000 24.01870000
2.43530000 8.26060000 24.00150000
2.85350000 7.84900000 22.98250000
2.58280000 8.26390000 23.98170000
2.73000000 8.27030000 23.95970000
2.87680000 8.27960000 23.93550000
3.02360000 8.28750000 23.91100000
3.17050000 8.29170000 23.88710000
3.31750000 8.29180000 23.86390000
3.46440000 8.29210000 23.83980000
3.61090000 8.29410000 23.81420000
3.75710000 8.29770000 23.78690000
3.90310000 8.30160000 23.75870000
5.09260000 8.17400000 23.05670000
4.04910000 8.30230000 23.73070000
4.19520000 8.30050000 23.70290000
4.34120000 8.29710000 23.67450000
4.48680000 8.29430000 23.64460000
3.09080000 8.72460000 25.17920000
3.48420000 8.33380000 23.93800000
4.09360000 8.39690000 23.92520000
4.63150000 8.29820000 23.61080000
4.77530000 8.30760000 23.57380000
4.91860000 8.31800000 23.53540000
5.06240000 8.32320000 23.49810000
5.20650000 8.32180000 23.46250000
5.35040000 8.32020000 23.42610000
5.49390000 8.32140000 23.38790000
5.63690000 8.32420000 23.34830000
5.97040000 8.19580000 22.93160000
5.77960000 8.32770000 23.30730000
5.92260000 8.32530000 23.26750000
6.06640000 8.31080000 23.23110000
6.20900000 8.30570000 23.19010000
6.35050000 8.30720000 23.14530000
6.49060000 8.31730000 23.09610000
7.12220000 8.02940000 22.25860000
6.63100000 8.32300000 23.04750000
6.77190000 8.32180000 23.00070000
5.61880000 8.65770000 24.36690000
7.30800000 8.60850000 23.60010000
6.91340000 8.31370000 22.95580000
7.05480000 8.30430000 22.91060000
7.19580000 8.29540000 22.86410000
7.33600000 8.29050000 22.81490000
7.47530000 8.28860000 22.76320000
7.61370000 8.29080000 22.70880000
7.75140000 8.29450000 22.65280000
8.73980000 8.02470000 21.61590000
7.88920000 8.29600000 22.59670000
8.02660000 8.29790000 22.53970000
8.16300000 8.30420000 22.48030000
8.30040000 8.30270000 22.42300000
8.43780000 8.29900000 22.36590000
8.57440000 8.29810000 22.30680000
8.71050000 8.29910000 22.24630000
8.84600000 8.30250000 22.18410000
8.98220000 8.29950000 22.12370000
8.46360000 8.46650000 22.79790000
9.11920000 8.28950000 22.06510000
9.25530000 8.28410000 22.00410000
9.39100000 8.27860000 21.94220000
9.52460000 8.28360000 21.87560000
10.35330000 8.09270000 20.92410000
9.65730000 8.29070000 21.80740000
9.78980000 8.29640000 21.73890000
9.92260000 8.29930000 21.67060000
10.05520000 8.30160000 21.60170000
10.18800000 8.30100000 21.53330000
10.32030000 8.30170000 21.46380000
10.45290000 8.29900000 21.39460000
10.58560000 8.29300000 21.32570000
10.71730000 8.28960000 21.25490000
10.84710000 8.29400000 21.18040000
10.97620000 8.29950000 21.10460000
11.10550000 8.30170000 21.02920000
10.29510000 8.91410000 23.39720000
10.41490000 8.38200000 21.63250000
12.36480000 8.99690000 22.46970000
11.23590000 8.29670000 20.95560000
11.36620000 8.29060000 20.88150000
11.49640000 8.28170000 20.80750000
11.62420000 8.28270000 20.72910000
11.75110000 8.28460000 20.64940000
11.49850000 7.90400000 19.74530000
11.87750000 8.28630000 20.56880000
12.00350000 8.28670000 20.48760000
12.12830000 8.29030000 20.40450000
12.25020000 8.30290000 20.31740000
12.37230000 8.31250000 20.23050000
12.49710000 8.30830000 20.14740000
12.62330000 8.29460000 20.06680000
12.74860000 8.28240000 19.98480000
12.87150000 8.27880000 19.89900000
12.99190000 8.28170000 19.81010000
12.57980000 7.88020000 19.03130000
13.11080000 8.28770000 19.71920000
13.84370000 8.88720000 21.20130000
13.22850000 8.29450000 19.62710000
13.34620000 8.29850000 19.53470000
13.46280000 8.30370000 19.44110000
13.57640000 8.31790000 19.34430000
13.69040000 8.32860000 19.24780000
13.80570000 8.33200000 19.15280000
14.50440000 8.13450000 17.93850000
13.92320000 8.32460000 19.06040000
14.04070000 8.31420000 18.96830000
14.15580000 8.31110000 18.87330000
14.27010000 8.30880000 18.77730000
14.38390000 8.30510000 18.68080000
14.49700000 8.30110000 18.58350000
14.60680000 8.30720000 18.48250000
14.71550000 8.31440000 18.38040000
14.82500000 8.31590000 18.27910000
14.93570000 8.31020000 18.17910000
14.14820000 8.68970000 20.29480000
14.75850000 8.43640000 18.87220000
15.06870000 8.38320000 18.31870000
15.04570000 8.30480000 18.07840000
15.15510000 8.29960000 17.97700000
15.26100000 8.30470000 17.87210000
15.36380000 8.31870000 17.76430000
15.46790000 8.32550000 17.65770000
15.57200000 8.33010000 17.55110000
15.67750000 8.32720000 17.44590000
16.20170000 8.01260000 15.94250000
15.78240000 8.32440000 17.34030000
15.88530000 8.32730000 17.23260000
15.98970000 8.32250000 17.12650000
16.09530000 8.31130000 17.02160000
16.19940000 8.30270000 16.91540000
16.29880000 8.30690000 16.80480000
16.39430000 8.32080000 16.69100000
16.49140000 8.32730000 16.57860000
16.59020000 8.32650000 16.46760000
15.39690000 8.38070000 18.00940000
18.25110000 8.83840000 16.85320000
16.68880000 8.32410000 16.35650000
16.78470000 8.32820000 16.24330000
16.87890000 8.33570000 16.12880000
16.97150000 8.34670000 16.01320000
17.06630000 8.35040000 15.89910000
16.86250000 7.95270000 14.81490000
17.16510000 8.33930000 15.78860000
17.26660000 8.31670000 15.68060000
17.36310000 8.30700000 15.56800000
17.45330000 8.31330000 15.45050000
17.53860000 8.33150000 15.32970000
17.62170000 8.35370000 15.20760000
17.70800000 8.36490000 15.08730000
17.79720000 8.36640000 14.96910000
18.16780000 8.05290000 13.28490000
17.89000000 8.35460000 14.85380000
17.98220000 8.34270000 14.73830000
18.07040000 8.34190000 14.61950000
18.46140000 8.79810000 16.22020000
18.15770000 8.34100000 14.50010000
18.24370000 8.34090000 14.37980000
18.32870000 8.34070000 14.25890000
18.41430000 8.33640000 14.13820000
18.49620000 8.33990000 14.01500000
18.57570000 8.34720000 13.89030000
18.65530000 8.35210000 13.76560000
18.73660000 8.35040000 13.64170000
18.81720000 8.34860000 13.51750000
18.89660000 8.34830000 13.39250000
18.97510000 8.34870000 13.26690000
19.05300000 8.34830000 13.14100000
19.12790000 8.35410000 13.01320000
19.20020000 8.36430000 12.88410000
19.27270000 8.37180000 12.75500000
19.34650000 8.37450000 12.62650000
20.05780000 8.98220000 14.83980000
19.56650000 8.56400000 13.26850000
19.41990000 8.37640000 12.49780000
18.41610000 7.81280000 12.26870000
19.49360000 8.37580000 12.36920000
19.56780000 8.37180000 12.24090000
19.64430000 8.35980000 12.11390000
19.71730000 8.35460000 11.98480000
19.78620000 8.35810000 11.85350000
19.85120000 8.36950000 11.72040000
19.91720000 8.37610000 11.58770000
19.96750000 8.27770000 10.79830000
19.98410000 8.37800000 11.45540000
20.04940000 8.38210000 11.32230000
20.11370000 8.38660000 11.18870000
20.17420000 8.39940000 11.05360000
20.23710000 8.40450000 10.91930000
20.30230000 8.40210000 10.78600000
20.36730000 8.39800000 10.65270000
20.43110000 8.39500000 10.51890000
20.03540000 8.43950000 11.81200000
20.91180000 8.65740000 11.22180000
20.49140000 8.39890000 10.38340000
20.55100000 8.40230000 10.24770000
20.60990000 8.40510000 10.11160000
20.66840000 8.40710000 9.97540000
20.72650000 8.40790000 9.83890000
20.78430000 8.40780000 9.70230000
20.84090000 8.40870000 9.56520000
20.89690000 8.40940000 9.42790000
20.95160000 8.41140000 9.29000000
21.00620000 8.41180000 9.15200000
21.93740000 8.68210000 9.14870000
21.06050000 8.41120000 9.01380000
21.11640000 8.40370000 8.87630000
21.17150000 8.39660000 8.73840000
21.22360000 8.39500000 8.59930000
21.27260000 8.39900000 8.45910000
21.32060000 8.40320000 8.31850000
20.62870000 8.24450000 9.02030000
21.36750000 8.40780000 8.17750000
21.41450000 8.40980000 8.03640000
20.44320000 7.88480000 8.05230000
21.46140000 8.41000000 7.89530000
21.50720000 8.41110000 7.75370000
21.55270000 8.41120000 7.61200000
21.59800000 8.40980000 7.47020000
21.64280000 8.40760000 7.32830000
21.68750000 8.40350000 7.18620000
21.73150000 8.39870000 7.04390000
21.77190000 8.40000000 6.90050000
21.34980000 8.02230000 5.32590000
21.80990000 8.40430000 6.75650000
21.84690000 8.40850000 6.61230000
21.88390000 8.41040000 6.46800000
21.91920000 8.41380000 6.32330000
21.95230000 8.42030000 6.17810000
16.40330000 4.18800000 -12.58370000
15.90800000 5.60680000 -13.08530000
15.90640000 5.68660000 -13.08420000
16.70220000 6.40880000 -12.11480000
15.90650000 5.76650000 -13.08450000
15.90530000 5.84670000 -13.08370000
15.90670000 5.92680000 -13.08520000
15.90920000 6.00700000 -13.08750000
15.91180000 6.08720000 -13.08980000
15.91670000 6.16720000 -13.09420000
15.92150000 6.24710000 -13.09840000
15.92680000 6.32700000 -13.10310000
15.93300000 6.40680000 -13.10850000
15.93840000 6.48660000 -13.11310000
15.94640000 6.56600000 -13.12000000
15.95660000 6.64480000 -13.12870000
15.96850000 6.72310000 -13.13880000
15.97880000 6.80170000 -13.14750000
15.99120000 6.87970000 -13.15800000
16.00620000 6.95690000 -13.17060000
16.02690000 7.03170000 -13.18800000
16.59810000 7.61510000 -12.92430000
16.04840000 7.10610000 -13.20600000
16.07360000 7.17840000 -13.22710000
16.10030000 7.24980000 -13.24940000
16.13010000 7.31910000 -13.27420000
16.16350000 7.38590000 -13.30180000
16.19600000 7.45340000 -13.32870000
16.22710000 7.52210000 -13.35450000
16.25880000 7.59060000 -13.38080000
16.29110000 7.65900000 -13.40760000
16.32660000 7.72460000 -13.43710000
16.36630000 7.78650000 -13.46980000
16.40840000 7.84620000 -13.50450000
16.45530000 7.90000000 -13.54300000
14.93820000 7.16620000 -14.47370000
14.99240000 5.91130000 -14.13750000
16.27440000 7.78400000 -13.57960000
15.96720000 3.32360000 -13.13870000
15.96490000 3.38600000 -13.13620000
15.96200000 3.44890000 -13.13340000
15.95860000 3.51210000 -13.13010000
15.95510000 3.57570000 -13.12670000
15.95120000 3.63980000 -13.12310000
15.94820000 3.70450000 -13.12010000
15.94640000 3.76970000 -13.11820000
15.94440000 3.83550000 -13.11610000
15.94420000 3.90190000 -13.11570000
15.94430000 3.96890000 -13.11550000
15.94430000 4.03660000 -13.11520000
15.94430000 4.10490000 -13.11500000
15.94500000 4.17400000 -13.11530000
15.94610000 4.24380000 -13.11610000
15.94730000 4.31430000 -13.11700000
15.94700000 4.38550000 -13.11660000
15.94490000 4.45750000 -13.11480000
15.94280000 4.53030000 -13.11290000
15.94130000 4.60370000 -13.11160000
15.93990000 4.67790000 -13.11050000
15.93540000 4.75250000 -13.10680000
15.93340000 4.82790000 -13.10510000
15.93220000 4.90380000 -13.10420000
15.93120000 4.98030000 -13.10340000
15.93000000 5.05730000 -13.10250000
15.92790000 5.13460000 -13.10090000
15.92500000 5.21240000 -13.09860000
15.92190000 5.29060000 -13.09620000
15.91730000 5.36910000 -13.09250000
15.91370000 5.44800000 -13.08970000
15.91130000 5.52730000 -13.08790000
15.23320000 3.11970000 -13.99140000
15.88080000 3.19740000 -13.25050000
18.72050000 1.55400000 10.26210000
18.75610000 1.13140000 9.99880000
18.81540000 1.13070000 9.87810000
18.87180000 1.13040000 9.75590000
18.93100000 1.12910000 9.63490000
18.99320000 1.12700000 9.51520000
19.04960000 1.12600000 9.39270000
19.10360000 1.12550000 9.26880000
19.60890000 1.54670000 8.28200000
19.15980000 1.12440000 9.14590000
19.21450000 1.12360000 9.02210000
19.26250000 1.12440000 8.89540000
19.31030000 1.12520000 8.76850000
19.35730000 1.12620000 8.64110000
19.40750000 1.12610000 8.51480000
19.46010000 1.12520000 8.38930000
19.51420000 1.12380000 8.26420000
19.56560000 1.12310000 8.13780000
19.60880000 1.12470000 8.00810000
19.65350000 1.12580000 7.87880000
19.70270000 1.12570000 7.75100000
19.75060000 1.12610000 7.62240000
19.79380000 1.12770000 7.49210000
19.83370000 1.13030000 7.36060000
19.87360000 1.13290000 7.22890000
19.91400000 1.13540000 7.09730000
19.95480000 1.13770000 6.96570000
20.05610000 1.60500000 6.97680000
19.99870000 1.13900000 6.83490000
20.03460000 1.14250000 6.70160000
20.07130000 1.14570000 6.56850000
20.11110000 1.14790000 6.43630000
20.15050000 1.15010000 6.30380000
20.18600000 1.15330000 6.17020000
20.33030000 1.48140000 5.90760000
20.22130000 1.15650000 6.03650000
20.25160000 1.16100000 5.90160000
20.27770000 1.16650000 5.76570000
20.31100000 1.16980000 5.63150000
20.34430000 1.17290000 5.49720000
20.37970000 1.17530000 5.36340000
20.41540000 1.17750000 5.22960000
20.62520000 2.18090000 4.94980000
20.45160000 1.17930000 5.09580000
20.48210000 1.18240000 4.96080000
20.50760000 1.18650000 4.82460000
20.53030000 1.19110000 4.68800000
20.55440000 1.19520000 4.55170000
20.58160000 1.19830000 4.41580000
20.60370000 1.20240000 4.27910000
20.62330000 1.20670000 4.14200000
20.64030000 1.21130000 4.00450000
20.66640000 1.21360000 3.86840000
20.69120000 1.21580000 3.73200000
20.71350000 1.21810000 3.59520000
20.77170000 1.40430000 3.45620000
20.72880000 1.22190000 3.45740000
20.74030000 1.22620000 3.31920000
20.75780000 1.22870000 3.18170000
20.77410000 1.23120000 3.04410000
20.79230000 1.23270000 2.90660000
20.96630000 2.23820000 2.60910000
20.80480000 1.23540000 2.76850000
20.81560000 1.23810000 2.63030000
20.82520000 1.24070000 2.49190000
20.83810000 1.24220000 2.35370000
20.85130000 1.24320000 2.21550000
20.87070000 1.24270000 2.07780000
20.88580000 1.24300000 1.93960000
20.89590000 1.24410000 1.80090000
20.98560000 1.67750000 1.23330000
20.90140000 1.24600000 1.66200000
20.90350000 1.24860000 1.52290000
20.90550000 1.25100000 1.38380000
20.90340000 1.25420000 1.24470000
20.89940000 1.25750000 1.10550000
20.89620000 1.26040000 0.96620000
20.89530000 1.26250000 0.82700000
20.89560000 1.26400000 0.68770000
20.89760000 1.26490000 0.54830000
20.89710000 1.26610000 0.40890000
21.02100000 2.10250000 -0.18020000
20.89760000 1.26700000 0.26940000
20.89350000 1.26870000 0.12990000
20.88510000 1.27120000 -0.00950000
20.87650000 1.27360000 -0.14890000
20.86680000 1.27600000 -0.28820000
20.85730000 1.27820000 -0.42760000
20.85050000 1.27960000 -0.56720000
20.75520000 1.80130000 -2.40570000
20.84620000 1.28020000 -0.70700000
20.83800000 1.28150000 -0.84670000
20.82760000 1.28330000 -0.98620000
20.81510000 1.28540000 -1.12560000
20.80050000 1.28780000 -1.26480000
20.78270000 1.29090000 -1.40370000
20.76230000 1.29430000 -1.54230000
20.74380000 1.29720000 -1.68130000
20.72650000 1.29950000 -1.82040000
20.71100000 1.30110000 -1.95990000
20.69600000 1.30240000 -2.09950000
20.68000000 1.30370000 -2.23910000
20.66210000 1.30520000 -2.37850000
20.64280000 1.30700000 -2.51780000
20.61750000 1.30990000 -2.65620000
20.58450000 1.31430000 -2.79340000
20.55410000 1.56550000 -3.36860000
20.55280000 1.31820000 -2.93090000
20.53070000 1.31950000 -3.07030000
20.50960000 1.32010000 -3.20990000
20.49200000 1.31970000 -3.35030000
20.47290000 1.31940000 -3.49050000
20.45090000 1.31960000 -3.63040000
20.41850000 1.32230000 -3.76830000
20.38390000 1.32550000 -3.90560000
20.34890000 1.32850000 -4.04300000
20.31510000 1.33110000 -4.18060000
20.09830000 2.20940000 -5.46290000
20.28210000 1.33340000 -4.31850000
20.24650000 1.33620000 -4.45580000
20.20710000 1.33980000 -4.59200000
20.16640000 1.34350000 -4.72790000
20.12570000 1.34720000 -4.86390000
20.08210000 1.35150000 -4.99900000
20.04000000 1.35540000 -5.13450000
19.99900000 1.35880000 -5.27040000
19.95890000 1.36180000 -5.40660000
19.91880000 1.36480000 -5.54280000
19.88050000 1.36710000 -5.67960000
19.84520000 1.36860000 -5.81740000
19.80320000 1.37160000 -5.95320000
19.76010000 1.37470000 -6.08860000
19.71520000 1.37800000 -6.22340000
19.67120000 1.38100000 -6.35860000
19.62580000 1.38420000 -6.49330000
19.54190000 1.49720000 -6.76650000
19.57940000 1.38740000 -6.62760000
19.52860000 1.39140000 -6.76040000
19.47190000 1.39650000 -6.89070000
19.41690000 1.40100000 -7.02160000
19.43030000 2.75580000 -7.34470000
19.36290000 1.40520000 -7.15290000
19.31170000 1.40850000 -7.28530000
19.25930000 1.41170000 -7.41720000
19.20600000 1.41480000 -7.54870000
19.15290000 1.41760000 -7.68020000
19.09810000 1.42050000 -7.81090000
19.03920000 1.42390000 -7.93980000
18.98080000 1.42710000 -8.06880000
18.92170000 1.43010000 -8.19750000
18.86460000 1.43250000 -8.32700000
18.86280000 2.39200000 -8.64350000
18.80660000 1.43470000 -8.45610000
18.74700000 1.43710000 -8.58440000
18.68490000 1.43970000 -8.71140000
18.61920000 1.44270000 -8.83650000
18.55660000 1.44490000 -8.96310000
18.49430000 1.44670000 -9.08980000
18.43050000 1.44860000 -9.21560000
18.36470000 1.45060000 -9.34030000
18.29570000 1.45320000 -9.46320000
18.22700000 1.45540000 -9.58610000
18.15810000 1.45730000 -9.70890000
17.54710000 2.43430000 -10.98400000
18.09040000 1.45870000 -9.83220000
18.02070000 1.46020000 -9.95440000
17.95170000 1.46140000 -10.07700000
17.88120000 1.46250000 -10.19860000
17.80890000 1.46390000 -10.31910000
17.73570000 1.46510000 -10.43900000
17.66200000 1.46620000 -10.55860000
17.58510000 1.46780000 -10.67610000
17.50680000 1.46950000 -10.79270000
17.42850000 1.47080000 -10.90930000
17.35090000 1.47160000 -11.02620000
17.27510000 1.47170000 -11.14440000
17.19730000 1.47200000 -11.26120000
17.11820000 1.47230000 -11.37720000
16.90870000 1.69170000 -11.74420000
17.03850000 1.47240000 -11.49270000
16.95820000 1.47250000 -11.60780000
16.87480000 1.47300000 -11.72070000
16.78840000 1.47400000 -11.83140000
16.70510000 1.47390000 -11.94430000
16.20840000 2.36940000 -12.79840000
16.62310000 1.47330000 -12.05820000
16.54050000 1.47260000 -12.17160000
16.45760000 1.47170000 -12.28480000
16.37200000 1.47120000 -12.39590000
16.28490000 1.47090000 -12.50590000
16.19690000 1.47060000 -12.61500000
16.10830000 1.47020000 -12.72370000
16.02050000 1.46940000 -12.83290000
15.93270000 1.46840000 -12.94210000
15.84570000 1.46700000 -13.05190000
15.85300000 1.52120000 -13.05770000
15.85960000 1.57590000 -13.06290000
15.86710000 1.63060000 -13.06880000
15.87450000 1.68550000 -13.07470000
15.88150000 1.74070000 -13.08020000
15.88850000 1.79620000 -13.08560000
15.89550000 1.85190000 -13.09100000
15.90220000 1.90790000 -13.09630000
15.90770000 1.96440000 -13.10050000
15.91330000 2.02100000 -13.10470000
15.91890000 2.07790000 -13.10890000
15.92390000 2.13500000 -13.11260000
15.92830000 2.19240000 -13.11580000
15.93280000 2.25000000 -13.11910000
15.93730000 2.30770000 -13.12230000
15.94060000 2.36570000 -13.12460000
15.94330000 2.42380000 -13.12630000
15.94640000 2.48210000 -13.12840000
15.95040000 2.54050000 -13.13120000
15.95350000 2.59910000 -13.13320000
15.95650000 2.65800000 -13.13520000
15.95890000 2.71710000 -13.13670000
15.96100000 2.77640000 -13.13790000
15.96310000 2.83600000 -13.13920000
15.96520000 2.89580000 -13.14040000
15.96730000 2.95600000 -13.14170000
15.96910000 3.01640000 -13.14270000
15.96980000 3.07720000 -13.14280000
15.97040000 3.13830000 -13.14270000
15.97090000 3.19970000 -13.14270000
15.96950000 3.26150000 -13.14100000
15.84760000 2.30630000 -13.23060000
15.71470000 1.84990000 -13.30570000
15.75860000 1.46550000 -13.16160000
15.66560000 1.46540000 -13.26630000
15.57260000 1.46510000 -13.37090000
15.47760000 1.46510000 -13.47370000
15.22610000 1.62320000 -13.81060000
15.38200000 1.46520000 -13.57570000
15.29100000 1.46370000 -13.68190000
15.19950000 1.46220000 -13.78750000
15.10490000 1.46140000 -13.89020000
15.00820000 1.46100000 -13.99080000
14.91110000 1.46050000 -14.09100000
14.81300000 1.46020000 -14.19010000
14.00280000 2.27480000 -15.14570000
14.71400000 1.45980000 -14.28810000
14.61430000 1.45950000 -14.38530000
14.51470000 1.45880000 -14.48250000
14.41750000 1.45740000 -14.58200000
14.31960000 1.45590000 -14.68070000
14.21840000 1.45510000 -14.77570000
14.11660000 1.45440000 -14.87000000
14.01560000 1.45310000 -14.96510000
13.91420000 1.45180000 -15.05970000
13.81160000 1.45070000 -15.15260000
13.70890000 1.44920000 -15.24560000
13.60360000 1.44840000 -15.33540000
13.49800000 1.44750000 -15.42470000
13.39390000 1.44570000 -15.51560000
13.51690000 2.89610000 -15.63910000
13.28990000 1.44370000 -15.60650000
13.18750000 1.44090000 -15.69920000
13.08540000 1.43770000 -15.79200000
12.97990000 1.43550000 -15.88090000
12.87410000 1.43320000 -15.96930000
12.76300000 1.43250000 -16.05100000
12.65120000 1.43190000 -16.13150000
12.54010000 1.43080000 -16.21280000
12.42870000 1.42960000 -16.29350000
12.31880000 1.42760000 -16.37590000
12.21290000 2.84510000 -16.68010000
12.20940000 1.42510000 -16.45900000
12.09870000 1.42290000 -16.54020000
11.98740000 1.42070000 -16.62050000
11.87660000 1.41800000 -16.70130000
11.76530000 1.41540000 -16.78140000
11.65400000 1.41250000 -16.86130000
11.44800000 1.55790000 -17.04500000
11.54210000 1.40970000 -16.94050000
11.43120000 1.40630000 -17.02100000
11.31520000 1.40490000 -17.09370000
11.19750000 1.40410000 -17.16370000
11.07940000 1.40330000 -17.23290000
9.95250000 1.77910000 -18.01180000
10.96040000 1.40270000 -17.30040000
10.84620000 1.40000000 -17.37570000
10.73210000 1.39710000 -17.45080000
10.61740000 1.39420000 -17.52500000
10.50100000 1.39190000 -17.59620000
10.38230000 1.39040000 -17.66360000
10.26460000 1.38820000 -17.73270000
10.14720000 1.38590000 -17.80210000
10.03000000 1.38320000 -17.87200000
9.91200000 1.38070000 -17.94040000
9.79300000 1.37850000 -18.00720000
9.67310000 1.37640000 -18.07230000
9.55190000 1.37490000 -18.13500000
9.43070000 1.37300000 -18.19780000
9.30970000 1.37080000 -18.26100000
9.19000000 1.36770000 -18.32670000
8.36050000 1.74810000 -18.81510000
9.07040000 1.36430000 -18.39280000
8.94760000 1.36230000 -18.45270000
8.82360000 1.36070000 -18.51040000
8.69750000 1.36010000 -18.56350000
8.57250000 1.35870000 -18.61920000
8.44800000 1.35650000 -18.67610000
8.32410000 1.35380000 -18.73430000
8.20030000 1.35060000 -18.79300000
8.07730000 1.34660000 -18.85350000
7.95190000 1.34390000 -18.90890000
7.82500000 1.34190000 -18.96110000
7.69760000 1.34000000 -19.01220000
7.56960000 1.33830000 -19.06180000
6.73970000 2.51410000 -19.59930000
7.44180000 1.33620000 -19.11210000
7.31370000 1.33390000 -19.16210000
7.18560000 1.33140000 -19.21200000
7.05780000 1.32840000 -19.26290000
6.92820000 1.32660000 -19.30910000
6.79850000 1.32440000 -19.35540000
6.66940000 1.32160000 -19.40350000
6.54070000 1.31820000 -19.45270000
6.41140000 1.31500000 -19.50090000
5.78790000 1.74880000 -19.81830000
6.28190000 1.31180000 -19.54830000
6.15110000 1.30930000 -19.59250000
6.02020000 1.30670000 -19.63650000
5.88890000 1.30430000 -19.67940000
5.75710000 1.30200000 -19.72100000
5.62530000 1.29950000 -19.76290000
5.49330000 1.29710000 -19.80420000
5.35980000 1.29590000 -19.84050000
5.22590000 1.29510000 -19.87530000
5.09150000 1.29450000 -19.90860000
4.95800000 1.29300000 -19.94500000
4.82350000 1.29220000 -19.97810000
4.68840000 1.29210000 -20.00850000
4.03970000 1.67180000 -20.27150000
4.55370000 1.29140000 -20.04030000
4.41880000 1.29070000 -20.07170000
4.28460000 1.28880000 -20.10600000
4.15040000 1.28680000 -20.14010000
4.01560000 1.28540000 -20.17180000
3.88160000 1.28260000 -20.20700000
3.74750000 1.28000000 -20.24130000
3.61240000 1.27830000 -20.27170000
3.47660000 1.27760000 -20.29840000
3.34050000 1.27720000 -20.32300000
3.20390000 1.27750000 -20.34430000
3.06740000 1.27760000 -20.36600000
2.93090000 1.27770000 -20.38650000
2.28680000 2.53280000 -20.67460000
2.79490000 1.27670000 -20.41010000
2.65890000 1.27570000 -20.43280000
2.52270000 1.27500000 -20.45360000
2.38670000 1.27380000 -20.47490000
2.25070000 1.27230000 -20.49590000
2.11470000 1.27100000 -20.51580000
1.97810000 1.27090000 -20.53090000
1.84120000 1.27150000 -20.54250000
1.57330000 1.41110000 -20.60570000
1.70410000 1.27300000 -20.55080000
1.56760000 1.27240000 -20.56440000
1.43130000 1.27130000 -20.57920000
1.29490000 1.27040000 -20.59190000
1.15840000 1.27000000 -20.60250000
1.02170000 1.27020000 -20.60970000
-0.06390000 1.54280000 -20.73190000
0.88520000 1.26980000 -20.61820000
0.74870000 1.26930000 -20.62580000
0.61230000 1.26840000 -20.63430000
0.47590000 1.26740000 -20.64220000
0.33950000 1.26640000 -20.64930000
0.20320000 1.26500000 -20.65640000
0.06680000 1.26390000 -20.66190000
-0.06950000 1.26340000 -20.66420000
-0.20590000 1.26410000 -20.66160000
-0.34220000 1.26380000 -20.66150000
-0.47830000 1.26300000 -20.66250000
-0.61430000 1.26050000 -20.66840000
-0.75030000 1.25840000 -20.67220000
-1.83100000 1.85070000 -20.76940000
-0.88620000 1.25680000 -20.67360000
-1.02190000 1.25690000 -20.66740000
-1.15750000 1.25660000 -20.66220000
-1.29300000 1.25610000 -20.65660000
-1.42830000 1.25510000 -20.65190000
-1.56360000 1.25380000 -20.64770000
-1.69860000 1.25340000 -20.63950000
-1.83330000 1.25290000 -20.63030000
-1.96810000 1.25170000 -20.62290000
-2.10270000 1.25020000 -20.61570000
-2.23720000 1.24880000 -20.60720000
-2.37160000 1.24750000 -20.59770000
-3.17880000 1.65120000 -20.61600000
-2.50560000 1.24660000 -20.58560000
-2.63950000 1.24560000 -20.57340000
-2.77350000 1.24420000 -20.56180000
-2.90730000 1.24270000 -20.54940000
-3.04100000 1.24120000 -20.53670000
-3.17390000 1.24120000 -20.51770000
-3.30640000 1.24170000 -20.49620000
-3.43840000 1.24250000 -20.47270000
-3.57060000 1.24280000 -20.45060000
-3.70250000 1.24330000 -20.42680000
-3.83380000 1.24440000 -20.40000000
-4.64560000 2.12450000 -20.42910000
-3.96570000 1.24400000 -20.37730000
-4.09780000 1.24300000 -20.35580000
-4.23030000 1.24100000 -20.33700000
-4.36230000 1.23940000 -20.31590000
-4.49400000 1.23810000 -20.29260000
-4.62530000 1.23720000 -20.26710000
-4.75630000 1.23640000 -20.24050000
-4.88680000 1.23600000 -20.21150000
-5.01680000 1.23580000 -20.18050000
-5.14640000 1.23610000 -20.14750000
-5.27680000 1.23480000 -20.11830000
-5.40720000 1.23320000 -20.08880000
-5.53770000 1.23110000 -20.05970000
-5.66840000 1.22840000 -20.03160000
-5.79920000 1.22520000 -20.00370000
-6.35140000 1.87770000 -20.00860000
-5.92950000 1.22230000 -19.97370000
-6.05920000 1.22000000 -19.94100000
-6.18800000 1.21840000 -19.90470000
-6.31590000 1.21750000 -19.86490000
-6.44320000 1.21690000 -19.82330000
-6.57160000 1.21480000 -19.78520000
-6.70070000 1.21170000 -19.74920000
-8.17180000 2.11420000 -19.46930000
-6.82960000 1.20840000 -19.71250000
-6.95810000 1.20530000 -19.67410000
-7.08600000 1.20260000 -19.63340000
-7.21490000 1.19860000 -19.59570000
-7.34360000 1.19460000 -19.55700000
-7.47180000 1.19090000 -19.51640000
-7.59920000 1.18790000 -19.47260000
-7.72620000 1.18510000 -19.42750000
-7.85230000 1.18290000 -19.37960000
-7.97840000 1.18050000 -19.33120000
-8.10460000 1.17790000 -19.28260000
-8.23080000 1.17500000 -19.23400000
-8.35730000 1.17180000 -19.18530000
-8.48350000 1.16860000 -19.13590000
-8.60970000 1.16520000 -19.08600000
-9.13240000 1.29080000 -18.92580000
-8.73570000 1.16170000 -19.03520000
-8.86180000 1.15800000 -18.98430000
-8.98780000 1.15410000 -18.93280000
-9.11360000 1.15010000 -18.88060000
-9.23950000 1.14590000 -18.82800000
-9.36330000 1.14320000 -18.77060000
-9.48750000 1.13990000 -18.71350000
-9.61140000 1.13670000 -18.65540000
-9.93930000 1.92990000 -18.71550000
-9.73580000 1.13270000 -18.59830000
-9.86090000 1.12790000 -18.54250000
-9.98570000 1.12320000 -18.48550000
-10.10860000 1.11970000 -18.42460000
-10.22950000 1.11760000 -18.35900000
-10.35030000 1.11520000 -18.29340000
-10.47110000 1.11250000 -18.22760000
-10.59110000 1.11010000 -18.16000000
-10.71180000 1.10680000 -18.09380000
-11.50910000 1.73650000 -17.83270000
-10.83260000 1.10330000 -18.02740000
-10.95330000 1.09950000 -17.96090000
-11.07400000 1.09540000 -17.89420000
-11.19400000 1.09160000 -17.82610000
-11.31230000 1.08870000 -17.75490000
-11.42940000 1.08630000 -17.68160000
-11.54630000 1.08380000 -17.60800000
-11.66420000 1.08020000 -17.53620000
-11.78340000 1.07530000 -17.46630000
-11.90090000 1.07140000 -17.39370000
-12.28040000 1.25430000 -17.22280000
-12.01660000 1.06850000 -17.31810000
-12.13210000 1.06540000 -17.24230000
-12.24660000 1.06270000 -17.16480000
-12.36470000 1.05690000 -17.09320000
-12.48300000 1.05080000 -17.02170000
-12.85640000 1.18100000 -16.83770000
-12.60100000 1.04460000 -16.94950000
-12.71660000 1.03970000 -16.87370000
-12.82680000 1.03850000 -16.79020000
-12.93620000 1.03730000 -16.70580000
-13.04300000 1.03770000 -16.61790000
-13.15080000 1.03690000 -16.53160000
-13.26140000 1.03400000 -16.44900000
-13.37220000 1.03060000 -16.36690000
-13.48390000 1.02610000 -16.28610000
-13.59510000 1.02170000 -16.20470000
-13.70450000 1.01820000 -16.12100000
-14.12510000 1.54930000 -16.00800000
-13.81230000 1.01550000 -16.03520000
-13.91950000 1.01280000 -15.94880000
-14.02570000 1.01050000 -15.86120000
-14.12970000 1.00930000 -15.77120000
-14.23380000 1.00770000 -15.68120000
-14.33780000 1.00590000 -15.59140000
-14.44210000 1.00340000 -15.50210000
-14.54910000 0.99890000 -15.41600000
-14.65450000 0.99520000 -15.32820000
-14.75770000 0.99260000 -15.23790000
-15.20410000 1.17540000 -14.92330000
-14.85820000 0.99150000 -15.14470000
-14.95910000 0.98980000 -15.05210000
-15.05850000 0.98880000 -14.95800000
-15.15750000 0.98770000 -14.86360000
-15.25620000 0.98650000 -14.76900000
-15.35400000 0.98570000 -14.67370000
-15.45090000 0.98510000 -14.57760000
-15.54910000 0.98340000 -14.48290000
-15.64950000 0.98000000 -14.39070000
-15.74910000 0.97670000 -14.29790000
-15.84500000 0.97560000 -14.20120000
-16.11670000 1.30840000 -14.10210000
-15.94070000 0.97410000 -14.10460000
-16.03390000 0.97390000 -14.00560000
-16.12670000 0.97360000 -13.90640000
-16.21670000 0.97460000 -13.80480000
-16.30420000 0.97660000 -13.70120000
-16.39180000 0.97830000 -13.59770000
-16.48210000 0.97780000 -13.49690000
-16.57240000 0.97680000 -13.39620000
-16.82030000 1.20710000 -13.26520000
-16.66030000 0.97690000 -13.29350000
-16.74580000 0.97800000 -13.18900000
-16.83040000 0.97920000 -13.08380000
-16.91730000 0.97830000 -12.98080000
-17.00280000 0.97800000 -12.87660000
-17.47250000 1.10700000 -12.39730000
-17.08850000 0.97690000 -12.77280000
-17.17410000 0.97530000 -12.66910000
-17.25870000 0.97390000 -12.56450000
-17.34220000 0.97270000 -12.45920000
-17.42510000 0.97140000 -12.35350000
-17.50770000 0.96960000 -12.24760000
-18.06880000 1.58590000 -11.85450000
-17.59020000 0.96740000 -12.14170000
-17.67040000 0.96610000 -12.03420000
-17.74810000 0.96580000 -11.92490000
-17.82440000 0.96580000 -11.81470000
-17.90020000 0.96560000 -11.70420000
-17.97320000 0.96640000 -11.59190000
-18.04500000 0.96760000 -11.47880000
-18.65860000 1.46550000 -10.94370000
-18.12090000 0.96570000 -11.36870000
-18.19790000 0.96270000 -11.25930000
-18.27560000 0.95870000 -11.15050000
-18.35350000 0.95400000 -11.04190000
-18.42730000 0.95140000 -10.93050000
-18.49940000 0.94920000 -10.81820000
-18.57040000 0.94720000 -10.70510000
-18.64010000 0.94540000 -10.59130000
-18.70700000 0.94480000 -10.47590000
-18.77190000 0.94490000 -10.35940000
-19.12780000 1.15890000 -9.95940000
-18.83930000 0.94300000 -10.24450000
-18.90600000 0.94100000 -10.12940000
-18.97280000 0.93850000 -10.01430000
-19.03950000 0.93560000 -9.89920000
-19.10150000 0.93510000 -9.78160000
-19.16350000 0.93400000 -9.66420000
-19.22840000 0.93090000 -9.54840000
-19.29100000 0.92860000 -9.43140000
-19.35520000 0.92500000 -9.31540000
-19.75890000 1.31590000 -8.94090000
-19.41650000 0.92270000 -9.19790000
-19.47710000 0.92030000 -9.08020000
-19.53810000 0.91740000 -8.96280000
-19.59970000 0.91370000 -8.84570000
-19.65950000 0.91060000 -8.72790000
-19.71700000 0.90850000 -8.60900000
-20.04200000 1.11270000 -8.18500000
-19.77300000 0.90710000 -8.48940000
-19.83160000 0.90350000 -8.37120000
-19.88740000 0.90130000 -8.25180000
-19.94200000 0.89950000 -8.13190000
-19.99160000 0.90040000 -8.01000000
-20.04180000 0.90050000 -7.88850000
-20.09590000 0.89780000 -7.76870000
-20.14540000 0.89760000 -7.64720000
-20.65400000 1.32500000 -6.87300000
-20.19730000 0.89570000 -7.52680000
-20.24680000 0.89500000 -7.40550000
-20.29430000 0.89500000 -7.28360000
-20.34100000 0.89530000 -7.16140000
-20.38590000 0.89630000 -7.03880000
-20.43070000 0.89700000 -6.91620000
-20.47650000 0.89670000 -6.79410000
-20.52040000 0.89730000 -6.67140000
-20.91330000 1.18550000 -5.98680000
-20.56520000 0.89700000 -6.54920000
-20.60870000 0.89710000 -6.42670000
-20.65230000 0.89680000 -6.30420000
-20.69790000 0.89510000 -6.18250000
-20.74220000 0.89370000 -6.06040000
-20.78700000 0.89180000 -5.93860000
-20.82140000 0.89520000 -5.81340000
-20.85500000 0.89870000 -5.68810000
-20.88920000 0.90160000 -5.56320000
-21.07530000 1.14910000 -5.35340000
-20.92860000 0.90130000 -5.43980000
-20.97040000 0.89920000 -5.31730000
-21.01080000 0.89760000 -5.19430000
-21.04430000 0.89930000 -5.06940000
-21.07970000 0.89960000 -4.94500000
-21.11480000 0.89970000 -4.82060000
-21.40480000 1.41610000 -4.50280000
-21.14810000 0.90040000 -4.69570000
-21.17950000 0.90160000 -4.57030000
-21.20990000 0.90290000 -4.44470000
-21.24290000 0.90240000 -4.31960000
-21.27380000 0.90240000 -4.19410000
-21.64820000 1.38010000 -3.21890000
-21.29840000 0.90530000 -4.06720000
-21.32090000 0.90870000 -3.93980000
-21.33820000 0.91420000 -3.81150000
-21.36140000 0.91630000 -3.68430000
-21.38520000 0.91770000 -3.55710000
-21.41360000 0.91660000 -3.43090000
-21.44180000 0.91500000 -3.30450000
-21.46690000 0.91460000 -3.17750000
-21.48910000 0.91510000 -3.04980000
-21.50950000 0.91600000 -2.92170000
-21.53450000 0.91430000 -2.79430000
