-25.15720000 11.66560000 29.03340000
-26.71970000 11.85890000 27.42530000
-25.60890000 12.14790000 28.42670000
-22.46660000 11.55780000 31.21880000
-23.06300000 11.24460000 30.77640000
4.45070000 13.03170000 -1.49760000
3.57250000 12.96770000 -1.02330000
4.07600000 13.06200000 -2.05940000
3.83210000 12.96130000 0.06170000
-28.78320000 90.71590000 -98.97170000
-25.72340000 90.68550000 -99.94260000
13.32180000 32.29850000 -74.38310000
12.44510000 32.81280000 -74.86550000
14.27590000 32.81120000 -74.53720000
7.68050000 29.49040000 -72.89690000
5.41390000 28.59550000 -72.30520000
74.31270000 65.94080000 -54.59410000
73.85870000 66.79680000 -55.69690000
75.21800000 66.47530000 -53.88270000
71.80940000 65.65390000 -57.61780000
73.28940000 65.93780000 -55.93470000
73.35870000 65.10370000 -55.24530000
-48.51760000 16.96730000 -17.33030000
-48.20690000 16.94750000 -18.24180000
-47.24540000 16.46670000 -16.56760000
-50.80920000 18.08370000 -19.54800000
-50.86020000 18.11460000 -20.29320000
-48.82830000 17.44650000 -20.21540000
-35.02200000 59.31000000 80.95230000
-32.78400000 57.92680000 81.27160000
-30.79720000 58.25340000 82.07570000
-50.84920000 73.86120000 79.25950000
-49.44150000 71.98470000 79.20640000
-53.06050000 69.22240000 75.34670000
-51.80170000 69.77670000 76.53240000
-52.94000000 70.27180000 76.15940000
48.89350000 16.12430000 -17.95030000
52.46930000 17.18220000 -17.56160000
50.18040000 16.28160000 -16.75850000
50.53880000 17.04450000 -21.04490000
53.80950000 18.05240000 -21.31770000
52.21110000 17.51250000 -20.66940000
-82.15920000 47.46920000 -6.28200000
-81.50330000 46.95080000 -10.84310000
-81.19360000 45.53600000 -7.29490000
42.51790000 1.94700000 4.55970000
42.74870000 2.13390000 1.56010000
42.55310000 2.82340000 4.05600000
42.39890000 3.36840000 5.04640000
42.35220000 2.47610000 6.05450000
49.89050000 15.67780000 7.90000000
48.36400000 15.36590000 8.55830000
47.97960000 15.10420000 7.03000000
50.56910000 16.06620000 9.55570000
50.79770000 15.99010000 8.34690000
30.17140000 14.00580000 10.26150000
30.89030000 13.99200000 10.90760000
29.64260000 13.99000000 10.63960000
30.31540000 13.92340000 7.00070000
29.08500000 13.80270000 7.05350000
29.53660000 13.90750000 5.95970000
30.22950000 0.54620000 29.23480000
30.02750000 0.28030000 29.03150000
31.19120000 0.44860000 28.08890000
27.61780000 0.41870000 31.53940000
27.58450000 0.72490000 31.89160000
94.16190000 82.20510000 -19.77320000
94.91750000 83.92280000 -21.14540000
93.51850000 83.12860000 -25.04240000
95.65170000 84.40930000 -18.87620000
4.86140000 12.20760000 -38.21400000
4.38220000 11.85720000 -38.33250000
5.07760000 11.26620000 -38.26480000
2.71960000 11.98170000 -38.49800000
0.78620000 11.29620000 -38.67060000
100.58700000 90.55440000 -18.45430000
97.46990000 88.53020000 -24.77520000
28.83500000 11.45830000 -25.48400000
28.25190000 11.07790000 -26.23880000
27.26570000 10.16000000 -27.30760000
26.76900000 8.58500000 -27.59410000
27.65180000 9.39440000 -26.76100000
50.37910000 40.05230000 -63.21680000
50.66640000 40.81360000 -63.61900000
51.69740000 40.57930000 -62.49820000
51.85940000 45.15370000 -65.34750000
54.36510000 45.69140000 -63.58730000
64.08440000 30.21120000 36.56060000
63.24110000 29.23590000 36.59980000
60.24980000 28.18730000 39.37560000
59.83790000 27.09810000 38.10310000
61.43620000 27.99340000 37.06640000
45.89750000 91.12000000 92.38790000
-77.48850000 90.85000000 68.41350000
-78.64380000 91.40320000 66.87010000
80.34370000 56.70420000 34.74720000
81.01700000 56.11010000 32.75940000
82.10260000 57.51690000 31.52310000
80.92880000 59.50260000 36.21180000
81.79120000 60.05630000 34.86240000
81.32450000 60.62520000 36.41410000
6.45300000 72.79920000 -91.02720000
1.43160000 76.18280000 -92.63320000
1.97560000 72.30650000 -90.98980000
-10.69710000 8.31810000 40.94090000
-7.86330000 8.06510000 41.58100000
-9.42990000 9.83780000 41.26400000
-6.33510000 10.48820000 41.89060000
-5.00740000 8.47170000 42.02940000
18.36550000 5.89370000 -33.83960000
17.72980000 8.73200000 -34.36820000
77.98060000 64.25570000 -42.25850000
79.17370000 64.16290000 -39.85490000
80.09330000 64.85660000 -38.56520000
79.96720000 68.05550000 -41.72840000
-77.13000000 49.16200000 -31.18410000
-77.20380000 50.64190000 -32.25280000
-76.04860000 47.23350000 -31.38970000
-74.27070000 44.46070000 -32.39730000
45.94770000 21.78820000 -4.25290000
39.33420000 21.56770000 -12.38320000
33.39270000 21.01700000 52.48770000
32.05150000 20.30430000 51.74160000
34.83840000 20.58440000 50.62530000
36.60590000 20.03830000 48.07070000
91.14310000 82.88830000 29.70430000
92.67880000 84.75960000 28.36310000
91.81690000 83.15490000 28.08410000
-27.12660000 13.48790000 32.97950000
-25.84620000 13.35490000 33.96630000
-27.04420000 13.75840000 33.29960000
-27.62930000 12.97230000 32.32980000
93.01480000 74.74070000 -20.84830000
93.17490000 75.74740000 -21.50320000
91.97570000 73.99860000 -23.57800000
91.99780000 72.96490000 -21.77310000
91.44900000 73.94900000 -25.84340000
-91.19680000 76.49000000 -23.27180000
-92.23840000 78.16080000 -21.67550000
-91.40680000 77.95700000 -24.48830000
-91.21320000 75.19710000 -20.93010000
-102.50200000 90.86050000 5.05940000
-102.57100000 91.20930000 3.78860000
16.77290000 39.46420000 -78.32220000
16.66100000 38.09940000 -77.66390000
18.41950000 36.77210000 -76.50090000
18.68310000 39.46620000 -77.86480000
19.55080000 38.65360000 -77.22310000
22.18240000 44.36800000 78.69270000
19.41760000 47.37470000 80.72730000
18.30680000 44.88910000 79.90720000
1.76420000 16.27190000 -51.45240000
2.75900000 16.95040000 -53.21470000
3.04750000 16.46490000 -51.88980000
2.92580000 15.46080000 -48.71110000
1.75010000 15.83370000 -50.21550000
2.98440000 15.85450000 -50.13640000
-48.42670000 68.85560000 -74.05090000
-45.16250000 66.75440000 -75.09270000
-47.06150000 71.27660000 -76.07170000
-52.04000000 74.67160000 -74.37740000
-52.26150000 77.45430000 -75.71460000
-54.98090000 77.14510000 -73.57590000
30.94510000 4.17070000 -22.58000000
30.14220000 3.97210000 -23.41650000
29.21940000 3.95850000 -24.44980000
29.27100000 4.80460000 -24.45080000
28.37720000 4.77820000 -25.51630000
89.59650000 68.03620000 -23.43180000
89.21160000 68.64370000 -25.09800000
90.21320000 70.52870000 -24.82810000
90.96960000 71.60290000 -23.86590000
90.46240000 69.72170000 -22.51800000
3.31040000 13.15340000 42.64470000
2.00490000 13.26180000 42.76980000
2.00350000 12.68240000 42.59460000
3.57910000 13.35850000 42.75940000
2.00760000 13.47550000 42.89440000
74.97430000 47.08820000 29.53040000
72.94440000 44.01230000 30.65810000
73.99160000 47.55590000 32.25120000
70.89560000 45.52950000 36.44920000
70.76290000 43.83720000 34.96450000
69.03800000 43.08070000 37.43020000
-30.03230000 82.22210000 -92.82950000
-29.73400000 83.86760000 -93.83400000
-27.95990000 83.63980000 -94.28800000
14.08760000 42.18780000 -80.24880000
15.39310000 40.29190000 -79.00680000
11.04300000 40.59400000 -79.86690000
5.18100000 40.95810000 -80.55080000
6.64330000 40.66900000 -80.29710000
-29.87260000 12.21000000 -23.32740000
-29.66870000 12.94680000 -23.19680000
-28.71010000 10.46870000 -25.08360000
81.23700000 42.92230000 10.48090000
82.46080000 45.12070000 9.11360000
81.80980000 42.87170000 5.63740000
80.85890000 41.22410000 7.53320000
80.87170000 40.95040000 5.60130000
-23.81350000 9.85720000 -29.95440000
-23.21820000 10.65760000 -30.38220000
-24.07350000 10.98620000 -29.55020000
-24.68760000 10.76200000 -29.16410000
-23.86180000 0.24990000 -33.59930000
-22.35850000 0.56420000 -35.04440000
-18.20730000 0.06060000 -36.61120000
-45.28220000 36.45040000 -62.53490000
-46.96070000 35.91980000 -60.84600000
-45.41110000 32.41430000 -58.90760000
-43.54600000 31.40240000 -59.46960000
-44.74840000 30.91350000 -58.07340000
60.73620000 71.09880000 -68.58270000
58.43100000 72.15180000 -71.06400000
57.84390000 67.73640000 -69.14660000
56.08820000 69.38540000 -71.44700000
53.08150000 67.68440000 -72.74790000
53.16620000 63.69020000 -70.67840000
-39.69470000 44.70360000 -67.50400000
-39.41760000 43.30030000 -66.94940000
-39.44560000 49.63060000 -70.33010000
-19.93150000 13.93900000 -9.57970000
-19.18720000 13.86490000 -9.12190000
-19.28740000 13.89050000 -8.29560000
-20.22220000 13.88440000 -6.89510000
-18.22090000 13.87450000 -8.45530000
-18.43930000 13.81480000 -6.65260000
-28.69430000 77.35420000 -90.75480000
-32.81820000 78.87850000 -89.94080000
-27.58500000 0.77400000 26.87100000
74.66010000 80.23580000 -64.28840000
76.08180000 80.89270000 -63.13700000
75.88680000 80.30350000 -62.96080000
74.97360000 77.80830000 -62.13400000
73.48690000 76.73260000 -63.17390000
81.22610000 86.65870000 -58.04480000
80.55470000 85.55310000 -57.55920000
29.97390000 28.19890000 64.64540000
29.63400000 26.51730000 62.91840000
30.60890000 27.71110000 63.97120000
34.48570000 25.11020000 58.75040000
34.05540000 26.35550000 60.48270000
0.38590000 88.87650000 102.05200000
3.53080000 88.24530000 101.53300000
54.74800000 47.05260000 -64.11350000
55.86500000 47.07970000 -63.03710000
59.51830000 47.86030000 -60.16460000
60.34320000 49.19200000 -60.33330000
60.76870000 48.40400000 -59.23760000
-46.36070000 79.38220000 -80.49100000
38.04570000 59.23120000 76.06990000
35.66180000 56.35910000 75.85660000
32.57500000 51.17440000 74.87430000
53.99180000 23.93270000 19.96300000
51.28140000 23.73400000 24.23810000
53.23580000 24.18790000 23.55670000
54.41770000 23.69410000 16.74590000
51.84250000 23.22590000 18.62320000
-8.43740000 91.27350000 -102.20300000
-5.93690000 91.27700000 -102.75600000
-8.48340000 91.22160000 -102.62200000
-1.48060000 91.21120000 -102.62100000
49.83330000 89.14700000 86.54700000
47.33880000 88.35520000 87.20950000
46.15720000 89.46010000 88.89500000
51.95070000 91.32610000 87.56610000
52.09250000 91.49550000 87.79510000
-14.00990000 34.32250000 70.57890000
-15.40690000 33.20410000 69.32270000
-9.87970000 32.77240000 69.95240000
-11.47580000 11.25920000 -40.68870000
-10.34660000 13.29090000 -41.43210000
-10.06260000 13.05950000 -41.39220000
-11.53910000 12.66430000 -40.85340000
-8.71710000 15.96510000 -49.39290000
-12.03510000 15.63330000 -47.49270000
-12.53490000 16.17400000 -49.25930000
-10.53750000 15.95270000 -49.02200000
58.05190000 82.03900000 -77.50090000
60.33360000 82.01300000 -75.74100000
60.32100000 84.53210000 -77.68200000
58.28800000 84.04770000 -78.85410000
15.65600000 15.52200000 -46.57710000
17.32730000 15.23360000 -45.02970000
15.25450000 15.04050000 -45.33100000
14.55550000 15.84850000 -48.21340000
15.12760000 16.16070000 -49.09930000
53.62870000 73.53340000 73.72390000
55.66370000 71.31040000 71.02190000
55.89640000 66.34240000 68.22460000
57.49080000 64.82690000 66.05030000
55.15190000 61.35730000 66.09480000
-24.73740000 25.19050000 -63.42590000
-21.88010000 24.01500000 -63.06230000
-18.50220000 22.64300000 -62.11100000
31.93530000 24.50240000 -51.27050000
32.74820000 23.84900000 -48.62140000
92.14650000 74.71480000 22.17060000
92.10180000 73.39850000 19.82010000
92.75310000 74.96960000 19.95740000
92.08210000 70.88580000 15.20210000
92.34230000 72.01750000 15.81730000
92.01000000 71.48020000 16.33480000
39.01190000 -0.05820000 -6.72560000
38.48800000 0.29490000 -6.84260000
38.59840000 0.07260000 -7.57010000
38.37520000 0.68050000 -5.43590000
38.41700000 0.46450000 -6.13330000
38.82050000 0.29850000 -4.82850000
-27.05040000 13.99170000 17.91180000
-27.91880000 14.00130000 16.19420000
-26.53620000 13.84970000 17.82830000
-27.33430000 13.95960000 23.40860000
-26.22840000 13.89710000 23.08770000
76.48260000 54.31280000 -35.91170000
74.78470000 53.21300000 -38.36580000
74.57740000 49.41820000 -35.00000000
76.29470000 50.81050000 -32.64900000
75.04540000 48.44960000 -32.89610000
75.42300000 46.45240000 -29.56370000
-36.24470000 0.92950000 12.09080000
-36.20190000 0.27680000 13.64020000
-36.16690000 0.79320000 12.58110000
-39.71220000 29.51940000 -60.26420000
-33.79250000 30.58720000 -65.07880000
-36.09540000 29.70670000 -62.82210000
-36.46730000 30.69990000 -63.43930000
66.15810000 30.23820000 21.04350000
68.49280000 32.35160000 21.23550000
67.48840000 30.87540000 19.36990000
66.06430000 29.08670000 16.47630000
66.00420000 29.62910000 19.15540000
67.32220000 30.34140000 17.84030000
-23.45920000 27.82960000 -67.07320000
-24.39030000 26.22050000 -64.76750000
-25.03060000 26.89020000 -65.17500000
-25.06940000 27.90000000 -66.38010000
-24.80440000 29.43310000 -68.05740000
86.81220000 57.69990000 -16.90680000
86.11070000 57.37810000 -20.03330000
87.21570000 59.94630000 -19.25750000
86.50440000 57.96750000 -19.04180000
-62.96750000 90.72780000 81.88290000
-58.59990000 90.13790000 84.61560000
-60.52300000 89.74430000 82.84520000
-58.42370000 89.81460000 84.34130000
-5.54510000 83.95500000 -96.15390000
-3.16560000 83.31380000 -95.94590000
-2.58910000 86.09570000 -97.76860000
-2.57230000 82.11760000 -95.31250000
0.88980000 78.80230000 -93.81680000
0.91990000 80.54180000 -94.70980000
11.14050000 64.65870000 89.58170000
10.53390000 62.99710000 88.96320000
11.64620000 62.96020000 88.91860000
13.01360000 69.34600000 91.34780000
14.43310000 63.80450000 88.84990000
-77.45090000 45.38000000 -9.90980000
-78.40970000 46.59090000 -6.65710000
-79.00980000 47.56430000 -3.31900000
-78.20490000 45.89890000 -3.62900000
-78.73330000 47.22570000 -5.25160000
20.95350000 13.95430000 27.05660000
22.20500000 13.90610000 26.72240000
20.22860000 13.93300000 28.52790000
22.34520000 13.79430000 29.81760000
23.47650000 13.55270000 29.51870000
-49.57880000 62.04560000 70.66260000
-44.85780000 69.78530000 77.78130000
-44.81680000 65.97160000 75.85630000
-47.55850000 69.16850000 75.87140000
-4.12070000 13.88610000 -22.39500000
-3.81900000 13.83220000 -20.99180000
-5.27310000 13.89320000 -20.68630000
-7.00820000 13.90620000 -22.46170000
0.08410000 21.61970000 -63.46390000
2.82380000 21.71990000 -63.68310000
2.41380000 22.49760000 -64.99260000
4.83750000 23.11200000 -65.88940000
0.51080000 20.84210000 -19.33370000
3.66170000 20.84800000 -18.88650000
-0.15260000 21.05300000 -22.92960000
4.48180000 21.03120000 -23.16300000
4.62100000 21.29210000 -28.54620000
66.33480000 28.48840000 -30.54760000
68.88560000 30.30840000 -28.74760000
70.41580000 31.76770000 -27.89800000
27.88820000 13.81050000 24.90130000
26.12280000 13.85140000 26.51630000
30.81340000 13.00690000 22.78240000
29.33600000 13.38310000 24.14930000
29.91540000 13.55070000 23.19160000
-40.32570000 16.73040000 -31.36330000
-40.85580000 16.42340000 -29.40760000
-39.43140000 2.59130000 14.85890000
-39.31620000 3.14620000 14.82600000
-39.75570000 3.04880000 13.55510000
-38.76440000 3.07250000 16.34100000
93.16370000 73.80270000 -17.30570000
92.87360000 72.74800000 -16.64940000
92.65770000 72.95970000 -18.95980000
94.14570000 74.83030000 -13.95710000
94.21590000 74.35170000 -11.61980000
93.83010000 73.77400000 -13.89470000
-32.07010000 14.19840000 -3.97620000
-31.90220000 14.22250000 -5.00240000
-34.37620000 14.15040000 -3.98860000
-33.70710000 14.14890000 -4.58340000
5.04040000 52.96430000 85.41840000
2.95270000 52.43690000 85.19580000
4.59610000 49.67140000 83.94550000
1.26200000 57.12840000 87.32290000
2.89230000 55.19060000 86.43430000
-57.63820000 43.69100000 56.72360000
-54.73540000 37.89470000 55.25880000
38.91490000 16.45940000 34.26850000
44.51200000 18.03110000 34.74540000
43.21120000 17.38060000 33.30250000
45.14760000 18.05140000 33.96090000
69.38970000 83.94080000 -69.27900000
67.53420000 84.59550000 -71.65150000
65.46100000 82.74890000 -71.96240000
73.23030000 85.87370000 -67.16100000
72.58350000 84.58650000 -66.55550000
-34.52740000 4.48740000 -15.14650000
-34.19310000 3.82750000 -16.02520000
-33.82470000 4.68150000 -16.65840000
-35.02330000 4.34050000 -14.06170000
-34.79410000 5.36900000 -14.76050000
-35.08670000 5.32950000 -14.10630000
20.77510000 23.05960000 61.81530000
19.24120000 23.10930000 62.24360000
14.95610000 25.64710000 66.75170000
16.09180000 25.16730000 66.11310000
17.34540000 25.46220000 65.96210000
-8.64790000 23.89000000 65.42070000
-9.50170000 22.34270000 63.05080000
-6.81630000 22.68520000 63.93620000
-11.51980000 25.98510000 67.53400000
-9.29720000 25.17140000 67.00230000
-9.87690000 26.20100000 68.01950000
-50.54630000 37.78710000 -59.19080000
-51.91480000 39.34900000 -59.25750000
-50.58360000 38.85800000 -59.95180000
-50.23920000 39.93700000 -61.02240000
-50.57460000 40.70810000 -61.40380000
-49.66660000 40.49540000 -61.84600000
-59.79850000 81.89390000 77.55170000
-59.44270000 83.91100000 79.11920000
-57.48720000 82.44780000 79.53300000
-56.51370000 82.43640000 80.27290000
-56.98660000 83.98930000 80.97450000
-10.73090000 54.64140000 85.65510000
-11.13710000 53.55920000 85.04820000
-13.78160000 49.42580000 82.77630000
-15.28960000 49.10810000 82.49500000
-14.60780000 47.78400000 81.87140000
-10.46180000 13.97450000 -24.59510000
-11.85440000 14.06380000 -25.06780000
-10.83580000 14.00860000 -26.14970000
-13.03100000 13.95610000 -21.24250000
-13.02970000 13.97320000 -22.73000000
-12.24370000 13.93910000 -21.47520000
-76.64910000 44.94610000 -26.85690000
-77.43520000 46.06100000 -26.02260000
-76.23100000 44.66290000 -27.78070000
49.58340000 17.64520000 -26.87300000
49.33420000 17.28510000 -25.58680000
47.58990000 16.87550000 -26.48640000
46.26470000 16.44730000 -26.06820000
-100.78700000 91.87360000 -11.35530000
-100.56400000 91.50700000 -8.17880000
-99.66050000 90.31800000 -4.94400000
38.35480000 33.28580000 65.26030000
38.28670000 32.08020000 64.26230000
39.24520000 32.59190000 64.08990000
40.59230000 31.14850000 62.01690000
41.97680000 32.58280000 62.45700000
27.66710000 42.49610000 76.04330000
26.67320000 42.25380000 76.17850000
24.47990000 40.11790000 75.71220000
21.65030000 39.82750000 76.42260000
-83.68550000 89.40750000 55.08980000
-80.63300000 86.76300000 56.04930000
-79.57700000 47.73850000 21.72580000
-79.01610000 46.34520000 21.52650000
-78.89100000 46.82830000 23.11050000
-76.36110000 43.22900000 25.45300000
-76.73690000 44.04050000 25.59040000
-76.87870000 42.98740000 23.48510000
-20.37450000 42.73570000 -78.41930000
-18.66690000 44.65120000 -79.82890000
-16.22560000 44.60640000 -80.46950000
-16.62660000 43.80360000 -79.93520000
-84.85620000 75.56800000 41.67980000
-85.02450000 73.55810000 39.12580000
-87.88600000 80.57590000 40.58260000
-46.36910000 15.93420000 -14.04460000
-45.96890000 15.61650000 -11.15660000
28.85520000 13.82070000 2.22080000
32.34550000 13.97750000 1.69940000
31.70340000 13.93050000 0.78590000
32.55480000 13.96730000 0.78780000
6.01350000 6.65500000 38.21640000
5.06210000 6.13030000 38.34140000
4.14770000 6.80250000 38.44520000
6.35310000 9.55130000 38.13440000
6.75580000 7.93440000 38.08190000
24.50270000 32.53610000 66.33400000
24.26960000 31.16910000 64.91180000
21.64780000 31.57860000 66.27040000
18.76010000 30.26100000 65.56930000
20.55650000 29.36150000 63.88040000
17.83760000 28.95740000 64.12040000
-49.30740000 59.51060000 73.12980000
-52.77900000 66.16320000 74.02600000
-50.26350000 65.35620000 75.34970000
-50.86120000 67.85020000 76.18730000
-51.20870000 89.48670000 88.69850000
-50.69280000 87.87390000 87.70700000
-48.96690000 89.48800000 89.93380000
-4.04260000 20.09310000 59.49850000
-5.48640000 19.91270000 59.10830000
-2.13700000 90.61580000 103.20500000
-4.67010000 91.23310000 103.07400000
-8.46470000 91.23000000 102.80700000
-6.57910000 90.96010000 103.03200000
38.72310000 8.07900000 2.93270000
38.59730000 7.51760000 4.26510000
38.52110000 4.56830000 2.66060000
38.39950000 3.04800000 2.86860000
38.49620000 4.12330000 3.32820000
30.02780000 1.75900000 30.10920000
29.85470000 0.87080000 29.92380000
30.71590000 1.52050000 29.37080000
29.62380000 3.66090000 30.43470000
30.67190000 5.15880000 29.34940000
-29.47090000 40.66020000 70.28750000
-30.56840000 42.98660000 71.19660000
-32.90820000 45.07960000 71.35080000
-6.17840000 -0.09180000 39.20170000
-7.93180000 -0.08710000 39.02330000
-8.09780000 -0.00590000 38.62910000
-5.27550000 -0.06970000 39.86230000
-29.51930000 13.97110000 14.14440000
-29.25750000 13.94100000 13.55360000
-28.81520000 13.91790000 14.51150000
-26.93840000 13.80360000 13.78490000
-27.60760000 13.94780000 14.59490000
-27.96600000 13.95860000 13.85630000
18.60730000 35.19580000 74.30260000
18.35140000 36.45820000 75.19910000
16.95740000 36.46920000 75.48140000
15.67530000 41.90290000 78.98040000
14.05490000 39.77560000 78.11810000
28.39380000 90.26510000 -100.00400000
30.21250000 89.64520000 -99.57540000
94.89910000 89.52460000 -42.23760000
96.09360000 89.47830000 -39.29480000
94.82110000 89.28350000 -42.20150000
0.93540000 13.67650000 26.08340000
1.75150000 13.57960000 25.57490000
-0.10690000 13.56570000 24.72800000
-1.51650000 13.61000000 22.33070000
0.04050000 13.61880000 22.51640000
68.74870000 84.48410000 67.75990000
71.59420000 84.62680000 64.82490000
68.09560000 81.94540000 66.37460000
-36.41730000 15.69140000 30.50350000
-36.35910000 15.49450000 29.68940000
-35.16980000 15.29410000 30.62650000
-36.21780000 15.13810000 28.82950000
-37.04310000 15.26430000 27.98100000
-36.36390000 14.99250000 27.84150000
20.49460000 85.17240000 94.94200000
23.58200000 86.15960000 94.88680000
24.53280000 85.03000000 93.89010000
24.38580000 87.25290000 95.49150000
-45.68490000 20.46620000 38.71560000
-50.83110000 22.15210000 36.81670000
-49.80390000 21.33880000 36.06420000
-48.36960000 21.36570000 37.92430000
18.13140000 17.29330000 50.65870000
19.09430000 16.36130000 46.93710000
20.27240000 17.05960000 48.99300000
19.57270000 16.98560000 48.97180000
95.29150000 82.65680000 -27.08900000
96.44890000 83.69840000 -24.88590000
20.76690000 7.95690000 32.64940000
19.39800000 7.85750000 33.51310000
19.60950000 8.91060000 33.34620000
18.54450000 7.14010000 33.93330000
17.05000000 6.65120000 34.61050000
-38.63890000 2.11190000 -16.36230000
-38.90020000 2.92200000 -15.60360000
-38.21700000 2.70310000 -17.31060000
-39.37480000 2.59320000 -14.38930000
31.53520000 17.08790000 42.96970000
30.77450000 16.63410000 41.92720000
31.48560000 16.44090000 40.80840000
32.63760000 16.34130000 39.29520000
31.90740000 15.93370000 38.41130000
32.57250000 15.66700000 36.46030000
95.70200000 80.41780000 -20.92310000
95.45900000 81.41400000 -23.97570000
-2.07410000 12.98120000 -3.63810000
-1.10200000 13.00110000 -3.53270000
-2.05180000 12.96710000 -2.22600000
-3.10030000 13.08930000 -3.35550000
-4.42160000 13.08420000 -3.45900000
-3.77480000 13.04880000 -3.89300000
-34.10160000 75.37910000 88.45570000
-33.36520000 74.07300000 88.14000000
-30.74720000 74.64220000 89.32610000
-32.14380000 72.98840000 88.15150000
-31.41500000 71.60530000 87.84290000
-30.42640000 72.49330000 88.43510000
31.14780000 6.32010000 -22.35020000
30.91890000 5.76040000 -22.77510000
31.39930000 5.48250000 -22.00400000
31.91130000 7.63700000 -21.41970000
31.63530000 6.79330000 -21.82930000
32.25940000 7.19550000 -20.85320000
-3.65740000 30.29440000 -69.09140000
-0.50530000 30.18090000 -69.13030000
-1.79100000 28.68290000 -67.14610000
35.51160000 70.60440000 82.64430000
36.78400000 71.99410000 82.71250000
38.15010000 68.89200000 80.61250000
34.78250000 72.15290000 83.66460000
34.75790000 69.22490000 82.34860000
31.76590000 72.52390000 85.05800000
-8.53850000 43.01260000 77.16920000
-8.76430000 41.37430000 76.25290000
-11.15310000 42.20440000 76.38370000
-14.03950000 48.76550000 79.30010000
-10.92870000 46.84800000 78.85840000
38.62390000 35.30820000 66.60770000
35.90860000 37.33170000 69.44930000
-5.60990000 13.09950000 -2.04310000
-5.85430000 13.12720000 -1.13540000
-6.37260000 13.11080000 -2.63310000
-5.67170000 13.27320000 -5.90050000
-5.57400000 13.18480000 -5.14240000
-6.06990000 13.31790000 -5.71020000
-2.17420000 0.52890000 41.89050000
-8.36750000 0.40200000 40.92770000
-6.80750000 0.37210000 41.16880000
39.15490000 40.72300000 66.02520000
38.37960000 39.09140000 65.37260000
36.83860000 42.46850000 68.36440000
38.73510000 42.20420000 67.18150000
37.64380000 40.74630000 66.91380000
45.10820000 22.17160000 -25.04580000
46.39610000 22.16070000 -22.59190000
45.78660000 22.35220000 -26.60070000
50.88310000 22.69230000 -19.95960000
49.07490000 22.49600000 -22.09160000
48.78660000 22.22580000 -18.13230000
-68.88310000 63.71490000 -56.55410000
-69.89450000 66.01870000 -56.59550000
-68.14640000 64.86390000 -58.07510000
-72.06820000 62.30950000 -51.40550000
-71.42690000 64.29940000 -53.60660000
-17.40880000 8.09490000 38.57400000
-15.95860000 7.27310000 39.23100000
-16.92950000 9.66750000 38.77800000
-14.73730000 10.25620000 39.68880000
2.20980000 67.98100000 91.68030000
7.26120000 65.20670000 90.22610000
8.33050000 62.99070000 89.21070000
-41.04630000 39.65390000 -63.66250000
-42.20430000 36.94570000 -60.76580000
-45.36940000 38.40850000 -59.56210000
-46.99330000 91.54750000 -90.92830000
-44.51000000 91.67190000 -91.71700000
-50.50320000 90.92610000 -89.28720000
-51.58410000 91.43410000 -88.57280000
-76.86880000 48.65170000 31.20490000
-77.68080000 49.45510000 30.42900000
-80.51340000 55.35520000 29.98820000
-79.76200000 53.62660000 30.22160000
73.13620000 44.59030000 -39.42260000
74.27870000 48.13670000 -40.81490000
74.76560000 45.14970000 -36.86110000
72.27980000 40.04070000 -36.00170000
71.87330000 38.70830000 -35.23350000
71.53660000 39.19310000 -36.71070000
22.71540000 13.91600000 -15.50440000
21.35210000 13.83120000 -14.98550000
26.08350000 14.01930000 -15.47670000
28.05660000 14.04400000 -15.68530000
-47.97410000 58.36530000 -72.71280000
-46.64390000 60.30300000 -74.59260000
22.30480000 3.52230000 -31.01360000
21.53780000 2.85310000 -31.60940000
22.23770000 2.58500000 -30.99520000
23.34290000 2.47720000 -30.13310000
23.80600000 3.74310000 -29.87050000
22.84720000 2.90720000 -30.60960000
27.11900000 14.02950000 -17.09220000
27.87390000 14.16450000 -18.35310000
27.78450000 14.07000000 -16.40410000
28.52500000 14.19940000 -16.66700000
29.11850000 14.17630000 -17.53150000
-83.37980000 88.36530000 -50.95440000
-84.78350000 88.60670000 -48.98340000
-80.69470000 84.61790000 -50.65320000
30.00610000 13.18610000 -29.95270000
26.85760000 12.53530000 -32.21630000
27.68140000 12.66970000 -31.59870000
27.33990000 11.38560000 -31.54000000
-36.32260000 12.62780000 21.48040000
-37.27040000 13.47790000 20.16170000
-37.79760000 12.80100000 18.62190000
-39.34670000 13.02630000 15.20750000
-39.75880000 13.34120000 14.21770000
-19.40010000 13.45200000 -37.86670000
-15.24370000 13.72730000 -40.22730000
-13.43020000 13.58370000 -40.68650000
-4.92590000 29.89630000 -73.28930000
-2.82440000 32.01930000 -75.10620000
-6.05260000 32.36450000 -74.99940000
-7.03970000 33.14130000 -75.40740000
-4.26950000 33.07550000 -75.67720000
-5.38500000 51.16560000 -85.00520000
-3.27870000 48.59090000 -84.10230000
1.79670000 45.73750000 -82.86570000
1.31110000 46.85260000 -83.39520000
1.34740000 48.80390000 -84.27170000
36.82060000 9.87490000 -12.04880000
37.36420000 10.88160000 -9.84570000
37.53160000 10.08410000 -9.44600000
-96.52550000 84.49720000 19.81310000
-96.30410000 83.81550000 19.14490000
-95.90550000 83.35770000 20.29060000
-95.43850000 84.10370000 23.91470000
-1.29670000 14.15960000 -30.64740000
-0.85970000 14.21240000 -32.50750000
0.56750000 14.16640000 -32.21100000
-2.09010000 14.20530000 -32.59180000
-1.98920000 14.04830000 -31.73010000
-3.79050000 14.07070000 -31.69690000
73.10850000 35.07800000 -15.04370000
71.73500000 32.95130000 -13.33080000
70.57530000 31.88450000 -14.16250000
-53.35520000 29.11200000 38.56230000
-53.39320000 29.95700000 40.38510000
-54.32610000 24.72220000 18.12590000
-53.63050000 25.05800000 22.60890000
-11.90080000 20.61630000 -60.36270000
-10.25840000 19.36270000 -58.23980000
-8.46420000 19.33820000 -58.56800000
-33.65750000 16.26220000 36.31110000
-30.37700000 16.26430000 39.22630000
-29.66660000 15.82420000 37.83810000
-28.26810000 15.64470000 38.50660000
86.67800000 53.46860000 0.65550000
86.01400000 52.09940000 0.66880000
86.36540000 52.94430000 -0.37490000
83.99520000 47.31910000 2.21880000
84.41980000 48.15030000 -0.79530000
-33.84760000 13.45200000 16.18040000
-35.03370000 13.06540000 14.08620000
-35.42880000 12.64030000 13.47300000
-35.19370000 13.22050000 13.37590000
-43.66070000 62.02930000 -77.03430000
-42.44810000 60.59170000 -77.17150000
-44.86370000 60.89220000 -75.86180000
-47.83710000 70.14360000 -78.26130000
-41.76510000 13.19560000 3.73210000
-42.12610000 13.74610000 4.30860000
-41.97530000 13.51410000 2.68100000
-41.42030000 9.61380000 2.84780000
-41.51860000 11.61840000 2.89000000
66.08550000 41.61950000 40.91990000
65.05280000 40.12600000 41.04740000
64.99510000 42.15100000 43.01820000
62.19740000 39.36390000 44.38850000
-22.86840000 22.54270000 59.57950000
-18.70400000 22.36690000 60.81070000
-24.48200000 22.25060000 58.33100000
-23.24610000 23.17800000 60.54230000
-24.41550000 22.75340000 59.18500000
-41.90790000 22.00180000 -18.23450000
-40.11420000 21.90150000 -18.98120000
-39.15450000 21.96880000 -22.80540000
-3.02560000 13.50350000 21.16900000
-2.24630000 13.54110000 23.34150000
-2.52110000 13.56620000 18.62870000
-5.67230000 13.54100000 19.16950000
-21.58430000 65.93170000 85.36480000
-24.17460000 69.18680000 86.17340000
-25.28110000 72.69520000 87.48680000
-22.96860000 71.39510000 87.51880000
7.91470000 13.20280000 -2.47730000
8.73380000 13.29540000 -4.28230000
6.68810000 13.18350000 -3.76960000
7.36060000 13.17630000 -3.24310000
5.83290000 13.09620000 -3.38050000
-76.61800000 91.02820000 66.85670000
-78.95360000 90.93490000 63.85730000
-79.55830000 91.63530000 64.32580000
-38.61760000 0.12560000 0.77030000
-38.91000000 -0.02710000 -0.22680000
-39.29680000 -0.08920000 -0.98830000
-38.88460000 -0.06130000 -1.72210000
-75.80840000 81.96300000 61.94150000
-76.71050000 82.53660000 61.11540000
-78.07630000 82.10090000 59.11470000
1.04310000 90.20450000 103.02500000
1.68640000 90.55160000 103.17200000
8.06860000 90.58180000 102.94300000
-21.91600000 -0.15360000 33.22990000
-20.37290000 -0.16840000 34.51280000
-25.54390000 0.07590000 29.78480000
-24.50500000 -0.04510000 30.87590000
-25.75350000 -0.12090000 30.39310000
-83.90240000 90.32090000 -57.31010000
-85.24950000 90.29230000 -55.16990000
-89.32470000 91.28580000 -49.50860000
-89.48160000 90.79910000 -48.88960000
71.03940000 87.43280000 71.63780000
-52.19920000 64.52040000 -72.78530000
-77.64920000 51.92110000 33.31570000
-76.53630000 50.26120000 33.93260000
-76.93420000 51.05610000 34.13000000
-78.00710000 57.69250000 38.40750000
18.39180000 25.24010000 -58.97040000
13.25110000 26.22460000 -62.22240000
-70.17290000 60.68530000 53.66810000
-71.26460000 62.90490000 53.82560000
-71.71370000 61.25550000 52.05810000
-68.78230000 59.23690000 54.66620000
-36.24570000 13.84340000 6.72600000
-36.57970000 13.91600000 3.38490000
-36.92620000 13.56800000 4.88680000
-37.43640000 13.24010000 3.23450000
38.35640000 12.32640000 4.28760000
38.56430000 11.27680000 4.75030000
38.27200000 12.00320000 5.61320000
37.90500000 13.09800000 5.56560000
-93.41280000 81.79550000 -10.72530000
-93.92700000 83.49690000 -13.81610000
-94.87890000 84.40280000 -10.39890000
-97.84930000 87.87040000 -2.90890000
11.65830000 14.14260000 -32.56700000
13.37760000 14.10310000 -32.90370000
6.55290000 14.13860000 -34.56600000
8.53140000 14.10980000 -34.43350000
13.27450000 -0.05550000 37.83420000
12.09810000 -0.09330000 38.07650000
12.44790000 -0.04830000 37.58160000
10.65020000 -0.03810000 38.21040000
88.42080000 84.54190000 44.98010000
-70.65830000 82.21190000 64.39280000
-66.30430000 83.64740000 70.04050000
-66.23560000 81.36300000 68.37500000
-68.30460000 84.34720000 68.63230000
12.68150000 85.04930000 -99.53690000
13.93560000 85.61790000 -99.65220000
15.62340000 84.42370000 -98.71280000
101.90500000 91.07900000 6.45050000
101.72800000 91.26530000 10.80980000
101.65600000 91.27970000 13.94000000
102.18500000 91.26100000 8.98590000
-16.79030000 57.32760000 -82.65130000
-15.83360000 64.67740000 -85.85820000
-18.14120000 66.43190000 -86.09710000
-16.22880000 62.98880000 -85.09660000
-41.29780000 43.21690000 -69.50160000
-42.79700000 44.04180000 -69.06400000
-46.01560000 42.41250000 -65.90180000
-45.53460000 40.75560000 -65.26880000
-47.47290000 40.77440000 -63.78520000
56.27510000 83.61550000 -83.28010000
57.75170000 83.59120000 -82.25590000
38.35490000 9.59970000 6.28910000
38.42510000 10.49230000 5.62730000
38.36510000 11.14940000 5.84770000
6.58070000 85.42330000 -100.20500000
7.12040000 83.87350000 -99.17080000
4.72870000 85.55970000 -100.26200000
8.33750000 83.83380000 -99.11030000
-81.48520000 89.22960000 61.75430000
-65.85090000 81.20140000 -66.66620000
-63.78550000 80.03380000 -67.88890000
-64.49730000 83.40540000 -69.55640000
-70.36730000 85.58920000 -65.27280000
-68.53180000 84.10780000 -66.00890000
26.22750000 78.01800000 89.50090000
-2.90750000 13.12920000 -5.14900000
-4.27510000 13.21620000 -7.22570000
-3.33010000 13.19780000 -8.03460000
-3.57280000 13.25020000 -6.74900000
-23.72850000 13.73710000 12.51360000
-24.95000000 13.87090000 10.15370000
-23.32040000 13.75770000 11.50820000
-24.73430000 13.87660000 9.12390000
43.38510000 24.54600000 -53.20960000
41.08260000 24.56560000 -55.03920000
-28.03920000 14.15310000 -16.00350000
-29.55770000 14.25900000 -17.53140000
-28.18300000 14.20470000 -17.49490000
-29.59780000 14.27300000 -18.05000000
-29.01630000 14.12170000 -19.74180000
15.20600000 20.38910000 13.59800000
19.66480000 20.56070000 15.76870000
20.36100000 20.53630000 11.90360000
20.57360000 20.68270000 19.05470000
16.74820000 20.47060000 16.51940000
16.27590000 20.62440000 21.57950000
65.26520000 60.30700000 -61.96560000
63.90300000 58.39950000 -62.07510000
61.10420000 59.54850000 -65.50700000
61.61680000 60.11970000 -65.27890000
61.86960000 59.23090000 -64.71420000
15.74220000 56.73380000 -86.43800000
16.62460000 54.71060000 -85.48510000
15.66990000 55.89080000 -86.07350000
13.71910000 57.92480000 -87.21600000
11.66100000 58.78550000 -87.93190000
15.91040000 58.69530000 -87.29710000
34.98820000 0.55790000 23.46500000
32.01730000 0.26060000 26.83060000
-26.69920000 0.45740000 28.09730000
-27.04540000 0.85510000 27.39010000
79.29990000 44.61960000 23.05480000
78.46550000 45.45870000 26.91670000
79.60840000 42.65590000 18.60590000
80.87180000 44.03050000 15.86080000
80.84160000 45.70610000 19.37050000
-64.67480000 56.04850000 -56.83640000
-65.71750000 57.19370000 -56.27420000
-63.77370000 56.62380000 -58.15650000
-61.92760000 54.05870000 -58.73360000
33.38370000 13.35980000 -17.80730000
34.17510000 13.13480000 -16.77570000
34.00060000 12.89190000 -17.43050000
-27.42170000 87.93270000 95.22380000
90.56650000 86.00140000 36.45600000
91.87010000 87.77910000 36.38170000
92.30040000 87.08250000 33.94200000
87.07330000 86.18080000 44.09500000
88.89470000 86.96160000 41.65400000
88.24030000 85.30980000 40.65290000
24.83920000 75.59990000 91.55420000
23.45040000 73.27790000 90.80720000
24.85760000 70.55310000 89.26520000
25.80000000 68.88420000 88.33240000
-9.02350000 8.90540000 -37.44160000
-15.44410000 11.67140000 -35.06410000
77.33630000 53.99750000 -40.41960000
79.14500000 55.16140000 -37.82390000
77.96030000 53.20270000 -38.31470000
38.08390000 -0.14590000 -11.97350000
38.07350000 0.00130000 -10.50960000
37.92430000 -0.19480000 -12.90610000
-58.38750000 37.74100000 45.33920000
-57.66810000 35.25160000 43.35170000
-22.26430000 0.20630000 35.10820000
-24.80030000 0.19250000 33.26920000
-23.00270000 0.65330000 35.26120000
13.43180000 51.64920000 83.93140000
12.92550000 52.46650000 84.36840000
11.33820000 51.07670000 84.00270000
17.13990000 53.33270000 83.96690000
18.14650000 52.81530000 83.46460000
20.25700000 53.67370000 83.30210000
13.75880000 13.35610000 40.65620000
15.53740000 13.59110000 40.22640000
12.26740000 13.30590000 41.10520000
95.85340000 90.57080000 38.12920000
95.53360000 90.35030000 38.67850000
96.87980000 90.30520000 35.18960000
-73.27390000 44.67910000 26.15690000
-75.44640000 46.13370000 21.72320000
72.56700000 28.23640000 -4.83620000
71.54770000 27.12620000 -4.35110000
72.22400000 28.03140000 -6.54780000
72.35250000 28.71300000 -10.92960000
70.29970000 26.54320000 -10.21050000
71.08610000 27.64640000 -12.05140000
-51.92560000 60.10490000 67.73830000
-51.83050000 57.09440000 66.15100000
-53.36930000 56.75880000 64.76400000
-54.19180000 55.63880000 63.41120000
-56.08280000 56.66460000 62.34090000
-82.43220000 74.67030000 -43.52600000
-85.07660000 82.52240000 -46.01290000
-84.73310000 80.53800000 -44.54230000
-43.60920000 15.67470000 19.03120000
-42.17560000 15.27180000 19.38900000
-44.57790000 16.10180000 19.44030000
-42.06100000 15.57920000 21.30440000
-41.79620000 15.53140000 21.84240000
37.64860000 89.48110000 -94.64320000
36.48540000 87.71870000 -93.38960000
39.44500000 88.20020000 -92.64960000
43.74480000 89.18630000 -91.81780000
-50.66440000 16.85300000 -0.27740000
-50.17640000 16.58120000 0.67010000
-51.40200000 17.09930000 1.33610000
33.38890000 72.98960000 87.60450000
32.35790000 73.54690000 88.17800000
35.85730000 75.38370000 87.59300000
36.65630000 73.55870000 86.42320000
38.33470000 3.53130000 -17.65510000
40.04490000 2.31560000 -14.03670000
39.74310000 1.71210000 -14.70140000
-12.23720000 14.11210000 -42.16950000
-72.38380000 84.36640000 -65.88010000
-72.74310000 86.06660000 -66.98090000
29.19430000 16.37910000 -43.63350000
25.77840000 16.54040000 -45.97230000
36.72710000 13.26860000 -9.82480000
36.38470000 13.68660000 -9.48220000
36.14500000 13.56100000 -10.78450000
36.75640000 12.70850000 -11.01210000
11.50510000 13.84040000 35.16250000
11.58730000 13.70320000 35.46260000
10.34590000 13.63810000 36.08170000
71.59430000 38.48760000 34.11860000
72.83650000 39.48380000 33.10770000
70.57480000 36.32680000 33.68080000
70.16470000 35.31170000 32.99330000
17.84700000 50.99370000 -83.71170000
18.44440000 52.15050000 -83.97750000
19.95090000 51.83380000 -83.53260000
17.55100000 53.57600000 -84.78060000
79.55300000 84.59120000 -62.08860000
78.99510000 82.41300000 -60.83960000
78.95870000 83.36230000 -61.60340000
-33.85810000 14.14910000 -10.24930000
-30.34030000 14.20010000 -6.60250000
-31.22410000 14.17610000 -7.40050000
88.07320000 57.69590000 -7.90730000
87.50190000 56.31310000 -7.29670000
87.67140000 57.14790000 -9.46400000
87.44400000 57.41100000 -12.66570000
87.80320000 58.82610000 -13.84150000
-9.91440000 47.12310000 -79.54820000
-11.00530000 48.59440000 -80.01090000
-12.89870000 46.96190000 -78.96920000
-8.82850000 55.07110000 -83.09330000
-10.92990000 55.42320000 -82.94860000
-9.73220000 13.89340000 34.31210000
-10.97100000 13.87230000 33.75810000
-12.80630000 13.86690000 34.65420000
-12.24390000 13.81860000 35.14750000
48.15550000 15.18540000 -10.12760000
48.46590000 15.53610000 -12.66100000
48.86000000 15.44870000 -9.98970000
47.81910000 14.98220000 -8.55580000
48.80940000 15.38580000 -9.06540000
57.53560000 18.00160000 -0.00170000
56.44110000 17.55700000 0.35240000
53.33750000 16.48330000 -6.05800000
54.75570000 17.05570000 -5.24020000
86.98080000 91.39430000 55.35440000
84.32290000 91.01710000 59.58010000
82.52200000 91.21840000 62.12230000
82.16730000 90.90370000 62.63580000
45.56480000 83.54780000 87.46210000
44.86500000 83.13440000 87.42300000
48.82510000 85.81880000 87.06170000
48.29640000 85.80400000 87.38840000
48.00120000 84.67000000 86.84170000
-38.02530000 9.45490000 -1.56650000
-38.03220000 9.78910000 1.61160000
-77.58790000 72.99820000 52.18400000
-79.84780000 75.64100000 50.92470000
-71.98650000 35.51490000 -24.90740000
-70.38610000 35.30180000 -28.85000000
-70.71670000 34.53070000 -26.46180000
-73.31230000 37.87990000 -25.34180000
-73.90340000 39.46060000 -26.55120000
15.52430000 10.93920000 35.30210000
15.09070000 9.16200000 35.65250000
13.11150000 8.42970000 36.42070000
14.03940000 10.56960000 35.98550000
-90.78990000 81.75960000 35.24570000
-91.45550000 83.50880000 36.18030000
-92.53300000 83.95130000 33.95270000
-90.08130000 79.72030000 34.30320000
-90.92720000 80.85410000 33.34370000
23.71690000 14.06460000 24.16220000
23.27470000 14.04820000 23.66890000
24.19220000 14.02490000 23.51810000
26.57460000 14.11660000 23.07120000
25.12630000 14.06390000 23.92150000
25.12710000 14.02760000 23.06600000
-82.34480000 54.71730000 -22.83960000
-81.70930000 52.99210000 -22.73220000
-82.36650000 53.57650000 -20.72130000
-80.92140000 48.47090000 -17.40900000
-81.51630000 49.58300000 -16.96510000
-81.14570000 48.99700000 -17.95870000
97.60430000 81.59320000 -12.74890000
96.67180000 80.28370000 -13.20820000
97.53900000 82.00990000 -13.95740000
96.85570000 79.48540000 -8.44040000
-38.91490000 77.99590000 -83.84250000
-40.81570000 69.04380000 -78.67430000
80.19640000 72.87700000 48.43340000
79.85140000 67.34510000 44.93640000
80.89890000 69.88190000 44.92680000
61.60380000 48.65270000 -58.60860000
59.51250000 46.46850000 -59.34660000
-71.01820000 35.82540000 15.00110000
-72.19100000 37.60200000 15.49270000
-69.80670000 34.65310000 16.23650000
59.99010000 84.55880000 -81.26040000
58.75120000 83.77710000 -81.59520000
57.94900000 81.16680000 -80.43870000
59.07330000 81.83000000 -79.98250000
30.86620000 15.07580000 -36.51620000
32.34680000 15.72790000 -38.42110000
33.62050000 15.62510000 -36.64320000
33.63670000 15.10610000 -33.97420000
34.68110000 15.41150000 -34.68920000
35.76070000 15.34920000 -33.24950000
52.88790000 52.06530000 67.00510000
53.76090000 52.03210000 66.43810000
53.70830000 53.71460000 67.26500000
55.65110000 55.12950000 66.36950000
56.81220000 54.85050000 65.28990000
56.84210000 56.49700000 66.17560000
62.55200000 89.61400000 -83.64190000
63.40860000 90.06900000 -82.70620000
63.01010000 89.43060000 -83.22090000
58.80080000 90.33820000 -85.86410000
60.85840000 90.22300000 -84.47370000
60.43350000 90.12750000 -84.95050000
-89.37780000 90.02590000 50.47390000
-89.41930000 90.42020000 51.22680000
-91.70380000 90.92330000 47.42230000
-92.97950000 91.27490000 44.49590000
8.01750000 91.56710000 102.25500000
5.47920000 91.47450000 102.26200000
5.49790000 91.48160000 102.61100000
3.59710000 91.51990000 102.77600000
97.44670000 81.30370000 8.80270000
96.62700000 79.81410000 9.93410000
95.76090000 78.44860000 11.62910000
95.03950000 76.63900000 10.96750000
95.97830000 78.19540000 9.29190000
97.62470000 83.75700000 -20.13940000
32.80280000 71.67550000 -88.28270000
32.99280000 72.72790000 -88.81110000
33.97570000 72.49430000 -88.18000000
31.59930000 70.56350000 -88.28010000
13.16640000 1.09040000 -36.15620000
11.63910000 0.74060000 -36.86690000
13.06070000 0.54630000 -36.65300000
-48.62930000 16.81140000 14.87720000
-46.71800000 16.32250000 15.93350000
-46.09810000 15.93850000 14.12330000
-45.69930000 15.88560000 14.63840000
-46.48770000 16.11290000 15.20580000
1.51020000 12.61840000 38.29940000
1.98820000 13.09160000 37.95220000
-3.52420000 11.90600000 38.37570000
-1.57540000 12.62550000 38.32440000
-19.33700000 12.26430000 33.18080000
-18.78670000 11.36010000 33.66240000
-16.36060000 11.80250000 34.84460000
-16.41340000 11.20040000 34.91900000
-7.58280000 -0.09860000 -39.79690000
-5.96490000 0.21350000 -40.76370000
-6.36290000 -0.04960000 -40.12820000
-5.49200000 -0.07840000 -39.53070000
-6.81400000 -0.10560000 -39.81050000
91.29320000 79.29580000 -25.59460000
91.57090000 78.36820000 -22.69410000
92.90460000 81.46510000 -23.66370000
92.34980000 79.04470000 -20.53460000
18.94300000 14.02790000 -25.12820000
18.86800000 13.95710000 -23.66280000
18.37810000 13.98570000 -25.31960000
21.08330000 14.02530000 -24.10930000
21.23900000 13.98720000 -22.46140000
53.54700000 77.83990000 -81.20700000
53.13270000 76.23490000 -80.53480000
52.39890000 76.90180000 -81.55290000
53.87240000 80.83620000 -82.83420000
69.90270000 36.96910000 -29.87120000
71.80590000 38.34000000 -27.35630000
70.79300000 39.57670000 -31.77080000
12.61670000 8.80930000 40.39540000
10.41280000 8.29660000 41.01570000
10.14860000 11.28870000 41.13310000
10.65300000 10.45150000 41.01140000
38.76130000 9.90650000 -2.17250000
38.53350000 12.26410000 -1.43390000
38.23460000 13.06340000 -1.61980000
-41.36020000 0.68540000 -2.35720000
-41.63720000 1.09670000 -1.83880000
-41.40610000 0.57490000 -0.51670000
67.85760000 76.73680000 66.88670000
66.33200000 74.20670000 66.96430000
67.59470000 73.20170000 65.02020000
-6.92370000 14.15860000 -29.04860000
-4.60980000 14.04340000 -28.93890000
-5.79880000 13.99420000 -28.44090000
-8.59960000 14.05100000 -28.77690000
-9.83220000 13.92080000 -28.35040000
-79.29640000 83.66970000 54.55550000
-81.55850000 82.63070000 49.79540000
-82.61050000 84.65180000 50.35360000
-78.12960000 81.26840000 53.87940000
-80.34780000 82.64660000 51.78890000
66.74830000 91.70220000 77.89460000
64.97490000 91.59560000 79.67940000
67.00310000 91.54340000 78.19120000
58.61800000 91.67180000 83.84020000
57.30530000 91.59810000 85.29420000
60.99870000 91.57750000 82.79990000
-30.37680000 90.29410000 -95.64790000
-38.93830000 91.34440000 -93.34230000
-34.82900000 91.27680000 -95.04800000
0.97690000 28.23880000 -72.05230000
2.76130000 26.73230000 -70.48600000
0.56900000 27.40980000 -71.17400000
1.08450000 25.45950000 -68.84160000
-0.20900000 25.86430000 -69.31030000
2.76800000 26.17390000 -69.76450000
-15.49780000 89.58010000 -101.66500000
-15.30620000 88.02620000 -100.35800000
-20.03530000 34.78550000 -73.82600000
-22.20700000 36.58110000 -74.38170000
-20.72760000 36.08840000 -74.45290000
-21.59750000 38.11310000 -75.61790000
-24.31130000 37.84000000 -74.60510000
-25.10410000 39.73180000 -75.39350000
81.21560000 64.99310000 -42.35960000
81.96880000 66.06880000 -42.15700000
82.26460000 65.85220000 -41.03910000
80.63910000 63.83650000 -42.64270000
-66.72060000 34.86910000 26.61560000
-65.75950000 32.16160000 22.11960000
-56.87020000 46.91400000 59.67700000
-57.42980000 48.50430000 60.28100000
-58.96360000 47.73430000 58.08650000
-99.40890000 91.93170000 -20.58700000
-98.95300000 91.94730000 -23.68490000
32.71090000 8.06860000 -20.28670000
32.25060000 8.64570000 -21.03920000
34.19890000 10.23980000 -17.91630000
33.75920000 9.49910000 -18.73230000
-65.57130000 24.25160000 -1.10120000
-66.59920000 24.90040000 -1.53770000
97.67460000 89.79710000 -28.62320000
96.35490000 88.47370000 -28.89750000
98.55210000 89.92310000 -25.65520000
95.62720000 88.41450000 -31.22550000
95.17270000 89.60670000 -36.26490000
94.02650000 88.29550000 -35.83890000
9.81370000 3.32420000 41.35640000
11.32980000 2.78870000 41.07950000
11.27840000 3.58930000 40.96110000
10.37160000 1.96060000 41.36860000
-28.75800000 14.06020000 -1.01880000
-28.16490000 14.03070000 1.00140000
64.11950000 47.21800000 53.44030000
65.00710000 46.94100000 52.20820000
65.88330000 49.70480000 52.96860000
62.68670000 45.84150000 54.17470000
62.04710000 43.13380000 52.93850000
63.67980000 45.04340000 52.38900000
91.16820000 84.41490000 39.63970000
90.58060000 83.79060000 40.04210000
90.43330000 85.40310000 42.59360000
90.28220000 84.64150000 41.86870000
-96.59000000 91.71500000 -32.82950000
-96.93950000 91.41640000 -32.28730000
84.61050000 81.84550000 49.04330000
85.11660000 83.77600000 50.01670000
85.11890000 85.02910000 51.40250000
96.55270000 78.56500000 4.01210000
97.03340000 79.52340000 1.64520000
96.83900000 78.90220000 -0.12770000
97.73030000 80.82960000 1.04150000
-53.33280000 47.10290000 -62.85180000
-54.15160000 48.49480000 -62.94710000
-56.71200000 45.94600000 -59.08130000
-55.12780000 44.58470000 -59.67580000
26.35790000 15.79000000 41.35700000
27.49880000 16.40710000 43.15330000
25.34090000 15.76440000 41.95610000
-12.63430000 2.07110000 -40.55030000
-11.89880000 2.46370000 -40.81800000
-15.99310000 1.37270000 -39.07860000
-15.01040000 1.32640000 -39.44420000
29.47100000 14.04040000 -13.50400000
29.58240000 14.15350000 -14.63130000
30.40020000 14.19660000 -13.35910000
30.91280000 14.06710000 -9.91040000
31.20380000 14.20080000 -11.44530000
-32.65410000 26.76640000 61.10190000
-32.21360000 25.49170000 59.40160000
-30.98300000 25.79210000 60.67730000
-37.16360000 26.43660000 57.76510000
-35.84680000 27.21200000 59.71790000
-38.50030000 27.45380000 58.21600000
76.22080000 43.43790000 -22.69250000
75.69000000 43.51450000 -24.55940000
75.49520000 41.75820000 -22.20550000
-96.62580000 82.89510000 -11.59350000
-95.47670000 80.78650000 -11.47120000
