-148.75100000 -112.65350000 -13.44400000
-150.66900000 -109.52350000 -12.89400000
-158.40600000 -110.49450000 -14.55900000
-158.14800000 -107.88550000 -14.03500000
-155.11000000 -105.83650000 -13.31400000
-152.59400000 -106.38850000 -12.83500000
-160.48100000 -107.35050000 -14.92500000
-162.44100000 -104.33250000 -15.91500000
-164.25900000 -101.17920000 -16.88100000
-170.51000000 -99.50580000 -21.92800000
-165.88500000 -97.99500000 -18.27800000
-167.94400000 -97.47560000 -20.06000000
-172.33300000 -98.86990000 -23.95000000
-174.03300000 -98.17080000 -26.13200000
-173.33800000 -95.44330000 -28.72300000
-172.30300000 -92.79460000 -31.19400000
-164.40000000 -96.81850000 -40.61100000
-166.41300000 -96.34230000 -39.06600000
-167.84700000 -93.42250000 -37.46100000
-170.92100000 -90.24130000 -33.60100000
-169.28500000 -90.50180000 -35.73000000
-158.68100000 -95.42850000 -41.73000000
-155.36400000 -93.46590000 -42.31700000
-152.76900000 -94.11360000 -42.52300000
-161.28700000 -94.84190000 -41.53200000
-150.19400000 -94.78440000 -42.49900000
-148.36700000 -97.99120000 -41.81300000
-146.65900000 -101.11420000 -40.55600000
-145.21100000 -104.28550000 -39.19800000
-140.80000000 -102.86630000 -35.84200000
-139.39800000 -103.28740000 -33.63700000
-138.14800000 -106.52650000 -26.01400000
-138.78600000 -106.16750000 -28.53900000
-139.26900000 -109.01350000 -23.42000000
-140.81000000 -111.40850000 -20.92200000
-138.39200000 -103.57510000 -31.17000000
-141.16300000 -111.63050000 -18.42000000
-141.91100000 -111.63950000 -15.99100000
-144.64500000 -113.48650000 -14.85300000
-146.35400000 -113.13050000 -13.95300000
-148.21100000 -110.05150000 -13.31500000
-150.03300000 -106.97050000 -12.74300000
-157.62400000 -105.29650000 -13.93600000
-151.92300000 -103.86150000 -12.60500000
-154.49900000 -103.29130000 -12.94900000
-160.12800000 -104.79550000 -14.65500000
-161.97000000 -101.69430000 -15.51400000
-163.56200000 -98.53960000 -16.73600000
-169.85800000 -96.93420000 -21.93300000
-165.35900000 -95.38540000 -18.23300000
-167.59200000 -94.85710000 -19.84100000
-171.82800000 -96.29920000 -23.75400000
-173.04600000 -95.71100000 -26.03800000
-172.45600000 -92.95230000 -28.56600000
-171.56600000 -90.25590000 -31.06800000
-165.74800000 -93.79950000 -39.06500000
-163.68800000 -94.25760000 -40.65100000
-167.37400000 -90.82460000 -37.67200000
-170.27400000 -87.65250000 -33.49800000
-168.66500000 -87.90410000 -35.69200000
-157.99100000 -92.86690000 -42.11800000
-154.64300000 -90.94530000 -42.69300000
-152.03400000 -91.60130000 -42.86000000
-160.57900000 -92.26730000 -41.72000000
-149.45300000 -92.29980000 -42.96800000
-147.64500000 -95.46610000 -42.15700000
-145.82900000 -98.65470000 -41.04600000
-144.30700000 -101.82050000 -39.50800000
-139.58500000 -100.53370000 -36.04800000
-138.08900000 -101.01780000 -33.84600000
-142.31900000 -102.43610000 -37.92800000
-143.35500000 -104.84750000 -37.74100000
-136.98400000 -104.20950000 -26.01800000
-137.60600000 -103.85650000 -28.59500000
-138.14700000 -106.69350000 -23.38900000
-139.48600000 -109.21350000 -20.85100000
-137.17500000 -101.25670000 -31.24600000
-139.98600000 -109.34850000 -18.32100000
-140.72300000 -109.38650000 -15.80100000
-143.82000000 -111.08850000 -14.85200000
-145.81800000 -110.58950000 -13.75300000
-147.52100000 -107.54450000 -13.16700000
-149.32900000 -104.46050000 -12.59700000
-157.02000000 -102.73780000 -13.65400000
-151.18700000 -101.35530000 -12.39500000
-153.79500000 -100.76590000 -12.60200000
-159.56700000 -102.20770000 -14.38300000
-161.29200000 -99.07340000 -15.25200000
-163.07000000 -95.92370000 -16.45900000
-169.44900000 -94.32070000 -21.67000000
-165.06800000 -92.75490000 -18.07600000
-167.15300000 -92.24620000 -19.70100000
-171.30700000 -93.71860000 -23.46700000
-172.18400000 -93.23670000 -25.92500000
-171.58700000 -90.49950000 -28.44200000
-170.85400000 -87.73010000 -30.91300000
-165.22600000 -91.22530000 -39.34300000
-163.01700000 -91.70270000 -40.80600000
-166.73000000 -88.24760000 -37.69900000
-169.58900000 -85.08630000 -33.31700000
-168.11700000 -85.29820000 -35.57300000
-157.27300000 -90.31960000 -42.39000000
-153.91700000 -88.43940000 -43.02900000
-151.28000000 -89.10870000 -43.19400000
-159.90200000 -89.71770000 -42.06000000
-148.68400000 -89.81030000 -43.37800000
-146.89700000 -92.93510000 -42.47000000
-145.08200000 -96.14160000 -41.50300000
-143.34100000 -99.36910000 -39.85400000
-138.30600000 -98.22750000 -36.23900000
-136.69700000 -98.77550000 -34.07300000
-141.22100000 -100.03720000 -38.15300000
-135.68900000 -101.94930000 -26.00400000
-136.37200000 -101.54560000 -28.64200000
-136.90500000 -104.43050000 -23.35700000
-138.27800000 -106.93450000 -20.76000000
-135.86000000 -98.97010000 -31.34300000
-138.66900000 -107.14850000 -18.13200000
-139.59300000 -107.11650000 -15.54900000
-142.83400000 -108.73550000 -14.55600000
-145.02400000 -108.16550000 -13.48700000
-146.74400000 -105.07550000 -12.91500000
-148.59300000 -101.99200000 -12.23800000
-156.37400000 -100.19160000 -13.17600000
-153.05100000 -98.21080000 -12.27900000
-150.45500000 -98.83640000 -11.83600000
-158.90000000 -99.62650000 -14.04600000
-160.61600000 -96.47760000 -14.98800000
-162.99900000 -93.24660000 -16.39800000
-169.03000000 -91.73440000 -21.43000000
-164.85900000 -90.14390000 -17.78600000
-166.76000000 -89.67680000 -19.44800000
-170.67700000 -91.17120000 -23.34800000
-171.42700000 -90.75930000 -25.82100000
-171.09400000 -87.96280000 -28.29200000
-170.24300000 -85.16750000 -30.74000000
-164.61600000 -88.65910000 -39.54500000
-162.37800000 -89.15340000 -41.11800000
-166.14100000 -85.66270000 -37.62600000
-167.67400000 -82.67370000 -35.38300000
-169.05700000 -82.47810000 -33.14200000
-156.54700000 -87.78420000 -42.69800000
-153.19800000 -85.92130000 -43.35100000
-150.57400000 -86.59820000 -43.58600000
-159.20200000 -87.19540000 -42.39400000
-147.97200000 -87.29920000 -43.83800000
-146.14800000 -90.43440000 -42.82500000
-144.38200000 -93.60790000 -41.89100000
-142.46700000 -96.90930000 -40.40100000
-136.93200000 -95.95470000 -36.50100000
-135.57200000 -96.36920000 -34.13500000
-139.96800000 -97.72330000 -38.50800000
-135.07700000 -99.24220000 -28.65000000
-134.42800000 -99.64410000 -25.95500000
-135.55900000 -102.19840000 -23.28700000
-137.05300000 -104.66150000 -20.61800000
-134.77300000 -96.53650000 -31.32600000
-137.37300000 -104.91550000 -17.86700000
-141.97600000 -106.25050000 -14.65100000
-138.34300000 -104.85650000 -15.23600000
-144.13900000 -105.77850000 -13.17300000
-145.92000000 -102.64800000 -12.54100000
-147.82300000 -99.50470000 -11.78900000
-155.63300000 -97.62210000 -12.81500000
-152.28200000 -95.65910000 -12.13900000
-149.73700000 -96.30180000 -11.59700000
-158.12500000 -97.04720000 -13.79700000
-161.05700000 -93.67290000 -15.30500000
-162.92300000 -90.59420000 -16.28600000
-168.68200000 -89.18110000 -21.13600000
-164.56000000 -87.58600000 -17.45400000
-166.41100000 -87.12610000 -19.16600000
-169.99300000 -88.69680000 -23.30900000
-170.94200000 -88.25450000 -25.69700000
-170.62500000 -85.42650000 -28.13100000
-169.75600000 -82.51170000 -30.58600000
-163.85500000 -86.13030000 -39.55500000
-161.60400000 -86.62870000 -41.27900000
-166.03200000 -82.99740000 -37.58400000
-167.36600000 -80.03970000 -35.34400000
-168.66400000 -79.84140000 -33.02700000
-155.86200000 -85.29120000 -43.15800000
-152.56500000 -83.44220000 -43.96300000
-149.90700000 -84.08840000 -44.08000000
-158.49100000 -84.69060000 -42.72600000
-147.26000000 -84.75600000 -44.13100000
-145.41200000 -87.89170000 -43.12000000
-143.62300000 -91.08580000 -42.23000000
-141.91800000 -94.31200000 -40.94800000
-135.56000000 -93.64570000 -36.77400000
-134.30800000 -94.00400000 -34.24700000
-138.68900000 -95.38670000 -38.81700000
-133.86700000 -96.90380000 -28.61200000
-133.15470000 -97.33660000 -25.90100000
-134.21800000 -99.93140000 -23.23700000
-135.75700000 -102.39120000 -20.48200000
-133.48500000 -94.19430000 -31.29900000
-136.12000000 -102.60850000 -17.61900000
-140.79200000 -104.07850000 -13.90000000
-137.25200000 -102.45060000 -15.00900000
-143.21900000 -103.39990000 -12.77100000
-145.11100000 -100.18710000 -12.16200000
-147.13800000 -96.97310000 -11.41900000
-154.84500000 -95.05700000 -12.59400000
-151.60600000 -93.13820000 -11.79800000
-149.08400000 -93.76840000 -11.27400000
-159.54800000 -94.00620000 -14.47400000
-157.34600000 -94.50440000 -13.39500000
-160.90100000 -91.04120000 -15.17100000
-162.59500000 -88.02900000 -15.97200000
-168.28900000 -86.65950000 -20.93500000
-164.20800000 -85.04790000 -17.17000000
-166.05500000 -84.62010000 -18.93500000
-169.73000000 -86.17740000 -23.08500000
-170.60200000 -85.75110000 -25.52600000
-170.24200000 -82.76380000 -27.98600000
-169.45000000 -79.78390000 -30.49200000
-162.91200000 -83.64380000 -40.13600000
-160.78400000 -84.12710000 -41.44000000
-163.97700000 -83.42650000 -39.34800000
-165.73000000 -80.37160000 -37.46800000
-168.44500000 -77.18880000 -33.00200000
-167.05300000 -77.41800000 -35.30100000
-155.21400000 -82.79760000 -43.60300000
-151.97400000 -80.92630000 -44.49600000
-149.26600000 -81.57090000 -44.60200000
-157.79500000 -82.18280000 -43.03700000
-146.53100000 -82.25090000 -44.60200000
-144.65200000 -85.37860000 -43.49300000
-142.85600000 -88.56660000 -42.56500000
-141.23800000 -91.75140000 -41.30200000
-134.40900000 -91.20790000 -37.04500000
-132.98280000 -91.66420000 -34.28500000
-137.15300000 -93.08930000 -38.79900000
-132.67040000 -94.54520000 -28.51300000
-131.95450000 -94.97850000 -25.84500000
-132.88380000 -97.63550000 -23.23000000
-134.41600000 -100.08920000 -20.52500000
-132.16800000 -91.87300000 -31.09100000
-134.74100000 -100.26320000 -17.71500000
-139.73500000 -101.66890000 -13.59100000
-136.16700000 -100.02130000 -14.61400000
-142.29500000 -100.98640000 -12.39200000
-144.49200000 -97.64030000 -11.76000000
-146.52800000 -94.41930000 -11.07100000
-154.13400000 -92.55340000 -12.25700000
-151.01300000 -90.67310000 -11.33200000
-148.47500000 -91.25690000 -10.88800000
-156.56800000 -92.00050000 -13.01700000
-158.82900000 -91.49830000 -14.08900000
-160.45100000 -88.50550000 -14.78900000
-162.26000000 -85.50560000 -15.59200000
-167.93200000 -84.21470000 -20.74700000
-163.93700000 -82.52300000 -16.84200000
-165.72700000 -82.13540000 -18.72500000
-169.23900000 -83.74820000 -22.99800000
-170.36700000 -83.22710000 -25.36000000
-169.94400000 -79.82410000 -27.86000000
-169.30800000 -77.07990000 -30.48300000
-162.04300000 -81.14730000 -40.47300000
-160.00800000 -81.61890000 -41.74300000
-163.91300000 -80.75490000 -39.21400000
-165.55700000 -77.75920000 -37.71100000
-167.02600000 -74.75690000 -34.94800000
-168.33100000 -74.53640000 -32.84500000
-154.61200000 -80.28020000 -44.07200000
-151.43500000 -78.37140000 -44.95900000
-148.57300000 -79.05070000 -45.07000000
-157.18100000 -79.66700000 -43.42400000
-145.77300000 -79.70950000 -44.84600000
-143.89600000 -82.84370000 -43.76100000
-142.08500000 -86.03940000 -42.84300000
-140.42700000 -89.23210000 -41.63700000
-139.05800000 -92.42250000 -40.14000000
-140.30300000 -94.84940000 -39.88300000
-133.26100000 -88.76380000 -37.54800000
-132.06250000 -89.19860000 -35.64500000
-136.08900000 -90.60430000 -39.03400000
-131.38450000 -92.22030000 -28.42500000
-130.62510000 -92.69160000 -25.83600000
-131.67730000 -95.27340000 -23.21800000
-133.04180000 -97.77150000 -20.64700000
-131.32680000 -89.43330000 -33.64300000
-130.61460000 -89.65760000 -31.00200000
-133.35050000 -97.87680000 -18.18900000
-138.48700000 -99.34230000 -13.09900000
-141.87900000 -98.37470000 -11.95100000
-143.98100000 -95.04590000 -11.33400000
-145.92300000 -91.86030000 -10.68600000
-153.50600000 -90.09830000 -11.91500000
-148.00800000 -88.70460000 -10.40900000
-150.55900000 -88.17720000 -10.86800000
-158.27600000 -88.99800000 -13.61100000
-155.96200000 -89.53170000 -12.62100000
-160.05800000 -85.99150000 -14.36800000
-161.84800000 -82.97090000 -15.36300000
-167.67300000 -81.84030000 -20.52000000
-165.40800000 -79.69350000 -18.57100000
-163.60300000 -79.99210000 -16.62700000
-168.94200000 -81.50850000 -22.83000000
-169.75800000 -77.01420000 -27.80500000
-169.13200000 -74.41100000 -30.44500000
-161.57600000 -78.59520000 -40.92400000
-159.45500000 -79.09830000 -42.23400000
-163.57900000 -78.15960000 -39.43100000
-167.29400000 -72.05700000 -34.52400000
-168.32100000 -71.87160000 -32.57000000
-154.12700000 -77.71630000 -44.54900000
-148.19900000 -76.45270000 -45.56400000
-151.05100000 -75.78480000 -45.48300000
-156.74100000 -77.13470000 -43.98000000
-144.89700000 -77.19160000 -44.93800000
-143.15300000 -80.32000000 -44.13500000
-141.30900000 -83.51460000 -43.08600000
-139.64300000 -86.69360000 -41.84900000
-138.16200000 -89.89970000 -40.45800000
-135.19100000 -88.04620000 -39.21100000
-132.26640000 -86.24190000 -37.85800000
-130.72970000 -86.81380000 -35.93600000
-129.86670000 -90.01560000 -28.44800000
-129.24550000 -90.41800000 -25.83700000
-130.39660000 -92.96170000 -23.18800000
-131.78200000 -95.43730000 -20.62000000
-129.99930000 -87.05250000 -33.49200000
-129.21380000 -87.33820000 -31.00400000
-132.06880000 -95.55080000 -18.03600000
-137.28100000 -96.90010000 -12.80400000
-135.20300000 -97.52360000 -14.03500000
-141.52100000 -95.69870000 -11.50300000
-143.37500000 -92.46350000 -10.78700000
-145.41700000 -89.25070000 -10.17600000
-153.05500000 -87.63100000 -11.49700000
-147.70900000 -86.15410000 -9.86800000
-150.25100000 -85.66830000 -10.36600000
-157.83200000 -86.51300000 -13.16800000
-155.47400000 -87.06350000 -12.24700000
-159.64800000 -83.48570000 -14.09200000
-161.59600000 -80.40630000 -14.99500000
-167.40500000 -79.52910000 -20.38700000
-163.51600000 -77.44840000 -16.23100000
-165.30000000 -77.20990000 -18.30600000
-170.04400000 -81.29470000 -25.28200000
-168.75200000 -79.32250000 -22.66600000
-169.72100000 -79.36220000 -25.20300000
-169.34500000 -76.91090000 -25.15700000
-169.46800000 -74.36100000 -27.77300000
-169.07200000 -71.75110000 -30.30000000
-161.16400000 -76.01510000 -41.28800000
-158.93200000 -76.53780000 -42.58000000
-165.11400000 -75.18350000 -37.88700000
-163.21300000 -75.57780000 -39.72900000
-166.07100000 -72.30840000 -36.39500000
-166.07000000 -74.97020000 -36.41700000
-167.18200000 -69.41140000 -34.59500000
-168.18400000 -69.20820000 -32.40500000
-153.77500000 -75.18260000 -45.28600000
-150.87900000 -73.13820000 -45.95500000
-148.51400000 -73.67440000 -45.97000000
-156.34500000 -74.56240000 -44.45300000
-142.34600000 -77.79380000 -44.25900000
-140.55700000 -80.98290000 -43.37600000
-138.86400000 -84.15720000 -42.07400000
-137.38100000 -87.33800000 -40.55500000
-134.29500000 -85.50480000 -39.41400000
-129.84510000 -84.20440000 -35.89700000
-131.39120000 -83.63980000 -37.95100000
-128.49560000 -87.70330000 -28.44300000
-127.97240000 -88.05560000 -25.75400000
-129.09440000 -90.65160000 -23.10600000
-130.43460000 -93.17230000 -20.52000000
-129.00950000 -84.51260000 -33.43000000
-128.19250000 -84.82360000 -30.93000000
-130.83670000 -93.24050000 -17.84100000
-132.62190000 -95.53910000 -15.31900000
-133.83610000 -97.91510000 -15.78700000
-139.30800000 -96.32840000 -11.93600000
-140.18300000 -98.85850000 -12.52500000
-136.21500000 -94.40030000 -12.42800000
-134.15540000 -95.03620000 -13.54400000
-140.85600000 -93.07480000 -11.02900000
-142.81900000 -89.83260000 -10.15400000
-145.07300000 -86.62860000 -9.61000000
-152.70800000 -85.13190000 -11.04500000
-147.49800000 -83.62460000 -9.26200000
-150.02300000 -83.17660000 -9.81700000
-155.11900000 -84.58070000 -11.82400000
-157.44500000 -84.02160000 -12.81300000
-159.44800000 -80.93970000 -13.57500000
-161.63700000 -77.79190000 -14.35000000
-167.22100000 -77.10320000 -20.28900000
-165.45000000 -74.69610000 -17.96200000
-163.72000000 -74.91560000 -15.66700000
-168.62200000 -76.97210000 -22.55500000
-169.38500000 -74.36120000 -25.07100000
-169.42700000 -71.70940000 -27.70100000
-168.86300000 -69.08980000 -30.09600000
-160.80400000 -73.42640000 -41.66200000
-158.55700000 -73.93210000 -42.99200000
-164.66600000 -72.62590000 -38.34400000
-162.87800000 -72.99940000 -40.13000000
-165.76700000 -69.69130000 -36.65400000
-167.02800000 -66.79330000 -34.84200000
-168.04500000 -66.54790000 -32.41900000
-153.40000000 -72.55520000 -45.58200000
-148.11700000 -71.08470000 -46.28700000
-150.57500000 -70.50160000 -46.16300000
-155.90200000 -71.92500000 -44.62200000
-143.99600000 -74.71380000 -45.30000000
-141.56400000 -75.28390000 -44.55200000
-139.79100000 -78.44140000 -43.51300000
-138.09300000 -81.62330000 -42.29000000
-136.60100000 -84.78400000 -40.66200000
-133.45580000 -82.95930000 -39.55200000
-128.94940000 -81.63990000 -35.88300000
-130.75460000 -81.02120000 -37.75400000
-127.28340000 -85.29230000 -28.40900000
-126.76250000 -85.64600000 -25.54200000
-127.87510000 -88.28620000 -22.91800000
-129.14950000 -90.88150000 -20.37900000
-127.95750000 -82.00240000 -33.45300000
-127.17400000 -82.31660000 -30.91000000
-129.84670000 -90.84540000 -17.75300000
-131.45220000 -93.15230000 -15.06500000
-138.44300000 -93.71490000 -11.50200000
-133.22490000 -92.40140000 -13.34400000
-135.37800000 -91.63850000 -12.09200000
-140.22100000 -90.47010000 -10.26000000
-142.39700000 -87.11930000 -9.64100000
-144.88000000 -84.05120000 -8.92300000
-152.46000000 -82.67200000 -10.54300000
-147.32700000 -81.07640000 -8.65300000
-149.87200000 -80.68960000 -9.25900000
-154.85000000 -82.11290000 -11.39300000
-157.23900000 -81.52880000 -12.29400000
-159.41400000 -78.20990000 -12.90800000
-161.66700000 -75.14470000 -13.83200000
-167.09400000 -74.56300000 -20.28700000
-163.59700000 -72.31850000 -15.48900000
-165.62400000 -72.09210000 -17.84300000
-168.76800000 -74.47360000 -22.45700000
-169.52800000 -71.73470000 -25.00500000
-169.28700000 -69.03480000 -27.58200000
-168.69000000 -66.40650000 -29.96600000
-158.34100000 -71.32740000 -43.57000000
-160.51300000 -70.82070000 -42.09600000
-164.39400000 -70.01920000 -38.75700000
-162.57900000 -70.39450000 -40.55100000
-165.49900000 -67.08460000 -37.01000000
-167.03900000 -64.17810000 -34.97000000
-168.03300000 -63.91650000 -32.48300000
-153.05000000 -69.92240000 -45.81900000
-150.08800000 -68.00600000 -46.50500000
-147.47900000 -68.62320000 -46.66600000
-145.64200000 -71.65890000 -46.12400000
-146.30100000 -74.17750000 -45.76200000
-155.49600000 -69.25420000 -44.80000000
-143.17800000 -72.27280000 -45.86800000
-140.76900000 -72.83730000 -45.15000000
-139.08200000 -75.89920000 -43.65700000
-137.31200000 -79.09800000 -42.48800000
-135.76800000 -82.26180000 -40.89100000
-132.67650000 -80.38990000 -39.58700000
-128.13180000 -79.07730000 -35.88800000
-129.87780000 -78.52850000 -37.83200000
-126.34270000 -82.72690000 -28.30400000
-125.33450000 -83.33000000 -25.16500000
-126.73080000 -85.85820000 -22.58800000
-128.12240000 -88.43510000 -20.21800000
-125.99990000 -79.89580000 -31.03700000
-127.01280000 -79.49140000 -33.46000000
-128.74970000 -88.47910000 -17.63200000
-130.38400000 -90.84150000 -15.00600000
-137.76600000 -91.01040000 -11.15700000
-132.27170000 -89.53930000 -13.37600000
-134.67400000 -88.90110000 -11.47100000
-139.72600000 -87.69350000 -9.90700000
-142.16400000 -84.46950000 -8.91200000
-144.71100000 -81.47980000 -8.25300000
-152.29400000 -80.24270000 -10.06600000
-147.23000000 -78.51820000 -8.12800000
-149.75800000 -78.17460000 -8.78000000
-154.69900000 -79.77480000 -10.90300000
-157.10100000 -78.46920000 -11.66600000
-159.46500000 -75.30730000 -12.24700000
-161.66800000 -72.54140000 -13.36100000
-167.34500000 -71.93720000 -20.16600000
-163.96500000 -69.65910000 -15.50300000
-165.98700000 -69.32370000 -17.92700000
-168.97300000 -71.85350000 -22.36800000
-169.44100000 -69.06740000 -24.95500000
-169.25600000 -66.33550000 -27.46100000
-168.66800000 -63.72470000 -29.94800000
-157.87000000 -68.60620000 -43.62900000
-160.29600000 -68.15880000 -42.59800000
-164.09200000 -67.39070000 -39.13800000
-162.30600000 -67.75350000 -40.97700000
-165.32600000 -64.49450000 -37.49600000
-167.48800000 -61.47000000 -34.42300000
-168.27900000 -61.25350000 -32.35000000
-152.77200000 -67.32070000 -46.24100000
-149.54300000 -65.64040000 -46.99200000
-146.82000000 -66.22860000 -47.19600000
-144.97200000 -69.15580000 -46.45300000
-155.36000000 -66.42220000 -45.39100000
-142.45300000 -69.80630000 -46.34400000
-139.93700000 -70.47420000 -46.02000000
-138.33900000 -73.40490000 -44.18400000
-136.55300000 -76.57450000 -42.66700000
-134.95700000 -79.74800000 -41.06200000
-132.07110000 -77.82860000 -39.43500000
-128.94470000 -76.02960000 -37.85800000
-127.37410000 -76.55130000 -35.75300000
-124.52820000 -80.67770000 -26.09000000
-125.33460000 -80.21350000 -28.49900000
-125.15840000 -83.62820000 -22.12300000
-126.87950000 -86.06800000 -19.94600000
-126.05770000 -77.01130000 -33.46300000
-124.90170000 -77.45070000 -31.10600000
-127.04580000 -86.42460000 -17.40900000
-129.10350000 -88.83190000 -14.92300000
-137.10300000 -88.37970000 -10.32500000
-132.56870000 -86.37470000 -11.46400000
-134.23900000 -86.11750000 -10.51200000
-139.34700000 -85.07270000 -8.97500000
-142.01100000 -81.92780000 -8.03300000
-144.60500000 -78.89540000 -7.59900000
-152.19700000 -77.81470000 -9.58900000
-147.21400000 -75.98700000 -7.37700000
-149.74300000 -75.64520000 -8.18300000
-157.14800000 -75.27090000 -10.89700000
-159.52800000 -72.71280000 -11.61400000
-161.51000000 -69.98070000 -13.02000000
-167.80300000 -69.26400000 -19.98300000
-169.04800000 -69.17400000 -22.30500000
-169.37800000 -66.36460000 -24.87400000
-169.18900000 -63.62190000 -27.38000000
-168.81300000 -61.04570000 -29.93200000
-157.77100000 -65.83220000 -44.26700000
-160.12000000 -65.45790000 -43.08400000
-163.77900000 -64.76490000 -39.52400000
-162.00100000 -65.08750000 -41.34000000
-168.41800000 -58.56730000 -32.23700000
-167.71100000 -58.80450000 -34.44000000
-152.78700000 -65.26790000 -46.61200000
-148.81800000 -63.36670000 -47.61100000
-146.21600000 -63.80950000 -47.74900000
-144.28300000 -66.74010000 -47.09600000
-141.74000000 -67.32060000 -46.82700000
-139.19800000 -68.00110000 -46.50800000
-137.59800000 -70.93050000 -44.75300000
-135.87100000 -74.03590000 -43.03600000
-134.10480000 -77.24460000 -41.23900000
-130.95600000 -75.40320000 -39.67700000
-127.95910000 -73.59940000 -37.94300000
-126.31960000 -74.13170000 -35.86000000
-123.67810000 -78.06940000 -26.17600000
-124.30260000 -77.72120000 -28.60600000
-124.03240000 -80.99110000 -24.17800000
-123.68260000 -81.31920000 -21.65100000
-125.30050000 -83.83660000 -19.55500000
-124.04180000 -74.92030000 -31.09400000
-125.01560000 -74.56760000 -33.55500000
-125.44860000 -84.22970000 -17.05600000
-127.43730000 -86.80200000 -14.89300000
-131.43010000 -87.95240000 -13.03700000
-136.58500000 -85.71670000 -9.37400000
-130.58850000 -86.36540000 -12.69700000
-131.79580000 -83.54670000 -10.97000000
-133.57610000 -83.53170000 -9.47200000
-139.29400000 -82.44900000 -7.98300000
-141.97700000 -79.27700000 -7.31800000
-144.52400000 -76.26410000 -7.02700000
-154.63000000 -77.60130000 -10.47100000
-152.25800000 -75.40660000 -8.87700000
-147.21300000 -73.44110000 -6.60000000
-149.89000000 -73.15970000 -7.30800000
-154.64400000 -75.19910000 -9.93100000
-157.19200000 -72.75130000 -10.32300000
-159.72900000 -70.23170000 -10.88000000
-161.78200000 -67.58950000 -12.23300000
-163.29700000 -67.52890000 -14.25500000
-166.53400000 -66.48630000 -17.78700000
-168.18600000 -66.55360000 -19.82600000
-169.10700000 -66.46450000 -22.29100000
-169.31900000 -63.65130000 -24.78500000
-169.01000000 -60.91840000 -27.37500000
-168.92300000 -58.36970000 -29.89400000
-159.91000000 -62.74280000 -43.47000000
-157.58300000 -63.02430000 -44.62400000
-163.53100000 -62.14430000 -39.95400000
-161.85800000 -62.44540000 -41.87400000
-165.14700000 -61.90750000 -38.07800000
-167.98500000 -56.17010000 -34.81100000
-168.55000000 -55.89670000 -32.42100000
-166.81000000 -59.09210000 -36.65400000
-166.55200000 -61.68000000 -36.21200000
-149.94800000 -63.24000000 -47.51200000
-152.80200000 -63.21510000 -46.98400000
-148.14800000 -61.04320000 -48.31300000
-145.67600000 -61.41070000 -48.47800000
-143.65600000 -64.30490000 -47.60000000
-155.23700000 -63.29660000 -45.80100000
-138.48600000 -65.52210000 -47.00600000
-141.09200000 -64.83540000 -47.17500000
-136.72000000 -68.61360000 -45.66900000
-135.18900000 -71.52910000 -43.62000000
-133.33250000 -74.70710000 -41.43100000
-129.99660000 -72.95150000 -39.90700000
-126.65240000 -71.32350000 -38.32700000
-125.24170000 -71.72130000 -36.02700000
-123.39630000 -75.18900000 -28.53400000
-123.00570000 -75.44080000 -25.90900000
-123.25070000 -78.40670000 -23.73600000
-123.01940000 -78.70100000 -21.19300000
-123.94320000 -81.51420000 -19.09600000
-123.09690000 -72.48270000 -31.13900000
-123.92430000 -72.17220000 -33.67900000
-124.49810000 -81.71050000 -16.62600000
-126.12350000 -84.48090000 -14.64500000
-135.88100000 -83.18610000 -8.40300000
-129.58960000 -83.93160000 -11.88800000
-130.72760000 -81.28170000 -9.76000000
-132.71410000 -81.07220000 -8.46800000
-139.43200000 -79.63130000 -7.42600000
-141.88200000 -76.65350000 -6.61400000
-144.47200000 -73.73100000 -6.13200000
-152.35400000 -72.93410000 -8.21700000
-147.53700000 -70.97230000 -5.55800000
-150.13500000 -70.60790000 -6.49100000
-154.70500000 -72.72940000 -9.37700000
-157.35300000 -70.25120000 -9.58400000
-159.91300000 -67.72600000 -10.21100000
-163.64000000 -65.37840000 -13.72600000
-161.95400000 -65.18620000 -11.68200000
-167.29700000 -63.81490000 -17.41200000
-168.75100000 -63.89720000 -19.60300000
-169.31800000 -63.78250000 -22.17200000
-169.08900000 -60.92980000 -24.75300000
-169.07300000 -58.21440000 -27.39800000
-168.89500000 -55.69390000 -29.97700000
-159.82400000 -60.05920000 -43.96100000
-157.51300000 -60.27730000 -45.13500000
-163.43700000 -59.52530000 -40.42500000
-161.93200000 -59.82420000 -42.52400000
-165.26800000 -59.32390000 -38.63900000
-167.15200000 -56.50560000 -37.16700000
-168.69700000 -53.24160000 -32.73500000
-168.12400000 -53.52040000 -35.21100000
-150.49300000 -60.79320000 -48.10700000
-152.86600000 -60.66740000 -47.42900000
-147.76100000 -58.54790000 -48.90700000
-145.21500000 -58.93720000 -49.15300000
-143.09500000 -61.88480000 -48.29600000
-155.14900000 -60.50140000 -46.21400000
-137.83100000 -63.05100000 -47.54000000
-140.47600000 -62.42000000 -47.93700000
-135.86700000 -66.26380000 -46.55000000
-134.32400000 -69.18410000 -44.49900000
-132.78510000 -72.16600000 -42.15200000
-128.41440000 -70.80460000 -40.25100000
-125.49440000 -68.92670000 -38.53500000
-123.94970000 -69.43880000 -36.30400000
-122.40700000 -72.73230000 -28.47400000
-121.90790000 -72.97520000 -25.74200000
-122.34830000 -75.85510000 -23.39500000
-122.03870000 -76.17890000 -20.80700000
-123.35850000 -78.88140000 -18.67800000
-122.02470000 -70.11890000 -31.21600000
-122.73670000 -69.86470000 -33.87900000
-123.50640000 -79.20520000 -16.13800000
-125.25500000 -81.94010000 -14.26100000
-127.68830000 -84.30340000 -12.94000000
-128.89100000 -86.46500000 -13.60700000
-134.80700000 -80.62440000 -7.75800000
-128.63830000 -81.58290000 -11.03800000
-129.78920000 -79.00420000 -8.76100000
-131.96640000 -78.53240000 -7.77100000
-137.58700000 -82.81750000 -8.19300000
-137.01300000 -80.09120000 -7.62600000
-139.25700000 -76.96170000 -6.63700000
-141.79200000 -74.08900000 -5.77300000
-144.46900000 -71.38120000 -4.83000000
-152.66200000 -70.52930000 -7.20800000
-148.26300000 -68.60870000 -4.33400000
-150.71300000 -68.39410000 -5.00600000
-154.93300000 -70.26700000 -8.50600000
-157.77700000 -67.86580000 -8.51900000
-160.23300000 -65.30700000 -9.39500000
-165.01400000 -66.12570000 -15.74800000
-164.49000000 -67.89240000 -15.62600000
-163.99500000 -63.03230000 -13.47300000
-162.50900000 -62.81090000 -11.17100000
-165.56300000 -63.49250000 -15.49600000
-167.99100000 -61.18470000 -17.12900000
-169.17600000 -61.22600000 -19.49400000
-169.29200000 -61.08920000 -22.10200000
-169.31500000 -58.12610000 -24.79700000
-169.14400000 -55.53000000 -27.47200000
-169.30000000 -53.10300000 -30.25600000
-159.85700000 -57.41710000 -44.53700000
-157.47300000 -57.57490000 -45.61000000
-163.46900000 -56.89260000 -40.85300000
-161.89600000 -57.17400000 -42.93600000
-165.38100000 -56.71320000 -39.07500000
-167.45900000 -53.93720000 -37.71700000
-169.67600000 -50.80980000 -33.22700000
-168.96100000 -51.07850000 -35.75200000
-152.70800000 -58.04710000 -47.82300000
-150.27500000 -58.27750000 -48.54800000
-144.84900000 -56.37690000 -49.61900000
-147.43400000 -55.91310000 -49.33600000
-142.60700000 -59.43620000 -48.99300000
-155.03600000 -57.77700000 -46.60800000
-137.26500000 -60.59270000 -48.12000000
-139.95200000 -59.95950000 -48.57700000
-135.16400000 -63.77920000 -47.14000000
-133.44860000 -66.83430000 -45.33200000
-132.21390000 -69.63390000 -42.91800000
-130.20500000 -70.21100000 -41.48700000
-127.07280000 -68.54390000 -40.71400000
-124.34970000 -66.49700000 -38.70300000
-122.82490000 -67.06110000 -36.46800000
-121.28570000 -70.31640000 -28.37500000
-120.53330000 -70.58310000 -25.52500000
-121.19420000 -73.38480000 -23.12000000
-120.69140000 -73.82740000 -20.50300000
-122.73040000 -76.20400000 -18.29500000
-120.89800000 -67.84500000 -31.33200000
-121.59570000 -67.54820000 -34.04900000
-122.67580000 -76.65380000 -15.72700000
-124.17310000 -79.54450000 -13.65200000
-126.40450000 -82.15320000 -12.05500000
-134.30800000 -77.86410000 -7.36100000
-127.68860000 -79.35820000 -10.03900000
-129.04860000 -76.74730000 -7.86500000
-131.37410000 -76.14420000 -7.07900000
-136.71800000 -77.32520000 -6.97100000
-139.10100000 -74.24170000 -6.00900000
-141.72400000 -71.71700000 -4.52700000
-146.37000000 -69.03670000 -3.52400000
-153.05900000 -68.13990000 -6.09800000
-148.83500000 -66.35000000 -2.85100000
-151.06100000 -65.88680000 -4.06500000
-155.41300000 -67.97730000 -7.24500000
-158.03700000 -65.32060000 -7.76600000
-160.79100000 -62.87260000 -8.60300000
-164.92600000 -60.66290000 -12.97200000
-163.80100000 -60.66770000 -10.54500000
-166.35600000 -60.92950000 -15.10900000
-168.52000000 -58.60180000 -17.04700000
-169.56200000 -58.62280000 -19.45900000
-169.56800000 -58.38240000 -22.13900000
-169.36700000 -55.35190000 -24.89200000
-169.87100000 -53.00250000 -27.72000000
-170.37400000 -50.78080000 -30.65200000
-159.92400000 -54.76920000 -45.03800000
-157.58300000 -54.93280000 -46.24900000
-163.77200000 -54.29130000 -41.46500000
-162.03700000 -54.56550000 -43.49000000
-165.72400000 -54.14620000 -39.62600000
-167.96600000 -51.37730000 -38.20600000
-170.40900000 -48.77430000 -36.31900000
-171.12600000 -48.71070000 -33.66000000
-152.58600000 -55.34450000 -48.26200000
-150.01300000 -55.60440000 -48.90700000
-144.53000000 -53.73220000 -50.11900000
-147.16200000 -53.25220000 -49.87200000
-142.23200000 -56.93330000 -49.42800000
-155.08100000 -55.10030000 -47.25800000
-136.87200000 -58.12340000 -48.47600000
-139.56700000 -57.52030000 -48.93100000
-134.57700000 -61.26160000 -47.60300000
-132.52760000 -64.53490000 -46.34700000
-131.12800000 -67.39190000 -43.84300000
-128.92700000 -68.04720000 -42.44900000
-125.98920000 -66.03770000 -40.84500000
-121.68420000 -64.73280000 -36.64100000
-122.90310000 -64.32250000 -39.13600000
-120.07760000 -68.05700000 -28.41900000
-119.21630000 -68.00020000 -24.99600000
-119.65610000 -71.08200000 -22.88700000
-119.56740000 -71.33210000 -20.20800000
-121.50810000 -73.72910000 -17.97800000
-119.91140000 -65.71700000 -31.59600000
-120.48460000 -65.26320000 -34.18500000
-121.33360000 -74.26130000 -15.41000000
-123.18030000 -77.06840000 -13.15300000
-125.41000000 -79.83370000 -11.20300000
-133.79610000 -74.74390000 -6.56400000
-126.85080000 -77.11860000 -8.97500000
-128.45980000 -74.52110000 -6.93500000
-130.99770000 -74.33460000 -6.33600000
-136.42800000 -74.43530000 -6.30900000
-138.98600000 -71.92020000 -4.68400000
-141.67100000 -69.53480000 -2.95700000
-144.34800000 -69.27850000 -3.15000000
-146.56500000 -66.58850000 -2.25900000
-153.25600000 -65.47740000 -5.49300000
-148.83000000 -63.51850000 -2.21400000
-151.26400000 -63.36480000 -3.20600000
-155.84300000 -65.55860000 -6.15300000
-158.36000000 -62.75860000 -6.99900000
-162.49700000 -60.60490000 -8.42700000
-165.12100000 -58.42590000 -9.98900000
-166.43700000 -58.55300000 -12.31100000
-166.99000000 -58.34530000 -14.89800000
-169.21000000 -56.24220000 -17.03400000
-169.15600000 -56.21440000 -19.59500000
-169.66000000 -56.60860000 -22.21100000
-170.41300000 -52.78530000 -25.12600000
-171.02500000 -50.64870000 -28.04900000
-171.30300000 -48.40610000 -30.92900000
-157.94900000 -52.37810000 -47.22100000
-160.19700000 -52.18170000 -45.75800000
-164.32300000 -51.77660000 -42.29700000
-162.28400000 -51.99770000 -44.18100000
-166.39900000 -51.62790000 -40.36600000
-169.07000000 -48.79430000 -38.63800000
-171.16900000 -45.99560000 -33.66100000
-170.53600000 -46.05720000 -36.22900000
-152.53100000 -52.69530000 -48.99500000
-149.83400000 -52.96350000 -49.71000000
-144.23800000 -50.79130000 -50.52100000
-146.90600000 -50.54420000 -50.42300000
-141.88400000 -54.29800000 -50.00100000
-155.41200000 -52.60330000 -48.46700000
-136.62500000 -55.62400000 -48.85300000
-139.24600000 -55.07470000 -49.37400000
-134.07290000 -58.72230000 -47.76100000
-131.92410000 -61.96110000 -46.95500000
-130.07260000 -65.10220000 -44.75600000
-127.71160000 -65.69470000 -42.97000000
-124.36280000 -63.95050000 -41.51900000
-120.64300000 -62.30780000 -36.73400000
-121.75460000 -61.89770000 -39.32800000
-119.41340000 -67.16610000 -27.10900000
-119.60500000 -66.27200000 -29.18800000
-118.33720000 -68.63610000 -22.51300000
-118.22050000 -68.95540000 -19.82600000
-119.92550000 -71.49280000 -17.59000000
-119.76650000 -62.83480000 -34.16200000
-119.02910000 -63.52090000 -31.70800000
-120.37880000 -71.73820000 -15.02600000
-121.95160000 -74.56120000 -12.99700000
-124.58200000 -77.42240000 -10.33400000
-126.10890000 -74.78870000 -7.91300000
-130.58250000 -71.99600000 -5.75900000
-127.89420000 -72.17960000 -6.03400000
-136.32100000 -71.74660000 -5.32300000
-138.93000000 -69.88470000 -2.88900000
-141.56500000 -67.13770000 -1.75600000
-144.17400000 -66.81410000 -1.93100000
-146.42400000 -63.83300000 -1.42200000
-153.74100000 -63.16890000 -4.19200000
-156.16100000 -62.99000000 -5.32600000
-160.92500000 -60.33380000 -7.50300000
-158.57000000 -60.12730000 -6.37500000
-163.19600000 -58.00570000 -8.41100000
-165.87400000 -55.82770000 -9.82600000
-167.20500000 -55.99050000 -12.14100000
-168.29900000 -56.10020000 -14.57500000
-170.55400000 -54.44450000 -19.63100000
-170.27000000 -54.08950000 -17.02800000
-169.75200000 -54.83490000 -22.28300000
-170.89200000 -52.42060000 -22.48000000
-171.57100000 -50.38010000 -25.42900000
-171.79200000 -48.09560000 -28.31400000
-172.19000000 -45.87070000 -31.18700000
-158.25700000 -49.72200000 -47.76700000
-160.49000000 -49.58680000 -46.37000000
-164.64000000 -49.44520000 -43.53200000
-162.64500000 -49.50110000 -44.98200000
-166.06300000 -48.89980000 -42.45700000
-167.59800000 -48.85680000 -40.81100000
-169.69700000 -45.93470000 -38.64700000
-171.16800000 -43.44300000 -36.26900000
-172.36700000 -43.46720000 -33.97900000
-152.56600000 -50.03260000 -49.67900000
-149.56700000 -50.26680000 -50.23200000
-141.53600000 -50.76170000 -50.66600000
-144.06800000 -47.93200000 -50.93200000
-146.72400000 -47.85220000 -51.20100000
-155.84800000 -49.80010000 -48.71900000
-136.30500000 -53.19130000 -49.43200000
-138.99100000 -52.78420000 -49.79400000
-133.64200000 -56.17750000 -48.12600000
-131.34970000 -59.38250000 -47.08500000
-129.45630000 -62.59060000 -45.58300000
-126.75020000 -63.25070000 -43.53700000
-123.15520000 -61.53200000 -41.71900000
-119.71970000 -59.78130000 -36.61900000
-120.90040000 -59.25850000 -39.35400000
-118.51040000 -64.27710000 -29.36700000
-118.27960000 -64.90010000 -26.97000000
-117.76390000 -65.54520000 -24.52800000
-116.88630000 -66.28370000 -22.14400000
-116.89530000 -66.61290000 -19.47200000
-118.47550000 -69.24310000 -17.14300000
-117.86270000 -61.26380000 -31.64800000
-118.72700000 -60.47760000 -34.06800000
-119.25450000 -69.34930000 -14.54700000
-120.91740000 -72.05120000 -12.56300000
-123.11230000 -74.81000000 -10.63700000
-133.48810000 -71.87290000 -5.57400000
-123.92570000 -75.01280000 -9.16500000
-125.50200000 -72.29710000 -7.14000000
-127.34410000 -69.51100000 -5.75900000
-129.84990000 -69.34610000 -5.48400000
-136.24300000 -69.96040000 -3.22500000
-138.86700000 -67.47120000 -1.65200000
-141.45100000 -64.82500000 -0.36600000
-144.02700000 -64.31690000 -0.67700000
-146.29100000 -61.12320000 -0.01200000
-148.78700000 -60.51640000 -0.84300000
-151.26400000 -61.23560000 -2.24200000
-153.96900000 -60.66520000 -3.08100000
-156.58500000 -60.41420000 -4.45000000
-161.23800000 -57.71370000 -7.01700000
-159.36000000 -57.82070000 -5.18100000
-163.92100000 -55.40830000 -8.11100000
-166.82900000 -53.24330000 -9.75100000
-168.14600000 -53.36670000 -12.14000000
-169.47800000 -53.67960000 -14.48400000
-171.43100000 -52.13550000 -19.79000000
-170.89400000 -51.62050000 -17.26300000
-171.91600000 -50.03690000 -22.78200000
-172.38800000 -47.83250000 -25.73100000
-172.94200000 -45.64330000 -28.66400000
-173.24200000 -43.30850000 -31.52800000
-158.77600000 -47.08370000 -48.41700000
-160.91800000 -46.96580000 -46.99500000
-165.02600000 -47.06920000 -44.14200000
-163.01100000 -46.91490000 -45.56400000
-168.60200000 -45.51210000 -40.89100000
-169.75300000 -43.27480000 -38.37500000
-172.12700000 -40.85630000 -36.61800000
-173.35500000 -40.89410000 -34.35000000
-151.93400000 -47.44860000 -50.61100000
-149.38400000 -47.64290000 -51.08200000
-141.38700000 -47.98980000 -50.67700000
-138.78300000 -50.52940000 -50.32100000
-143.93300000 -45.37700000 -51.66500000
-146.57700000 -45.20280000 -51.85100000
-156.48600000 -47.14870000 -49.32100000
-136.00200000 -50.79730000 -49.99900000
-133.75970000 -53.61880000 -48.95800000
-130.50840000 -56.90130000 -47.31300000
-129.04290000 -59.94690000 -45.93400000
-127.01570000 -60.43160000 -44.50700000
-122.13150000 -58.99690000 -41.87900000
-125.11590000 -60.94590000 -43.30300000
-116.81260000 -62.69270000 -26.78800000
-117.23900000 -61.99970000 -29.22100000
-116.39530000 -63.25850000 -24.30700000
-115.74410000 -63.81760000 -21.85700000
-116.15030000 -64.06270000 -19.26500000
-117.76320000 -66.68070000 -16.86500000
-117.10520000 -58.36560000 -34.09000000
-116.11980000 -59.31770000 -31.73800000
-118.50510000 -66.83790000 -14.18500000
-120.26370000 -69.45600000 -12.03800000
-121.90520000 -72.27460000 -10.28700000
-133.71960000 -69.73350000 -3.94800000
-123.28610000 -72.44180000 -8.35400000
-124.83930000 -69.81170000 -6.16900000
-129.43700000 -66.92420000 -4.56100000
-126.87290000 -66.95280000 -5.19100000
-131.97920000 -69.40650000 -4.82500000
-136.19500000 -67.77410000 -1.65900000
-138.77400000 -65.01950000 -0.47600000
-141.40100000 -62.88060000 1.53200000
-143.77900000 -61.86190000 0.76800000
-147.01900000 -59.65400000 2.44600000
-149.26200000 -58.52040000 1.13900000
-151.26400000 -59.10630000 -1.27900000
-154.03600000 -58.19360000 -1.92100000
-157.22600000 -57.96790000 -3.46400000
-159.77300000 -55.04800000 -4.67400000
-161.92700000 -55.04610000 -6.40000000
-164.91500000 -52.80230000 -7.78400000
-170.64800000 -51.10790000 -14.62400000
-171.71500000 -49.52960000 -20.16800000
-171.04700000 -48.99490000 -17.66700000
-172.65200000 -47.46070000 -23.11000000
-173.35400000 -45.30600000 -26.07000000
-174.00600000 -43.11970000 -29.01800000
-174.32800000 -40.80950000 -31.93600000
-159.41600000 -44.50020000 -49.20300000
-161.51400000 -44.42670000 -47.72600000
-163.64300000 -44.41100000 -46.27400000
-165.82900000 -44.58820000 -44.96500000
-166.66800000 -47.59580000 -42.43000000
-167.37100000 -44.95280000 -43.01600000
-168.39200000 -42.98670000 -40.44300000
-170.81000000 -40.71420000 -38.78200000
-172.99400000 -38.30310000 -37.00000000
-174.24100000 -38.33520000 -34.73400000
-151.86900000 -44.78950000 -51.19200000
-149.25200000 -44.98830000 -51.71300000
-154.21900000 -47.30010000 -50.05200000
-154.20700000 -49.91640000 -49.19900000
-141.30200000 -45.47520000 -51.30800000
-138.68600000 -48.08290000 -50.51400000
-143.77000000 -42.85640000 -52.60200000
-146.43400000 -42.58130000 -52.57100000
-156.91700000 -44.51120000 -49.91900000
-135.77900000 -48.36820000 -50.64600000
-133.30860000 -51.19220000 -49.61400000
-131.59090000 -54.06200000 -48.41800000
-129.52480000 -54.55050000 -47.88400000
-128.17750000 -57.50320000 -46.36400000
-126.12850000 -57.94780000 -44.91700000
-124.09430000 -58.46370000 -43.52700000
-121.15010000 -56.45900000 -42.27300000
-119.68720000 -56.83220000 -39.96000000
-118.29870000 -57.47220000 -36.73000000
-116.11620000 -60.22220000 -26.57600000
-115.81130000 -59.86030000 -29.14600000
-115.76500000 -60.70960000 -24.01800000
-114.80980000 -61.31530000 -21.63500000
-115.31830000 -61.67420000 -19.00300000
-116.99820000 -64.18300000 -16.64000000
-115.26820000 -56.34240000 -34.07800000
-114.50800000 -57.21690000 -31.61400000
-117.99570000 -64.23910000 -13.97600000
-119.41420000 -66.97320000 -11.51500000
-121.05320000 -69.76270000 -9.45000000
-133.59930000 -67.84310000 -2.07800000
-122.49050000 -69.99100000 -7.27300000
-124.28300000 -67.16070000 -5.61800000
-131.58900000 -67.37430000 -3.31500000
-128.79650000 -65.07140000 -2.65200000
-126.43980000 -64.63980000 -3.87500000
-136.14300000 -65.41290000 -0.35600000
-138.67100000 -62.97990000 1.57700000
-144.49200000 -60.69900000 3.64500000
-141.15100000 -61.48720000 4.21800000
-150.69600000 -56.70080000 -0.64400000
-148.72400000 -59.38900000 4.59600000
-149.69900000 -57.02040000 3.40100000
-154.29300000 -56.05450000 -1.85700000
-156.89870000 -54.64920000 -2.79070000
-162.96100000 -52.29230000 -5.88700000
-165.95000000 -50.22080000 -7.76400000
-167.68300000 -51.00060000 -9.84000000
-169.51100000 -50.55310000 -12.20300000
-170.95700000 -48.44590000 -15.06600000
-172.32300000 -46.93120000 -20.55300000
-171.97800000 -46.39210000 -18.00200000
-173.51300000 -44.89920000 -23.45900000
-174.30600000 -42.76170000 -26.42500000
-174.76100000 -40.49950000 -29.37600000
-175.19700000 -38.23760000 -32.30900000
-159.88300000 -41.87410000 -49.95600000
-161.88500000 -41.81920000 -48.17900000
-165.80500000 -41.93510000 -44.67100000
-164.08700000 -41.76200000 -46.62900000
-167.05000000 -42.43700000 -42.48000000
-169.44300000 -40.49420000 -40.87200000
-171.57800000 -38.20240000 -39.13200000
-173.65400000 -35.75790000 -37.32500000
-175.03300000 -35.78010000 -35.11500000
-149.16000000 -42.36440000 -52.49000000
-151.92200000 -42.15660000 -51.89100000
-154.37800000 -44.64260000 -50.51000000
-141.16300000 -43.02310000 -52.21200000
-138.70100000 -45.65150000 -51.25300000
-143.59600000 -40.23640000 -53.27000000
-146.24500000 -39.91090000 -53.24000000
-157.08900000 -41.86980000 -50.36300000
-136.07500000 -45.80550000 -50.86800000
-132.82520000 -48.74880000 -50.23600000
-130.91570000 -51.66730000 -49.14200000
-128.60830000 -52.20590000 -48.47000000
-127.16150000 -55.17620000 -47.07600000
-125.00550000 -55.63630000 -45.69000000
-123.00270000 -56.04750000 -44.07800000
-119.90780000 -54.09600000 -43.12500000
-118.27710000 -54.48460000 -41.10000000
-116.15450000 -55.54360000 -36.45300000
-114.35800000 -57.87110000 -29.05100000
-114.72840000 -58.10110000 -26.45100000
-115.15670000 -58.30080000 -23.81400000
-115.04860000 -58.85240000 -21.19200000
-114.75580000 -59.32310000 -18.66400000
-116.37300000 -61.70900000 -16.46900000
-114.14070000 -53.96480000 -33.54800000
-113.43740000 -54.78330000 -31.02400000
-117.29230000 -61.64300000 -13.76300000
-118.86390000 -64.33100000 -11.24600000
-120.55200000 -67.11390000 -8.83900000
-133.59910000 -65.44480000 -0.83000000
-121.83050000 -67.44000000 -6.16800000
-123.79560000 -64.75690000 -4.46200000
-131.25130000 -65.25640000 -1.77200000
-128.60030000 -62.70200000 -1.44300000
-126.14930000 -62.29560000 -2.65400000
-136.07500000 -62.91600000 1.01900000
-138.49700000 -60.46940000 3.04600000
-147.03400000 -60.30540000 6.49900000
-151.78100000 -55.68680000 2.01900000
-152.03200000 -57.52210000 5.29300000
-150.69600000 -59.26220000 6.63700000
-153.84000000 -54.36090000 0.88900000
-160.02300000 -51.87530000 -2.62050000
-156.82850000 -52.78520000 0.13950000
-164.61800000 -49.49770000 -5.44600000
-168.49500000 -49.23850000 -10.02600000
-167.40700000 -48.08590000 -7.80800000
-170.56000000 -47.83100000 -12.51300000
-171.78800000 -45.84970000 -15.42200000
-173.27600000 -44.37200000 -20.89700000
-172.82400000 -43.80680000 -18.36500000
-174.52500000 -42.39180000 -23.82600000
-175.25500000 -40.23610000 -26.80400000
-175.74100000 -37.99230000 -29.77100000
-176.15200000 -35.72690000 -32.74400000
-161.97700000 -39.07010000 -47.98400000
-159.90700000 -39.14120000 -49.81100000
-166.13600000 -39.23000000 -44.69100000
-164.14400000 -39.04830000 -46.36000000
-167.85200000 -40.14960000 -42.83200000
-170.08800000 -38.16450000 -41.22600000
-172.22800000 -35.79240000 -39.49200000
-174.24700000 -33.21100000 -37.66900000
-175.65200000 -33.16790000 -35.45600000
-149.15600000 -39.70950000 -53.24200000
-152.11600000 -39.50950000 -52.56100000
-154.54900000 -42.01170000 -51.11800000
-140.99100000 -40.54250000 -53.07200000
-138.59500000 -43.20880000 -52.00500000
-145.96000000 -37.18470000 -54.02500000
-143.39400000 -37.55370000 -54.12100000
-157.36500000 -39.26620000 -50.89800000
-136.11300000 -43.36220000 -51.72800000
-135.17200000 -45.89140000 -50.87400000
-132.17670000 -46.21880000 -50.56800000
-130.24530000 -49.15910000 -49.61200000
-127.83040000 -49.77780000 -48.99800000
-126.19600000 -52.84330000 -47.75800000
-124.00020000 -53.27290000 -46.35400000
-121.89960000 -53.66120000 -44.75200000
-117.06450000 -54.90560000 -38.72200000
-118.99300000 -57.15220000 -38.34500000
-114.97890000 -53.13230000 -36.10400000
-112.61250000 -55.93610000 -28.75900000
-112.50310000 -56.58280000 -26.22100000
-112.49300000 -57.15570000 -23.67500000
-112.32560000 -58.06120000 -21.21400000
-112.23190000 -58.82710000 -18.59000000
-114.99050000 -59.79580000 -16.07700000
-111.78010000 -52.71010000 -33.48300000
-110.91080000 -53.94300000 -31.15800000
-115.10620000 -60.30470000 -13.40500000
-117.84760000 -61.74070000 -10.96400000
-119.83780000 -64.41840000 -8.45000000
-133.61520000 -62.80060000 0.17800000
-121.11560000 -64.66760000 -5.49600000
-123.54220000 -62.25420000 -3.53900000
-131.12310000 -62.76420000 -0.61700000
-125.71310000 -60.39770000 -0.86300000
-128.29160000 -60.56810000 -0.00700000
-135.97500000 -60.08280000 2.02600000
-137.79600000 -58.57770000 5.02000000
-140.18600000 -58.61630000 5.99700000
-149.43400000 -60.69410000 8.33500000
-153.60800000 -55.76960000 4.04200000
-152.88300000 -59.52010000 8.37500000
-154.25000000 -58.10830000 6.82000000
-155.48600000 -54.14950000 2.73700000
-161.15400000 -51.07030000 -3.28600000
-163.66000000 -48.00370000 -2.83700000
-166.48200000 -47.23390000 -5.37000000
-169.50500000 -46.91660000 -10.27100000
-168.87800000 -46.05110000 -7.87800000
-171.40800000 -45.24660000 -12.88000000
-172.74100000 -43.32890000 -15.75700000
-174.25700000 -41.86420000 -21.25200000
-173.72500000 -41.27470000 -18.72900000
-175.47600000 -39.88600000 -24.19700000
-176.08900000 -37.69020000 -27.18500000
-176.50800000 -35.42460000 -30.14800000
-176.82000000 -33.10460000 -33.08400000
-162.72300000 -36.44810000 -48.57000000
-160.31100000 -36.52210000 -50.20300000
-164.91700000 -36.42700000 -46.95100000
-166.97100000 -36.39880000 -45.25000000
-168.35100000 -38.35840000 -43.14500000
-170.67400000 -35.96020000 -41.55600000
-172.82900000 -33.32450000 -39.86100000
-174.61700000 -30.58480000 -37.94800000
-175.96300000 -30.50210000 -35.68300000
-152.47800000 -36.87750000 -53.22900000
-150.12200000 -36.96370000 -53.77100000
-154.79800000 -39.40500000 -51.86000000
-140.80400000 -38.05970000 -53.97100000
-138.40800000 -40.77840000 -52.82000000
-148.31300000 -37.05380000 -53.99100000
-145.70500000 -34.51060000 -54.88100000
-143.15200000 -34.70440000 -55.21900000
-157.57800000 -36.62940000 -51.51100000
-135.87300000 -40.97610000 -52.59000000
-133.87830000 -43.55320000 -51.55300000
