1.40052629 7.89576626 -0.31289011
1.37065136 7.93496561 -0.22117569
1.33828676 7.97248936 -0.27438226
1.41695035 7.85282803 -0.40336877
1.36662149 7.93439913 -0.36198920
1.30100286 8.00357056 -0.32370815
1.26195157 8.03676987 -0.24436998
1.22633922 8.06370735 -0.29168391
1.32776725 7.96390963 -0.40315381
1.26138437 8.02868748 -0.36557135
1.19137168 8.08692169 -0.33628142
1.15390861 8.12061691 -0.26676422
1.12313807 8.14073658 -0.30686021
1.22518694 8.05246639 -0.40360755
1.15873253 8.10843658 -0.37184602
1.09346008 8.15868855 -0.34256807
1.05130434 8.19176960 -0.28365400
1.02653396 8.20861244 -0.31997079
1.00253975 8.22489929 -0.35632941
0.95590639 8.25236702 -0.30398852
0.93809724 8.26753807 -0.34050834
0.92069995 8.28412342 -0.37567893
0.87004864 8.30780029 -0.33002463
0.85816795 8.32194901 -0.36558324
0.80678225 8.33563423 -0.28918839
0.88298017 8.29510307 -0.29289588
0.79708666 8.34732437 -0.32547534
0.79137313 8.35990238 -0.36370862
0.72524107 8.38745499 -0.33035302
0.71976042 8.39869785 -0.36923105
0.72139627 8.41621971 -0.40348217
0.64479840 8.43580246 -0.37506995
0.64992082 8.45901966 -0.40957180
0.56578851 8.45459557 -0.33721280
0.64667898 8.42319202 -0.33582172
0.56417656 8.46731281 -0.37546399
0.57031989 8.49551010 -0.40668222
0.48871303 8.53392220 -0.38136256
0.48225924 8.50742722 -0.35985783
0.48150700 8.49166012 -0.32670522
0.38443124 8.53855038 -0.33449039
0.38573873 8.52637577 -0.30760649
0.39048508 8.56355858 -0.33926654
0.27236432 8.56147575 -0.33132023
0.27530167 8.59534454 -0.33477095
0.17244679 8.56110477 -0.30152881
0.27642405 8.54356384 -0.30311686
0.16848256 8.58846664 -0.32605445
0.17116913 8.62561989 -0.32428727
0.07454119 8.60949898 -0.30376166
0.07768152 8.64622879 -0.29672280
-0.00931050 8.58273506 -0.28337935
0.07794423 8.57565498 -0.29438248
-0.00902990 8.61810303 -0.28189281
-0.00582986 8.65289688 -0.26585677
-0.09088754 8.62578011 -0.27011949
-0.08809945 8.65769196 -0.24866253
-0.00206266 8.68636036 -0.25115812
-0.08632629 8.68811512 -0.22808321
-0.17461982 8.68835926 -0.22708021
-0.17550939 8.65982914 -0.24639384
-0.17310339 8.72027111 -0.20795761
-0.27422693 8.71236610 -0.21749206
-0.27210152 8.68516541 -0.23589227
-0.27746278 8.74000359 -0.19869183
-0.27045971 8.65906429 -0.25419691
-0.37361908 8.68306446 -0.26253730
-0.36847275 8.65625858 -0.27776736
-0.26822087 8.63272953 -0.27030459
-0.36215031 8.62882519 -0.29095554
-0.17700194 8.63052082 -0.25939101
-0.17901391 8.60010338 -0.26718214
-0.26866865 8.60546875 -0.27331355
-0.09301890 8.59000111 -0.27988082
-0.09301890 8.56858540 -0.25302675
-0.18152140 8.58403015 -0.24231617
-0.00594329 8.56217384 -0.25814924
-0.09298906 8.56114101 -0.22032790
-0.00248058 8.55384541 -0.22494288
0.08413532 8.55803108 -0.26416120
0.09069064 8.54780388 -0.22983845
0.17917521 8.54707527 -0.26879412
0.18675739 8.53989315 -0.23383254
0.28249574 8.53413773 -0.27041203
0.28912270 8.52916527 -0.23673999
0.38964325 8.51839352 -0.27621511
0.39344627 8.51086521 -0.24371321
0.48411000 8.48407745 -0.29160035
0.48727420 8.47675800 -0.25555816
0.56914377 8.44665527 -0.29846609
0.57307816 8.43900204 -0.26005965
0.65094167 8.41247749 -0.29710490
0.65521640 8.40220165 -0.25839996
0.73060828 8.37620258 -0.29145110
0.73555160 8.36546707 -0.25248945
0.81737345 8.32424355 -0.25180885
0.74362934 8.35632133 -0.21453679
0.82839441 8.31304169 -0.21372481
0.89809680 8.28143597 -0.25520590
0.91305214 8.26851082 -0.21617860
0.97447371 8.23756695 -0.26565975
0.99665910 8.22407532 -0.22799365
1.07483304 8.17427731 -0.24620283
1.01609206 8.20921516 -0.18602301
1.10115576 8.15598488 -0.20069183
1.18399847 8.09883118 -0.22001742
1.12661266 8.13501740 -0.15167043
1.21276295 8.07343292 -0.16816013
1.29552209 8.00617886 -0.19190967
1.23807073 8.04323101 -0.11136547
1.32044780 7.96850824 -0.13259555
1.39509940 7.89197493 -0.16250634
1.33845997 7.92762899 -0.07136502
1.41516519 7.84749699 -0.09894144
1.47089136 7.75762749 -0.13558067
1.42829370 7.80070353 -0.03384221
1.48224068 7.70722103 -0.07038592
1.52800834 7.61690331 -0.11432073
1.48318994 7.65376902 -0.00551950
1.52883816 7.56149960 -0.04957372
1.56795502 7.47691965 -0.10056535
1.52096343 7.50403023 0.01422400
1.55816388 7.41710997 -0.03728106
1.59031940 7.34088278 -0.09493545
1.54221141 7.35624409 0.02495247
1.57085657 7.27747869 -0.03463027
1.60235548 7.21283340 -0.09982503
1.58144176 7.14905310 -0.04030199
1.55104136 7.21350193 0.02544802
1.60820627 7.09308243 -0.11119233
1.58246863 7.02971458 -0.05593201
1.55706537 7.08243179 0.01571058
1.59877932 6.98141575 -0.13048808
1.56098783 6.92312860 -0.08292338
1.54799068 6.96451426 -0.00966880
1.57863569 6.88164759 -0.15481673
1.56771016 6.82583809 -0.10464299
1.54114282 6.85883522 -0.04186020
1.59880316 6.82340813 -0.21600546
1.58197904 6.76204014 -0.05154389
1.55397880 6.79085827 0.00712542
1.54483843 6.69802141 0.03105403
1.57122672 6.67433739 -0.02888692
1.52105904 6.60498762 0.03658843
1.55163252 6.58573341 -0.02686303
1.48650336 6.51804352 0.03128688
1.44895661 6.53413296 0.09317414
1.48883784 6.62678480 0.10116827
1.42120707 6.54897499 0.15908535
1.45175672 6.65326881 0.16541377
1.51008582 6.72901869 0.09393237
1.51179314 6.82116318 0.06565743
1.51508880 6.89672852 0.02735251
1.52567399 7.01292658 0.06350216
1.49394226 7.07842588 0.13181339
1.52770972 7.14717293 0.08236209
1.44612074 7.17095852 0.18300800
1.49327958 7.23188448 0.14176574
1.52135742 7.29480410 0.08554421
1.44835377 7.33090639 0.18947971
1.48640788 7.38867426 0.13884631
1.50521410 7.44534969 0.07618292
1.42681313 7.48994064 0.17149742
1.45551789 7.54401875 0.11720426
1.47440767 7.59948826 0.05770509
1.40520096 7.64882612 0.15644054
1.42274141 7.70039701 0.09577717
1.43099821 7.75182438 0.03171077
1.35797060 7.79878664 0.12449987
1.36242437 7.84486961 0.05953796
1.35277057 7.88536119 -0.00713146
1.27828014 7.93308544 0.07639783
1.27257860 7.97222137 0.01200308
1.25873363 8.00988102 -0.05149017
1.18266702 8.05458546 0.02090466
1.16760433 8.08513546 -0.04119154
1.14952648 8.11245441 -0.10010564
1.06667173 8.15439034 -0.04245723
1.05144775 8.17543411 -0.09590260
1.03499973 8.19439697 -0.14419571
0.95303464 8.22981262 -0.09726381
0.93959570 8.24280834 -0.13725831
0.92604929 8.25588322 -0.17703782
0.84907532 8.29092312 -0.13199258
0.83881253 8.30234337 -0.17563486
0.77060872 8.32936478 -0.09360407
0.85951120 8.27962685 -0.08867865
0.76176685 8.33738899 -0.13986728
0.75269806 8.34685802 -0.17720504
0.67471510 8.37706757 -0.14064340
0.66784340 8.38515759 -0.18056026
0.66094780 8.39382648 -0.21946223
0.58257675 8.42439842 -0.18226179
0.57774085 8.43157005 -0.22158761
0.49972808 8.45458508 -0.13814189
0.58740669 8.41623211 -0.14225537
0.49486831 8.46190929 -0.18071552
0.49088022 8.46943188 -0.21919952
0.40305835 8.49683666 -0.17352736
0.39803141 8.50366497 -0.21079941
0.30685425 8.51395226 -0.13421947
0.40757179 8.48957062 -0.13484634
0.30121839 8.51825142 -0.16814224
0.29549888 8.52365971 -0.20285906
0.19975455 8.53313541 -0.16481084
0.19363508 8.53595924 -0.19944407
0.10562811 8.54110432 -0.12694773
0.20586206 8.53034019 -0.13019554
0.10033849 8.54293728 -0.16133618
0.09504890 8.54478359 -0.19573063
0.00395532 8.55040073 -0.15721074
0.00079708 8.55063915 -0.19106787
-0.09063679 8.55850220 -0.12139542
0.00764491 8.55090904 -0.12315069
-0.09089351 8.55812550 -0.15364651
-0.09138904 8.55985069 -0.18668570
-0.18499605 8.57125950 -0.18300208
-0.18649459 8.56782150 -0.15189129
-0.18350351 8.57469273 -0.21411289
-0.27749860 8.58054447 -0.21825621
-0.28226879 8.57618618 -0.18805292
-0.27325377 8.58859825 -0.24718788
-0.37066382 8.57520103 -0.24157588
-0.36298016 8.58180904 -0.27306879
-0.35906368 8.60286045 -0.29366007
-0.45266476 8.57547569 -0.31121847
-0.44369152 8.59146404 -0.34032327
-0.45039010 8.62541103 -0.33509931
-0.53900003 8.61672878 -0.38726109
-0.53547168 8.57598209 -0.38613275
-0.45725584 8.65826416 -0.32263353
-0.54212248 8.65991879 -0.37258631
-0.64236838 8.64213848 -0.40938675
-0.64115644 8.59566689 -0.41352412
-0.64141905 8.55409527 -0.40169710
-0.76502645 8.54515266 -0.39772096
-0.76228017 8.51041698 -0.38109386
-0.76513398 8.58812046 -0.40260455
-0.87945759 8.53585720 -0.34177402
-0.87478888 8.50339699 -0.33121273
-0.86982769 8.47939682 -0.31309909
-0.96869439 8.45096684 -0.30835274
-0.96517801 8.43286514 -0.28848386
-0.97550654 8.47744560 -0.31091398
-1.05667758 8.42478657 -0.32829329
-1.05256999 8.40183735 -0.32046038
-0.98194832 8.50700855 -0.30714080
-1.06462383 8.45016670 -0.32941568
-1.12572300 8.40773678 -0.37140426
-1.11838579 8.38086987 -0.36852658
-1.07420015 8.47761822 -0.32260364
-1.13448143 8.43454361 -0.36945793
-1.17739534 8.39590263 -0.42092714
-1.17147887 8.36589718 -0.42067042
-1.14443374 8.46345615 -0.36487877
-1.08436143 8.50718880 -0.31704539
-1.15795636 8.50060940 -0.35493237
-1.09489882 8.54389954 -0.30833486
-1.17364001 8.55060387 -0.33900383
-1.10978854 8.58449078 -0.29811385
-1.22351515 8.60946465 -0.34631738
-1.25066185 8.61913013 -0.36977434
-1.20233881 8.69418049 -0.31121248
-1.21170616 8.71348286 -0.31852004
-1.27123523 8.63732624 -0.38655064
-1.21605241 8.73238564 -0.32815596
-1.29139054 8.56511116 -0.46829489
-1.27678144 8.66024685 -0.40764344
-1.22150326 8.74911308 -0.34329644
-1.28225029 8.68337440 -0.42665860
-1.21748531 8.76393127 -0.36189961
-1.31356990 8.61628246 -0.51507753
-1.30734301 8.59032345 -0.49159065
-1.27445316 8.70519066 -0.44787076
-1.27445316 8.70519066 -0.44787076
-1.28225029 8.68337440 -0.42665860
-1.21748531 8.76393127 -0.36189961
-1.20798671 8.77758980 -0.38294464
-1.25698423 8.71971512 -0.47040233
-1.18977165 8.78347683 -0.40894493
-1.29045331 8.65392399 -0.56371689
-1.31031024 8.64061165 -0.54007477
-1.23522282 8.72881985 -0.49343544
-1.25698423 8.71971512 -0.47040233
-1.31031024 8.64061165 -0.54007477
-1.16674447 8.78787136 -0.43537512
-1.20845830 8.73151302 -0.51620585
-1.14076805 8.78602028 -0.45991865
-1.23795724 8.65919018 -0.60725760
-1.26571274 8.66004467 -0.58618873
-1.17989087 8.73014641 -0.53851658
-1.11103046 8.77987099 -0.48130396
-1.14922786 8.72308254 -0.55966306
-1.07910168 8.77343082 -0.50400275
-1.17817736 8.64584064 -0.64404011
-1.20854783 8.65317726 -0.62648171
-1.11711991 8.71437168 -0.57984239
-1.04526842 8.76363945 -0.52171040
-1.08268392 8.70266533 -0.59885752
-1.00956070 8.75361538 -0.53870761
-0.95774508 8.82626629 -0.49523249
-0.92209095 8.81678581 -0.51855814
-0.96853924 8.73311234 -0.55792576
-0.87042469 8.79753208 -0.54838532
-0.82380921 8.89288807 -0.54965699
-0.76772499 8.86257076 -0.56444520
-0.82258534 8.75837898 -0.57351398
-0.70561093 8.82255268 -0.57492292
-0.72636932 8.95899582 -0.55202115
-0.65832078 9.01263332 -0.53839123
-0.88692635 8.67167950 -0.61074424
-0.92736262 8.71212196 -0.57729310
-0.78514016 8.70920277 -0.59384257
-0.67372394 8.76006794 -0.58778870
-0.75800550 8.65678310 -0.61520994
-0.64497739 8.70515442 -0.60145456
-0.51810431 8.76353741 -0.58744842
-0.50230712 8.70339966 -0.60430235
-0.62223679 8.65207863 -0.61996228
-0.39513576 8.81682110 -0.55992573
-0.38287294 8.75076771 -0.58505440
-0.37844899 8.70037174 -0.62524581
-0.48945326 8.66112518 -0.64065498
-0.27673441 8.77849960 -0.58780068
-0.27631649 8.83261871 -0.55998546
-0.27983296 8.72802734 -0.62886983
-0.29089576 8.72339439 -0.68879294
-0.38573265 8.70167446 -0.68600476
-0.18042289 8.78411102 -0.61602789
-0.18747967 8.73997974 -0.65014768
-0.19854845 8.73719025 -0.70379007
-0.20807095 8.74639606 -0.75792205
-0.30132574 8.73271370 -0.74691886
-0.09022485 8.73851109 -0.67597485
-0.10137124 8.74007988 -0.72564101
-0.11030865 8.75373363 -0.77261472
-0.11974160 8.76561451 -0.82241231
-0.21637553 8.75808048 -0.80946887
-0.00956125 8.75168037 -0.78946859
0.00043289 8.73896503 -0.74374872
-0.02208080 8.76730537 -0.83623332
-0.03523915 8.77935791 -0.88407868
-0.13127606 8.77641487 -0.87121880
0.07335908 8.75307751 -0.85278279
0.08657715 8.73608589 -0.80630469
0.05740071 8.77115536 -0.90075344
0.03977662 8.79182339 -0.95232415
-0.05150203 8.79117870 -0.93617475
0.14539573 8.75162697 -0.92006117
0.16155112 8.72978687 -0.87090236
0.12644027 8.77569866 -0.97256327
0.09959222 8.79209328 -1.03342962
0.01602113 8.79854679 -1.01252186
0.20503819 8.74708366 -0.99659336
0.22544438 8.71988869 -0.94141662
0.17602293 8.76799774 -1.05820596
0.13089406 8.75536919 -1.12043953
0.06033208 8.77181244 -1.09694684
0.24398190 8.73654461 -1.08574069
0.27514046 8.71410942 -1.02362049
0.19633959 8.73105907 -1.14635623
0.14585543 8.70778179 -1.20207036
0.08261891 8.73160934 -1.18312085
0.25774327 8.70076752 -1.17643428
0.30447212 8.69928074 -1.11486936
0.20528296 8.67549992 -1.22367048
0.16309145 8.67612648 -1.28618467
0.11115652 8.71454525 -1.27273381
0.25924775 8.63777447 -1.24866188
0.31481257 8.66786385 -1.20735991
0.21363531 8.63595963 -1.30565357
0.19891872 8.65364361 -1.37555289
0.14689423 8.69215107 -1.36313486
0.26143882 8.59340382 -1.32979715
0.30894387 8.59912300 -1.27629209
0.24022664 8.61442566 -1.40258002
0.16873926 8.64324951 -1.45664036
0.20497850 8.59902859 -1.47721970
0.30512890 8.55725956 -1.35920036
0.27937931 8.57258606 -1.43044305
0.23717587 8.55025768 -1.49799013
0.15158087 8.56102753 -1.52548289
0.18116330 8.51789856 -1.54538763
0.31530210 8.52631760 -1.46031201
0.26560602 8.50019073 -1.51534545
0.20702028 8.46800041 -1.56358480
0.12264919 8.48601723 -1.58449852
0.14735991 8.44121170 -1.60778224
0.29271680 8.44771767 -1.53510690
0.23229223 8.41784286 -1.58205068
0.17187363 8.39451313 -1.62824225
0.09079213 8.42186832 -1.64238572
0.11253563 8.37644100 -1.66334724
0.25083572 8.36657143 -1.60484505
0.19387984 8.34657192 -1.65005147
0.13077465 8.33067322 -1.68569958
0.05363946 8.36175442 -1.68878031
0.06974712 8.31692982 -1.71072674
0.07991440 8.26981735 -1.73416591
0.01922713 8.25959682 -1.75269735
0.02682722 8.21037197 -1.77651858
0.00734043 8.30479240 -1.72784340
-0.05373489 8.29365826 -1.74246454
-0.04278550 8.24741840 -1.76672149
-0.06552009 8.33916187 -1.71794474
-0.00577016 8.35015392 -1.70611787
-0.02362708 8.39188004 -1.68095922
-0.07953816 8.38312721 -1.69323409
0.03148995 8.40396309 -1.66709638
0.00969866 8.44665527 -1.64423048
-0.04294074 8.43485832 -1.65747249
0.06554407 8.46275806 -1.61800921
0.03846914 8.49944496 -1.59867179
-0.01720909 8.47833443 -1.62654078
0.09520410 8.52091885 -1.56740570
0.06715008 8.56078339 -1.54886234
0.01100615 8.53288364 -1.58263576
0.12029693 8.60624504 -1.50555432
0.08278009 8.64848614 -1.48613322
0.12594476 8.68662357 -1.43665206
0.03705420 8.68942356 -1.46669424
0.07123370 8.72659302 -1.41589355
0.09260706 8.73012829 -1.34804797
0.03195564 8.76502419 -1.33152843
0.01214646 8.76409817 -1.40209043
0.05229018 8.74729824 -1.25798738
-0.01075529 8.77375889 -1.24308574
-0.03491079 8.78997421 -1.31671047
0.01674352 8.75069618 -1.16656542
-0.05220650 8.76552010 -1.15118015
-0.07653514 8.79188347 -1.22838104
-0.01624192 8.78107166 -1.07731068
-0.09437415 8.78537560 -1.06126285
-0.12138937 8.77655220 -1.13798010
-0.07120970 8.79937744 -0.99507695
-0.15983160 8.79364014 -0.98282605
-0.17739001 8.78205776 -1.05172229
-0.14365232 8.78755474 -0.92381042
-0.23593396 8.77999115 -0.91734469
-0.24838184 8.78586006 -0.97665882
-0.22543234 8.76923847 -0.86339188
-0.31757668 8.75606918 -0.86080080
-0.32617977 8.76589489 -0.91710591
-0.30966014 8.74466515 -0.80349272
-0.40246120 8.72303009 -0.80601215
-0.40835977 8.73338223 -0.86573219
-0.39544025 8.71139240 -0.74738461
-0.49034876 8.67647266 -0.75901455
-0.49366224 8.68863487 -0.81914657
-0.48827708 8.66360855 -0.69962883
-0.58675581 8.61863422 -0.72019029
-0.58229607 8.63274765 -0.78011334
-0.60040373 8.61809731 -0.66204029
-0.67756873 8.57681847 -0.74582046
-0.70099592 8.58069420 -0.68996900
-0.73048878 8.61104584 -0.64633268
-0.78239381 8.54241848 -0.72177833
-0.81943309 8.57622814 -0.67950314
-0.85141551 8.62306976 -0.64561027
-0.92585814 8.58386421 -0.68261963
-0.88787562 8.53712368 -0.71475726
-0.96461684 8.63438416 -0.65648800
-1.02523243 8.57387638 -0.69797504
-0.98717827 8.52778625 -0.71845293
-1.06811643 8.60315323 -0.68450028
-1.00629485 8.66742325 -0.63577133
-1.04670739 8.68917751 -0.61607563
-1.10800350 8.62162495 -0.67395687
-1.14424264 8.63498116 -0.66141945
-1.16504884 8.53832817 -0.72220218
-1.20133579 8.55125523 -0.71394539
-1.23479295 8.56196404 -0.70329452
-1.25728869 8.46678829 -0.76629817
-1.28974879 8.47574902 -0.75550407
-1.26672173 8.56983376 -0.68902570
-1.32211339 8.48379135 -0.74410093
-1.29605937 8.57392406 -0.67182553
-1.35321224 8.48623753 -0.72914559
-1.32251334 8.57367229 -0.65134174
-1.38284242 8.48593330 -0.71039903
-1.34447777 8.56519508 -0.62762201
-1.39572024 8.46751499 -0.68488830
-1.35311067 8.54401779 -0.60067844
-1.39334404 8.44287682 -0.66174185
-1.34397626 8.51625633 -0.57876778
-1.35311067 8.54401779 -0.60067844
-1.39334404 8.44287682 -0.66174185
-1.38082445 8.41587925 -0.64232665
-1.32774329 8.48756981 -0.55854064
-1.36327207 8.38974857 -0.62417728
-1.30533111 8.46056080 -0.53713149
-1.34207177 8.36679935 -0.60983676
-1.39703357 8.29534149 -0.69730049
-1.37741554 8.27284527 -0.68116891
-1.35756445 8.25119686 -0.66940165
-1.40296793 8.18533325 -0.74893677
-1.38495576 8.16588879 -0.73663229
-1.34065688 8.22923851 -0.66032690
-1.37091982 8.14820004 -0.72366488
-1.32510448 8.20566845 -0.65122229
-1.31518197 8.18030071 -0.63958627
-1.26672769 8.25427818 -0.57724535
-1.26230979 8.22435570 -0.56622434
-1.31850731 8.16052723 -0.61875027
-1.21130013 8.30396080 -0.49418172
-1.22050619 8.33752728 -0.49206233
-1.22371829 8.27565193 -0.48126814
-1.27967703 8.20597935 -0.54556733
-1.17172956 8.33574200 -0.41600177
-1.18558645 8.31104851 -0.40203142
-1.24516928 8.25365162 -0.46507689
-1.12419474 8.35953808 -0.35221595
-1.13401568 8.33973026 -0.33502769
-1.20340753 8.29227161 -0.38490289
-1.05548942 8.38402939 -0.30158255
-1.06272542 8.37340736 -0.27873453
-1.14868462 8.32655907 -0.31433493
-0.96728545 8.42039394 -0.26623887
-0.97418708 8.41255379 -0.23994005
-1.07171655 8.36365795 -0.25557005
-0.86315298 8.45687675 -0.25424469
-0.86418581 8.46156311 -0.28576145
-0.75039941 8.48921108 -0.30556467
-0.75493085 8.49466228 -0.34579796
-0.64726990 8.51259613 -0.33115304
-0.64312065 8.52574348 -0.37160721
-0.55080318 8.53935528 -0.31715289
-0.54148370 8.55076504 -0.35536224
-0.46242008 8.56199551 -0.27897331
-0.56187791 8.53305721 -0.27782109
-0.47221124 8.55644894 -0.24524163
-0.37841916 8.56795883 -0.21108598
-0.48082027 8.55037689 -0.20970088
-0.38677743 8.56140995 -0.17817815
-0.28699720 8.57166100 -0.15802272
-0.29237041 8.56706905 -0.12720445
-0.39434770 8.55544567 -0.14382556
-0.18848863 8.56676483 -0.12116856
-0.19192152 8.56542778 -0.09166377
-0.29819137 8.56275845 -0.09575932
-0.08900095 8.55705738 -0.08847567
-0.08846363 8.55751705 -0.05421259
-0.19539021 8.56447887 -0.06203955
0.01142407 8.54435349 -0.08904284
0.01223601 8.54403591 -0.05258870
0.11103114 8.53906441 -0.09250554
0.11267296 8.53685951 -0.05642755
0.20959345 8.52692604 -0.09554438
0.21349202 8.52312946 -0.06117984
0.31203642 8.50927162 -0.09945489
0.31560662 8.50339127 -0.06136491
0.41204944 8.48234653 -0.09620710
0.41454503 8.47535515 -0.05206332
0.50458187 8.44725895 -0.09557424
0.50852817 8.44007683 -0.05069613
0.59253508 8.40828514 -0.10077430
0.59775901 8.40085888 -0.04754385
0.68151522 8.37064838 -0.09775935
0.68891233 8.36287117 -0.04705431
0.78026253 8.32005119 -0.04222439
0.69516313 8.35419464 0.00979409
0.78834623 8.30744839 0.01615836
0.87010831 8.26846886 -0.04567517
0.87921894 8.25148296 0.01371058
0.96500492 8.21329308 -0.04455876
0.97630662 8.19332218 0.01576433
1.07970476 8.13013840 0.01949571
0.98511863 8.16967297 0.07869639
1.08598542 8.09969711 0.08103670
1.19135380 8.02076435 0.08506063
1.09073770 8.06806564 0.14209411
1.19091797 7.98223305 0.14719266
1.27504420 7.88961172 0.13847017
1.17613566 7.93745089 0.20310375
1.26176655 7.84150267 0.19652458
1.34190464 7.74925089 0.18540803
1.23154533 7.79025984 0.24276389
1.31079984 7.69606781 0.23577277
1.37570810 7.59574509 0.21042323
1.26542032 7.64317274 0.26830450
1.33028674 7.54331493 0.24669230
1.38936198 7.43693113 0.21916363
1.27628016 7.49730206 0.27088362
1.33507478 7.38877583 0.24785648
1.39321876 7.27759218 0.22303830
1.28091300 7.35229778 0.28548676
1.33438814 7.23450518 0.25540882
1.29619670 7.20904207 0.32228720
1.24790955 7.32659578 0.35300991
1.26045907 7.18623590 0.39164320
1.21427941 7.30270863 0.42218083
1.22275114 7.17039061 0.46793661
1.17778945 7.28285789 0.49491596
1.26140833 7.05385256 0.43730935
1.24238718 6.93788719 0.49898168
1.28746235 6.94056177 0.40956578
1.21616006 7.04635954 0.52166253
1.17933571 7.15656376 0.54584789
1.16775954 7.03717136 0.60228437
1.13227844 7.14190722 0.62152642
1.13761592 7.26332903 0.56810492
1.09288704 7.24407530 0.64009976
1.07978237 7.12725639 0.69509137
1.04273713 7.22562742 0.71186173
1.09155560 7.36560535 0.58602744
1.04977608 7.34306145 0.65563422
1.00107706 7.32201672 0.72564095
0.98978734 7.20809269 0.78321779
0.94606745 7.30118036 0.79272830
1.00000834 7.43780899 0.66584927
0.95138687 7.41348600 0.73220229
0.89801913 7.38832808 0.79589248
0.88715929 7.28020096 0.85685438
0.83616769 7.36539030 0.85586333
0.89838934 7.49952269 0.73467386
0.84514087 7.47310495 0.79738510
0.78502685 7.44576740 0.85355884
0.77039385 7.34057760 0.90992957
0.71870965 7.41937304 0.90492660
0.79066867 7.55345201 0.79582685
0.73027396 7.52305746 0.84900355
0.66622549 7.49374342 0.89955342
0.64947897 7.39337254 0.95141667
0.59713817 7.46467495 0.94258076
0.67636889 7.59361362 0.84365422
0.61192638 7.56187010 0.89186972
0.54516143 7.53019810 0.93492091
0.52627766 7.43806553 0.98228866
0.47573972 7.50335598 0.97570354
0.55795556 7.62532139 0.88364869
0.49284440 7.58993626 0.92821640
0.42378691 7.56363106 0.96637803
0.40518969 7.47903919 1.00856352
0.35655034 7.54241276 0.99728584
0.44119009 7.64509487 0.92111188
0.36943409 7.61423492 0.96071833
0.30809009 7.59757805 0.98337525
0.29093766 7.52354717 1.02206826
0.24674611 7.58388805 1.00564408
0.32342756 7.66773987 0.94634199
0.26347467 7.65245533 0.96873635
0.20414266 7.64159632 0.98668265
0.18755142 7.57509375 1.02131009
0.14692409 7.63312435 1.00053358
0.22088912 7.70166302 0.95292711
0.16716315 7.69905949 0.96351820
0.11613569 7.70246840 0.96917802
0.09002793 7.63158464 1.00999045
0.06057685 7.70314980 0.97663474
0.14844649 7.77749681 0.92092079
0.09408769 7.77966309 0.92791194
0.03433776 7.77930450 0.93530303
-0.00319103 7.69870806 0.98394245
-0.03012267 7.77662420 0.94265240
0.07987855 7.85761070 0.88241291
0.01762712 7.85665607 0.88957119
-0.04762734 7.85398149 0.89635330
-0.09565178 7.77208233 0.94901663
-0.11715650 7.84919882 0.90241909
0.00888074 7.93066216 0.84142733
-0.06191408 7.92833376 0.84642440
-0.13310891 7.92360592 0.85196477
-0.18904386 7.84261942 0.90719527
-0.20722318 7.91709232 0.85619169
-0.06660070 7.99456787 0.79244167
-0.14502546 7.99236488 0.79677010
-0.22174275 7.98734903 0.80007166
-0.28235239 7.90659046 0.85649019
-0.29897943 7.97721720 0.79997015
-0.14999269 8.05509377 0.73976058
-0.23029806 8.05181026 0.74223816
-0.31220946 8.04362392 0.74164712
-0.37711167 7.96570778 0.79865074
-0.39267603 8.03136253 0.73871577
-0.23645933 8.11115932 0.68214798
-0.32020953 8.10397720 0.68101960
-0.40574482 8.09229469 0.67639261
-0.47501126 8.01599407 0.73423809
-0.48910698 8.07721901 0.67134780
-0.32717678 8.16201878 0.62034428
-0.41418076 8.14991188 0.61457705
-0.50162053 8.13511753 0.60802770
-0.57429004 8.05921841 0.66593879
-0.58860654 8.11639500 0.60099477
-0.41985244 8.20276737 0.55160916
-0.50982362 8.18874931 0.54425979
-0.59974104 8.17141724 0.53700006
-0.67596877 8.09434795 0.59399170
-0.68893605 8.14790630 0.52870148
-0.51439083 8.23571587 0.47968593
-0.60799783 8.22180557 0.47370380
-0.70056605 8.19863510 0.46455741
-0.77904457 8.11992455 0.52179390
-0.79302680 8.17215157 0.45807379
-0.61195016 8.25988388 0.40533888
-0.70631540 8.23932838 0.39780444
-0.79901493 8.21113777 0.38871181
-0.88862789 8.17492771 0.37835348
-0.88186955 8.13588810 0.44753039
-0.79871643 8.23946571 0.32031700
-0.70745569 8.27050972 0.32765439
-0.89013833 8.20299339 0.31032285
-0.98041397 8.16035366 0.29957050
-0.97767967 8.13340473 0.36744589
-0.88842487 8.22451115 0.24408332
-0.79731935 8.26552486 0.25208339
-0.97886169 8.18022251 0.23269810
-1.06354928 8.12837887 0.21645913
-1.06361496 8.10775757 0.28576139
-0.98124391 8.20495701 0.17318103
-0.88915926 8.24996758 0.18555728
-1.07091653 8.15590096 0.15983759
-1.15600395 8.10439014 0.14917478
-1.14214122 8.06995869 0.20224403
-1.09694076 8.20910740 0.12565212
-1.00083208 8.25854111 0.14318664
-1.18661928 8.15804958 0.11112062
-1.23805869 8.05057335 0.13897169
-1.27336049 8.10367966 0.10150857
-1.11618865 8.25839710 0.08123968
-1.21399271 8.20646191 0.06358574
-1.30449533 8.14458084 0.04613481
-1.35339725 8.04029369 0.08618301
-1.38484240 8.07205391 0.02464801
-1.22926450 8.23585415 0.00495822
-1.32122374 8.16392517 -0.01951368
-1.39503360 8.08816242 -0.04732894
-1.45001328 7.99946356 -0.00147169
-1.46072984 8.02355385 -0.07400385
-1.32269251 8.17659283 -0.08396218
-1.39720666 8.10621643 -0.11595060
-1.45936275 8.04083633 -0.14565241
-1.51929176 7.95659637 -0.09878025
-1.51935744 7.97651386 -0.16830942
-1.39186931 8.12236023 -0.17758709
-1.45259237 8.05701065 -0.20712177
-1.51511252 7.99640083 -0.23488329
-1.56932807 7.93132544 -0.25808352
-1.57736993 7.90976620 -0.19269773
-1.50207353 8.01544571 -0.29066896
-1.44428182 8.07532120 -0.25975522
-1.55704737 7.95311069 -0.31808421
-1.60560310 7.88878632 -0.34260386
-1.62040329 7.86549807 -0.28276443
-1.53846800 7.97323608 -0.36963108
-1.48644948 8.03311729 -0.34136209
-1.58759701 7.91346121 -0.39623433
-1.63425422 7.85627317 -0.42068237
-1.65760958 7.82707262 -0.36893252
-1.56380558 7.94054842 -0.44476029
-1.51649761 7.99449492 -0.41876596
-1.60755539 7.88575983 -0.46799639
-1.65229023 7.82751560 -0.49380559
-1.68150246 7.79656553 -0.44748867
-1.57683861 7.91310930 -0.51037294
-1.53472471 7.96448326 -0.48293981
-1.61651671 7.85816622 -0.53513741
-1.65595603 7.80271482 -0.56138247
-1.69153833 7.77088165 -0.52032530
-1.58038497 7.89094877 -0.56794375
-1.54244423 7.94232273 -0.54202110
-1.61772275 7.83740664 -0.59447539
-1.65063047 7.78335810 -0.62356234
-1.68663096 7.74645090 -0.58895886
-1.57730436 7.87424326 -0.62283391
-1.54318452 7.92420912 -0.59716201
-1.61040318 7.82221889 -0.65230888
-1.64086914 7.77264309 -0.68630332
-1.68054724 7.73533487 -0.65541941
-1.56774008 7.86195040 -0.67748523
-1.53664112 7.90954590 -0.64971781
-1.59849250 7.81255913 -0.71102589
-1.62156153 7.76415300 -0.74736673
-1.66288733 7.72430086 -0.72193354
-1.55499363 7.85333633 -0.73444718
-1.52421117 7.90112114 -0.70201093
-1.57938790 7.80341244 -0.77249527
-1.59398508 7.75237370 -0.81783319
-1.63681543 7.71273708 -0.79400593
-1.52819324 7.85280991 -0.79617912
-1.50723779 7.89758635 -0.75553995
-1.55091596 7.79135847 -0.84133792
-1.55534577 7.74013472 -0.89439523
-1.59844482 7.70026588 -0.87293828
-1.51268864 7.78108454 -0.91512978
-1.55534577 7.74013472 -0.89439523
-1.51268864 7.78108454 -0.91512978
-1.51824689 7.72969246 -0.97224087
-1.55969810 7.68899965 -0.95493913
-1.47573292 7.82790899 -0.93662256
-1.47704649 7.77291679 -0.99055743
-1.47573292 7.82790899 -0.93662256
-1.48044944 7.71814108 -1.04900587
-1.52209175 7.67583513 -1.03322065
-1.45426404 7.82119322 -1.01428914
-1.45168495 7.87926483 -0.96120191
-1.45048499 7.76381874 -1.06988370
-1.44820428 7.70648575 -1.12695897
-1.48260474 7.66226482 -1.11046934
-1.44655049 7.81140184 -1.09663630
-1.45529091 7.87061930 -1.04170430
-1.43832362 7.75201511 -1.15153837
-1.43192351 7.69122076 -1.20855403
-1.45319545 7.64750719 -1.19032097
-1.45444322 7.78939438 -1.17873871
-1.46416867 7.84731817 -1.12416494
-1.43929076 7.73153162 -1.23325872
-1.42123091 7.67189503 -1.28854883
-1.42052639 7.63011551 -1.26651883
-1.45648503 7.76269627 -1.25810683
-1.43929076 7.73153162 -1.23325872
-1.45444322 7.78939438 -1.17873871
-1.47321951 7.82254696 -1.20533597
-1.43582213 7.70408106 -1.31145060
-1.42123091 7.67189503 -1.28854883
-1.41015017 7.64703512 -1.36409009
-1.39645445 7.61222887 -1.34094346
-1.45315957 7.73060703 -1.33466876
-1.47169113 7.78796244 -1.28096080
-1.42626369 7.67481995 -1.38666344
-1.39618587 7.61999559 -1.43535054
-1.37976170 7.59170914 -1.41146970
-1.44245493 7.69978189 -1.40929055
-1.46656871 7.75490475 -1.35756457
-1.41286659 7.64598370 -1.45898664
-1.37321830 7.59367323 -1.50033629
-1.35883605 7.56708765 -1.47786438
-1.42391145 7.67066526 -1.48126757
-1.45536864 7.72406244 -1.43148780
-1.38665736 7.61840820 -1.52407992
-1.37321830 7.59367323 -1.50033629
-1.38665736 7.61840820 -1.52407992
-1.34650171 7.56705236 -1.56334603
-1.33265078 7.54134417 -1.53905320
-1.39912915 7.64113665 -1.54961455
-1.43293250 7.69576359 -1.50249755
-1.35585105 7.58897448 -1.58722687
-1.39912915 7.64113665 -1.54961455
-1.31046546 7.53806639 -1.61918557
-1.29456675 7.52083063 -1.59305966
-1.36164212 7.61364365 -1.61055255
-1.39693809 7.66925573 -1.56887448
-1.31607151 7.56296253 -1.64346027
-1.26299632 7.51971436 -1.67225456
-1.25300217 7.49854994 -1.64714992
-1.31157005 7.59429407 -1.65923965
-1.31607151 7.56296253 -1.64346027
-1.36164212 7.61364365 -1.61055255
-1.34785688 7.64522028 -1.62009287
-1.26482916 7.54850864 -1.69246972
-1.26299632 7.51971436 -1.67225456
-1.21421361 7.50831127 -1.72292984
-1.20878077 7.48269320 -1.69983113
-1.25558126 7.58228207 -1.70025504
-1.29100251 7.62667656 -1.65576494
-1.21213007 7.53848457 -1.73872101
-1.16513252 7.49927235 -1.77416027
-1.16195047 7.47121239 -1.75206470
-1.19660747 7.57192945 -1.73890615
-1.23335409 7.61396027 -1.69281614
-1.15430856 7.53123713 -1.78150380
-1.11064243 7.49924803 -1.81863248
-1.11363924 7.46494341 -1.80270386
-1.13325167 7.56164312 -1.77493060
-1.17340124 7.59797764 -1.73061943
-1.09135258 7.53317118 -1.81359351
-1.05353725 7.50729656 -1.85484791
-1.05988359 7.47102737 -1.84404767
-1.07388377 7.56989384 -1.81690705
-1.11183631 7.59720182 -1.77430952
-1.04021168 7.54491425 -1.86135530
-1.00517833 7.51576185 -1.90051413
-1.01050985 7.47939730 -1.88681841
-1.03012204 7.58515406 -1.87696743
-1.06248057 7.61593008 -1.83351636
-0.99519628 7.55359507 -1.91846633
-0.95788836 7.52330208 -1.95746982
-0.96527946 7.48607826 -1.93763685
-1.01582932 7.62256336 -1.89945734
-0.97977513 7.58927345 -1.93880105
-0.93984038 7.55958939 -1.97176862
-0.91251475 7.49555302 -1.98989403
-0.89521897 7.53286648 -1.99715972
-0.94945246 7.62207985 -1.94379210
-0.91143405 7.59212112 -1.97069395
-0.86927241 7.56792974 -1.99339259
-0.84686619 7.51108170 -2.01891541
-0.82847792 7.54951763 -2.01599002
-0.86433506 7.47370815 -2.01701069
-0.79802382 7.49689007 -2.03997827
-0.78277594 7.53878307 -2.03176904
-0.73269773 7.52671099 -2.04721427
-0.76235777 7.57576275 -2.02213335
-0.72015435 7.56888533 -2.03039598
-0.66544920 7.55885506 -2.03815126
-0.74990988 7.61679602 -2.00517774
-0.70933032 7.60984087 -2.01178074
-0.65679842 7.59840775 -2.01297498
-0.60192615 7.58685541 -2.01547647
-0.65521032 7.63921452 -1.99086714
-0.70814824 7.64942932 -1.99093890
-0.59899473 7.63017511 -1.99450314
-0.54212844 7.62179899 -2.00007343
-0.60031420 7.67829466 -1.98437750
-0.65670288 7.68481445 -1.97724319
-0.54191351 7.67271948 -1.99336874
-0.48369199 7.66581774 -1.99856889
-0.54578823 7.72301197 -1.98690307
-0.60436201 7.72839117 -1.97789383
-0.48576960 7.71888065 -1.99553001
-0.42654505 7.71530437 -2.00669432
-0.48899350 7.76985407 -1.98221028
-0.54936439 7.77362156 -1.97305810
-0.42781672 7.76718664 -1.98795974
-0.36720708 7.76492357 -1.99168527
-0.43201974 7.81967545 -1.96190560
-0.49302340 7.81919289 -1.96080720
-0.37075934 7.82217693 -1.96226978
-0.31019747 7.82493544 -1.95823395
-0.37478325 7.87684155 -1.93113518
-0.43640786 7.87500858 -1.93163073
-0.31371990 7.88172436 -1.93051434
-0.25322965 7.88690615 -1.92757094
-0.31767219 7.93829823 -1.90628123
-0.37973854 7.93193388 -1.90380955
-0.25671029 7.94447660 -1.90349913
-0.19598724 7.95251322 -1.89942133
-0.32232895 7.99446011 -1.88261533
-0.26062676 8.00162983 -1.88311684
-0.19947982 8.01011467 -1.87993479
-0.13840450 8.01993465 -1.87479424
-0.26552236 8.05611420 -1.86078811
-0.20414852 8.06437111 -1.85722399
-0.14310902 8.07386303 -1.85285962
-0.08238595 8.08468246 -1.84650743
-0.20979038 8.11794758 -1.83592808
-0.14852400 8.12775707 -1.83109832
-0.08770541 8.13798428 -1.82360578
-0.02733458 8.14887905 -1.81319952
-0.15549126 8.17807388 -1.80774283
-0.09543087 8.18764496 -1.80026197
-0.03473765 8.19826031 -1.78931272
-0.10342500 8.23721504 -1.77634549
-0.16352119 8.22744274 -1.78360510
-0.17184368 8.27594280 -1.75834525
-0.11301913 8.28446960 -1.75189137
-0.12450583 8.32949638 -1.72742558
-0.18138409 8.32190800 -1.73255980
-0.13540147 8.37479877 -1.70192075
-0.19075134 8.36787987 -1.70417154
-0.14884043 8.41694832 -1.67280984
-0.20309179 8.41076279 -1.67553234
-0.09540103 8.42537880 -1.66717994
-0.11375347 8.46559334 -1.64305437
-0.16340180 8.45975399 -1.64315593
-0.06596787 8.47130680 -1.63565135
-0.09184875 8.50185013 -1.61526895
-0.13309099 8.50502014 -1.61116755
-0.04373477 8.50799942 -1.60729873
-0.11118031 8.54127789 -1.58338213
-0.15030910 8.54801941 -1.57876706
-0.11911473 8.59811401 -1.54514885
-0.15466139 8.60999489 -1.53787708
-0.09474429 8.67469501 -1.49655724
-0.14412993 8.68366241 -1.49066460
-0.07615902 8.74373436 -1.44937456
-0.13855973 8.75262356 -1.43998945
-0.01546580 8.71903610 -1.45733297
-0.05618865 8.78435516 -1.38708138
-0.12672077 8.78423691 -1.37232292
-0.10534143 8.79757404 -1.30213714
-0.17460789 8.79002190 -1.28572500
-0.19299018 8.77394962 -1.35946310
-0.14435083 8.79898167 -1.21310318
-0.21484713 8.80009842 -1.19996274
-0.23821457 8.78349495 -1.27131283
-0.19562306 8.77856541 -1.12866652
-0.27280006 8.77190781 -1.12499475
-0.28884798 8.79381847 -1.19298959
-0.25963572 8.76956654 -1.04897606
-0.34091422 8.75477886 -1.05267167
-0.35057405 8.76041412 -1.12547243
-0.33364847 8.77008724 -0.97841406
-0.41864645 8.74710655 -0.98819333
-0.42132708 8.74046230 -1.05902982
-0.41359565 8.74322033 -0.92498660
-0.49870703 8.70908260 -0.94105250
-0.49933389 8.71672535 -1.00517261
-0.49560252 8.70045567 -0.87967867
-0.57904226 8.66395950 -0.89932662
-0.57715577 8.67613983 -0.96218705
-0.58003932 8.64852047 -0.83980948
-0.66088200 8.60906982 -0.86672926
-0.65613568 8.62658024 -0.92716569
-0.66679257 8.59226894 -0.80663300
-0.74148595 8.55287838 -0.83767223
-0.73499632 8.57019234 -0.89726084
-0.75582039 8.53964138 -0.77869838
-0.82849586 8.50364113 -0.81268090
-0.81382108 8.51407242 -0.87089646
-0.85238868 8.50750351 -0.75773686
-0.91074753 8.45497322 -0.78904474
-0.88746965 8.45364666 -0.84715885
-0.94763154 8.48441219 -0.74635768
-1.00523210 8.42197514 -0.77755213
-0.96692735 8.39937210 -0.82376754
-1.04628336 8.46097279 -0.74694276
-1.10692871 8.38530636 -0.78371334
-1.06273723 8.36101246 -0.82031673
-1.14691138 8.42062569 -0.76933110
-1.08642113 8.50023746 -0.73362923
-1.12578285 8.52487850 -0.72683507
-1.18284011 8.44292450 -0.76996398
-1.22251821 8.45392132 -0.77047729
-1.24236321 8.36475658 -0.82394063
-1.27579045 8.38023281 -0.82632273
-1.31075203 8.39081573 -0.82233465
-1.32050741 8.31248760 -0.88714737
-1.35595858 8.32022381 -0.88395923
-1.34502101 8.39770699 -0.81542110
-1.39049029 8.32534218 -0.87810242
-1.37910497 8.40204716 -0.80540317
-1.42558312 8.32442760 -0.86875904
-1.40994716 8.39934826 -0.78962392
-1.45745814 8.31969929 -0.85530221
-1.43701613 8.39134312 -0.77088934
-1.47611511 8.30106640 -0.83472288
-1.44648492 8.36887646 -0.74638158
-1.47453296 8.27471352 -0.81240624
-1.43477738 8.34164715 -0.72762322
-1.46158361 8.24895763 -0.79358214
-1.41629958 8.31678581 -0.71233940
-1.43477738 8.34164715 -0.72762322
-1.46158361 8.24895763 -0.79358214
-1.44289088 8.22580051 -0.77808344
-1.42286670 8.20483875 -0.76250124
-1.45401931 8.14286137 -0.83500940
-1.43328476 8.12143993 -0.81975555
-1.45579243 8.06697464 -0.88532048
-1.43692660 8.03969097 -0.86392319
-1.44053257 7.95034695 -0.90931475
-1.45549405 7.99389935 -0.93549412
-1.45509398 7.92952204 -0.98815155
-1.45168495 7.87926483 -0.96120191
-1.47721362 8.02403641 -0.95812726
-1.47671807 8.09193039 -0.90379238
-1.47446728 7.96213150 -1.01458752
-1.45509398 7.92952204 -0.98815155
-1.47446728 7.96213150 -1.01458752
-1.47290313 7.90330029 -1.06870162
-1.49420488 7.99190426 -1.03814602
-1.47446728 7.96213150 -1.01458752
-1.47721362 8.02403641 -0.95812726
-1.49680781 8.05109406 -0.97965580
-1.48972726 7.93401670 -1.09531677
-1.47290313 7.90330029 -1.06870162
-1.48210323 7.87508488 -1.14945483
-1.46416867 7.84731817 -1.12416494
-1.50299299 7.95878792 -1.11847532
-1.50853336 8.01696682 -1.06078506
-1.49847364 7.89918804 -1.17465508
-1.48936296 7.84622526 -1.22853029
-1.51208556 7.92587948 -1.19741344
-1.51487374 7.98439932 -1.14068449
-1.50422883 7.86959362 -1.25168884
-1.48481369 7.81232548 -1.30431020
-1.51069450 7.89614868 -1.27589798
-1.51273644 7.95420218 -1.21928847
-1.48976898 7.83818293 -1.32675827
-1.47875988 7.77947187 -1.37997079
-1.48467636 7.86456490 -1.34723616
-1.49237800 7.92109680 -1.29441166
-1.47267020 7.80796194 -1.39937401
-1.45750594 7.75187206 -1.45142841
-1.45049691 7.83220148 -1.40970850
-1.45665812 7.88446999 -1.35647202
-1.44169080 7.77881050 -1.46374488
-1.42647874 7.72420645 -1.51951861
-1.41084278 7.79826021 -1.46458673
-1.41860402 7.84963417 -1.40916514
-1.39727843 7.74642134 -1.51933956
-1.37532592 7.69599676 -1.57137597
-1.39693809 7.66925573 -1.56887448
-1.36490786 7.76833820 -1.51062298
-1.37745118 7.81398010 -1.45921350
-1.34583306 7.72028351 -1.56359076
-1.32066262 7.67488575 -1.61273170
-1.31374311 7.74287510 -1.55196679
-1.32946277 7.78774738 -1.50140500
-1.28948009 7.69980574 -1.60054636
-1.26531875 7.65709496 -1.64697683
-1.25581408 7.72430754 -1.59197307
-1.27676356 7.76408195 -1.54516077
-1.23067343 7.68298149 -1.63848722
-1.20673883 7.64061117 -1.68318021
-1.19527614 7.71191883 -1.63766325
-1.21833313 7.75289869 -1.59383583
-1.17241609 7.67179394 -1.68132341
-1.14629054 7.63062286 -1.72648811
-1.14359200 7.70726204 -1.69660723
-1.16589069 7.74808121 -1.65310824
-1.12060058 7.67004490 -1.74201083
-1.09008682 7.64087391 -1.78875744
-1.10008097 7.71383572 -1.76598716
-1.12192011 7.74928093 -1.72167611
-1.07482696 7.68649912 -1.81214285
-1.04723871 7.65557289 -1.85697317
-1.07388377 7.76190805 -1.79613066
-1.04782379 7.72582436 -1.83959985
-1.01621747 7.68878555 -1.87791669
-0.98407978 7.65458727 -1.91197085
-0.99911273 7.74698830 -1.84339678
-0.96979898 7.71093416 -1.87521815
-0.94052696 7.67589521 -1.90494394
-0.91056842 7.64635468 -1.93412042
-0.91923714 7.73651075 -1.87812579
-0.89605480 7.70339966 -1.91087830
-0.87056798 7.67667675 -1.93969655
-0.84498560 7.72851706 -1.93790531
-0.81948680 7.69849825 -1.96195352
-0.76400560 7.69954967 -1.97364318
-0.75680548 7.65811014 -1.98912990
-0.78257895 7.73924494 -1.95946991
-0.72130656 7.73734093 -1.96609688
-0.71083480 7.69239140 -1.97562528
-0.80040604 7.78190804 -1.93837106
-0.86957693 7.76904297 -1.91141558
-0.73536646 7.78261852 -1.95084882
-0.67233884 7.78118658 -1.95975637
-0.66337162 7.73263025 -1.97115970
-0.75121737 7.83150911 -1.93243086
-0.82434058 7.82648230 -1.91653800
-0.68527633 7.82985497 -1.94196510
-0.61962783 7.82672119 -1.94806075
-0.61220682 7.77719831 -1.96693861
-0.69767052 7.88057280 -1.91833520
-0.76839370 7.88124704 -1.91182756
-0.63089359 7.87792730 -1.92364252
-0.56418246 7.87608910 -1.92690229
-0.55611068 7.82264328 -1.95508766
-0.64023703 7.93050003 -1.89528418
-0.70833927 7.93196344 -1.89217949
-0.57317954 7.92882395 -1.89856780
-0.50670117 7.92799854 -1.90093791
-0.49969214 7.87433243 -1.93107545
-0.58126915 7.98090124 -1.86874652
-0.64975947 7.98167753 -1.86411345
-0.51409829 7.97942734 -1.86966002
-0.44798410 7.98119450 -1.87317050
-0.44196016 7.92818451 -1.90264535
-0.52103567 8.03177929 -1.84061491
-0.58950812 8.03266335 -1.83748639
-0.45468268 8.03525448 -1.84679997
-0.39048496 8.04193020 -1.85627472
-0.38487890 7.98755884 -1.87788093
-0.46086782 8.08887863 -1.82130122
-0.52743578 8.08456230 -1.81319952
-0.39624619 8.09526825 -1.83028030
-0.33350521 8.10325527 -1.83894920
-0.32789320 8.04894447 -1.86062098
-0.40106416 8.14699364 -1.80499053
-0.46582311 8.14079475 -1.79537249
-0.33887243 8.15428352 -1.81308615
-0.27726576 8.16031170 -1.81352794
-0.27109852 8.10931015 -1.83798194
-0.34400681 8.20473194 -1.78725290
-0.40590003 8.19741821 -1.77905595
-0.28337330 8.21150208 -1.78903806
-0.21611880 8.16894627 -1.81265640
-0.22273380 8.21920300 -1.78770685
-0.28859124 8.26055813 -1.76181996
-0.34884268 8.25359154 -1.76062584
-0.23075777 8.26739979 -1.76215422
-0.23853099 8.31413460 -1.73425543
-0.29616150 8.30749035 -1.73389125
-0.24629825 8.36087036 -1.70636249
-0.30368993 8.35432053 -1.70562828
-0.25628644 8.40641785 -1.67647564
-0.30946314 8.40135956 -1.67489350
-0.26528352 8.45401096 -1.64245129
-0.31582144 8.44703293 -1.63962162
-0.21336654 8.45666218 -1.64305437
-0.22439353 8.50594044 -1.60811067
-0.27426872 8.50246620 -1.60708976
-0.17681089 8.50634670 -1.60864198
-0.18895432 8.55557632 -1.57403874
-0.23511603 8.55624485 -1.57104170
-0.19528870 8.61625862 -1.53207994
-0.24257879 8.61501598 -1.52779329
-0.19593947 8.68431282 -1.48773324
-0.25042367 8.67910576 -1.48597205
-0.25741479 8.73715496 -1.42978036
-0.19773054 8.74982929 -1.43546402
-0.25357595 8.75706577 -1.34971380
-0.31011391 8.73984051 -1.34223902
-0.31497365 8.72018719 -1.42401302
-0.30075857 8.77315521 -1.26670384
-0.36359507 8.76190662 -1.26690686
-0.36714736 8.72455120 -1.33776140
-0.36174431 8.78100681 -1.19307911
-0.43313617 8.76375198 -1.20128226
-0.42864659 8.74966335 -1.27127111
-0.42668831 8.74347782 -1.13337696
-0.49919066 8.72384739 -1.14579499
-0.50119662 8.74219322 -1.21413600
-0.49971604 8.71848583 -1.07386589
-0.57228994 8.69247913 -1.09477961
-0.56775862 8.69766808 -1.16448176
-0.57566911 8.68621731 -1.02732801
-0.64765203 8.65372753 -1.05315518
-0.64269674 8.66504002 -1.11869025
-0.65185505 8.63984013 -0.98883808
-0.72193944 8.60446739 -1.01877868
-0.71649462 8.62162495 -1.08147800
-0.72832757 8.58761978 -0.95741677
-0.79546261 8.54918861 -0.99057543
-0.78703266 8.56698036 -1.05176413
-0.80406570 8.53081799 -0.93054485
-0.86513507 8.48807049 -0.96674824
-0.85450810 8.50709248 -1.02744746
-0.87494415 8.46877575 -0.90651470
-0.93006116 8.42071438 -0.94438976
-0.91958344 8.44320488 -1.00551879
-0.94154191 8.40121078 -0.88331449
-0.99178725 8.34949017 -0.92191190
-0.97920805 8.37397385 -0.98320216
-1.01898158 8.34427929 -0.86477691
-1.06552541 8.29149532 -0.91120136
-1.03401458 8.30044460 -0.96625870
-1.11120355 8.30367470 -0.86984563
-1.14799201 8.24678421 -0.92292082
-1.10061836 8.23926830 -0.96115410
-1.19876873 8.25718594 -0.89099818
-1.15983689 8.31887627 -0.83489007
-1.24905586 8.27823734 -0.88109350
-1.20494783 8.34454727 -0.82157654
-1.28513980 8.30030823 -0.88763690
-1.27636945 8.22465992 -0.94630623
-1.31439388 8.24296379 -0.95092720
-1.35179138 8.25137520 -0.95145261
-1.33761811 8.18634224 -1.01119053
-1.37516463 8.19245720 -1.01309502
-1.38895595 8.25483894 -0.94772714
-1.41229939 8.19561958 -1.01112497
-1.42481303 8.25605106 -0.94172114
-1.44809091 8.19456291 -1.00419343
-1.45831788 8.25424671 -0.93204933
-1.48182857 8.18732262 -0.99250978
-1.48912418 8.24295235 -0.91629392
-1.50532150 8.17020512 -0.97265881
-1.49797797 8.21812248 -0.89342207
-1.51016319 8.14402008 -0.94716597
-1.49164367 8.19027805 -0.87173820
-1.49718392 8.11837769 -0.92380446
-1.47504640 8.16522026 -0.85174996
-1.47671807 8.09193039 -0.90379238
-1.47504640 8.16522026 -0.85174996
-1.51022887 8.07815552 -1.00335157
-1.51422298 8.10453224 -1.02774596
-1.51591253 8.04428196 -1.08408082
-1.50674832 8.07017422 -1.10720956
-1.49686158 8.12750530 -1.04992533
-1.50952435 8.01216793 -1.16307878
-1.48489130 8.03003597 -1.17778945
-1.47615087 8.08430004 -1.12098289
-1.49342871 7.97787476 -1.23733032
-1.45979846 7.98998737 -1.24508572
-1.45083129 8.03922462 -1.18362236
-1.46161342 7.93639994 -1.30239379
-1.42549956 7.94765377 -1.30300272
-1.42182791 7.99408293 -1.24522901
-1.42246068 7.89850664 -1.35678840
-1.38530207 7.90975523 -1.35258543
-1.38767827 7.95256042 -1.29881775
-1.38363647 7.86375999 -1.40477109
-1.34488976 7.87248325 -1.39976799
-1.34509265 7.91506815 -1.34681821
-1.34040618 7.83178425 -1.45093870
-1.29872799 7.84462023 -1.44650292
-1.30314600 7.88066196 -1.39563072
-1.29230404 7.80395031 -1.49502885
-1.24657822 7.82499027 -1.49611545
-1.25395131 7.86180830 -1.44988799
-1.23445857 7.78783131 -1.54413390
-1.19887018 7.82389688 -1.55964446
-1.20483446 7.85707855 -1.51243794
-1.18404615 7.78724623 -1.60703003
-1.15977716 7.82897139 -1.63112581
-1.17335355 7.86737251 -1.58422387
-1.14231431 7.78925228 -1.67737114
-1.11662447 7.83573055 -1.70494151
-1.13470232 7.87535477 -1.65856504
-1.09719145 7.79786634 -1.75171232
-1.07460606 7.87592125 -1.72302544
-1.05250442 7.83248758 -1.76797521
-1.02673686 7.79035664 -1.80819058
-0.99230665 7.85043383 -1.77152145
-0.96674812 7.80701303 -1.80854285
-0.94206131 7.77047491 -1.84187460
-0.91405505 7.84767008 -1.84466851
-0.89235926 7.80696535 -1.88028097
-0.84545726 7.87402821 -1.89623332
-0.86329031 7.92192793 -1.86989868
-0.93079555 7.89149189 -1.81500268
-0.78014904 7.93202877 -1.88597655
-0.79326564 7.98031616 -1.85706866
-0.87697399 7.96996927 -1.84191620
-0.71844685 7.98348665 -1.86211956
-0.73194551 8.03513527 -1.83088923
-0.80900306 8.03256893 -1.82831025
-0.65930587 8.03360748 -1.83232224
-0.67023736 8.08644962 -1.80167103
-0.74274564 8.08795261 -1.80065012
-0.59685743 8.08360767 -1.80598164
-0.60191423 8.13423443 -1.77710366
-0.67634493 8.13776302 -1.77296627
-0.53141791 8.13525677 -1.78488278
-0.53498214 8.18567944 -1.75756311
-0.60695308 8.18491554 -1.74829733
-0.46792462 8.19012833 -1.76805878
-0.47175750 8.24011040 -1.74130023
-0.53695822 8.23517323 -1.73107922
-0.41036579 8.24713802 -1.75172412
-0.41404343 8.29494572 -1.72385538
-0.47431275 8.28781319 -1.71423125
-0.35356513 8.30158520 -1.73241663
-0.35989356 8.34866142 -1.70163429
-0.41747630 8.34275627 -1.69684613
-0.36545780 8.39500141 -1.66981888
-0.41953003 8.38781357 -1.66348457
-0.36947575 8.44041157 -1.63528121
-0.42107633 8.43364143 -1.63134074
-0.42504057 8.48241138 -1.59964490
-0.37435341 8.48977947 -1.60165679
-0.32484838 8.49700928 -1.60348380
-0.33374399 8.54921818 -1.56664753
-0.38348189 8.54253101 -1.56470120
-0.28377926 8.55405521 -1.56674314
-0.29395849 8.61049557 -1.52566803
-0.34546950 8.60606098 -1.52528584
-0.30436456 8.67192364 -1.48422861
-0.35878909 8.66071892 -1.47833014
-0.36637723 8.69874287 -1.41335034
-0.40918368 8.64513493 -1.47145247
-0.41815692 8.67705250 -1.40450239
-0.42358980 8.70683193 -1.33543301
-0.48163226 8.69104099 -1.33970165
-0.47088584 8.65530872 -1.40265167
-0.49158463 8.73249340 -1.27982044
-0.55544800 8.70887470 -1.29439962
-0.53938216 8.67162609 -1.35043621
-0.56600928 8.71513176 -1.23011839
-0.63070852 8.68859959 -1.24960518
-0.61614716 8.68537521 -1.31075811
-0.63457727 8.67305851 -1.18463731
-0.70260787 8.64946938 -1.20812416
-0.69328243 8.66022873 -1.27008307
-0.70996916 8.63710022 -1.14501894
-0.77351016 8.60265255 -1.17541325
-0.76702052 8.61991692 -1.23580205
-0.77951026 8.58489037 -1.11340666
-0.82718241 8.53584480 -1.15239811
-0.82836455 8.55942822 -1.21165252
-0.84042436 8.52151680 -1.08997357
-0.88360691 8.47231674 -1.13132334
-0.86859781 8.48429203 -1.19479859
-0.90501612 8.46187496 -1.06815231
-0.95070618 8.41881657 -1.10989010
-0.92368495 8.42281723 -1.17375946
-0.96641982 8.39859581 -1.04625368
-1.00795460 8.35548973 -1.08844519
-0.98850363 8.37501431 -1.15334141
-1.02063537 8.32823181 -1.02598476
-1.05549538 8.28390884 -1.07134640
-1.04245651 8.31239891 -1.13184857
-1.07044482 8.25547123 -1.01295173
-1.10128701 8.21117973 -1.06499422
-1.08117938 8.23972225 -1.11870825
-1.12914991 8.19100475 -1.01425922
-1.15202188 8.14826488 -1.07008076
-1.12060654 8.16996670 -1.11452901
-1.19787323 8.14600754 -1.03753710
-1.17556238 8.19350624 -0.97978723
-1.24783790 8.15612698 -1.01464128
-1.22637498 8.20152473 -0.95126742
-1.29577875 8.17421150 -1.00924420
-1.31121171 8.12642002 -1.06642103
