-0.79304516 0.51101446 -2.81141400
-0.71518010 0.45390567 -2.83328080
-0.78003097 0.40069351 -2.81853604
-0.84573436 0.34408265 -2.79909492
-0.85773271 0.45960972 -2.79310250
-0.76136142 0.29957071 -2.81579399
-0.82303876 0.24824564 -2.78410459
-0.82303876 0.24824564 -2.78410459
-0.88304335 0.19637689 -2.74604416
-0.84573436 0.34408265 -2.79909492
-0.88304335 0.19637689 -2.74604416
-0.79141831 0.17366572 -2.75154376
-0.84946382 0.12190605 -2.70960832
-0.84946382 0.12190605 -2.70960832
-0.90685886 0.07245741 -2.66656637
-0.82340991 0.05070683 -2.69574809
-0.88956261 -0.00169127 -2.66586852
-0.96220428 -0.05815257 -2.63716984
-0.89445561 -0.08401825 -2.69556117
-0.97349495 -0.14943534 -2.66694427
-1.05693460 -0.23168978 -2.62913704
-0.98142201 -0.24568041 -2.68333340
-1.04155123 -0.30696255 -2.60285926
-1.09043980 -0.35038900 -2.50098658
-1.01476705 -0.35275081 -2.55251741
-1.06633532 -0.39794335 -2.44562221
-1.16580379 -0.44978645 -2.39695597
-1.08612823 -0.46394774 -2.44703221
-1.22187936 -0.52879202 -2.43592811
-1.35368133 -0.64349711 -2.37239575
-1.26908553 -0.69667351 -2.40806890
-1.33307374 -0.72833866 -2.26875329
-1.39942050 -0.71168315 -2.18671989
-1.35311866 -0.81890506 -2.20777941
-1.42267978 -0.78054643 -2.15573478
-1.49022675 -0.72728270 -2.10313106
-1.55897808 -0.88656557 -2.17473531
-1.54600430 -0.78916371 -2.12391114
-1.59389114 -0.71024108 -2.06498742
-1.61367822 -0.85206324 -2.12676024
-1.65042782 -0.75999111 -2.08353567
-1.68950129 -0.66900527 -2.02408004
-1.70201385 -0.80958492 -2.05675387
-1.74795294 -0.71050125 -2.01724315
-1.78121448 -0.61516190 -1.97542989
-1.79458070 -0.74984151 -1.97313499
-1.83341551 -0.65015036 -1.93570554
-1.86734998 -0.54988563 -1.89797521
-1.87204945 -0.67932594 -1.88791168
-1.90722096 -0.58113599 -1.85070479
-1.94344771 -0.47984648 -1.80726075
-1.93696117 -0.60576421 -1.80135620
-1.96248603 -0.50442833 -1.76046002
-1.98920536 -0.40178621 -1.71847951
-1.96440959 -0.51936066 -1.71503019
-1.98968089 -0.41661847 -1.68066370
-2.01379538 -0.31252468 -1.64099181
-1.98990393 -0.42955416 -1.64388061
-2.01370311 -0.32602841 -1.60716748
-2.03785253 -0.22056922 -1.56806242
-2.01660419 -0.33977193 -1.57465124
-2.04091406 -0.23472765 -1.53706384
-2.06635642 -0.12699156 -1.49219728
-2.05942869 -0.24956466 -1.51622581
-2.09399772 -0.13944902 -1.48893929
-2.13823247 -0.03006890 -1.46647418
-2.12531447 -0.15046518 -1.49370098
-2.17019868 -0.04286423 -1.46364677
-2.21568060 0.07214423 -1.42240798
-2.20330644 -0.05543796 -1.44847834
-2.24193716 0.05906181 -1.39839220
-2.28231597 0.17773920 -1.34436023
-2.26531863 0.04430403 -1.36894095
-2.30183983 0.16122590 -1.31490743
-2.32694697 0.27994898 -1.25412369
-2.31436610 0.14531267 -1.28223073
-2.31902647 0.26653379 -1.22098517
-2.30572462 0.39412171 -1.16693211
-2.30034184 0.25467736 -1.19439518
-2.28874493 0.38442162 -1.14168334
-2.27370429 0.51839584 -1.08095121
-2.27177691 0.37483189 -1.11601996
-2.28512907 0.50801247 -1.05614972
-2.34509444 0.63585532 -1.00754285
-2.30526805 0.49619430 -1.03810585
-2.35271096 0.62624985 -0.97836232
-2.33630705 0.75871348 -0.90917695
-2.34490275 0.61878109 -0.94928110
-2.30730224 0.75526249 -0.89306486
-2.26430345 0.88684940 -0.84099460
-2.27740431 0.75389546 -0.87543631
-2.24215674 0.88661790 -0.81773490
-2.23813558 1.00911510 -0.75148845
-2.22572207 0.88738543 -0.79594028
-2.25907207 1.01370049 -0.72983176
-2.30383396 1.10141981 -0.67935491
-2.28206182 1.00992215 -0.70777327
-2.28902745 1.09590077 -0.62876713
-2.28902745 1.09590077 -0.62876713
-2.25492835 1.16075349 -0.57152307
-2.30383396 1.10141981 -0.67935491
-2.28463626 1.10908854 -0.71031749
-2.26537776 1.11102092 -0.59379017
-2.21060944 1.14470768 -0.53561258
-2.15644789 1.19258821 -0.48315346
-2.16524982 1.12725496 -0.50211900
-2.10798621 1.18772554 -0.43623877
-2.10135603 1.25340271 -0.37500575
-2.07898545 1.17266893 -0.39892569
-2.09413171 1.23206186 -0.33813164
-2.11639953 1.27852869 -0.28147730
-2.12153840 1.30416811 -0.32066518
-2.12939572 1.32921302 -0.23019078
-2.14004397 1.35068250 -0.27079785
-2.13682365 1.38452744 -0.18433833
-2.12390065 1.30305791 -0.19675677
-2.12727404 1.36035407 -0.15265755
-2.12134409 1.42525184 -0.11357950
-2.13434744 1.33265722 -0.12685682
-2.11475444 1.40382516 -0.08931058
-2.07669497 1.47085941 -0.07667070
-2.09852862 1.49706256 -0.09531911
-2.12483716 1.38460958 -0.06247033
-2.15124464 1.31176364 -0.10400876
-2.17386127 1.29459822 -0.08179241
-2.16968679 1.24583220 -0.15681444
-2.20143366 1.22625721 -0.13209535
-2.22616053 1.20913875 -0.09411326
-2.21723771 1.16842139 -0.18179123
-2.24959087 1.14689994 -0.14502519
-2.26320505 1.12034667 -0.09612735
-2.28611684 1.06409299 -0.13704261
-2.27449632 1.02215707 -0.09141035
-2.30871940 1.01055145 -0.17386745
-2.29716754 0.96767920 -0.12604637
-2.27334142 0.92401469 -0.08634162
-2.25231457 0.98235905 -0.05006153
-2.23728967 0.88488835 -0.05895663
-2.21741700 0.94200701 -0.02308006
-2.19426632 0.85170609 -0.04740651
-2.17413306 0.90892470 -0.00989875
-2.14909029 0.83701974 -0.05982463
-2.12873936 0.88962239 -0.02396975
-2.11240244 0.82942784 -0.07817534
-2.08910704 0.87899995 -0.04691460
-2.06443834 0.93642634 -0.00989783
-2.05165386 0.86653513 -0.06760184
-2.07775187 0.82631797 -0.09202973
-2.04591370 0.82122809 -0.09983222
-2.02024198 0.85106850 -0.07568130
-2.01966667 0.80441648 -0.09490493
-2.00075078 0.82989275 -0.06478131
-1.98705554 0.80510712 -0.04806162
-1.96615374 0.81688094 -0.02796193
-2.00683331 0.78091520 -0.07692657
-2.00683331 0.78091520 -0.07692657
-2.00288463 0.74682438 -0.05659489
-1.98189187 0.76030284 -0.03130680
-1.98705554 0.80510712 -0.04806162
-2.03796911 0.77485198 -0.12721953
-2.02297497 0.75555682 -0.11099648
-2.01763058 0.72791135 -0.09039205
-2.00288463 0.74682438 -0.05659489
-2.01951289 0.69226837 -0.07227690
-2.00125480 0.70362419 -0.03732048
-2.01763058 0.72791135 -0.09039205
-2.03257298 0.72484970 -0.14926067
-2.02730131 0.70365667 -0.12962367
-2.02730131 0.70365667 -0.12962367
-2.02988410 0.67374784 -0.11136784
-2.03111768 0.63910121 -0.09364533
-2.01984906 0.65093845 -0.05511931
-2.02534342 0.67199516 -0.17437148
-2.02948928 0.64717215 -0.15552355
-2.03316879 0.62169677 -0.13678744
-2.02071929 0.59074384 -0.18459067
-2.02807164 0.56720722 -0.16402711
-2.03995037 0.58792073 -0.11958290
-2.03664613 0.59860730 -0.07780111
-2.01325583 0.61418062 -0.20519720
-1.98793101 0.57168865 -0.25604600
-1.99865007 0.55237091 -0.23403417
-2.01265097 0.63510227 -0.22505841
-1.98684990 0.59502232 -0.27813846
-1.95683265 0.53436476 -0.33565485
-1.95901465 0.51802468 -0.30846798
-2.01853728 0.65080047 -0.24395651
-2.00157404 0.60667348 -0.29740122
-1.97710788 0.54609632 -0.35771158
-1.96715224 0.45830187 -0.40545252
-1.95025432 0.44239455 -0.37947014
-2.03310513 0.60340542 -0.30352658
-2.01130390 0.54569834 -0.36378291
-1.99363649 0.47524598 -0.42670321
-2.00406528 0.37243828 -0.44155398
-1.97940707 0.35496119 -0.41809189
-2.05123138 0.54501837 -0.36034435
-2.03258967 0.48484409 -0.42625856
-2.03196621 0.39376089 -0.46608561
-2.03468657 0.29865316 -0.46903548
-2.00501204 0.27433503 -0.44221348
-2.08615470 0.48881677 -0.40405798
-2.08490205 0.43260205 -0.46139288
-2.14565825 0.48938003 -0.37111959
-2.15396404 0.44594675 -0.41130543
-2.14565825 0.48938003 -0.37111959
-2.22118092 0.50024456 -0.32953954
-2.23353124 0.46761850 -0.35662141
-2.15396404 0.44594675 -0.41130543
-2.26064038 0.44189513 -0.37197274
-2.16597533 0.40126514 -0.45202115
-2.28924751 0.41396067 -0.39145875
-2.32503915 0.49344280 -0.31635714
-2.35289502 0.47065443 -0.34071660
-2.38159752 0.45095086 -0.36922616
-2.40680885 0.42941889 -0.40224108
-2.35074592 0.40769261 -0.39046144
-2.40137982 0.50381291 -0.36241946
-2.41837978 0.47335243 -0.39636832
-2.43349290 0.44131359 -0.43154910
-2.43597269 0.40410849 -0.47498217
-2.41805458 0.39674860 -0.44102725
-2.44092941 0.49418139 -0.42988932
-2.45039797 0.45531166 -0.46533659
-2.43527293 0.41198945 -0.51170313
-2.35677147 0.37307614 -0.55856884
-2.35820770 0.34766564 -0.54090929
-2.45924830 0.47355989 -0.50031209
-2.43150663 0.42994219 -0.54199362
-2.35544038 0.39596128 -0.58061612
-2.29125118 0.34735689 -0.63492054
-2.28170371 0.33096021 -0.61924064
-2.42725420 0.45065609 -0.57064509
-2.35915422 0.41420245 -0.60504782
-2.30186677 0.36375776 -0.65422231
-2.25203562 0.28190374 -0.70187819
-2.25021148 0.26437071 -0.68518692
-2.29125118 0.34735689 -0.63492054
-2.30186677 0.36375776 -0.65422231
-2.36643291 0.43021816 -0.63348663
-2.31169772 0.38278657 -0.67249405
-2.31169772 0.38278657 -0.67249405
-2.24972510 0.29950505 -0.71700346
-2.20096827 0.16132452 -0.74783230
-2.21513629 0.14657427 -0.73276889
-2.31760168 0.40846691 -0.69204718
-2.24163008 0.31949902 -0.72656518
-2.18904400 0.17786342 -0.76152313
-2.15306377 0.04879932 -0.78885520
-2.16845441 0.03647209 -0.77221334
-2.23225474 0.33793241 -0.73619217
-2.17484498 0.19094488 -0.77424473
-2.14209676 0.06112347 -0.80876589
-2.13035178 -0.05344347 -0.84046912
-2.12569761 -0.06296078 -0.81542099
-2.16144514 0.20464489 -0.78795588
-2.13864660 0.07245486 -0.83024782
-2.14469719 -0.04543042 -0.86334032
-2.15041280 -0.15717688 -0.89399898
-2.13051391 -0.16396584 -0.87150437
-2.14704728 0.08285083 -0.85170859
-2.15954638 -0.03745700 -0.88644075
-2.17215705 -0.15121424 -0.91534698
-2.18788385 -0.26215577 -0.93822521
-2.16034436 -0.26787397 -0.91918039
-2.18119144 -0.03189371 -0.90713084
-2.19712138 -0.14602417 -0.93579537
-2.21417403 -0.25567925 -0.95844239
-2.23734951 -0.36444518 -0.97329009
-2.20624876 -0.36914706 -0.95734167
-2.22048187 -0.13909620 -0.95686501
-2.24453497 -0.25187322 -0.97413141
-2.26530981 -0.35945958 -0.98965120
-2.28012085 -0.46136746 -1.01186252
-2.25616598 -0.46811002 -0.99133021
-2.26888752 -0.24574733 -0.98731786
-2.28503847 -0.35247338 -1.01081872
-2.29253435 -0.45369080 -1.04034889
-2.28028536 -0.55160546 -1.06937933
-2.28560901 -0.55952525 -1.04112148
-2.29025817 -0.34440279 -1.03787637
-2.28163028 -0.44535375 -1.06811583
-2.26194501 -0.54394943 -1.09282124
-2.24256349 -0.64140552 -1.11460161
-2.26765132 -0.64784825 -1.09582806
-2.26105618 -0.43779546 -1.08976102
-2.23573256 -0.53762990 -1.10939682
-2.21405292 -0.63462669 -1.12516999
-2.19307232 -0.72978371 -1.14157772
-2.22245479 -0.73673576 -1.13073719
-2.20852971 -0.53088266 -1.12211597
-2.18551540 -0.62783545 -1.13562858
-2.16623092 -0.72173828 -1.15434825
-2.15012765 -0.81415647 -1.17554593
-2.17480397 -0.82224053 -1.15881157
-2.16294956 -0.61925018 -1.15385485
-2.15688181 -0.71386534 -1.17959356
-2.15302157 -0.80665851 -1.20514059
-2.15190578 -0.89772820 -1.23002720
-2.14163923 -0.90485466 -1.20134318
-2.16921282 -0.70755547 -1.20754743
-2.16809797 -0.80042118 -1.23263085
-2.16776037 -0.89141560 -1.25843012
-2.16687155 -0.98105180 -1.28414583
-2.14953947 -0.98685724 -1.25539207
-2.18428373 -0.79429173 -1.26065373
-2.18473625 -0.88546884 -1.28688622
-2.18675518 -0.97531682 -1.31288064
-2.18983340 -1.06369483 -1.33887148
-2.16741300 -1.06889474 -1.30971837
-2.20945501 -0.87989253 -1.31642652
-2.21481133 -0.97081310 -1.34177995
-2.21878862 -1.05988014 -1.36776149
-2.22135901 -1.14825141 -1.39502299
-2.19258404 -1.15141344 -1.36478245
-2.24126840 -0.96610421 -1.37332618
-2.23887253 -1.05490541 -1.40333903
-2.22702241 -1.14130700 -1.43413472
-2.20895720 -1.22561860 -1.46283901
-2.21885729 -1.23501480 -1.42289329
-2.22749996 -1.04647923 -1.44511783
-2.20386767 -1.13163328 -1.47161388
-2.18103981 -1.21492183 -1.49763000
-2.15744448 -1.29671502 -1.52288246
-2.18664908 -1.30808032 -1.48919976
-2.17275333 -1.12105072 -1.50601554
-2.14861846 -1.20418239 -1.53115284
-2.12550879 -1.28533113 -1.55596972
-2.10205030 -1.36474645 -1.58046389
-2.13416934 -1.37742770 -1.54807484
-2.11625266 -1.19101775 -1.56716466
-2.09181857 -1.27151847 -1.59341109
-2.06804681 -1.34989727 -1.61725211
-2.04501224 -1.42707384 -1.64119375
-2.07829809 -1.44309342 -1.60440886
-2.05736303 -1.25646758 -1.63411725
-2.03254628 -1.33370495 -1.65981007
-2.01028395 -1.41136014 -1.68298411
-1.98922789 -1.48839140 -1.70582712
-2.02265382 -1.50496864 -1.66547167
-2.00063348 -1.31631100 -1.70022392
-1.97770655 -1.39350760 -1.72452176
-1.95680571 -1.47032678 -1.74593401
-1.93705750 -1.54782534 -1.76562500
-1.96894002 -1.56687188 -1.72651267
-1.94915962 -1.37481189 -1.75740659
-1.92878139 -1.45086944 -1.78006160
-1.90805662 -1.52676678 -1.80111444
-1.88724875 -1.60372448 -1.81974411
-1.91571248 -1.62517869 -1.78350186
-1.89151955 -1.43016112 -1.80030298
-1.87087941 -1.50447750 -1.82216430
-1.85045540 -1.58000267 -1.84178030
-1.83395696 -1.65752637 -1.85981882
-1.86639130 -1.68184686 -1.83521271
-1.82918358 -1.49010777 -1.81304479
-1.80865419 -1.56438172 -1.83603811
-1.79057145 -1.64119124 -1.86009908
-1.77472222 -1.72086120 -1.88019657
-1.81231821 -1.73792291 -1.87462902
-1.77164924 -1.55570948 -1.82280910
-1.75240362 -1.63381362 -1.84781432
-1.73471916 -1.71197903 -1.87188613
-1.71263659 -1.78793645 -1.89675069
-1.75333643 -1.79977906 -1.90272093
-1.71569228 -1.62712848 -1.83344984
-1.69619465 -1.70151627 -1.85909283
-1.67325747 -1.77487671 -1.88719666
-1.64877915 -1.84956145 -1.91428292
-1.68962586 -1.86550260 -1.92036092
-1.67523301 -1.68028438 -1.88272202
-1.65154135 -1.75344741 -1.90911663
-1.62589610 -1.82683539 -1.93659174
-1.60084355 -1.90151918 -1.96560037
-1.62141430 -1.92490387 -1.93940854
-1.65395069 -1.73278630 -1.94687426
-1.62985635 -1.80577219 -1.97534144
-1.60319352 -1.87922037 -2.00528002
-1.57591677 -1.95404530 -2.03563571
-1.57287633 -1.97673953 -1.99518180
-1.63483000 -1.78502297 -2.01436043
-1.60813820 -1.85788488 -2.04521704
-1.57960892 -1.93163562 -2.07621169
-1.54758263 -2.00515437 -2.10838604
-1.54379427 -2.02938223 -2.06654334
-1.61317849 -1.83555961 -2.08632517
-1.58241510 -1.90743279 -2.11836267
-1.55182505 -1.98088408 -2.15083623
-1.51800931 -2.05588531 -2.18255424
-1.51382959 -2.08202100 -2.13995433
-1.58072758 -1.87990665 -2.16174698
-1.54750025 -1.95093060 -2.19546390
-1.51458216 -2.02390289 -2.22913384
-1.47468376 -2.09196138 -2.26220345
-1.48242521 -2.13056540 -2.21436357
-1.52085054 -1.91098511 -2.23401499
-1.48080575 -1.97912562 -2.26587081
-1.43999922 -2.04242659 -2.29988456
-1.39611614 -2.10347629 -2.33464670
-1.43020654 -2.15580392 -2.29626322
-1.43505800 -1.92606664 -2.29914093
-1.39289606 -1.98638630 -2.33221340
-1.34973967 -2.04560900 -2.36553526
-1.29890764 -2.09342909 -2.40391541
-1.34886444 -2.16035604 -2.37130618
-1.33801925 -1.92432785 -2.36432433
-1.29328656 -1.97567368 -2.39829564
-1.24642169 -2.02153373 -2.43296385
-1.19423163 -2.05777669 -2.47044778
-1.24811423 -2.13749146 -2.44162464
-1.23299181 -1.90258026 -2.43182611
-1.18374097 -1.94094646 -2.46786284
-1.13297188 -1.97480965 -2.50415421
-1.07812345 -2.00244212 -2.54187608
-1.13977337 -2.09030581 -2.50913286
-1.12027431 -1.86146986 -2.50133801
-1.06954944 -1.89329195 -2.53683138
-1.01587510 -1.91864347 -2.57358265
-0.96034443 -1.93912029 -2.61114621
-1.02257848 -2.02547884 -2.57973266
-1.00615764 -1.81434894 -2.56917024
-0.95279199 -1.83798230 -2.60556984
-0.90006709 -1.86059082 -2.64166856
-0.84538865 -1.87605560 -2.67777920
-0.90454596 -1.95600259 -2.64867067
-0.89382839 -1.76201773 -2.63602471
-0.84174728 -1.78214478 -2.67141366
-0.78930956 -1.79906464 -2.70685554
-0.73770046 -1.81267154 -2.74250317
-0.79138547 -1.88819361 -2.71387291
-0.78610903 -1.70543861 -2.70023918
-0.73576832 -1.72324944 -2.73620081
-0.68509251 -1.73827434 -2.76940489
-0.68509251 -1.73827434 -2.76940489
-0.63513929 -1.75150359 -2.79995847
-0.68626684 -1.82506800 -2.77678800
-0.73770046 -1.81267154 -2.74250317
-0.73576832 -1.72324944 -2.73620081
-0.68379539 -1.64778066 -2.76054120
-0.63459057 -1.66239321 -2.79053998
-0.58693290 -1.67643154 -2.81903958
-0.54247069 -1.69370520 -2.84192777
-0.58721107 -1.76613414 -2.82777333
-0.58765304 -1.58175611 -2.80933642
-0.54343987 -1.59840751 -2.83315992
-0.50522631 -1.61912251 -2.85318089
-0.46895862 -1.63832676 -2.86844039
-0.50490665 -1.71227968 -2.85941482
-0.50028008 -1.51892841 -2.84777999
-0.46061429 -1.53935003 -2.86930394
-0.42932969 -1.56278288 -2.88489175
-0.39590228 -1.58614779 -2.89667964
-0.43381539 -1.65877676 -2.88168740
-0.41520637 -1.46036732 -2.88605523
-0.38497224 -1.48565042 -2.89984155
-0.35369596 -1.51068163 -2.91446090
-0.32077509 -1.53508937 -2.91886473
-0.36123052 -1.60846221 -2.89446211
-0.33085430 -1.40697145 -2.91924214
-0.30156878 -1.43074131 -2.93446636
-0.27312437 -1.45732725 -2.94478655
-0.24291302 -1.48370409 -2.94480681
-0.28825393 -1.55553234 -2.90707588
-0.24242406 -1.35077548 -2.94769645
-0.21721628 -1.37415779 -2.96045566
-0.19101340 -1.40084493 -2.96628380
-0.16547096 -1.42286491 -2.95725107
-0.21588123 -1.49884689 -2.91992092
-0.15774225 -1.29060125 -2.96791649
-0.13444568 -1.31394827 -2.98033881
-0.10929296 -1.33846211 -2.98427224
-0.08519358 -1.35949075 -2.97804785
-0.14128341 -1.43911791 -2.93502522
-0.07496113 -1.23159325 -2.99296832
-0.05300146 -1.25392258 -3.00027347
-0.03043519 -1.27582467 -3.00460720
-0.00703659 -1.29479456 -2.99860191
-0.06408858 -1.37337780 -2.95529556
0.00261047 -1.17775583 -3.01643705
0.02405403 -1.20012701 -3.02261186
0.04571410 -1.21994126 -3.02180576
0.06719383 -1.23519409 -3.01261830
0.01245725 -1.30575609 -2.97985864
0.07717235 -1.12992716 -3.03391027
0.09719415 -1.15255988 -3.04142141
0.11740789 -1.17237151 -3.03908348
0.13646501 -1.18560362 -3.02800059
0.08563315 -1.24575877 -3.00008106
0.14316878 -1.08968163 -3.05023956
0.16234569 -1.11298680 -3.05142331
0.18045017 -1.13361442 -3.04252100
0.19600992 -1.14693654 -3.02453423
0.15301815 -1.19590712 -3.01170754
0.20849839 -1.05727482 -3.05971837
0.22638686 -1.08392465 -3.05198574
0.23871499 -1.10375082 -3.02897310
0.24912232 -1.11537731 -3.00879383
0.20677058 -1.15729845 -3.00468421
0.27634937 -1.03149760 -3.06024146
0.28682566 -1.05565655 -3.03677940
0.29074505 -1.08086193 -3.00525594
0.29679856 -1.09813952 -2.97732496
0.25631911 -1.12594700 -2.98724818
0.33951950 -1.00645411 -3.04104114
0.33978260 -1.03838563 -3.00384426
0.33824179 -1.06942225 -2.96749544
0.34706888 -1.10517406 -2.94310522
0.30105320 -1.12134290 -2.95152378
0.39900884 -0.97443825 -3.01089072
0.39704314 -1.02428162 -2.97084427
0.40186277 -1.07902884 -2.94345474
0.40317807 -1.21970344 -2.97071815
0.35802439 -1.15127695 -2.94804406
0.47902071 -1.08793533 -2.94532084
0.47755826 -1.16886938 -2.96411967
0.41220173 -1.23677778 -2.97651315
0.44846895 -1.31509352 -3.00101638
0.49444583 -1.24673617 -2.99767923
0.46954942 -1.30743837 -3.00025129
0.49442008 -1.16152251 -2.99843717
0.55443877 -0.85474670 -2.93210816
0.55068398 -0.94455487 -2.93877721
0.54591841 -1.05853748 -2.94724154
0.47831476 -1.32889557 -3.00647521
0.48657817 -1.34921777 -3.01237917
0.45742959 -1.33904278 -3.00790811
0.49881688 -1.31638050 -3.00242925
0.50677758 -1.32799220 -3.00800371
0.51765931 -1.35385013 -3.01541853
0.52964711 -1.38325369 -3.02379203
0.49590486 -1.37067294 -3.01860142
0.53624827 -1.32721603 -3.01035118
0.54909629 -1.35886788 -3.01912069
0.56366813 -1.39888835 -3.02673674
0.58034897 -1.45673299 -3.03149843
0.54439217 -1.43663561 -3.03375411
0.58152235 -1.36254299 -3.01760411
0.59729928 -1.41483629 -3.02017951
0.61264729 -1.47505057 -3.01706886
0.62084180 -1.54239905 -3.00801206
0.59558511 -1.52059782 -3.03276801
0.62323129 -1.42691708 -2.99735928
0.62970310 -1.48951578 -2.98715258
0.63681376 -1.56348670 -2.97525287
0.64750743 -1.64893484 -2.96207356
0.63248456 -1.63070428 -2.99603391
0.64794749 -1.49777126 -2.95838451
0.65941375 -1.57673883 -2.94614267
0.67676872 -1.66414905 -2.94137502
0.69382024 -1.75889242 -2.93911433
0.65774059 -1.74210048 -2.95124602
0.69371384 -1.58637345 -2.93404984
0.71512002 -1.67784584 -2.93438745
0.73450583 -1.77674997 -2.93564320
0.75361204 -1.88365638 -2.93431330
0.71209067 -1.86467338 -2.93747211
0.75374067 -1.69190228 -2.93039703
0.77531868 -1.79434407 -2.93225980
0.79660052 -1.90232718 -2.93057418
0.81934911 -2.01842046 -2.92627525
0.77355856 -1.99671185 -2.93109822
0.81715208 -1.80721450 -2.92971826
0.83996403 -1.92007887 -2.92629313
0.86531901 -2.04036713 -2.92142797
0.86531901 -2.04036713 -2.92142797
0.88967258 -2.16389275 -2.91339111
0.83990502 -2.13745236 -2.92104840
0.81934911 -2.01842046 -2.92627525
0.88597339 -1.93746161 -2.91973448
0.91237777 -2.06027627 -2.91416049
0.91237777 -2.06027627 -2.91416049
0.94030333 -2.18822622 -2.90494585
0.97387332 -2.32418990 -2.89321041
0.91446829 -2.29472232 -2.90361738
0.96208048 -2.07878733 -2.90513229
0.99676734 -2.21214819 -2.89434123
1.03849065 -2.35046005 -2.87986898
1.08538556 -2.50435758 -2.86373973
1.01355648 -2.46807933 -2.87615371
1.05881393 -2.23156929 -2.88098431
1.10503209 -2.37625837 -2.86570859
1.15762651 -2.53593612 -2.84573030
1.21493030 -2.70762205 -2.81666303
1.13706028 -2.67067957 -2.84218788
1.17401671 -2.39749336 -2.84812641
1.23022234 -2.56031513 -2.82147717
1.29185808 -2.74008155 -2.78928781
1.35839796 -2.94969702 -2.74750447
1.27644980 -2.90217233 -2.77831030
1.30173457 -2.58103013 -2.79576135
1.36688638 -2.77096510 -2.76097226
1.43853140 -2.99534440 -2.71651435
1.49038732 -3.21354914 -2.66774845
1.41391289 -3.16758895 -2.70314240
1.44050908 -2.79867482 -2.73299718
1.50989509 -3.02559519 -2.68479729
1.56140363 -3.25004792 -2.63129377
1.59100497 -3.46425247 -2.56942630
1.52466273 -3.42608380 -2.61033988
1.57822609 -3.04860044 -2.65313029
1.62892246 -3.28003764 -2.59413791
1.65278411 -3.48937988 -2.53049541
1.67009532 -3.69723463 -2.48943377
1.60698497 -3.67017531 -2.52506971
1.69137776 -3.29482603 -2.55947590
1.71232724 -3.49840021 -2.49713778
1.73056698 -3.70650625 -2.45634913
1.74410617 -3.91272330 -2.43909860
1.68024039 -3.90096283 -2.47228694
1.77105689 -3.49680614 -2.46719241
1.78835142 -3.70230079 -2.42379355
1.80526769 -3.90731096 -2.40482354
1.82406163 -4.11998940 -2.42306161
1.75482166 -4.11773252 -2.45845103
1.84489238 -3.68683171 -2.39402390
1.86423063 -3.89363790 -2.37071323
1.88863599 -4.10573339 -2.38312936
1.89321244 -4.28414536 -2.36533904
1.82390237 -4.29142761 -2.40137148
1.92092776 -3.86780334 -2.33741927
1.95011473 -4.07874918 -2.33942080
1.96283913 -4.26267147 -2.33204341
1.94260776 -4.38025093 -2.25843477
1.87133801 -4.39277792 -2.28545809
2.01002145 -4.03846169 -2.29880261
2.03037238 -4.23103809 -2.29659891
2.01198101 -4.35853434 -2.22761822
2.02814007 -4.47898626 -2.21641660
1.95936799 -4.50268793 -2.25054169
2.10010028 -4.17956161 -2.26214933
2.08130980 -4.32395315 -2.19889212
2.09648156 -4.44393587 -2.18214059
2.11648107 -4.55672741 -2.18283033
2.04302073 -4.59265709 -2.21359944
2.15399337 -4.27733421 -2.17806578
2.16535282 -4.39909410 -2.14835262
2.18705058 -4.51617527 -2.14829898
2.16831899 -4.59857893 -2.08984613
2.08999205 -4.64146662 -2.11515093
2.23389673 -4.34023809 -2.11703420
2.25566983 -4.45770359 -2.11064148
2.24653077 -4.55269766 -2.06298470
2.32291794 -4.39208651 -2.07136512
2.32393026 -4.49458218 -2.03266191
2.38468003 -4.31152678 -2.02991152
2.39482164 -4.42495632 -1.99505293
2.43584704 -4.21689177 -1.98290038
2.45297980 -4.33796692 -1.94837499
2.48204303 -4.11886692 -1.93550396
2.50553155 -4.24198151 -1.90327489
2.52167130 -4.01983404 -1.88500011
2.55475402 -4.14333248 -1.85628903
2.55713916 -3.91378045 -1.83581030
2.59671426 -4.03778744 -1.80609310
2.62519741 -4.14990139 -1.77253890
2.63524055 -3.92809772 -1.75881398
2.66874981 -4.03912783 -1.72359252
2.66773415 -3.81523895 -1.71205211
2.59006786 -3.80400014 -1.78930223
2.62367344 -3.69386053 -1.75099480
2.65558267 -3.57948661 -1.71832561
2.58278346 -3.55872130 -1.79790366
2.61433887 -3.44556689 -1.77005255
2.64519405 -3.32885051 -1.74756801
2.58002806 -3.30106688 -1.83177555
2.61288023 -3.18636370 -1.81543171
2.64056492 -3.07380009 -1.79881012
2.57476401 -3.03786325 -1.88377595
2.59844041 -2.92803001 -1.86366653
2.62185550 -2.82296371 -1.84240592
2.55285573 -2.77424717 -1.92385972
2.57666826 -2.67521858 -1.90117359
2.60163450 -2.58096170 -1.87748444
2.52865696 -2.52492213 -1.95714152
2.55392432 -2.43871689 -1.93153024
2.58007717 -2.35602117 -1.90488458
2.50611401 -2.29815483 -1.98472786
2.53251767 -2.22145319 -1.95465541
2.55192423 -2.14919353 -1.91508079
2.47464824 -2.09254646 -1.98790681
2.50234032 -2.02650738 -1.94911182
2.54078197 -1.96306705 -1.91567254
2.48179436 -1.90776908 -2.00083995
2.52147055 -1.84941721 -1.96510625
2.55792403 -1.79128134 -1.92490304
2.48766661 -1.73823094 -1.99981236
2.52346230 -1.68339920 -1.95739901
2.56164789 -1.62787783 -1.91654420
2.49080801 -1.57926214 -1.98666775
2.52634931 -1.52715528 -1.94243824
2.56358624 -1.47441375 -1.89915705
2.59891367 -1.57155359 -1.87359893
2.59577727 -1.42085648 -1.85481763
2.63442826 -1.51537108 -1.82968760
2.62494016 -1.36539459 -1.81436408
2.53619647 -1.33812177 -1.85065377
2.55756545 -1.28686166 -1.80345738
2.58292603 -1.22568953 -1.76864433
2.64531302 -1.30952382 -1.76753283
2.60955954 -1.16394210 -1.73364854
2.65862465 -1.25069010 -1.71747756
2.64465499 -1.09991336 -1.70063305
2.66832614 -1.18963468 -1.66690993
2.68366647 -1.03398979 -1.66775250
2.68133855 -1.12093723 -1.61503506
2.68366647 -1.03398979 -1.66775250
2.72303843 -0.96149689 -1.63085771
2.71414852 -1.03892720 -1.58271813
2.68133855 -1.12093723 -1.61503506
2.71414852 -1.03892720 -1.58271813
2.75944042 -0.88550407 -1.58986294
2.75215030 -0.96385956 -1.54509592
2.75215030 -0.96385956 -1.54509592
2.79150558 -0.80874258 -1.54049110
2.79183722 -0.88282096 -1.50618958
2.76725602 -1.04543853 -1.50525320
2.81812382 -0.72777176 -1.48537624
2.82832241 -0.80578417 -1.45875561
2.84469295 -0.64710170 -1.42947674
2.85804033 -0.72505295 -1.40657866
2.86837149 -0.56297314 -1.37185478
2.88578677 -0.64092278 -1.35383499
2.88696218 -0.47374514 -1.31026065
2.90297079 -0.55157381 -1.29410934
2.90221977 -0.38558650 -1.24611330
2.91832995 -0.46524724 -1.23205662
2.91735744 -0.30669704 -1.17996645
2.93255353 -0.38702196 -1.16919792
2.92905641 -0.23574583 -1.11532700
2.89928246 -0.22309780 -1.18603051
2.90466022 -0.15272699 -1.11436629
2.89999318 -0.09440409 -1.04504204
2.93198061 -0.17420863 -1.05082488
2.93125629 -0.12269631 -0.99536049
2.86833954 -0.06677293 -1.10099494
2.86051583 -0.13497484 -1.17180252
2.84807444 -0.02819268 -1.15866113
2.85182738 0.03847330 -1.08115888
2.82032084 0.07643460 -1.12740815
2.81642795 0.12510909 -1.03963375
2.81412578 0.14217824 -0.96613073
2.84379244 0.12758106 -0.90538317
2.78689146 0.14242744 -1.09238720
2.81284165 0.00698782 -1.21497810
2.78789544 0.10724439 -1.18210042
2.74596453 0.16213064 -1.14168513
2.77118826 0.04798898 -1.26562536
2.74402571 0.14005741 -1.23002791
2.68908572 0.18306248 -1.17684042
2.72319531 0.09426260 -1.31124258
2.68394113 0.17471601 -1.26248217
2.63017702 0.21277170 -1.20815933
2.66502547 0.23006992 -1.14061928
2.62137985 0.28339228 -1.17438543
2.65764070 0.29382700 -1.10774887
2.63352060 0.36028302 -1.14931047
2.67619252 0.36578920 -1.08574474
2.65588093 0.44195130 -1.12903261
2.69901609 0.44589657 -1.06595659
2.67449212 0.52871680 -1.10983455
2.71653819 0.53628725 -1.04672754
2.60892439 0.43481770 -1.19401443
2.62733984 0.52099490 -1.17636013
2.55928063 0.42339581 -1.26174200
2.57677197 0.51151037 -1.24566412
2.59202242 0.60152310 -1.23298979
2.52580261 0.50104582 -1.31466234
2.54053879 0.59099460 -1.30266011
2.55360174 0.68244499 -1.29373801
2.48893094 0.58069503 -1.37255073
2.50114369 0.67168874 -1.36411798
2.51249576 0.76270515 -1.35858333
2.44833088 0.66143298 -1.43491995
2.45877552 0.75195789 -1.42877281
2.46848297 0.84129697 -1.42623460
2.40383077 0.74201339 -1.49862385
2.41250539 0.83088768 -1.49560058
2.41959572 0.91824949 -1.49493110
2.35452795 0.82149857 -1.56385958
2.36057591 0.90806329 -1.56308270
2.36521554 0.99419606 -1.56312251
2.29885077 0.89954925 -1.62874293
2.30358291 0.98496068 -1.62927139
2.30657148 1.06895995 -1.63165176
2.23988414 0.97743791 -1.69371963
2.24274635 1.06094134 -1.69622469
2.24369121 1.14396727 -1.69891894
2.17710590 1.05452430 -1.75913918
2.17798090 1.13645804 -1.76243281
2.17768526 1.21923399 -1.76726484
2.11133885 1.13157761 -1.82463288
2.11120725 1.21304381 -1.82925689
2.11000609 1.29490936 -1.83624434
2.04415107 1.20865321 -1.89122081
2.04327202 1.28998160 -1.89717627
2.04080510 1.37209499 -1.90388048
1.97628736 1.28639305 -1.95847249
1.97428477 1.36806202 -1.96391737
1.97144771 1.45031059 -1.96897078
1.90742600 1.36454403 -2.02325392
1.90476179 1.44669700 -2.02775526
1.90194845 1.52912498 -2.03190875
1.83811963 1.44343841 -2.08631086
1.83609593 1.52532876 -2.09045458
1.83224583 1.60781407 -2.09322619
1.76925159 1.52241015 -2.14799595
1.76627576 1.60441196 -2.15053391
1.76240444 1.68696749 -2.15240073
1.69750559 1.60254896 -2.20444775
1.69473219 1.68477929 -2.20643497
1.69108236 1.76776779 -2.20757151
1.62578857 1.68379736 -2.25736690
1.62344086 1.76721692 -2.25832272
1.61990035 1.85168076 -2.25700736
1.68627954 1.85219538 -2.20643234
1.61423421 1.93714678 -2.25277042
1.67951620 1.93741751 -2.20335650
1.60752988 2.02391744 -2.24676228
1.67230177 2.02371478 -2.19841766
1.59969079 2.11172104 -2.23812675
1.54144537 2.02441454 -2.29172754
1.54731560 1.93722939 -2.29984283
1.47950327 1.93775856 -2.34316826
1.55170226 1.85174417 -2.30397177
1.48284829 1.85215175 -2.34831882
1.41198444 1.85299253 -2.38940191
1.48388445 1.76792705 -2.34947944
1.41250515 1.76875854 -2.39159918
1.34087455 1.76995814 -2.43248916
1.41308188 1.68589187 -2.39358807
1.34057224 1.68727124 -2.43521023
1.26738572 1.68914092 -2.47496700
1.34000778 1.60600030 -2.43686748
1.26605558 1.60810518 -2.47660518
1.19061840 1.61089981 -2.51402664
1.26395082 1.52808022 -2.47733951
1.18790174 1.53130996 -2.51454926
1.11113393 1.53473556 -2.55005670
1.18456542 1.45249486 -2.51338100
1.10775888 1.45619643 -2.54997635
1.03048074 1.46007395 -2.58459759
1.03424728 1.53819799 -2.58415580
0.95245159 1.46392369 -2.61745572
0.95721716 1.54193676 -2.61687279
0.88005298 1.46800590 -2.64572930
0.94990540 1.38630342 -2.61741972
0.87759000 1.39041519 -2.64507103
0.80947894 1.39460850 -2.66720796
0.87541658 1.31308293 -2.64291310
0.80887580 1.31730378 -2.66314411
0.74599403 1.32103086 -2.68024468
0.74443227 1.39856982 -2.68515873
0.68419731 1.32463610 -2.69354367
0.68094957 1.40210783 -2.69558454
0.62897593 1.32738256 -2.70113897
0.62070107 1.40520489 -2.69994688
0.57735920 1.32935071 -2.70477343
0.57033932 1.40691113 -2.70426536
0.53302234 1.33040869 -2.71064472
0.58558637 1.25100291 -2.70518684
0.54080927 1.25219798 -2.70932889
0.50026965 1.25305521 -2.71829104
0.55039221 1.17311478 -2.70953989
0.51053554 1.17437303 -2.71905041
0.48268273 1.17525434 -2.74185634
0.47385499 1.25446010 -2.74602056
0.47141588 1.17716026 -2.77951884
0.46001109 1.25695312 -2.78432083
0.45851907 1.18197417 -2.81947970
0.44223019 1.26187122 -2.82241654
0.42138079 1.18549156 -2.84923339
0.39981398 1.26420426 -2.84874725
0.36661708 1.18792129 -2.86446452
0.34390050 1.26581728 -2.86061954
0.30191714 1.19112003 -2.86972070
0.28000185 1.26661777 -2.86720300
0.23197213 1.19310224 -2.87596893
0.21211314 1.26563632 -2.87147188
0.15656807 1.19221842 -2.87841344
0.13940825 1.26198530 -2.87175035
0.07715335 1.18650150 -2.87704539
0.06019010 1.25570118 -2.86981535
-0.01147299 1.17620051 -2.87293839
-0.02293521 1.24670374 -2.86655807
-0.09740103 1.16194522 -2.86909652
-0.00105354 1.11048460 -2.88074064
-0.09023372 1.09436643 -2.87756419
-0.17588733 1.07321203 -2.87057924
-0.08511926 1.03171420 -2.88834286
-0.17375909 1.00550365 -2.88484859
-0.25503054 0.97713870 -2.87781906
-0.17256396 0.94364965 -2.89762735
-0.25466180 0.90694147 -2.89322233
-0.33020383 0.86556643 -2.88738108
-0.33231819 0.94081414 -2.87174368
-0.40068379 0.81915146 -2.87888789
-0.40422231 0.89868522 -2.86403680
-0.46827775 0.76776588 -2.86902857
-0.47364861 0.85663915 -2.85537910
-0.53438467 0.71644717 -2.85778403
-0.54077637 0.81020677 -2.84417772
-0.59936267 0.66400629 -2.84557438
-0.52474660 0.62048072 -2.87146401
-0.58783340 0.56347388 -2.85865927
-0.65221941 0.50848639 -2.84917736
-0.57211751 0.46455887 -2.87158537
-0.63452315 0.40878853 -2.85503674
-0.69798207 0.35356227 -2.83812642
-0.60918301 0.32461017 -2.84204149
-0.67057687 0.27411100 -2.81555438
-0.73104244 0.22482289 -2.78442240
-0.63875580 0.20528477 -2.78562307
-0.70050108 0.15475196 -2.75953293
-0.76180947 0.10317211 -2.72883582
-0.68168628 0.08001059 -2.77118587
-0.74982685 0.02774093 -2.74686742
-0.82092172 -0.02643748 -2.72205734
-0.82340991 0.05070683 -2.69574809
-0.74809134 -0.04851478 -2.77953267
-0.82449597 -0.10851991 -2.75321579
-0.82449597 -0.10851991 -2.75321579
-0.90383136 -0.17385256 -2.72318959
-0.82092172 -0.02643748 -2.72205734
-0.82463259 -0.18643695 -2.77645659
-0.89809430 -0.25276187 -2.72632146
-0.96087694 -0.30979097 -2.65102005
-0.87571108 -0.30456880 -2.68980312
-0.93559808 -0.34921277 -2.60150862
-0.99091804 -0.39696816 -2.50134587
-0.91403079 -0.38954255 -2.55444741
-1.00109851 -0.46170604 -2.50013876
-1.13597667 -0.53733504 -2.48343277
-1.03548181 -0.52505720 -2.52790403
-1.18318319 -0.66562450 -2.49244928
-1.24741948 -0.77161586 -2.30585790
-1.16011918 -0.78300405 -2.38408875
-1.29622483 -0.88087386 -2.28142309
-1.46137524 -0.94597381 -2.25186229
-1.34486878 -0.95329785 -2.31765342
-1.48126829 -1.09774065 -2.22114062
-1.59234262 -1.05588269 -2.13247824
-1.59235835 -0.96108514 -2.14337754
-1.63306451 -1.06790793 -2.09448934
-1.64681637 -1.00181818 -2.08821511
-1.66703331 -0.91309285 -2.07976913
-1.69857287 -1.01973224 -2.03791404
-1.72130203 -0.94179267 -2.02518535
-1.75257814 -0.84928989 -2.00708342
-1.77423823 -0.96051824 -1.97119081
-1.80165291 -0.87525809 -1.95098674
-1.83675516 -0.78153223 -1.92317426
-1.85053837 -0.89086139 -1.89488971
-1.87901092 -0.80212575 -1.86950195
-1.90863264 -0.70673740 -1.83934879
-1.89589262 -0.81255072 -1.80716801
-1.91789889 -0.71875739 -1.77935135
-1.93995297 -0.61997312 -1.75052345
-1.91781545 -0.72678548 -1.73674929
-1.93708503 -0.63019615 -1.70686936
-1.96508956 -0.53167051 -1.67708564
-1.94108438 -0.63990009 -1.66924119
-1.96642458 -0.54217160 -1.64011693
-1.99157703 -0.44189927 -1.60749066
-1.97502804 -0.55404329 -1.60481477
-1.99822116 -0.45532504 -1.57457221
-2.02835083 -0.35405323 -1.54583025
-2.02969384 -0.46919799 -1.56228948
-2.05983400 -0.36694181 -1.54127264
-2.09055138 -0.25996977 -1.51908350
-2.09348345 -0.37811813 -1.54420841
-2.12398219 -0.27033943 -1.52146673
-2.16106939 -0.16413212 -1.48734915
-2.15907693 -0.28337136 -1.50662720
-2.19292641 -0.17766212 -1.46608126
-2.23076320 -0.06868618 -1.42042935
-2.22272158 -0.19096133 -1.43728936
-2.25483871 -0.08324748 -1.38902366
-2.28734565 0.02905520 -1.33835924
-2.27789831 -0.09800352 -1.35628951
-2.30237889 0.01405141 -1.30394244
-2.31047153 0.13038497 -1.24806368
-2.30079174 0.00044038 -1.26888990
-2.29106736 0.11842435 -1.22126329
-2.28020716 0.24309300 -1.17106569
-2.27152205 0.10673408 -1.19582558
-2.26163411 0.23264238 -1.14698493
-2.26586819 0.36379710 -1.08954012
-2.24686742 0.22291923 -1.12136078
-2.27106023 0.35221660 -1.06526875
-2.32452846 0.48493859 -1.01909530
-2.29129958 0.34083298 -1.04933167
-2.33526111 0.47495604 -0.99500740
-2.32365918 0.61315697 -0.92825955
-2.33262968 0.46552062 -0.96912611
-2.29904437 0.60901237 -0.91157335
-2.24908400 0.75136250 -0.85686737
-2.27318764 0.60482860 -0.89804679
-2.22545171 0.74382806 -0.83561379
-2.22978091 0.88123536 -0.74734306
-2.20649886 0.74013329 -0.80928075
-2.25271940 0.87478083 -0.72697061
-2.28874636 1.01182604 -0.65648240
-2.26739335 0.99132103 -0.62471366
-2.23107100 1.09409893 -0.56216979
-2.28874636 1.01182604 -0.65648240
-2.28206182 1.00992215 -0.70777327
-2.19599581 1.07183862 -0.53555113
-2.13306236 1.10411561 -0.48209402
-2.24708581 0.60202056 -0.88135368
-2.22460723 0.59639120 -0.86323559
-2.26953983 0.44565985 -0.92017251
-2.24682069 0.44016123 -0.90511775
-2.20599818 0.58919221 -0.84167522
-2.29256725 0.45131981 -0.93458331
-2.32261395 0.30929267 -0.98585755
-2.30493712 0.30098394 -0.96744436
-2.31441617 0.45780507 -0.94967443
-2.32316995 0.31904128 -1.01074862
-2.27748489 0.18796936 -1.05911696
-2.29649186 0.17695186 -1.04251611
-2.30951238 0.32969818 -1.03169751
-2.25752807 0.20000452 -1.07469773
-2.22654843 0.07560926 -1.12036169
-2.23462987 0.06381453 -1.09808886
-2.24252582 0.21221252 -1.09395635
-2.23695421 0.08510324 -1.14684498
-2.24211359 -0.03517119 -1.19092262
-2.22482705 -0.04594317 -1.16596794
-2.25215578 0.09564020 -1.17195463
-2.26066256 -0.02406426 -1.21543026
-2.27556276 -0.13738789 -1.25371039
-2.25192785 -0.14925559 -1.22956669
-2.28324175 -0.01208664 -1.24034381
-2.29558706 -0.12594494 -1.28374124
-2.28971362 -0.23440325 -1.33112538
-2.28183198 -0.24690889 -1.29377627
-2.29754233 -0.11286414 -1.32120252
-2.27099729 -0.22037603 -1.36831510
-2.24789762 -0.32380375 -1.41036987
-2.27196622 -0.33873942 -1.37334371
-2.24833798 -0.20571634 -1.40350139
-2.22184634 -0.30868313 -1.44586897
-2.19643044 -0.41314793 -1.48257089
-2.21782708 -0.42592585 -1.44389737
-2.19189835 -0.29468846 -1.48020339
-2.16902590 -0.40291467 -1.51803875
-2.14022088 -0.50109816 -1.55768824
-2.17012691 -0.51743609 -1.52582645
-2.13300681 -0.38987046 -1.54207182
-2.10437465 -0.48843437 -1.57295144
-2.07456040 -0.58703500 -1.59499168
-2.11317110 -0.59890300 -1.58764887
-2.06597924 -0.47891623 -1.56892717
-2.03563547 -0.57818633 -1.58876085
-2.00618792 -0.67371082 -1.60658658
-2.04497576 -0.68231922 -1.61546862
-1.99939668 -0.56699681 -1.58331537
-1.96841121 -0.66228312 -1.60442555
-1.93795693 -0.75262994 -1.62723875
-1.97466326 -0.76394981 -1.62537730
-1.94710410 -0.64954042 -1.63228536
-1.91991329 -0.74196762 -1.65639520
-1.89844370 -0.83386505 -1.68052423
-1.90777147 -0.84219152 -1.64199758
-1.91830766 -0.73426181 -1.69593179
-1.89758718 -0.82638997 -1.72133064
-1.87593400 -0.91168249 -1.74304736
-1.87644446 -0.91770685 -1.70241570
-1.89675510 -0.81914049 -1.76247060
-1.87603474 -0.90600991 -1.78316236
-1.85523129 -0.98999161 -1.80234480
-1.85474002 -0.99393433 -1.76255071
-1.87416720 -0.90051240 -1.83493257
-1.85376692 -0.98313326 -1.85700858
-1.83049619 -1.05831671 -1.87455702
-1.83476675 -1.06638372 -1.82167673
-1.82581687 -0.97220546 -1.91439712
-1.80227339 -1.04654229 -1.93001962
-1.78232515 -1.11538064 -1.94387889
-1.81265771 -1.12979579 -1.89216745
-1.75360119 -1.03537977 -1.98388767
-1.73575783 -1.10036361 -1.99599385
-1.72373748 -1.15999675 -2.00599480
-1.76994097 -1.18062425 -1.96016145
-1.68247318 -1.08267128 -2.04843593
-1.67076194 -1.14003766 -2.05674529
-1.66174448 -1.19424081 -2.06399512
-1.71189702 -1.21919775 -2.01804161
-1.62278044 -1.12350965 -2.09944057
-1.61502385 -1.17301273 -2.10395575
-1.60288429 -1.22470689 -2.11294675
-1.65117192 -1.25209343 -2.07639909
-1.58150327 -1.10765898 -2.13575149
-1.57005405 -1.15181541 -2.14112949
-1.55889261 -1.20118833 -2.14887094
-1.53992236 -1.25139010 -2.16266036
-1.59133375 -1.28308868 -2.12508154
-1.53004873 -1.13473701 -2.17718840
-1.50863588 -1.17144060 -2.18938327
-1.48768938 -1.21826732 -2.20329642
-1.46528566 -1.27018178 -2.21795726
-1.51840472 -1.30607891 -2.17918992
-1.45922518 -1.14289093 -2.23295808
-1.43605089 -1.18614364 -2.24574351
-1.40990078 -1.23127913 -2.26214981
-1.37982368 -1.27817595 -2.28351140
-1.43979001 -1.32167029 -2.23750901
-1.35998762 -1.12296879 -2.32145858
-1.33576095 -1.17495227 -2.32938504
-1.30819190 -1.22203934 -2.34343171
-1.27915335 -1.26807308 -2.35939622
-1.35022247 -1.32710755 -2.30460954
-1.24699712 -1.09671259 -2.41335154
-1.22502494 -1.14686584 -2.42135406
-1.20042372 -1.19082105 -2.43129802
-1.17188442 -1.23496211 -2.44356060
-1.24842012 -1.31347215 -2.37799835
-1.11010110 -1.01978862 -2.49578381
-1.10827661 -1.08150148 -2.51403809
-1.08873653 -1.13358414 -2.52010345
-1.06311965 -1.18209195 -2.52825618
-1.14137602 -1.28022087 -2.45686555
-0.97357309 -0.96023154 -2.54835868
-0.98427457 -1.00997388 -2.58470511
-0.97435039 -1.06790876 -2.60149240
-0.95216095 -1.11946130 -2.60697675
-1.03183901 -1.23000765 -2.53836536
-0.84899527 -0.90256798 -2.59496212
-0.86344558 -0.95127684 -2.63216853
-0.86220425 -0.99499357 -2.66221952
-0.84569186 -1.04420710 -2.67433524
-0.92376268 -1.16922665 -2.61331987
-0.74022633 -0.83478552 -2.64806795
-0.74720597 -0.87862271 -2.67588592
-0.75310528 -0.92138374 -2.70543242
-0.74178368 -0.96227545 -2.72833800
-0.82052410 -1.09334540 -2.68177557
-0.74720597 -0.87862271 -2.67588592
-0.64827585 -0.76579547 -2.70969343
-0.64460474 -0.80276132 -2.72496486
-0.75310528 -0.92138374 -2.70543242
-0.64766043 -0.83989286 -2.74973345
-0.74178368 -0.96227545 -2.72833800
-0.64133304 -0.88262045 -2.77340531
-0.71857709 -1.00885248 -2.73539996
-0.55819780 -0.68329114 -2.77289081
-0.54837316 -0.72257286 -2.77720857
-0.54390115 -0.76507020 -2.79307008
-0.53575122 -0.81363773 -2.81463885
-0.61859947 -0.93378597 -2.78686714
-0.46781492 -0.61468077 -2.81922317
-0.45707542 -0.65601164 -2.82219100
-0.44670689 -0.70245492 -2.83500576
-0.43020499 -0.75684148 -2.84522581
-0.51057100 -0.86983675 -2.82716703
-0.36754110 -0.55762309 -2.84650135
-0.35918543 -0.60109240 -2.85328102
-0.34762636 -0.64770395 -2.86099577
-0.33000195 -0.70304507 -2.86958289
-0.40582770 -0.81463963 -2.85650063
-0.26448634 -0.50917840 -2.86789107
-0.25707114 -0.54953861 -2.87392926
-0.24883671 -0.59164214 -2.87962747
-0.23347935 -0.64972275 -2.88745022
-0.30716836 -0.76352507 -2.87903237
-0.15553421 -0.45974511 -2.88681984
-0.14989644 -0.49593088 -2.89253926
-0.14459005 -0.53161800 -2.89760113
-0.02042488 -0.43827888 -2.91515994
-0.01722161 -0.47120363 -2.91940546
-0.13532606 -0.58253706 -2.90442991
-0.21182398 -0.71113652 -2.89701605
-0.02801638 -0.40994537 -2.91051197
0.08119728 -0.36919546 -2.92861891
0.09281615 -0.39618909 -2.93378425
-0.03846041 -0.38459641 -2.90560150
0.06997810 -0.34244218 -2.92391086
0.15558705 -0.33244210 -2.93568110
0.16631037 -0.36483824 -2.94006300
-0.04785339 -0.35728824 -2.90057588
0.05917001 -0.31593612 -2.91967273
0.14460662 -0.29674479 -2.93118525
0.21976748 -0.28901669 -2.93859625
0.22819364 -0.32702389 -2.94293332
0.04801967 -0.28493547 -2.91407633
0.13491188 -0.26128227 -2.92690659
0.21107659 -0.25045535 -2.93477798
0.27428284 -0.24829444 -2.94070601
0.28033441 -0.29411629 -2.94673347
0.12521710 -0.22581975 -2.92262840
0.20242089 -0.21193570 -2.93049216
0.26991951 -0.20470794 -2.93675733
0.32217720 -0.20426649 -2.94475985
0.32831699 -0.24954019 -2.95009351
0.19305205 -0.17423016 -2.92586350
0.26555622 -0.16112143 -2.93280840
0.31562826 -0.15991801 -2.93995523
0.36062372 -0.15871887 -2.94513774
0.36593139 -0.20540220 -2.95002413
0.25841242 -0.11931891 -2.92913246
0.30896172 -0.11481257 -2.93460631
0.35496712 -0.11090721 -2.93926668
0.39865780 -0.11008631 -2.94351602
0.40377417 -0.15892921 -2.94935656
0.30293584 -0.06955292 -2.92905068
0.34867221 -0.06537639 -2.93354893
0.39304334 -0.06100212 -2.93768311
0.43279564 -0.06109332 -2.93956876
0.43877888 -0.11097006 -2.94636035
0.34310791 -0.02057346 -2.92827988
0.38614497 -0.01420189 -2.93189526
0.42610133 -0.01206504 -2.93483019
0.46585858 -0.01216442 -2.93668962
0.47240600 -0.06136802 -2.94185233
0.37924656 0.03259829 -2.92610765
0.41924900 0.03525243 -2.92929101
0.45888507 0.03704698 -2.93190694
0.49725929 0.03791372 -2.93345046
0.50529444 -0.01203927 -2.93847609
0.41181037 0.08360396 -2.92307878
0.45036858 0.08636922 -2.92590308
0.48838279 0.08799658 -2.92806315
0.52660257 0.08872838 -2.92593527
0.53542000 0.03862442 -2.93060660
0.44209248 0.13512075 -2.91941810
0.47957492 0.13748565 -2.92206740
0.51694518 0.13889101 -2.92083097
0.55228138 0.13828391 -2.90969491
0.56166250 0.08775873 -2.91371012
0.46723509 0.18716562 -2.91484070
0.50450724 0.18919627 -2.91482973
0.54227662 0.18934339 -2.90621448
0.57260561 0.18750803 -2.88518977
0.58000910 0.13552369 -2.88747048
0.48930803 0.23964983 -2.90790510
0.52753258 0.24104916 -2.90326810
0.56247824 0.24007209 -2.88459706
0.57878482 0.23455031 -2.84944725
0.58685005 0.18140629 -2.85061169
0.51089501 0.29225585 -2.89759111
0.54700243 0.29275090 -2.88179016
0.56825936 0.28791094 -2.84883833
0.57340688 0.28150064 -2.80977821
0.58290082 0.22613706 -2.80912709
0.52845955 0.34590235 -2.88074732
0.55350965 0.34460351 -2.85066414
0.56117272 0.33877385 -2.81211376
0.56255871 0.33247846 -2.77254033
0.57381433 0.27408782 -2.77029562
0.53733033 0.40179056 -2.85387826
0.54791707 0.39753416 -2.81474972
0.54843110 0.39276251 -2.77470994
0.54867125 0.38888630 -2.73628068
0.56358969 0.32660562 -2.73463845
0.53265250 0.46174219 -2.81764364
0.53422314 0.45672935 -2.77793479
0.53199428 0.45470744 -2.73733592
0.55433327 0.45753247 -2.70959139
0.57325953 0.39042959 -2.71015668
0.51835018 0.53027409 -2.77813220
0.51969868 0.52812910 -2.73906732
0.53887606 0.53219008 -2.71041298
0.57715034 0.53700608 -2.70361400
0.59110534 0.46340936 -2.69982910
0.50728953 0.61134082 -2.74676275
0.52884942 0.61261499 -2.71948481
0.56553429 0.61329162 -2.70787930
0.60595649 0.61588192 -2.70145726
0.61698323 0.54032552 -2.69717669
0.52035302 0.69300920 -2.72421741
0.55826813 0.69307339 -2.71416092
0.59742117 0.69280195 -2.70515537
0.64123672 0.69354534 -2.69743013
0.64912403 0.61779356 -2.69430709
0.55131716 0.77254128 -2.71585917
0.59153748 0.77166033 -2.70805454
0.63457018 0.77139974 -2.70031834
0.67804784 0.77115887 -2.69238615
0.68557119 0.69472033 -2.68951154
0.58546990 0.85036057 -2.71055818
0.62861961 0.85006839 -2.70269871
0.67229158 0.84982646 -2.69484878
0.71929890 0.84946835 -2.68407393
0.72639978 0.77139527 -2.68067789
0.62089133 0.93013573 -2.70519996
0.66538256 0.92942601 -2.69730639
0.71209067 0.92869437 -2.68674493
0.76289880 0.92758495 -2.67115855
0.76887649 0.84886229 -2.67035818
0.65797037 1.00979590 -2.69806314
0.70587504 1.00844038 -2.68772411
0.75813097 1.00671816 -2.67201900
0.81530493 1.00443125 -2.65388584
0.81717426 0.92608935 -2.65353107
0.70004719 1.08818066 -2.68786860
0.75348878 1.08592856 -2.67317915
0.81187087 1.08301723 -2.65523100
0.87563699 1.07973027 -2.63513231
0.87832546 1.00156832 -2.63313007
0.74922585 1.16499138 -2.67456985
0.81032991 1.16143644 -2.65703487
0.87405068 1.15764081 -2.63774371
0.94693798 1.15345192 -2.61284041
0.94746357 1.07579958 -2.61111045
0.80925930 1.23947763 -2.66011906
0.87438828 1.23544943 -2.64038372
0.94684100 1.23114562 -2.61599660
1.02317262 1.22687614 -2.58245420
1.02228749 1.14935493 -2.58179927
0.94804662 1.30873919 -2.61709929
1.02507889 1.30446625 -2.58405662
1.10190570 1.30034065 -2.54766583
1.10004807 1.22273886 -2.54695892
1.02737308 1.38217211 -2.58466125
1.10452664 1.37816572 -2.54870224
1.18145370 1.37424147 -2.51179790
1.17890286 1.29647529 -2.51007223
1.25529277 1.29265392 -2.47036815
1.25263155 1.21491039 -2.46806717
1.17627656 1.21881020 -2.50792527
1.25857520 1.37062562 -2.47392392
1.33597398 1.36709571 -2.43564200
1.33246672 1.28900313 -2.43134379
1.26114738 1.44905078 -2.47564864
1.33753848 1.44605863 -2.43655181
1.41303706 1.44336438 -2.39511371
1.41146624 1.36413014 -2.39284134
1.33923781 1.52547264 -2.43753433
1.41373551 1.52341354 -2.39613247
1.48673213 1.52153289 -2.35119534
1.48664033 1.44132674 -2.34994531
1.41367340 1.60412860 -2.39514494
1.48628724 1.60262334 -2.35134506
1.55737507 1.60183334 -2.30522656
1.55876827 1.52048194 -2.30388117
1.48495984 1.68478036 -2.35074759
1.55611885 1.68384683 -2.30510569
1.62832105 1.60154045 -2.25596428
1.55424273 1.76737714 -2.30547810
1.70019615 1.52069676 -2.20186329
1.62984836 1.52022088 -2.25418997
1.70161867 1.43980622 -2.19907904
1.63090467 1.43949687 -2.25159502
1.55938053 1.43997169 -2.30208850
1.63095748 1.35949421 -2.24829865
1.55895436 1.36028755 -2.29911160
1.48563433 1.36188996 -2.34737682
1.55768156 1.28104818 -2.29564381
1.48411250 1.28296661 -2.34418058
1.40865850 1.28568828 -2.38917804
1.48177612 1.20461369 -2.34036326
1.40571320 1.20761907 -2.38465619
1.32928944 1.21107030 -2.42725515
1.40302658 1.12974620 -2.38063717
1.32655263 1.13344121 -2.42387319
1.25024724 1.13737118 -2.46529078
1.32424736 1.05590463 -2.42038941
1.24820948 1.05990839 -2.46290493
1.17267287 1.06391668 -2.50436878
1.17422330 1.14129484 -2.50605416
1.09731376 1.06790888 -2.54422927
1.09870660 1.14525914 -2.54569077
1.02213645 1.07189608 -2.58098078
1.09649384 0.99077004 -2.54229546
1.02138793 0.99463505 -2.57885504
0.94805944 0.99819183 -2.60776496
