1.35616386 -8.56469345 -1.05760252
1.42668247 -8.75774956 -0.95081252
1.44112682 -8.65853500 -0.96836030
1.44859445 -8.55677032 -0.97708267
1.36213446 -8.46125984 -1.06305778
1.45303750 -8.45389557 -0.98146504
1.53345430 -8.65105438 -0.88617951
1.53901875 -8.54957485 -0.89348960
1.54194641 -8.44765854 -0.89759922
1.45321929 -8.35079670 -0.98026490
1.54014623 -8.34537697 -0.89633250
1.62444234 -8.54314995 -0.80422306
1.62710321 -8.44188118 -0.80943590
1.62665462 -8.34018898 -0.81107849
1.53712153 -8.24331665 -0.89199853
1.62304819 -8.23850346 -0.80799329
1.70776868 -8.43665695 -0.71748418
1.70647752 -8.33518314 -0.71990877
1.70084047 -8.23382854 -0.71775693
1.61336207 -8.13806438 -0.79817986
1.68799627 -8.13371944 -0.70785862
1.77743852 -8.33014584 -0.62268358
1.76962554 -8.22931385 -0.62119246
1.75621152 -8.12973118 -0.61330652
1.65976822 -8.04115582 -0.68522531
1.72720146 -8.03636074 -0.59374028
1.83074272 -8.22432423 -0.51985162
1.81840777 -8.12382698 -0.51797253
1.78619123 -8.03196621 -0.49927911
1.67823744 -7.95968294 -0.55739605
1.73636031 -7.95302773 -0.46895990
1.87584567 -8.11732864 -0.42003214
1.84289587 -8.02347374 -0.40635756
1.79059792 -7.94283867 -0.38113603
1.68900859 -7.87275743 -0.43881643
1.74022758 -7.86402798 -0.35285342
1.89396334 -8.01477051 -0.31140542
1.84000468 -7.93432236 -0.28831139
1.78605187 -7.85498428 -0.26606601
1.66609645 -7.82449627 -0.30876264
1.70820510 -7.81632566 -0.22707893
1.88154948 -7.92663097 -0.19612327
1.82390535 -7.84865093 -0.17759351
1.74253094 -7.80985689 -0.14311010
1.62530911 -7.78918171 -0.18467325
1.65503430 -7.78159380 -0.10847513
1.85894656 -7.83538198 -0.08932712
1.76979518 -7.80129957 -0.06352364
1.68194699 -7.77108860 -0.03247099
1.57217467 -7.74468517 -0.07579804
1.59515357 -7.73685408 -0.00521279
1.79374993 -7.79018784 0.01962084
1.70263457 -7.76287031 0.03949625
1.81044900 -7.78092051 0.10448073
1.71684265 -7.75421333 0.11706423
1.72638333 -7.74427938 0.19208643
1.82217789 -7.77059841 0.18966793
1.73157191 -7.73175621 0.27423686
1.82871211 -7.75592899 0.27805552
1.63798356 -7.70031595 0.26413247
1.55446315 -7.67694902 0.23815320
1.63644993 -7.68425894 0.34020326
1.73106277 -7.71649981 0.35453853
1.54417706 -7.66145611 0.31255713
1.46845770 -7.65514565 0.26737532
1.48542976 -7.66994238 0.19886310
1.53393316 -7.64189577 0.38510022
1.62778831 -7.66636562 0.41790465
1.45070386 -7.63950109 0.33842728
1.37316012 -7.64636946 0.28981471
1.40265489 -7.65834665 0.21776260
1.42999804 -7.61823750 0.41080067
1.52050710 -7.62181425 0.45942536
1.34630203 -7.63023329 0.36056361
1.27872324 -7.63671350 0.30538040
1.31331563 -7.64952707 0.23298889
1.32077730 -7.60870361 0.43055481
1.40709198 -7.60301208 0.48322248
1.24640977 -7.62054157 0.37491098
1.18215263 -7.62731838 0.31500596
1.21881211 -7.64127779 0.24514811
1.21436298 -7.60398769 0.44436878
1.29285228 -7.59253740 0.50127947
1.14413548 -7.61480045 0.38406980
1.08198762 -7.61943150 0.32343739
1.12184751 -7.63388205 0.25442815
1.10689402 -7.60242367 0.45235771
1.17929161 -7.58994293 0.51200819
1.04131556 -7.60993958 0.39201024
0.97906470 -7.61372232 0.33192945
1.02339196 -7.62777901 0.26432037
0.99790967 -7.60085392 0.45756450
1.06743419 -7.59377384 0.51875448
0.93430722 -7.60459328 0.39693815
0.87496591 -7.60756350 0.33914253
0.92183286 -7.62089300 0.27404895
0.88830715 -7.59708309 0.46104375
0.95495248 -7.59263468 0.52148211
0.82693523 -7.60003567 0.40244195
0.76929116 -7.60304165 0.34701630
0.81780678 -7.61312866 0.28330475
0.77812868 -7.59557390 0.46455333
0.84125233 -7.58791828 0.52219743
0.71898139 -7.59950209 0.40871552
0.66136146 -7.60332060 0.35438702
0.71209562 -7.60743666 0.29185134
0.66631973 -7.60075045 0.46806288
0.72788560 -7.59167099 0.52395523
0.60889387 -7.60430861 0.41400710
0.55178922 -7.60752726 0.36106670
0.60609347 -7.60862398 0.30199817
0.55506849 -7.60554504 0.47280291
0.61453098 -7.59884167 0.52666467
0.49720612 -7.60836983 0.41949877
0.44374442 -7.61117029 0.36871013
0.49890938 -7.61385536 0.31081751
0.49993378 -7.60105371 0.52844673
0.44116828 -7.60681248 0.47573662
0.38640943 -7.61052752 0.42445701
0.39027056 -7.61253357 0.31765482
0.33245072 -7.61217690 0.37304407
0.38357273 -7.60330248 0.52996814
0.32729241 -7.61003637 0.47866431
0.27323061 -7.61013985 0.42701495
0.28104985 -7.61537123 0.32262516
0.22147819 -7.61202526 0.37631723
0.26822388 -7.60234499 0.53166533
0.21308315 -7.60217476 0.47965837
0.16001540 -7.60101795 0.42726952
0.15054747 -7.58864641 0.53065312
0.09767370 -7.59151888 0.47809452
0.10791144 -7.60369635 0.37476549
0.04408469 -7.59561062 0.42552987
0.16995613 -7.61384964 0.32467392
0.23127954 -7.62183809 0.27361858
0.12260433 -7.61737728 0.27328518
0.05895941 -7.60879993 0.32295248
0.18433382 -7.62725735 0.22446653
0.19995409 -7.64241076 0.12673220
0.24474193 -7.63452482 0.17341726
0.13849737 -7.63336134 0.17487805
0.29109967 -7.62608719 0.22035082
0.07545860 -7.62120819 0.22167829
0.01078326 -7.61373425 0.26918161
0.03092535 -7.62819672 0.16905910
-0.03390760 -7.61990499 0.21498647
0.09451572 -7.64124060 0.12502894
0.15516627 -7.65029621 0.08004714
0.05053404 -7.64912081 0.07517982
-0.01281991 -7.63566446 0.11442751
0.11262724 -7.65906191 0.03282262
0.17182912 -7.66848087 -0.00934062
0.21465912 -7.65877676 0.03270139
0.07105195 -7.66438913 -0.01521413
0.00838900 -7.65580702 0.02204541
0.13104787 -7.67229986 -0.05503159
0.19068620 -7.67787600 -0.09278817
0.22856399 -7.67833662 -0.05703186
0.09445508 -7.67290020 -0.09987397
0.03296198 -7.67124557 -0.06897893
0.15438436 -7.67662716 -0.13444833
0.21105257 -7.68343449 -0.17535079
0.24600878 -7.68579245 -0.14154623
0.12027673 -7.68323469 -0.18153949
0.05897154 -7.68147659 -0.15425704
0.08923015 -7.69323587 -0.23129164
0.02837955 -7.69116879 -0.21563497
0.06990027 -7.70460081 -0.30282849
0.00683120 -7.70275879 -0.28843868
0.05420726 -7.71667576 -0.37515944
-0.01418980 -7.71429300 -0.36050290
0.12116776 -7.71836090 -0.38623974
0.04238750 -7.73242950 -0.45269710
0.11529424 -7.73273849 -0.46093458
0.18689173 -7.73372030 -0.45668554
0.18894657 -7.71866941 -0.38306350
0.25853774 -7.73167086 -0.44941184
0.25090036 -7.71729326 -0.37267423
0.32334036 -7.72310066 -0.43159124
0.30858687 -7.71190500 -0.35547191
0.28936610 -7.70073938 -0.28488672
0.26459914 -7.69224787 -0.21924153
0.36623096 -7.70640707 -0.33339018
0.33360231 -7.69992733 -0.26230186
0.29371214 -7.69033241 -0.20174220
0.38112387 -7.69886112 -0.23057030
0.33391148 -7.69552135 -0.16904691
0.28347439 -7.68858099 -0.10754775
0.37688696 -7.69112062 -0.13238138
0.32549825 -7.68297958 -0.07027000
0.27070299 -7.67028189 -0.01657795
0.31392696 -7.66031599 0.02430027
0.36867374 -7.67427540 -0.03145874
0.25758001 -7.64874554 0.07481007
0.30227694 -7.63989496 0.12031315
0.35826018 -7.65175152 0.06513605
0.40515137 -7.64308405 0.10950564
0.34936810 -7.62877321 0.16591321
0.45323661 -7.63119078 0.15459049
0.39732003 -7.61993456 0.21205881
0.34046993 -7.61867428 0.26893312
0.44733879 -7.61450386 0.26055017
0.50234622 -7.62478399 0.20174834
0.55309850 -7.61749840 0.25095496
0.60627532 -7.63125753 0.19015890
0.55586857 -7.64117432 0.14172208
0.65872478 -7.61868048 0.24062628
0.71079236 -7.63779163 0.17895739
0.65852475 -7.65036964 0.12850820
0.76352066 -7.62405062 0.23007335
0.81301826 -7.64021683 0.16424026
0.76062334 -7.65365458 0.11348193
0.86676484 -7.62994194 0.21804142
0.91377723 -7.64651442 0.15119609
0.86163086 -7.65546131 0.09630387
0.96818453 -7.63803434 0.20696115
1.01268137 -7.65551567 0.13797612
0.96174127 -7.66194630 0.08133823
1.06740391 -7.64558697 0.19555356
1.10948837 -7.66363811 0.12611394
1.05940890 -7.67169380 0.06682113
1.16338038 -7.65056372 0.18489152
1.20503449 -7.66266251 0.11357285
1.15629458 -7.67477846 0.05331021
1.25795066 -7.65531588 0.17384762
1.29873192 -7.66412926 0.10226831
1.25239229 -7.67041492 0.04092674
1.34763551 -7.66146183 0.16198541
1.38633764 -7.67083311 0.09232758
1.34510779 -7.67306948 0.03160427
1.43134367 -7.66881466 0.14890487
1.46855474 -7.68452597 0.08533876
1.43480480 -7.68489504 0.02593685
1.52270138 -7.70625019 0.03203464
1.49349141 -7.71078968 -0.03468947
1.40066075 -7.69041777 -0.03584115
1.46567547 -7.71745157 -0.09757670
1.54410434 -7.75449276 -0.14369197
1.43064058 -7.72833109 -0.16356133
1.50814188 -7.76706362 -0.21134958
1.58628571 -7.79973459 -0.26008338
1.46700907 -7.77603531 -0.28191057
1.54241312 -7.80597210 -0.33689368
1.61961746 -7.83100557 -0.39002204
1.49450970 -7.81077814 -0.41244322
1.56733167 -7.83670282 -0.47205731
1.63377690 -7.87981796 -0.52385211
1.50988758 -7.84114075 -0.55151039
1.57550240 -7.88174009 -0.60937876
1.61652613 -7.96176958 -0.64741415
1.50689936 -7.88840103 -0.68983197
1.54581368 -7.96610212 -0.73101330
1.58727980 -8.04494381 -0.77180058
1.46885169 -7.97041941 -0.81134522
1.50763273 -8.04931355 -0.85539967
1.53079343 -8.14262962 -0.88231844
1.42302740 -8.05507946 -0.93430722
1.44349074 -8.14761925 -0.96294743
1.45074630 -8.24807930 -0.97604620
1.35324228 -8.15358257 -1.04172170
1.36169183 -8.25382710 -1.05655992
1.36499536 -8.35721588 -1.06386399
1.26840067 -8.26065826 -1.13332784
1.27098882 -8.36424732 -1.14052272
1.26777625 -8.46884918 -1.14008033
1.17154515 -8.37164783 -1.21085954
1.16711426 -8.47648716 -1.20891380
1.16146505 -8.58127689 -1.20502234
1.06144547 -8.48376656 -1.27120697
1.05502045 -8.58829498 -1.26701248
1.04724967 -8.69259357 -1.25969028
0.94658154 -8.59482479 -1.32706904
0.93699843 -8.69867992 -1.31739509
0.92857307 -8.80277920 -1.30906057
0.82729292 -8.70443249 -1.37739098
0.81760669 -8.80857944 -1.36631072
0.80659312 -8.91236973 -1.35125411
0.70031214 -8.81119156 -1.40992868
0.68978351 -8.91528511 -1.39565408
0.68037009 -9.01957130 -1.38299167
0.57045841 -8.91538715 -1.43445325
0.56119657 -9.01959515 -1.42193627
0.55180132 -9.12327671 -1.40815866
0.44198659 -9.01794147 -1.46089303
0.43251261 -9.12148190 -1.44665480
0.42268705 -9.22427177 -1.43121636
0.31006587 -9.11656570 -1.47232497
0.30067065 -9.21931267 -1.45749259
0.29109362 -9.32109642 -1.44157529
0.17740563 -9.21202850 -1.47531927
0.16834381 -9.31347084 -1.45978379
0.15926377 -9.41229630 -1.44363022
0.03755655 -9.40088844 -1.45692289
0.04569703 -9.30420876 -1.47394323
0.02976155 -9.49358082 -1.44267845
-0.09070310 -9.48479748 -1.45742595
-0.08373853 -9.39239693 -1.47325838
-0.09674028 -9.56901550 -1.44384229
-0.21112533 -9.47781467 -1.46733642
-0.21673821 -9.56398392 -1.45317090
-0.22126608 -9.63873959 -1.44199955
-0.33684525 -9.55870438 -1.44287860
-0.34115490 -9.63659382 -1.43221045
-0.34469479 -9.70792389 -1.42118478
-0.46066794 -9.63391495 -1.42033005
-0.46388048 -9.70671272 -1.40951037
-0.46660814 -9.77702522 -1.39798152
-0.58315706 -9.70411682 -1.39913929
-0.58512706 -9.77268505 -1.38710737
-0.58726674 -9.83822727 -1.37702727
-0.70455521 -9.83159637 -1.36243141
-0.70310044 -9.76634407 -1.37279034
-0.70648879 -9.89455032 -1.35364234
-0.58959430 -9.90154457 -1.36935961
-0.82074052 -9.88859749 -1.33020282
-0.81975859 -9.82402992 -1.33976769
-0.70648879 -9.89455032 -1.35364234
-0.82074052 -9.88859749 -1.33020282
-0.82742625 -9.94336796 -1.34453809
-0.93712586 -9.93775558 -1.30984855
-0.93221003 -9.88057899 -1.30017447
-0.95701939 -9.94676781 -1.37520278
-1.06324577 -9.94216728 -1.33148789
-1.04255819 -9.93307590 -1.26531529
-1.08451533 -9.94941139 -1.39867866
-1.18740785 -9.94483471 -1.34219837
-1.16615057 -9.93760967 -1.27610469
-1.20958066 -9.95168495 -1.41050446
-1.31149125 -9.94631481 -1.33634901
-1.28836083 -9.93972588 -1.27219498
-1.33831310 -9.95204163 -1.39435089
-1.44345450 -9.94507790 -1.29391301
-1.41675985 -9.93991280 -1.24151206
-1.47187638 -9.94994450 -1.34375608
-1.58573413 -9.94266510 -1.22864974
-1.55743337 -9.93819809 -1.18438327
-1.61616254 -9.94667721 -1.27160704
-1.73439658 -9.93981075 -1.14469910
-1.70496833 -9.93650723 -1.10838521
-1.77039528 -9.94236755 -1.17767322
-1.90197659 -9.93157196 -1.03733933
-1.87597311 -9.93381596 -1.00385594
-1.92729521 -9.91512203 -1.07265913
-2.03809190 -9.85202885 -0.94198102
-2.03164244 -9.88257790 -0.91025543
-2.03900099 -9.81530857 -0.97040290
-2.12613392 -9.73535824 -0.86118829
-2.13142586 -9.76721191 -0.83019626
-2.11973906 -9.69872856 -0.89186519
-2.19905305 -9.62472534 -0.80288357
-2.20884204 -9.65791798 -0.77047312
-2.18957877 -9.59104824 -0.83656687
-2.26040053 -9.52837849 -0.76199317
-2.27252936 -9.56445694 -0.73039496
-2.24869013 -9.49222851 -0.79548866
-2.31733561 -9.44293118 -0.73520774
-2.33096766 -9.48135471 -0.70334291
-2.30614614 -9.39848995 -0.76715750
-2.37145185 -9.35793877 -0.72379410
-2.38562918 -9.40192699 -0.69173527
-2.35707998 -9.31104088 -0.75629544
-2.44204903 -9.28979588 -0.72265452
-2.42174935 -9.24979591 -0.74860960
-2.40454102 -9.19805622 -0.77740133
-2.48827362 -9.18896294 -0.79390657
-2.46642184 -9.13948441 -0.81092095
-2.44618893 -9.07316780 -0.83584559
-2.50814271 -9.06062603 -0.88336700
-2.53344345 -9.10698891 -0.87511748
-2.56358075 -9.00295639 -0.95908022
-2.53412223 -8.96093273 -0.95805585
-2.59573627 -9.02980232 -0.96431732
-2.56219244 -9.14140701 -0.87228072
-2.64336109 -9.04659843 -0.96440822
-2.59573627 -9.02980232 -0.96431732
-2.56219244 -9.14140701 -0.87228072
-2.60479832 -9.17296791 -0.86335832
-2.65434432 -8.92013931 -1.04250956
-2.61904240 -8.90653229 -1.04100037
-2.67030406 -8.91205406 -1.01583946
-2.65468979 -9.03203869 -0.93502253
-2.64365816 -9.00587940 -0.90741265
-2.66166043 -8.89429951 -0.98237425
-2.62811041 -8.97884464 -0.88170624
-2.64740396 -8.87007236 -0.95332187
-2.65569019 -8.76574993 -1.01435435
-2.62758279 -8.83919525 -0.92540902
-2.60945940 -8.93967724 -0.85346603
-2.59289360 -8.89739227 -0.83179647
-2.56827235 -8.98366356 -0.75516802
-2.58143139 -9.03520966 -0.77441907
-2.55762219 -8.92463207 -0.73763233
-2.53898358 -8.98500252 -0.66014314
-2.54516006 -9.05579948 -0.67670900
-2.53299475 -8.90242958 -0.64907497
-2.52296281 -8.94224644 -0.57191914
-2.52520585 -9.03610134 -0.58179927
-2.52012610 -8.83875942 -0.57253742
-2.51525903 -8.84111786 -0.51246268
-2.51590133 -8.95225906 -0.50708020
-2.51325893 -8.71993160 -0.53308976
-2.49875355 -8.71532440 -0.48207074
-2.50182652 -8.83863163 -0.45917675
-2.49540186 -8.58149433 -0.51696634
-2.45580220 -8.58085823 -0.49604839
-2.46161532 -8.70916080 -0.45821908
-2.42025232 -8.70048714 -0.44550824
-2.41639090 -8.57481003 -0.48161614
-2.37893748 -8.69209766 -0.43170640
-2.37906480 -8.56914711 -0.46368647
-2.39234543 -8.44968319 -0.49036273
-2.36829972 -8.44751930 -0.45719472
-2.35139441 -8.56666851 -0.43420979
-2.37154865 -8.45085812 -0.41840160
-2.36406898 -8.56764317 -0.39190111
-2.37379146 -8.33899498 -0.44907236
-2.38669014 -8.34532356 -0.40633935
-2.38723588 -8.45593739 -0.37773550
-2.38381076 -8.24213409 -0.43899828
-2.40249252 -8.25220871 -0.39294970
-2.40752339 -8.35356617 -0.36314568
-2.39869809 -8.16043282 -0.42831808
-2.42137384 -8.16886425 -0.37463206
-2.42569542 -8.26158524 -0.34410074
-2.41760349 -8.08047485 -0.40669093
-2.41105103 -8.08123302 -0.47783989
-2.44507384 -8.08127022 -0.34664047
-2.44738936 -8.17390060 -0.31878820
-2.44901347 -7.98520851 -0.36572182
-2.47797537 -7.98657179 -0.29954925
-2.47176242 -8.08339787 -0.29007530
-2.49158287 -7.88208580 -0.29546386
-2.45892429 -7.87578201 -0.37520185
-2.50817919 -7.77098513 -0.28725672
-2.48032093 -7.75530481 -0.36481258
-2.52273250 -7.66859627 -0.28172871
-2.50089931 -7.64056206 -0.35975736
-2.48670363 -7.62214708 -0.42639661
-2.51651955 -7.55508995 -0.35661149
-2.54026222 -7.54905891 -0.43137303
-2.55405188 -7.61112118 -0.46610495
-2.60227060 -7.56457043 -0.43220952
-2.62970448 -7.62182045 -0.44847232
-2.67378354 -7.58460903 -0.42490548
-2.58643222 -7.67237282 -0.49140534
-2.55652523 -7.73825455 -0.54732800
-2.66806102 -7.68018007 -0.46912959
-2.71235824 -7.64213800 -0.43626457
-2.62921953 -7.73355675 -0.51791191
-2.59802771 -7.79988098 -0.58561194
-2.52529645 -7.80800867 -0.60823917
-2.74579883 -7.72075415 -0.47280285
-2.79446006 -7.69684219 -0.45103627
-2.79404807 -7.80590582 -0.52045768
-2.84367251 -7.79866743 -0.50977749
-2.80841970 -7.90092993 -0.61681008
-2.75867343 -7.89801455 -0.62233198
-2.85597754 -7.90296078 -0.61556137
-2.81490493 -7.98449278 -0.72949189
-2.85857773 -7.98699713 -0.73853546
-2.89552212 -7.88830471 -0.62876320
-2.89401913 -7.77673244 -0.52749503
-2.88944864 -7.97444248 -0.76073241
-2.86739731 -8.05559349 -0.85232645
-2.87898064 -8.03751183 -0.87825114
-2.90022564 -7.86202860 -0.66302836
-2.88410234 -7.94017124 -0.78925133
-2.88944864 -7.97444248 -0.76073241
-2.89552212 -7.88830471 -0.62876320
-2.87898064 -8.03751183 -0.87825114
-2.87894416 -8.01385975 -0.90790981
-2.87595582 -8.11209202 -0.98273796
-2.87610745 -8.09403610 -1.01512408
-2.87254333 -7.91192484 -0.82381356
-2.87396169 -7.99166965 -0.94132030
-2.86511183 -8.07817936 -1.04989851
-2.84284854 -8.18731403 -1.09977186
-2.81809354 -8.17720985 -1.12781203
-2.86773062 -7.97192669 -0.97998601
-2.84056902 -8.06569099 -1.08376372
-2.78479218 -8.17030716 -1.14984524
-2.75926113 -8.28518867 -1.17977047
-2.72314119 -8.28021240 -1.19439065
-2.80531001 -8.05875874 -1.11198556
-2.74420476 -8.16578960 -1.17010856
-2.67903233 -8.27686596 -1.20578611
-2.65418077 -8.39169979 -1.20688319
-2.60928965 -8.38877201 -1.19627571
-2.69388294 -8.16594124 -1.18795347
-2.62481928 -8.27856255 -1.20476174
-2.56359267 -8.39029980 -1.16967213
-2.56012535 -8.49264717 -1.14551747
-2.51826525 -8.49287605 -1.11415565
-2.56008935 -8.28803730 -1.18126774
-2.51063991 -8.39680386 -1.12979400
-2.46834350 -8.49833107 -1.07534432
-2.48450923 -8.58489990 -1.06322157
-2.43703008 -8.58969498 -1.02569520
-2.45312333 -8.40590096 -1.08432126
-2.41517878 -8.50508499 -1.03258717
-2.38325906 -8.59810925 -0.98863572
-2.41420913 -8.67387009 -0.98226523
-2.34766078 -8.69360733 -0.96640241
-2.34074473 -8.51777649 -1.00921428
-2.32291770 -8.62115479 -1.00471663
-2.30647969 -8.72406387 -0.99911594
-2.33713222 -8.79136562 -0.95260668
-2.29456878 -8.82845592 -0.98711437
-2.28016067 -8.64610958 -1.04670405
-2.26327348 -8.75313568 -1.04104877
-2.25078130 -8.86218643 -1.02907753
-2.28654337 -8.93515396 -0.96857846
-2.24128294 -8.97274780 -1.00917184
-2.21846747 -8.78050900 -1.09030998
-2.20421124 -8.89361477 -1.07741737
-2.19331264 -9.00866699 -1.05556595
-2.23483968 -9.08286381 -0.98272580
-2.18023229 -9.12183380 -1.03382361
-2.15361643 -8.92317104 -1.13404310
-2.13480163 -9.04311371 -1.11987758
-2.11917543 -9.16059113 -1.10172355
-2.16982484 -9.22861671 -1.01101446
-2.10435534 -9.27004719 -1.08438194
-2.07481790 -9.07887077 -1.19433606
-2.05363941 -9.19649124 -1.18715334
-2.03715205 -9.30695629 -1.17496383
-2.09683323 -9.36726665 -1.06214869
-2.02847838 -9.40502834 -1.15724623
-1.98740625 -9.22308445 -1.28455424
-1.96853709 -9.33875370 -1.27769268
-1.95901453 -9.43440342 -1.26038742
-2.02459884 -9.48840427 -1.13541305
-1.95204985 -9.52065754 -1.24056041
-1.91232944 -9.34255409 -1.37672424
-1.89215708 -9.45397472 -1.37209928
-1.88214362 -9.53745937 -1.35773373
-1.87650037 -9.61034203 -1.33854938
-1.95211673 -9.58921719 -1.21585405
-1.82295382 -9.54291439 -1.47798622
-1.84339905 -9.44574451 -1.47982895
-1.80841851 -9.62715054 -1.46808803
-1.80177522 -9.69663811 -1.44852769
-1.87340915 -9.67982960 -1.31674039
-1.78065121 -9.53036785 -1.58282459
-1.75569022 -9.63219357 -1.58571589
-1.73950028 -9.71454430 -1.57675099
-1.79321659 -9.76441669 -1.43219829
-1.72505581 -9.78903770 -1.56769526
-1.71680617 -9.62056732 -1.68581414
-1.69057238 -9.71875668 -1.69034815
-1.69087553 -9.59966850 -1.76827979
-1.65376747 -9.71974945 -1.78714287
-1.66525388 -9.57527637 -1.84025908
-1.62582433 -9.70180321 -1.86430490
-1.59651744 -9.66374302 -1.92477965
-1.63047945 -9.53383350 -1.90052783
-1.54581368 -9.77407265 -1.96253014
-1.45454073 -9.83277798 -2.03493977
-1.48714519 -9.69334030 -2.00226879
-1.53355134 -9.60287380 -1.95777798
-1.38662255 -9.76325893 -2.04498982
-1.31133974 -9.87397099 -2.08816528
-1.25981772 -9.82090378 -2.07543635
-1.40788603 -9.64799595 -1.97993255
-1.32051671 -9.71589470 -2.01556754
-1.20938659 -9.77527332 -2.04836583
-1.11433744 -9.86942482 -2.10361552
-1.07991469 -9.82797050 -2.07985497
-1.26587915 -9.67198086 -1.98470271
-1.16570199 -9.73112774 -2.01749492
-1.04575264 -9.78049755 -2.04792333
-0.94229013 -9.87567997 -2.11230779
-0.92158437 -9.83681393 -2.08709836
-1.11030662 -9.68361759 -1.97904146
-1.01152968 -9.73783684 -2.01319742
-0.90408504 -9.79622078 -2.05785203
-0.77449185 -9.85172558 -2.10948920
-0.78775430 -9.88767624 -2.13481379
-0.95661938 -9.71010113 -1.98810935
-0.85939419 -9.76603031 -2.03340030
-0.75344664 -9.81706047 -2.08389783
-0.63405484 -9.85661602 -2.13403797
-0.64067996 -9.88845730 -2.15629554
-0.82124358 -9.73692894 -2.00954843
-0.72076344 -9.78296471 -2.06677437
-0.61680406 -9.81927299 -2.12444878
-0.70225185 -9.74567509 -2.07259941
-0.61559778 -9.78820133 -2.13966918
-0.50461924 -9.84844017 -2.19693732
-0.50349796 -9.82235241 -2.22381377
-0.50557697 -9.87975883 -2.18798470
-0.50963813 -9.91343689 -2.20076227
-0.37594137 -9.88953018 -2.24977469
-0.37500793 -9.85073757 -2.24765325
-0.37710518 -9.92462063 -2.24517393
-0.51328105 -9.94471264 -2.21824336
-0.37737191 -9.95853424 -2.24725318
-0.23779558 -9.91499424 -2.25693941
-0.24126272 -9.87332153 -2.24838662
-0.23670453 -9.95488548 -2.25960636
-0.23440725 -9.98645401 -2.24177361
-0.37763861 -9.99087143 -2.23226929
-0.08982419 -9.89871979 -2.25013232
-0.08119879 -9.94103336 -2.25684834
-0.07505857 -9.97700882 -2.24369502
-0.23177658 -9.99851418 -2.20397472
-0.07236730 -9.99520493 -2.20656300
0.08778147 -9.91804981 -2.24598622
0.09953456 -9.96043587 -2.22997808
0.10252283 -9.98981094 -2.19624043
-0.07340381 -9.99890804 -2.16300559
0.09935877 -9.99775028 -2.15070081
0.27678865 -9.92316437 -2.19499779
0.28424421 -9.95591545 -2.15939283
0.28320163 -9.98098564 -2.11619902
0.27296391 -9.99135017 -2.06741095
0.09032726 -9.99710274 -2.10187602
0.45797059 -9.88730049 -2.08250380
0.45559451 -9.91373444 -2.03086042
0.45163640 -9.93844604 -1.98026574
0.42257792 -9.96927452 -1.93521738
0.25585857 -9.99137402 -2.01575541
0.58469671 -9.84062099 -1.92856205
0.57234955 -9.88085079 -1.87599123
0.55120730 -9.92703819 -1.82697248
0.49957612 -9.96820736 -1.78797948
0.37235907 -9.98358631 -1.88810813
0.65731853 -9.88590050 -1.74203384
0.68497682 -9.82737637 -1.78469419
0.62159860 -9.94596195 -1.70257401
0.57505292 -9.97519016 -1.65788925
0.44853291 -9.97869968 -1.74224591
0.73409855 -9.91359425 -1.62329674
0.76502997 -9.85139275 -1.66144729
0.70145178 -9.96043587 -1.58064854
0.66779870 -9.97473526 -1.53569090
0.53910875 -9.97540283 -1.61378634
0.82420158 -9.93006229 -1.51136041
0.84374964 -9.88453007 -1.54963827
0.80078626 -9.96028614 -1.46759093
0.64963263 -9.97097301 -1.49262464
0.78360218 -9.96583748 -1.42583382
0.92980355 -9.93535519 -1.41169858
0.94506019 -9.90161610 -1.44895816
0.91628057 -9.95518303 -1.37135386
0.76770306 -9.96278954 -1.38505864
0.90226048 -9.95771503 -1.33087564
1.05619633 -9.91186619 -1.35929155
1.04786181 -9.93759823 -1.32314122
1.03714526 -9.94949627 -1.28372383
0.88831311 -9.95757675 -1.29100370
1.02483451 -9.95025349 -1.24406993
1.17509711 -9.92352390 -1.27673495
1.16908419 -9.93993664 -1.23737824
1.16016185 -9.94022179 -1.19677889
1.01227534 -9.94675732 -1.20517993
1.14913607 -9.93093014 -1.15862823
1.29707110 -9.92505741 -1.18880200
1.29305840 -9.91597080 -1.14586294
1.28654242 -9.89318466 -1.10957325
1.13833463 -9.91163158 -1.12392056
1.27618337 -9.86790371 -1.07552612
1.41037118 -9.86903763 -1.09654117
1.40319443 -9.83743954 -1.05745709
1.39461756 -9.80361080 -1.01726389
1.51874328 -9.80650139 -1.05432940
1.51053011 -9.76856995 -1.01047504
1.40319443 -9.83743954 -1.05745709
1.41037118 -9.86903763 -1.09654117
1.61621702 -9.74265003 -1.01874280
1.60340321 -9.70236015 -0.97127581
1.70575619 -9.68675137 -0.99693376
1.68537784 -9.64443111 -0.94970936
1.66003501 -9.59578705 -0.89606577
1.63127351 -9.55617046 -0.84691972
1.59996629 -9.52914810 -0.78801489
1.66395068 -9.49099255 -0.78966361
1.66159272 -9.49406528 -0.73241955
1.61860514 -9.54136848 -0.72570348
1.73075354 -9.45900631 -0.79034853
1.71334517 -9.44613171 -0.73258924
1.70675635 -9.53782940 -0.71105909
1.75394452 -9.49167156 -0.70354289
1.76783133 -9.39892578 -0.72921300
1.79424691 -9.41912270 -0.78776032
1.79830205 -9.43802738 -0.68547988
1.80753958 -9.53650665 -0.66639853
1.84028947 -9.47840309 -0.64818400
1.81075823 -9.33805084 -0.70954370
1.84282303 -9.37092209 -0.66095537
1.88457417 -9.41243744 -0.61920434
1.89485443 -9.51990509 -0.59492224
1.92459774 -9.45570946 -0.57577425
1.92186999 -9.33608627 -0.59382516
1.88231325 -9.29765701 -0.63761282
1.96223903 -9.37562656 -0.54897064
1.98053861 -9.49053192 -0.51238388
2.00998497 -9.40942955 -0.49216300
1.99641955 -9.28397560 -0.52565843
1.95629883 -9.25014877 -0.57313144
2.04180169 -9.31444740 -0.47012976
2.06508923 -9.43731880 -0.42225662
2.09327507 -9.34425163 -0.40264189
2.06952643 -9.21552467 -0.45165455
2.02647185 -9.18758869 -0.50566787
2.12113953 -9.24532223 -0.38292408
2.17474675 -9.27921295 -0.30758670
2.15007043 -9.37099457 -0.32522544
2.14891291 -9.15066147 -0.36070296
2.09563303 -9.11917210 -0.43510690
2.20019245 -9.17531872 -0.28752950
2.23017812 -9.29186153 -0.22670920
2.24684119 -9.18656349 -0.21621688
2.21213341 -9.06179523 -0.28726280
2.16178083 -9.04739380 -0.36034533
2.25748491 -9.07492447 -0.21641690
2.28971338 -9.18385410 -0.13972175
2.29530811 -9.07574749 -0.13786089
2.26592827 -8.96441269 -0.21772617
2.21949196 -8.95576859 -0.29359090
2.30150914 -8.96710968 -0.13899438
2.28457332 -8.96547985 -0.06353578
2.28385186 -9.07350636 -0.06004440
2.27508116 -8.85991859 -0.22090237
2.31065559 -8.86189651 -0.13879438
2.28514910 -8.85753059 -0.06629979
2.26290393 -8.96267319 0.00280041
2.26907444 -8.85406971 0.00027279
2.32070541 -8.75788212 -0.13605459
2.28580999 -8.75103760 -0.06607550
2.27509308 -8.74555302 0.00024855
2.30839467 -8.85191345 0.06242660
2.31586218 -8.74138165 0.05988080
2.28342795 -8.64413261 -0.06451774
2.28332472 -8.63729000 0.00248522
2.32673669 -8.63114929 0.06168104
2.36561441 -8.73393822 0.11554281
2.37496138 -8.62369442 0.11530642
2.29623532 -8.52843285 0.00474007
2.34113836 -8.52152824 0.06396619
2.39101219 -8.51163673 0.12157999
2.43282962 -8.60792255 0.17887859
2.44467378 -8.49583435 0.18878296
2.35752249 -8.41161633 0.07020945
2.40870500 -8.40051746 0.12973259
2.46025157 -8.38405609 0.20034209
2.49589252 -8.47329235 0.27175772
2.50573611 -8.36028862 0.28716585
2.42621660 -8.28732681 0.14358296
2.47661114 -8.26809406 0.21842331
2.51256752 -8.24652195 0.30405298
2.53006101 -8.33875847 0.37894788
2.52210236 -8.22852516 0.39510760
2.49044347 -8.15287971 0.23505583
2.51411343 -8.13243389 0.32276458
2.51316166 -8.12314796 0.41178259
2.48267293 -8.21967030 0.47254226
2.46347618 -8.11528111 0.48077971
2.51067042 -8.02228069 0.34207019
2.50279641 -8.01835918 0.42873636
2.44571614 -8.01074505 0.48990214
2.43780613 -8.10358238 0.55144382
2.44855881 -8.00090218 0.56780958
2.48963737 -7.91320515 0.44284132
2.44394040 -7.90557289 0.50780153
2.46477342 -7.89919662 0.58462399
2.48299384 -7.99091148 0.64427441
2.49740195 -7.89152336 0.66113120
2.45809364 -7.80238914 0.52817398
2.48289061 -7.79734087 0.60052311
2.51537418 -7.79279423 0.67272675
2.50339675 -7.87223577 0.75482863
2.50158429 -7.76933146 0.76109612
2.50160241 -7.69544268 0.61151242
2.53324914 -7.69196892 0.68104899
2.50737286 -7.66787529 0.75661075
2.47036791 -7.74009657 0.85668474
2.48854589 -7.63919878 0.84925950
2.55169988 -7.58938551 0.68669224
2.51289487 -7.56900072 0.75279808
2.49270439 -7.53325033 0.83072364
2.53766775 -7.62228680 0.92586368
2.54427481 -7.52659464 0.91189820
2.52185988 -7.46134424 0.75090694
2.50861549 -7.43358231 0.82480770
2.55133057 -7.43186092 0.90258789
2.54933000 -7.51716375 0.98863584
2.55796766 -7.42212677 0.97329438
2.55898595 -7.33870363 0.89490807
2.52133226 -7.33413887 0.82214069
2.56615663 -7.33356953 0.96393549
2.55361533 -7.40709400 1.03683007
2.56650805 -7.32246494 1.02900481
2.56715083 -7.25022459 0.89631432
2.57378197 -7.25024891 0.96619642
2.57950974 -7.24193859 1.02861083
2.58813548 -7.31764603 1.08206046
2.61690903 -7.24661875 1.06839192
2.58182526 -7.16948128 0.97408843
2.59562111 -7.16612816 1.03677559
2.64833117 -7.17878485 1.06113648
2.67114663 -7.26113605 1.08986759
2.69637418 -7.18850708 1.09512877
2.62728000 -7.09839249 1.03734529
2.68302083 -7.11220026 1.05725718
2.71253991 -7.12021351 1.11606503
2.71482491 -7.19215679 1.16256225
2.71938324 -7.12498426 1.18472266
2.70898175 -7.04594326 1.07253790
2.71685553 -7.05536890 1.13653445
2.72300792 -7.06387234 1.20868361
2.72537208 -7.12962723 1.25461090
2.72871780 -7.06989145 1.28107512
2.71951056 -6.99643326 1.16473830
2.72512960 -7.00744057 1.23390508
2.73212433 -7.01737595 1.30743015
2.73744607 -7.09587669 1.34386539
2.74393797 -7.05180407 1.36814129
2.72685099 -6.95210028 1.26658213
2.73628259 -6.97264194 1.33391857
2.74829602 -7.00759220 1.39469647
2.74014950 -6.92558718 1.36175859
2.74951458 -6.95602179 1.42188787
2.75970984 -6.99984646 1.46752441
2.75792193 -7.04927111 1.44268453
2.75367856 -7.09292555 1.41877842
2.74782944 -7.13196087 1.39495707
2.76846266 -7.09942293 1.48304760
2.76441336 -7.14522934 1.45607436
2.75616384 -7.18576193 1.42550659
2.77222037 -7.20462465 1.48133838
2.75986147 -7.25023699 1.44104815
2.74693227 -7.28825378 1.39073837
2.73467612 -7.31621552 1.33178484
2.76549864 -7.31603956 1.45138276
2.75018144 -7.35900974 1.39293253
2.73375487 -7.39162540 1.32863295
2.72241426 -7.33298731 1.26670337
2.71989846 -7.41367102 1.26030862
2.75316930 -7.42950344 1.40153360
2.73260331 -7.47197580 1.33148789
2.71678901 -7.49060869 1.27020693
2.70428419 -7.42065430 1.19775474
2.68983364 -7.49803972 1.20839858
2.73226380 -7.54173660 1.35050249
2.71060634 -7.56715822 1.28580296
2.67774749 -7.57550430 1.23067427
2.62013364 -7.56588554 1.19150543
2.64128804 -7.49075413 1.16414416
2.66301799 -7.64759302 1.25865388
2.70619965 -7.64131403 1.31137609
2.60230684 -7.63814306 1.22124875
2.53363109 -7.61873531 1.19857299
2.55700970 -7.54880428 1.16987228
2.58296490 -7.70478868 1.25185287
2.64967084 -7.71471739 1.28987622
2.51113701 -7.68548346 1.22809219
2.49675345 -7.63234854 1.14632368
2.47058034 -7.69698811 1.17799449
2.49314094 -7.75012255 1.25984800
2.56244683 -7.76903343 1.28261471
2.44262481 -7.75509310 1.21566021
2.41398478 -7.80041361 1.26586080
2.47592616 -7.81393766 1.29356158
2.42505312 -7.84497166 1.21887887
2.44449162 -7.89526367 1.18001306
2.38294435 -7.88255739 1.26872790
2.39794612 -7.85770559 1.30875754
2.40123725 -7.92934084 1.23536587
2.41908240 -7.97856569 1.21011400
2.46097279 -7.95431852 1.15140915
2.35114574 -7.96109629 1.29176736
2.33610129 -7.91417456 1.32369292
2.36730552 -8.01132774 1.26771569
2.38414431 -8.06242466 1.24515510
2.43671513 -8.02860832 1.18218911
2.31145597 -8.03999233 1.32706308
2.29726624 -7.98979044 1.34879315
2.32456040 -8.09039879 1.30677545
2.34005332 -8.14786720 1.28646362
2.40063763 -8.12213612 1.22364306
2.25949097 -8.10901928 1.37046278
2.24565911 -8.05747223 1.39085948
2.27291131 -8.16408062 1.35046625
2.28679776 -8.22542286 1.33125758
2.35476446 -8.21291161 1.26738226
2.20189571 -8.17825890 1.41554773
2.18850589 -8.12227440 1.43539882
2.21533990 -8.23386002 1.39606619
2.22876573 -8.29453564 1.37878513
2.30062413 -8.28968525 1.31286728
2.13967490 -8.23855114 1.46521485
2.12695193 -8.18571377 1.48295665
2.15330100 -8.29711056 1.44733989
2.16503000 -8.35462284 1.43092549
2.24204636 -8.36007023 1.36302543
2.07222390 -8.29443169 1.51550055
2.06278014 -8.24389744 1.53244817
2.08426785 -8.34898949 1.50025594
2.09584475 -8.40867138 1.48939395
2.17636466 -8.41789150 1.41580832
1.99908054 -8.34608746 1.56762266
1.99120080 -8.29620743 1.58343077
2.01066995 -8.39909363 1.55674851
2.02181077 -8.45851421 1.54635310
2.10531306 -8.47207355 1.47960472
1.92529500 -8.39234161 1.62623048
1.91554213 -8.34446335 1.63975358
1.93724787 -8.44968319 1.61453187
1.95167434 -8.50752640 1.60797346
2.03540039 -8.51986122 1.54332840
1.85031497 -8.44689369 1.68398368
1.84206557 -8.39540291 1.69731879
1.86435938 -8.50158691 1.67363083
1.88414383 -8.55870342 1.67131531
1.97060382 -8.56487942 1.60994351
1.76110911 -8.44739151 1.75906646
1.75227761 -8.40617466 1.77223182
1.67067885 -8.45759296 1.83636785
1.68352902 -8.49145222 1.81940186
1.62410891 -8.52929878 1.88279223
1.65164590 -8.55793953 1.85456419
1.65847719 -8.63227177 1.87385774
1.71375132 -8.64984322 1.83913183
1.61153150 -8.61297131 1.90769243
1.63354659 -8.68757534 1.92765272
1.68163788 -8.69948006 1.89164186
1.59369874 -8.58733082 1.95585656
1.60854316 -8.49922848 1.91506922
1.60571253 -8.67111969 1.97282267
1.62216330 -8.74009132 1.99398899
1.65602231 -8.75180721 1.95060742
1.62312090 -8.64697552 2.01267624
1.61108899 -8.56743240 1.99130976
1.64149916 -8.71899223 2.03377628
1.64620888 -8.79216480 2.01825285
1.66904223 -8.76806545 2.05719757
1.65548885 -8.63344097 2.04078317
1.67844343 -8.69323730 2.06460452
1.70596838 -8.74354076 2.08751655
1.69437289 -8.81167603 2.07896399
1.72906840 -8.78636360 2.11189556
1.71730328 -8.67150593 2.09248710
1.74509490 -8.71557903 2.11850262
1.76266086 -8.75790119 2.14697933
1.74424624 -8.82669640 2.13603830
1.76720703 -8.79828739 2.17934108
1.72530437 -8.89039040 2.12346697
1.71229053 -8.84996128 2.10007572
1.75318074 -8.86778069 2.16197515
1.76671600 -8.84696674 2.20784783
1.75357485 -8.91184807 2.19005156
1.75995755 -8.89556122 2.23603964
1.76067877 -8.83346176 2.26364923
1.75497496 -8.87568474 2.29369593
1.74780440 -8.79971218 2.31278920
1.74364007 -8.84639740 2.34486032
1.74924695 -8.91790295 2.32371807
1.73820305 -8.88885212 2.37515521
1.75319910 -8.94076061 2.26574063
1.74625874 -8.95930862 2.22018909
1.74745882 -8.98722172 2.30042410
1.74351895 -8.96010971 2.35374641
1.74175501 -9.00838757 2.25455117
1.73020196 -9.02196503 2.21134543
1.73125064 -8.97501373 2.17809844
1.71242380 -9.03288841 2.17069149
1.71291482 -8.98582745 2.13499594
1.73064446 -8.93184471 2.14960980
1.70908403 -8.94634914 2.10478568
1.70464706 -8.90829659 2.08275843
1.72952914 -8.95418644 2.06215572
1.72481334 -8.91537571 2.04087400
1.68780231 -8.87224197 2.06243443
1.71374512 -8.87878323 2.02281117
1.66878760 -8.83435249 2.04104376
1.69617927 -8.84143257 2.00192952
1.67558253 -8.79703903 1.97665334
1.72840166 -8.80118465 1.94145465
1.74485850 -8.84007454 1.97106457
1.70757473 -8.75561428 1.91509950
1.76434588 -8.76049995 1.88128293
1.78356063 -8.80265141 1.91062629
1.74089432 -8.71120262 1.85513389
1.81303740 -8.72328949 1.81372237
1.82805753 -8.76345158 1.84505987
1.78156042 -8.66451740 1.79568350
1.85497022 -8.67428207 1.74503422
1.87929463 -8.72645378 1.76931632
1.93250799 -8.68419933 1.69123924
1.95204985 -8.73123550 1.72454667
1.90785623 -8.62285805 1.67643726
1.98750305 -8.63412476 1.62222993
2.00782132 -8.69461346 1.64582705
2.06972027 -8.65089703 1.56999254
2.09564519 -8.71156693 1.59775388
2.05218458 -8.58044052 1.54991114
2.13419580 -8.60630417 1.49252164
2.15801716 -8.67395496 1.51716733
2.11947227 -8.53877926 1.48132622
2.20367146 -8.56070328 1.41612339
2.22171021 -8.63362980 1.43418646
2.18738437 -8.48910141 1.41145015
2.26801944 -8.50726604 1.34153771
2.28377938 -8.58544636 1.34756887
2.25444794 -8.43088627 1.34855688
2.32926393 -8.43955994 1.28402698
2.34392691 -8.52440262 1.27518332
2.31478333 -8.35931873 1.29796207
2.38363504 -8.36118031 1.23478997
2.39692783 -8.44593048 1.22170353
2.36920905 -8.27746582 1.24853122
2.43108392 -8.27051926 1.18710482
2.44398260 -8.35993099 1.17306066
2.41684556 -8.18929100 1.20375562
2.46559143 -8.17307568 1.14055920
2.47711420 -8.26570129 1.12569046
2.45209289 -8.09593201 1.15985274
2.49004936 -8.08824635 1.09506226
2.50022054 -8.17610073 1.07667172
2.47693253 -8.01807404 1.12209606
2.50671840 -8.01286125 1.05394149
2.51320434 -8.09900665 1.02453148
2.51578021 -8.01639462 0.97319126
2.50576067 -8.11235809 0.94018686
2.47567177 -8.03077793 0.89147729
2.45645118 -8.13233757 0.86869848
2.47896314 -8.05230808 0.79003942
2.49092865 -8.15343094 0.78495997
2.46310663 -7.95021009 0.79499769
2.51225853 -7.97372866 0.72109079
2.50154781 -8.07475376 0.70524621
2.45184422 -7.84754086 0.84017950
2.46927714 -8.09114456 0.62878144
2.49269843 -8.17591381 0.69277787
2.45722699 -8.19280624 0.61480987
2.43519974 -8.20822048 0.53601748
2.44857097 -8.29627419 0.60201418
2.44588590 -8.31328297 0.52376127
2.50282693 -8.32444096 0.46237725
2.46658564 -8.41833878 0.51611781
2.52356911 -8.43147945 0.45086664
2.53130364 -8.44987011 0.36311546
2.53983164 -8.54002190 0.44065312
2.53134561 -8.56010342 0.34904689
2.49189830 -8.58536816 0.25821653
2.53128505 -8.67037392 0.33731198
2.48775196 -8.69721985 0.24939716
2.42191291 -8.72159290 0.17422949
2.48467898 -8.80978012 0.24680893
2.42025828 -8.83261204 0.17673284
2.36084414 -8.84517288 0.11788252
2.42127657 -8.94378471 0.18195173
2.35925007 -8.95520592 0.12480467
2.30382466 -8.96176910 0.06705752
2.35872245 -9.06497860 0.13434535
2.30106664 -9.07005787 0.07642847
2.25775170 -9.07145119 0.00971043
2.25656962 -9.17793274 0.01731751
2.30058742 -9.17603493 0.08697534
2.28345799 -9.18122864 -0.05624387
2.25778770 -9.28074074 0.02411843
2.28579783 -9.28131008 -0.05583172
2.28129411 -9.28778267 -0.14440724
2.28883433 -9.37854195 -0.05529831
2.27320814 -9.38623810 -0.14898968
2.21201825 -9.38689327 -0.23985034
2.26209140 -9.47523212 -0.15357210
2.19599795 -9.47446823 -0.24859697
2.12829161 -9.46283722 -0.34015471
2.18302035 -9.55428505 -0.25497967
2.10733771 -9.54593372 -0.35440511
2.04025555 -9.52312946 -0.44025910
2.08997130 -9.61938000 -0.36517623
2.02053165 -9.58796787 -0.45433369
1.95727503 -9.55572224 -0.52852547
2.00051689 -9.65087414 -0.46696568
1.93251407 -9.61801624 -0.54492772
1.86865687 -9.57844734 -0.61114872
1.91491759 -9.67299843 -0.55375308
1.84145927 -9.63490295 -0.62655073
1.77009821 -9.58747768 -0.68317658
1.76103044 -9.63305378 -0.68383116
1.82800901 -9.68067837 -0.63106042
1.68960261 -9.58550262 -0.71065903
1.67459452 -9.63190842 -0.70956796
1.74901664 -9.67870808 -0.68610424
1.60356081 -9.59720039 -0.71722353
1.66360509 -9.67333317 -0.70816779
1.65448880 -9.70786476 -0.70708883
1.73726964 -9.72264099 -0.68723160
1.72416484 -9.76367092 -0.68773472
1.64531791 -9.74147415 -0.70590079
1.70598054 -9.80309391 -0.68876517
1.59879041 -9.71158504 -0.70700401
1.68262589 -9.83786869 -0.68795896
1.64734232 -9.86580658 -0.68027920
1.72938371 -9.90555668 -0.63718855
1.68989968 -9.92815399 -0.62917531
1.76182449 -9.86944866 -0.63746130
1.79219222 -9.93811321 -0.53797525
1.82745147 -9.92004967 -0.55307424
1.78850675 -9.82238770 -0.63629752
1.85349727 -9.87611103 -0.56402117
1.93059850 -9.90822983 -0.46746272
1.90038860 -9.93825912 -0.44482329
1.86955404 -9.82503700 -0.56794894
1.80508482 -9.77569675 -0.63697642
1.94671595 -9.86166096 -0.47734889
2.03336978 -9.88461494 -0.36911619
2.01153660 -9.92936707 -0.35428387
1.95899630 -9.81261158 -0.48239201
1.88559246 -9.77477551 -0.56525159
2.04768062 -9.83386898 -0.37547466
2.13286209 -9.85415077 -0.26398692
2.11555076 -9.90346622 -0.25476751
1.97149491 -9.75952625 -0.47909459
2.05850673 -9.78157711 -0.37641412
2.14366961 -9.80055428 -0.26722980
2.22423792 -9.81609058 -0.15760295
2.21149111 -9.87282658 -0.15162639
2.15214348 -9.74468708 -0.26759955
2.06684089 -9.72894478 -0.37556553
2.23371220 -9.75587654 -0.16083369
2.29164100 -9.75919819 -0.05525588
2.28547049 -9.82304955 -0.05038250
2.16098690 -9.68869209 -0.26522344
2.24047637 -9.69348621 -0.16145195
2.29616284 -9.69357681 -0.05693489
2.28851938 -9.69094658 0.04898236
2.29300475 -9.75671196 0.05352237
2.24901700 -9.62654972 -0.15929407
2.29455066 -9.62354946 -0.05644391
2.27739668 -9.62034321 0.04657597
2.32817316 -9.61616135 0.13317549
2.33485866 -9.68578148 0.13804281
2.29387784 -9.54939461 -0.05551046
2.26778913 -9.54821777 0.04343616
2.32053566 -9.54156971 0.12625335
2.38789606 -9.53640556 0.19556567
2.39443064 -9.61157894 0.20271209
2.31360126 -9.46266651 0.11680359
2.26631021 -9.46837139 0.03719896
2.37964702 -9.45778847 0.18669176
2.45742083 -9.45342350 0.24736053
2.46691298 -9.53750801 0.25811952
2.37184596 -9.36756325 0.17287777
2.30686712 -9.37388039 0.10818426
2.44689226 -9.36344719 0.23444968
2.52181149 -9.35488987 0.29804006
2.53583145 -9.45284271 0.31279960
2.43689680 -9.26535034 0.21826570
2.36617804 -9.27398205 0.15928201
2.50908852 -9.25239086 0.28207427
2.57919502 -9.32921886 0.37283191
2.56658721 -9.22585869 0.35615087
2.49775934 -9.14507294 0.26735106
2.42814398 -9.16302109 0.20293030
2.55348229 -9.11648750 0.34273696
2.60453773 -9.19301224 0.43562821
2.59259057 -9.08441639 0.42499042
2.49071622 -9.03533173 0.25571314
2.54532981 -9.00495815 0.33426914
2.58164358 -8.97484493 0.41900173
2.61115074 -9.04927921 0.51167482
2.58920836 -8.94452477 0.50799549
2.53923798 -8.89320946 0.32937759
2.57199359 -8.86468983 0.41658932
2.56281686 -8.84026337 0.50617099
2.54215956 -8.92618942 0.58654547
2.51246428 -8.82518673 0.58025974
2.56039810 -8.75592327 0.42028069
2.53734684 -8.73511505 0.50714087
2.48298168 -8.72196865 0.57424682
2.47655654 -8.80820942 0.65256643
2.46654916 -8.70224953 0.64821434
2.51371956 -8.62905312 0.51009274
2.45699024 -8.61633587 0.57299817
2.46138501 -8.59360027 0.65054804
2.49060702 -8.67524052 0.72238797
2.49023128 -8.56902504 0.72335774
2.44546151 -8.50846100 0.57926565
2.46406388 -8.48608208 0.65753078
2.49588037 -8.46265984 0.73188615
2.51289487 -8.54195499 0.80311394
2.49235892 -8.43871212 0.81704307
2.47094989 -8.38051033 0.66752607
2.50158429 -8.35862160 0.74262702
2.47771454 -8.33617592 0.82195884
2.47998142 -8.41709042 0.90806735
2.48332715 -8.31291294 0.91498953
2.50609422 -8.25499630 0.76150835
2.46241522 -8.23415089 0.82819003
2.49173450 -8.21154213 0.92175406
2.51984739 -8.29151630 0.98204094
2.51741672 -8.19293308 1.00160718
2.51749539 -8.37281132 1.04265511
2.51792598 -8.38965034 0.96734810
2.50980997 -8.27313137 1.05908775
2.53230953 -8.47295761 1.02981102
2.52295089 -8.49390125 0.95571619
2.49191642 -8.52231598 0.88862234
2.53660703 -8.59556961 0.94462383
2.52147794 -8.62115479 0.87207466
2.52152061 -8.64634514 0.79634333
2.55334902 -8.72070122 0.86410391
2.52818799 -8.75077724 0.79669487
2.49669909 -8.78066635 0.72786140
2.54104424 -8.84902191 0.80966026
2.50801563 -8.88308620 0.73705655
2.49366212 -8.91198158 0.65939158
2.52219939 -8.97814178 0.75093722
2.52033854 -9.01002502 0.66908979
2.57413936 -9.02299023 0.59601343
2.55463386 -9.09903145 0.68116421
2.60998654 -9.11320305 0.60730582
2.63091063 -9.15008068 0.51959103
2.64411259 -9.20407581 0.61894375
2.64855552 -9.24902058 0.53168958
2.61829090 -9.29411125 0.45171523
2.66564894 -9.34739685 0.54884946
2.63106823 -9.39243889 0.46767494
2.59089351 -9.42886353 0.38920379
2.64799762 -9.48291302 0.48981127
2.60351324 -9.52213001 0.40691528
2.54573584 -9.53782177 0.32426175
2.55255461 -9.61743927 0.33547536
2.61550283 -9.60367489 0.42503282
2.47329569 -9.61210632 0.26507196
2.48020577 -9.68789768 0.27153954
2.55993152 -9.68946075 0.34635565
2.40244389 -9.68495178 0.20858561
2.41047525 -9.75567627 0.21503496
2.48695803 -9.75599861 0.28015888
2.34212065 -9.75587082 0.14268586
2.34623027 -9.82015133 0.15159008
2.41611862 -9.82184982 0.22423014
2.29518700 -9.81820488 0.06189319
2.29553843 -9.87949848 0.07170663
2.34832764 -9.88316059 0.16151868
2.26861382 -9.88234138 -0.03904763
2.23395443 -9.92665672 -0.01855397
2.27987576 -9.93151855 0.08909078
2.18389297 -9.91957092 -0.13580000
2.14365149 -9.94559860 -0.11042690
2.19056058 -9.94654942 0.00948009
2.08556461 -9.93902302 -0.23350406
2.04528666 -9.94724751 -0.20715506
2.09913015 -9.94652557 -0.08402944
1.97668958 -9.94830894 -0.32796523
1.93920588 -9.94744682 -0.30309522
2.00440836 -9.94688988 -0.18269116
1.86536562 -9.94991493 -0.42009270
1.82954872 -9.94820499 -0.39821705
1.90109146 -9.94768333 -0.27793425
1.75337481 -9.94250774 -0.52157301
1.79350138 -9.94399357 -0.37684450
1.82467520 -9.93733025 -0.23788646
1.75804818 -9.93684006 -0.35743582
1.86249244 -9.94398594 -0.25717387
1.79388940 -9.91334057 -0.22485439
1.72798955 -9.91170311 -0.34382796
1.79275572 -9.87014008 -0.22604850
1.72909272 -9.86861229 -0.34594944
1.72798955 -9.91170311 -0.34382796
1.79388940 -9.91334057 -0.22485439
1.73655438 -9.82367897 -0.34547663
1.80001736 -9.82634640 -0.22865489
1.74695575 -9.77711010 -0.34254900
1.80750930 -9.78069878 -0.22900040
1.84953916 -9.86907291 -0.10620818
1.85494590 -9.82553387 -0.10702645
1.86128616 -9.78092289 -0.10659608
1.81605601 -9.73460007 -0.22809120
1.86866915 -9.73520088 -0.10495950
1.90163112 -9.82529736 0.01639617
1.90926850 -9.78023815 0.01729326
1.91576016 -9.73353481 0.01671742
1.87617314 -9.68903732 -0.10279559
1.92517352 -9.68469810 0.01612946
1.94191527 -9.78039551 0.14000064
1.94997072 -9.73154068 0.13925509
1.95720196 -9.68085384 0.13897021
1.93520522 -9.63495731 0.01559607
1.96378493 -9.62878609 0.13903686
1.96900368 -9.72704887 0.26202914
1.97616839 -9.67693806 0.26207158
1.98333275 -9.62684155 0.26212007
1.97037351 -9.57672501 0.13909750
1.99055803 -9.57550049 0.26330811
1.98849130 -9.66661072 0.38817942
1.99487412 -9.61904716 0.39091921
2.00306869 -9.55797195 0.39225873
2.00038362 -9.49789047 0.26359299
2.01179147 -9.48407650 0.39382261
2.00034118 -9.61568165 0.52904075
2.00954843 -9.54776287 0.53105313
2.01857424 -9.47763348 0.53273821
2.02088976 -9.40467167 0.39436206
2.02803588 -9.39023399 0.53028339
2.01481581 -9.54575729 0.67243576
2.03055167 -9.46905613 0.67160529
2.04189229 -9.37944984 0.66708356
2.04861450 -9.28466225 0.65836722
2.03730989 -9.29509926 0.52362186
2.04410458 -9.46316433 0.80833274
2.05604553 -9.37179565 0.80308968
2.06281614 -9.27566147 0.79288828
2.06311321 -9.17365932 0.77623755
2.05203938 -9.18538189 0.64538360
2.06895065 -9.26236820 0.92179042
2.06288290 -9.36282349 0.93539226
2.07024789 -9.15759087 0.90401840
2.06590176 -9.05098820 0.88075465
2.06127071 -9.06871128 0.75582880
2.06702924 -9.14011574 1.02758646
2.06363487 -9.24861336 1.04768610
2.06121016 -9.02726269 1.00026166
2.05708241 -8.91593266 0.96997875
2.06310701 -8.94157791 0.85368437
2.04326797 -9.00920677 1.11633778
2.04812336 -9.12453079 1.14503860
2.03957677 -8.89511299 1.08597004
2.03884935 -8.78338909 1.05786324
2.05942178 -8.80507660 0.94290239
2.00152326 -8.88200760 1.19441497
2.00376606 -8.99722958 1.22486138
2.00157785 -8.76568317 1.16747189
2.00053549 -8.65403080 1.14297163
2.04017711 -8.67274380 1.03317511
1.94554591 -8.75488758 1.26619422
1.94557643 -8.86822414 1.29276752
1.94729769 -8.64086628 1.24536109
1.94538832 -8.53130054 1.22466743
1.99852276 -8.54358673 1.11912608
1.88284671 -8.63256741 1.34356225
1.88011289 -8.74265480 1.36122525
1.88235581 -8.52213478 1.32589316
1.88418615 -8.41375732 1.31041229
1.94607317 -8.42309093 1.20722878
1.81417680 -8.51509285 1.42407608
1.81207967 -8.62385178 1.43899930
1.81705010 -8.40557289 1.40872252
1.82100821 -8.29574108 1.39261127
1.88685334 -8.30599689 1.29430711
1.74492514 -8.39377117 1.50070453
1.74068832 -8.50318718 1.51593685
1.74942267 -8.28422451 1.48536921
1.75423551 -8.17484570 1.46973073
1.82547545 -8.18670845 1.37617266
1.67230928 -8.27194405 1.57305360
1.66540539 -8.38117123 1.58634031
1.67979527 -8.16249847 1.56020951
1.68663859 -8.05348492 1.54568636
1.76006651 -8.06617641 1.45385587
1.60158467 -8.15013313 1.64714849
1.67979527 -8.16249847 1.56020951
1.67230928 -8.27194405 1.57305360
1.59388661 -8.25932980 1.65970170
1.60774314 -8.04107094 1.63254654
1.68663859 -8.05348492 1.54568636
1.60710061 -7.93346214 1.61072540
1.68800843 -7.94537306 1.52595043
1.52293777 -8.02922058 1.71321797
1.51665819 -8.13822937 1.72753489
1.52221644 -7.92158842 1.69091189
1.51238489 -7.81778526 1.65778017
1.59772360 -7.82902431 1.57967877
1.43277419 -7.91090775 1.76555824
1.43254983 -8.01833439 1.78728855
1.42300320 -7.80765200 1.73220837
1.40317023 -7.71159601 1.68481410
1.48858166 -7.72265244 1.61030710
1.32825708 -7.79922056 1.79707766
1.33688855 -7.90199709 1.83187628
1.31176388 -7.70196390 1.75036836
1.28742743 -7.61389160 1.69175446
1.37379658 -7.62352324 1.62409687
1.21675122 -7.69446039 1.81074011
1.23182595 -7.79103136 1.85848594
1.19489980 -7.60728502 1.75264132
1.14635992 -7.56558847 1.66700566
