17.53630000 81.71460000 -8.07690000
17.61390000 80.36510000 -7.79730000
17.52120000 79.57180000 -7.25460000
17.87720000 82.34230000 -9.11020000
17.76570000 79.93270000 -8.02590000
17.73260000 77.34000000 -6.96350000
15.11920000 77.35300000 -7.11150000
15.14410000 77.04000000 -6.65450000
14.70130000 76.79070000 -6.74370000
14.54120000 76.81220000 -6.87880000
15.08120000 76.69330000 -6.28990000
14.51220000 76.48340000 -6.51940000
13.92840000 76.26480000 -6.60680000
17.46300000 69.92420000 -12.08690000
18.37980000 69.06220000 -12.49510000
18.15990000 68.73760000 -12.95110000
17.67600000 68.98410000 -12.94990000
18.95160000 68.35490000 -12.93330000
18.36270000 68.23680000 -13.38140000
17.64730000 68.07040000 -13.89050000
17.20920000 68.36900000 -15.29260000
17.14050000 67.69900000 -15.42470000
17.33220000 67.91920000 -15.40320000
17.43610000 68.32390000 -15.32160000
17.07560000 67.11240000 -15.49240000
17.37180000 67.65400000 -15.48300000
17.64190000 68.29320000 -15.41350000
18.35680000 67.64040000 -13.94980000
18.12310000 67.32660000 -14.30750000
17.67270000 67.32690000 -14.51260000
19.09920000 67.20860000 -13.92560000
18.40510000 66.90800000 -14.49800000
17.67870000 66.57940000 -15.10390000
17.44320000 88.73850000 -11.12320000
17.37840000 90.74560000 -11.80680000
17.69110000 89.90680000 -11.73010000
17.84140000 88.46100000 -11.32590000
17.17600000 93.38860000 -12.62030000
17.73720000 91.03540000 -12.16420000
18.32900000 88.45030000 -11.65940000
21.96600000 86.86560000 -11.92580000
22.27970000 87.77740000 -12.04730000
22.54670000 86.68730000 -11.64310000
22.38050000 85.74350000 -11.45370000
22.60900000 88.96410000 -12.24800000
22.85430000 86.91080000 -11.56750000
23.00430000 84.40200000 -10.81490000
21.99750000 81.17130000 -13.80130000
22.69790000 80.99790000 -13.87970000
22.50460000 80.70890000 -13.92450000
22.06630000 80.67630000 -13.91630000
23.42450000 80.81720000 -13.93040000
22.86520000 80.48300000 -13.96990000
22.30940000 80.20090000 -13.95400000
19.03990000 72.90550000 -12.59400000
19.38530000 72.84040000 -13.31580000
19.87290000 72.70760000 -13.02330000
20.00780000 72.64640000 -12.54210000
19.76800000 72.81220000 -14.00020000
20.29930000 72.60220000 -13.31100000
20.94290000 72.38190000 -12.59110000
19.97190000 74.18050000 -17.12340000
19.67960000 73.23170000 -17.30870000
19.73610000 73.92220000 -17.65640000
19.93540000 74.78400000 -17.63540000
19.27000000 71.72210000 -17.46830000
19.58070000 73.62480000 -17.85740000
19.87300000 75.71330000 -18.14040000
22.71160000 72.24620000 -12.45170000
23.06090000 72.50400000 -12.69590000
23.24310000 72.20220000 -12.48200000
23.20990000 71.83000000 -12.22100000
23.41560000 72.82420000 -12.85760000
23.52330000 72.18730000 -12.46550000
23.69850000 71.34640000 -11.90240000
18.91190000 103.13080000 -17.63290000
19.80840000 102.39000000 -17.11990000
19.73870000 101.01750000 -16.61660000
19.21350000 100.92640000 -16.71500000
20.82610000 101.50180000 -16.53020000
20.20010000 99.93560000 -16.11250000
19.51950000 98.30740000 -15.67650000
-12.42120000 61.12960000 5.86210000
-11.89320000 60.27010000 6.52450000
-11.43690000 59.86630000 6.43800000
-11.52510000 60.15130000 6.06030000
-11.04920000 59.07970000 7.23850000
-10.94210000 59.26050000 6.65390000
-10.50990000 59.09010000 6.19470000
9.56630000 -10.56520000 -20.21200000
10.29460000 -11.31970000 -19.57600000
10.18400000 -13.39940000 -19.39080000
9.82390000 -14.04740000 -19.57750000
10.96960000 -12.73740000 -18.84550000
10.48700000 -15.10040000 -18.91510000
10.06210000 -17.41740000 -18.91370000
5.90710000 93.04820000 11.71900000
6.15280000 91.75290000 11.59980000
5.97340000 92.06610000 11.70710000
5.73950000 92.83140000 11.85750000
6.39400000 90.36690000 11.49240000
5.95050000 91.73180000 11.78310000
5.52340000 92.78060000 12.12790000
14.06460000 35.41830000 -19.99870000
13.99920000 37.64470000 -20.04150000
14.15400000 37.79690000 -20.34330000
14.25360000 36.84330000 -20.49450000
13.95750000 39.50040000 -20.10120000
14.19640000 39.00950000 -20.51480000
14.48450000 38.48020000 -21.03330000
17.01070000 24.95210000 -20.28200000
17.35720000 23.63210000 -19.78290000
17.27240000 22.63620000 -19.91210000
17.09830000 22.61100000 -20.19430000
17.68270000 22.61690000 -19.40090000
17.43190000 21.61140000 -19.71990000
17.21020000 19.88090000 -20.09160000
12.16990000 18.41280000 -20.48760000
13.03810000 17.09430000 -19.90670000
12.15240000 17.01180000 -20.51850000
11.34220000 17.41410000 -21.07590000
13.77600000 16.51320000 -19.34560000
12.08400000 16.68500000 -20.55470000
10.14260000 16.77350000 -21.86760000
10.95370000 91.50580000 -12.67590000
11.37380000 90.23520000 -12.36400000
11.15090000 90.04520000 -12.33250000
10.79590000 90.88710000 -12.52690000
11.72550000 89.03920000 -12.13960000
11.15870000 89.51580000 -12.22510000
10.50480000 90.32820000 -12.35080000
10.38480000 88.74520000 -12.39240000
11.16260000 88.77500000 -12.22600000
11.31770000 88.25060000 -12.24740000
11.02370000 88.00500000 -12.36970000
11.70580000 88.08830000 -12.18880000
11.57050000 87.26850000 -12.32020000
10.01880000 87.06030000 -13.04330000
10.55790000 86.52260000 -12.81490000
10.08570000 85.81880000 -13.24530000
9.58670000 85.62380000 -13.61750000
11.06820000 85.89270000 -12.58940000
10.07840000 85.15260000 -13.36620000
9.04120000 83.98080000 -14.29130000
8.55670000 79.82000000 -12.99040000
7.74190000 78.15620000 -13.55040000
7.99200000 78.66060000 -13.74720000
8.56190000 79.79550000 -13.52290000
6.82650000 76.25760000 -14.02380000
7.67980000 78.05370000 -14.06980000
8.44960000 79.73540000 -14.06370000
11.22280000 72.78490000 -12.43480000
12.16190000 72.68750000 -11.97570000
12.69520000 72.36800000 -12.25570000
12.31400000 72.31430000 -12.62700000
13.28050000 72.52290000 -11.36440000
13.51060000 72.12310000 -12.06250000
13.48910000 71.75500000 -12.77880000
5.84740000 72.70430000 -14.18740000
6.82120000 72.29410000 -14.42950000
6.40890000 72.10880000 -14.66780000
5.65190000 72.20290000 -14.68380000
8.30280000 71.80100000 -14.72740000
6.59530000 71.81600000 -14.93270000
5.33250000 71.78360000 -15.10470000
12.82870000 67.60820000 -16.63300000
13.97410000 66.30240000 -16.84470000
12.94900000 66.07770000 -17.21390000
11.70870000 66.39260000 -17.41890000
15.19320000 64.87400000 -17.03670000
12.95490000 65.39020000 -17.46980000
10.88140000 65.33990000 -18.02380000
14.02690000 110.22920000 -11.89910000
12.01450000 111.30600000 -13.40180000
12.21580000 110.73500000 -13.29040000
12.94310000 110.05320000 -12.78210000
10.36060000 111.89330000 -14.63630000
11.37470000 110.91880000 -13.95940000
12.10030000 109.85050000 -13.52700000
15.94630000 99.97540000 -14.41990000
16.23380000 100.72020000 -15.27680000
16.61490000 99.98080000 -15.18650000
16.66100000 99.29720000 -14.79260000
16.38820000 101.53030000 -16.01340000
16.86650000 100.18910000 -15.58110000
17.48400000 98.22490000 -14.96960000
16.56090000 71.40310000 -17.86820000
16.87870000 70.77580000 -18.07980000
16.86490000 70.01970000 -17.95550000
16.71770000 69.82640000 -17.80590000
17.21100000 70.57230000 -18.24310000
17.01460000 69.49770000 -17.97250000
16.80960000 68.63150000 -17.71810000
17.18180000 68.94760000 -17.94200000
17.14520000 68.24650000 -17.79900000
17.37860000 69.27980000 -18.05160000
17.58440000 68.36350000 -17.90210000
11.30120000 106.88670000 -17.30380000
12.10040000 106.66690000 -18.21510000
12.33100000 106.50460000 -17.53740000
12.15410000 106.48820000 -16.72930000
12.91680000 106.46140000 -19.23250000
12.79930000 106.33370000 -17.73840000
12.89190000 106.08790000 -16.37420000
-20.18480000 -43.46010000 8.45640000
-20.54070000 -38.73560000 8.34020000
-20.84900000 -39.69960000 7.90150000
-20.84950000 -41.51400000 7.76710000
-21.02920000 -35.01090000 8.00020000
-21.22220000 -37.81220000 7.55590000
-21.44510000 -39.60180000 7.13910000
-23.85410000 81.27110000 10.34600000
-24.77160000 83.00430000 9.78940000
-24.67760000 82.08970000 8.81580000
-24.21190000 80.86920000 8.61700000
-25.47840000 84.33190000 9.22600000
-25.05580000 82.48290000 8.06020000
-24.58650000 80.69480000 7.00750000
-0.98860000 72.38290000 -15.60020000
-0.05720000 72.14870000 -15.81210000
0.13320000 71.95800000 -15.66280000
-0.33890000 71.99400000 -15.55970000
0.80130000 71.93930000 -16.03220000
0.67270000 71.76560000 -15.73010000
0.22900000 71.49050000 -15.66760000
6.19010000 70.60480000 -15.96280000
7.54010000 70.22390000 -16.10930000
7.05820000 69.40610000 -16.72770000
6.18520000 69.13550000 -16.98950000
8.80200000 69.81410000 -16.24800000
7.66120000 68.86420000 -17.02020000
6.13030000 67.62000000 -17.97410000
3.59710000 108.26040000 -18.85550000
3.91570000 109.25210000 -18.52740000
3.00780000 109.06790000 -18.84580000
2.39770000 108.50320000 -19.14390000
4.36600000 110.25100000 -18.16840000
2.60430000 109.35250000 -18.92170000
1.25810000 108.55380000 -19.48200000
10.21660000 116.63710000 -23.54750000
11.36780000 116.70370000 -22.73620000
11.59940000 116.36050000 -23.13430000
11.23080000 116.13400000 -23.69680000
12.43910000 116.75140000 -21.81760000
12.20560000 116.22930000 -22.90010000
12.10040000 115.55350000 -23.86290000
-7.29470000 -123.64360000 -14.96850000
-9.64230000 -123.40660000 -15.26210000
-9.02070000 -123.42490000 -15.55970000
-7.79030000 -123.51130000 -15.73850000
-11.78620000 -123.14650000 -15.30000000
-9.94120000 -123.28170000 -15.69480000
-8.32800000 -123.35300000 -16.12550000
0.09350000 85.23090000 0.17340000
0.01680000 83.66090000 -0.09850000
-0.17030000 84.35970000 -0.93040000
-0.19840000 85.46900000 -1.14160000
-0.08220000 81.77750000 -0.30700000
-0.30290000 83.73650000 -1.40570000
-0.48850000 85.68520000 -2.42090000
-17.74750000 115.39040000 2.62650000
-18.58480000 115.13190000 0.65550000
-19.40560000 114.99410000 0.84870000
-19.35030000 115.06740000 1.97810000
-19.31160000 114.83550000 -1.66080000
-20.19430000 114.75950000 -0.32420000
-20.91870000 114.68100000 0.94340000
1.20210000 79.46150000 -26.83670000
0.73830000 80.69470000 -27.20400000
1.09200000 81.51040000 -27.28720000
1.51270000 81.29050000 -27.13700000
0.17110000 82.10910000 -27.56800000
0.96760000 82.50360000 -27.48890000
1.66650000 83.30700000 -27.42640000
3.12310000 93.03990000 -26.54140000
3.51220000 89.81280000 -25.98070000
3.53350000 88.83010000 -26.11190000
3.32150000 89.85640000 -26.48240000
3.88490000 87.38980000 -25.31330000
3.71570000 86.93460000 -25.86210000
3.49090000 86.68850000 -26.39110000
-28.51830000 52.44860000 -10.59520000
-27.96170000 53.93230000 -11.23050000
-27.49590000 53.01440000 -11.57160000
-27.47150000 51.93490000 -11.49910000
-27.31020000 55.02600000 -11.88830000
-26.95800000 53.26350000 -12.04700000
-26.47860000 51.46790000 -12.30760000
-25.85640000 69.60940000 -3.68410000
-25.11390000 70.38530000 -4.14110000
-25.33260000 70.26900000 -4.56130000
-25.78580000 69.83870000 -4.55320000
-24.40790000 71.11360000 -4.69560000
-25.14290000 70.50420000 -5.05620000
-25.75100000 69.95900000 -5.35200000
-18.07150000 53.74440000 -21.47120000
-17.87250000 54.26560000 -21.46890000
-17.58080000 53.95340000 -21.60820000
-17.59190000 53.46170000 -21.65490000
-17.55870000 54.61190000 -21.55250000
-17.32290000 53.95930000 -21.66880000
-17.12920000 53.26350000 -21.79370000
-14.34150000 59.18390000 -21.67970000
-13.44690000 58.59170000 -22.29350000
-13.62450000 58.23910000 -22.39140000
-14.14390000 58.21610000 -22.18990000
-12.47280000 58.25750000 -22.81780000
-13.05030000 57.90820000 -22.77540000
-13.58020000 57.38950000 -22.82820000
-3.49550000 81.61110000 -26.69440000
-2.52530000 82.25180000 -27.11640000
-3.19570000 81.33000000 -26.86920000
-4.06130000 80.60050000 -26.51650000
-1.22570000 83.20360000 -27.58570000
-3.07030000 81.11610000 -26.90940000
-4.91200000 79.48020000 -26.23390000
-2.35800000 91.38410000 -28.09150000
-1.75080000 90.63370000 -28.20590000
-2.03040000 89.38660000 -27.98820000
-2.46800000 89.40260000 -27.83920000
-1.24110000 89.96990000 -28.26670000
-1.73130000 88.56310000 -27.97390000
-2.53820000 86.97180000 -27.48810000
-25.82900000 56.24190000 -15.14040000
-26.05200000 55.63280000 -15.25560000
-26.07840000 55.16310000 -15.14940000
-26.04720000 55.19200000 -15.10370000
-26.15910000 54.95690000 -15.28170000
-26.15620000 54.68450000 -15.14200000
-26.21370000 54.17820000 -15.11080000
-26.31280000 54.26570000 -15.70420000
-26.09630000 54.30210000 -15.27010000
-26.11200000 54.47450000 -15.27820000
-26.24260000 54.60770000 -15.51170000
-25.84130000 54.17070000 -14.84580000
-26.02940000 54.55580000 -15.10310000
-26.03190000 55.07330000 -15.06640000
-25.91010000 55.39330000 -15.00800000
-26.11080000 54.43250000 -15.03520000
-26.00620000 54.65540000 -14.98950000
-26.12910000 54.60930000 -15.13490000
-26.16260000 54.47850000 -15.12090000
-26.11390000 54.28710000 -15.08900000
-26.17890000 54.30250000 -15.12920000
-26.02730000 54.12910000 -15.02860000
-26.06800000 53.72760000 -14.98150000
-25.99370000 53.42260000 -14.89790000
-26.13880000 53.65640000 -15.02650000
-26.21580000 52.77200000 -14.98490000
-26.14200000 53.76930000 -15.02140000
-26.12620000 53.89660000 -15.03110000
-26.08520000 54.39640000 -15.05020000
-25.90060000 54.54020000 -14.90010000
-26.00580000 54.60930000 -15.03360000
-26.06830000 54.72930000 -15.09690000
-26.34440000 53.47330000 -15.47520000
-26.32170000 53.20290000 -15.33870000
-26.24310000 53.45840000 -15.11040000
-26.48020000 52.88170000 -15.87830000
-26.39840000 52.78240000 -15.39740000
-26.09430000 54.26820000 -15.21680000
-26.18920000 54.28630000 -15.32460000
4.85320000 105.10490000 17.42480000
4.79880000 105.41220000 18.01900000
4.62270000 105.20070000 17.91180000
4.58040000 104.87420000 17.51680000
3.95370000 106.67530000 21.56010000
3.79000000 106.85450000 20.85580000
3.86720000 106.64250000 20.68510000
4.01000000 106.43840000 20.93640000
3.57960000 106.96050000 20.08380000
3.80940000 106.59360000 20.26390000
4.08190000 106.19330000 20.36970000
-26.22230000 54.25390000 -15.28260000
-26.28330000 54.10510000 -15.40990000
-26.16710000 53.82980000 -15.02570000
-26.09290000 54.66170000 -15.10470000
-3.52620000 87.66640000 -19.50760000
-1.57350000 87.17700000 -19.43860000
-1.65590000 87.60350000 -19.44850000
-2.45190000 88.01580000 -19.47700000
0.15270000 86.82320000 -19.44420000
-0.83010000 87.71270000 -19.47880000
-1.56760000 88.63730000 -19.56520000
9.30960000 81.56160000 -11.59450000
9.43660000 82.25810000 -10.83150000
9.15150000 81.92620000 -11.00700000
8.89260000 81.35030000 -11.42540000
9.57290000 82.99370000 -10.11850000
8.99980000 82.02400000 -10.80870000
8.45290000 81.14240000 -11.35390000
1.99520000 20.49030000 16.80570000
1.34190000 20.42200000 17.48510000
1.72800000 20.39800000 17.76210000
2.28020000 20.45620000 17.58180000
0.74590000 20.42510000 18.12000000
1.55910000 20.38860000 18.18800000
2.36540000 20.43860000 18.35470000
3.51320000 20.57530000 17.92290000
3.08670000 20.55050000 17.52420000
4.77860000 20.75990000 17.48380000
3.33190000 20.59540000 17.08380000
-13.50960000 61.84350000 -17.57380000
-13.53080000 62.99810000 -17.39800000
-12.84120000 63.01680000 -17.55170000
-12.38000000 62.48790000 -17.73730000
-13.70250000 64.29740000 -17.19670000
-12.60370000 63.71330000 -17.51080000
-11.56200000 63.14690000 -17.82440000
-2.66720000 78.70860000 -9.19280000
-1.27250000 78.58750000 -8.57000000
-0.74030000 77.94720000 -9.05120000
-1.22910000 77.67410000 -9.60880000
0.23970000 78.39460000 -7.90900000
0.20930000 77.48710000 -9.06790000
0.12330000 76.58010000 -10.14870000
-7.17460000 75.09990000 -13.28370000
-8.23050000 74.41450000 -13.75520000
-9.48060000 75.14470000 -13.21290000
-9.73010000 75.82050000 -12.76180000
-9.19810000 73.89230000 -14.09290000
-10.47710000 75.16280000 -13.19580000
-11.65950000 76.44960000 -12.30680000
-0.70080000 77.05120000 -14.26120000
0.30200000 77.28720000 -13.61890000
0.26230000 78.16140000 -13.85100000
-0.44070000 78.34460000 -14.36190000
1.46550000 77.49030000 -12.84970000
0.61080000 78.61320000 -13.71360000
-0.41460000 79.70010000 -14.64250000
-5.30410000 77.04790000 -11.59330000
-6.19150000 76.84050000 -11.91360000
-6.16200000 77.26390000 -11.65450000
-5.75230000 77.54590000 -11.38530000
-6.95260000 76.72380000 -12.12210000
-6.61510000 77.34180000 -11.70960000
-6.26420000 77.87980000 -11.32850000
-5.56010000 79.91830000 -16.95710000
-6.96110000 79.69710000 -17.39420000
-6.95200000 79.09400000 -17.30020000
-5.88850000 79.09750000 -16.94300000
-8.91280000 79.20400000 -17.94410000
-7.49940000 78.61210000 -17.40380000
-5.92360000 78.06400000 -16.80400000
-4.73070000 70.55710000 -18.78930000
-6.50640000 69.36200000 -19.81820000
-6.28150000 69.07190000 -20.17060000
-5.28800000 69.44550000 -19.93030000
-8.43760000 68.20890000 -20.85740000
-7.00530000 68.39100000 -20.87010000
-5.90830000 68.40700000 -21.11980000
-2.79710000 77.09880000 -10.79300000
-2.63240000 77.89080000 -9.99560000
-1.70970000 77.46800000 -10.03000000
-1.33480000 76.86780000 -10.46450000
-6.48720000 72.48530000 -17.53730000
-8.09670000 72.46660000 -17.86870000
-8.23880000 72.08660000 -18.05430000
-7.43250000 71.94390000 -17.97480000
-9.62580000 72.47830000 -18.12950000
-9.04830000 71.89540000 -18.26540000
-8.27210000 71.35760000 -18.39730000
11.18420000 78.47870000 -4.36060000
10.95700000 77.00810000 -4.79620000
10.61840000 76.44870000 -4.48780000
10.54690000 76.72180000 -4.06670000
10.83420000 75.73280000 -5.33420000
10.42990000 75.54190000 -4.66190000
10.01820000 75.24190000 -3.86630000
11.54550000 81.05320000 -7.71090000
11.78340000 80.43260000 -8.12840000
11.80290000 79.95230000 -7.52820000
11.69210000 80.03530000 -6.97390000
12.14310000 79.77760000 -8.48950000
11.91570000 79.47580000 -7.30860000
11.76000000 79.25080000 -6.21730000
8.46370000 84.03470000 -10.24300000
8.50380000 84.84260000 -10.21540000
7.98140000 84.62030000 -10.49500000
7.81060000 83.96020000 -10.59340000
8.38970000 85.83360000 -10.31080000
7.71660000 84.97350000 -10.67760000
6.90480000 83.75370000 -11.12140000
16.50500000 83.78240000 1.19680000
16.03620000 84.13130000 0.56060000
15.74760000 84.00970000 1.00410000
15.81880000 83.80130000 1.52500000
15.64360000 84.44480000 0.04640000
15.34580000 84.16260000 0.88460000
15.07630000 83.87890000 1.79290000
20.04270000 73.20890000 -6.15450000
19.90340000 73.04730000 -6.23380000
19.67310000 73.22050000 -6.44850000
19.68020000 73.37890000 -6.48140000
19.87910000 72.74240000 -6.26750000
19.52960000 73.15370000 -6.52870000
19.16070000 73.49820000 -6.71600000
19.43950000 72.89860000 -6.87810000
19.26570000 73.12040000 -6.75550000
19.46120000 73.07160000 -6.64340000
19.62500000 72.87600000 -6.63410000
17.07180000 73.61570000 0.05410000
16.70550000 74.31650000 0.08410000
16.82410000 74.09380000 -0.62200000
17.05810000 73.58080000 -0.88330000
16.33000000 75.05080000 0.10520000
16.70810000 74.30790000 -1.06600000
17.10710000 73.44100000 -1.84710000
16.49570000 70.83660000 -16.66390000
16.63190000 71.07460000 -15.97470000
16.57030000 72.08120000 -15.96110000
16.45360000 72.42070000 -16.31030000
16.85400000 71.48630000 -15.19170000
16.66020000 72.71820000 -15.44000000
16.45680000 73.74180000 -15.84460000
18.12060000 69.37740000 -15.61290000
18.52130000 70.02960000 -15.98980000
18.56460000 70.47720000 -15.76180000
18.28030000 70.14320000 -15.43260000
18.97420000 70.90550000 -16.44490000
18.71100000 70.95650000 -15.76590000
18.34250000 70.80710000 -15.13580000
16.66940000 71.27470000 -1.85210000
16.81820000 71.25860000 -3.16110000
16.62420000 71.26990000 -3.50700000
16.44260000 71.29600000 -2.90400000
16.98080000 71.23240000 -4.28910000
16.65180000 71.25010000 -4.27550000
16.21400000 71.33900000 -3.93180000
15.08600000 76.25510000 -1.76970000
15.39950000 76.05870000 -2.79620000
15.41030000 76.16520000 -2.03760000
15.20600000 76.32300000 -1.17030000
15.72500000 75.84440000 -3.82490000
15.55820000 76.07770000 -2.28060000
15.39390000 76.30990000 -0.59790000
14.46110000 75.07710000 -2.73710000
14.45020000 75.38560000 -2.27900000
14.30210000 75.24710000 -1.87020000
14.25530000 74.97570000 -1.91190000
14.46700000 75.68240000 -2.00910000
14.21460000 75.35850000 -1.52720000
14.02740000 74.88670000 -1.21800000
14.69640000 75.61330000 -2.97960000
14.87800000 75.68040000 -3.43840000
14.85780000 75.75360000 -3.13430000
14.81410000 75.54390000 -3.70670000
15.00890000 75.64300000 -4.09160000
15.27910000 75.75860000 -4.44440000
4.40180000 61.24150000 20.42740000
3.72900000 61.58880000 20.19930000
3.89900000 61.46960000 19.81110000
4.35400000 61.21920000 19.80160000
3.16570000 61.96060000 19.98570000
3.83540000 61.49630000 19.45190000
4.55720000 61.05370000 19.12180000
11.53470000 47.40450000 22.04000000
11.15720000 47.57490000 21.69150000
11.41020000 47.79970000 21.51370000
11.69590000 47.82140000 21.58000000
10.89780000 47.79990000 21.45810000
11.35870000 47.98950000 21.28830000
11.83160000 48.17790000 21.16000000
8.72610000 35.75780000 21.04730000
8.45530000 35.93910000 21.36950000
8.36750000 37.17990000 21.49550000
8.44040000 37.66400000 21.42030000
8.28160000 35.97550000 21.68460000
8.20660000 37.74410000 21.69930000
8.04700000 39.91260000 21.85200000
8.02510000 53.68160000 23.43940000
8.36020000 53.32760000 23.11160000
8.42490000 52.44790000 23.24950000
8.29290000 52.10330000 23.49950000
8.74480000 52.98240000 22.79330000
8.62300000 51.81590000 23.16500000
8.58100000 50.69540000 23.46520000
10.75710000 53.98740000 22.36230000
10.47950000 53.28690000 22.26090000
10.28340000 53.55910000 22.22950000
10.34840000 54.09370000 22.24580000
10.36820000 52.30860000 22.17690000
10.10860000 53.23530000 22.20740000
9.88200000 54.27850000 22.23040000
9.12480000 50.37460000 22.90680000
8.95790000 51.63560000 22.86870000
9.23970000 51.72330000 22.64570000
9.43760000 50.97590000 22.58540000
9.27070000 52.38950000 22.51520000
9.83250000 51.71350000 22.24720000
4.53430000 59.31120000 22.69140000
3.33450000 59.03590000 23.16270000
2.94240000 59.61700000 23.03150000
3.25810000 59.95060000 22.76260000
2.44420000 58.72660000 23.54600000
2.29010000 59.59730000 23.22020000
2.10500000 60.52290000 22.80720000
13.42730000 52.93900000 23.38860000
13.70760000 52.81350000 23.97460000
13.62190000 53.09910000 24.30220000
13.38310000 53.27830000 24.05690000
14.09080000 52.62800000 24.68310000
13.77380000 53.19240000 24.75970000
13.38280000 53.64590000 24.78060000
10.52720000 19.44090000 15.87650000
10.04420000 20.32670000 14.86800000
10.51180000 20.73400000 14.57240000
11.06330000 20.47990000 14.97050000
9.25890000 21.03310000 13.96090000
10.42310000 21.34950000 13.90990000
11.58160000 21.59940000 13.93020000
-1.28040000 17.60570000 16.45010000
-1.10910000 18.49870000 16.01450000
-0.67530000 18.59550000 15.88200000
-0.45520000 18.19630000 16.04540000
-1.08140000 19.35980000 15.57900000
-0.34330000 19.03790000 15.57480000
0.28090000 18.73770000 15.60680000
15.39650000 23.36880000 13.49880000
15.00780000 21.82800000 15.04040000
14.28800000 21.23140000 15.33370000
14.04150000 21.46940000 14.94880000
14.88300000 20.82870000 16.14670000
14.02050000 20.33970000 16.23510000
12.72230000 19.63040000 16.41580000
-8.58650000 13.59870000 14.17290000
-8.17450000 15.50690000 13.88630000
-7.82300000 15.78440000 14.24750000
-7.83850000 14.99840000 14.56050000
-7.61170000 17.68020000 13.71220000
-7.41040000 16.87170000 14.32490000
-7.17590000 16.23740000 14.87550000
4.36350000 23.43160000 17.57530000
4.18320000 23.40340000 18.27620000
3.86750000 23.90270000 18.20170000
3.92370000 24.04920000 17.65670000
3.99200000 23.34940000 19.20010000
3.59820000 24.16300000 18.56020000
3.35760000 24.81030000 17.86230000
-5.47470000 -124.06830000 -7.04640000
-4.97100000 -123.96890000 -9.96810000
-3.99600000 -124.02120000 -9.87300000
-3.54200000 -124.09890000 -8.43200000
-4.53290000 -123.88010000 -12.85600000
-3.25030000 -124.00810000 -11.26730000
-1.74080000 -124.12490000 -10.01110000
-19.55480000 -81.17650000 8.78660000
-20.24480000 -84.37400000 8.05350000
-19.88920000 -85.05880000 8.27160000
-19.37420000 -84.29110000 8.69910000
-20.85560000 -87.30180000 7.28910000
-19.98190000 -86.69470000 8.07930000
-19.10710000 -86.41560000 8.71620000
1.21700000 -9.76330000 10.04610000
0.17670000 -7.99850000 10.30000000
0.35350000 -10.02240000 10.27480000
1.04320000 -11.80460000 10.11510000
-0.95040000 -6.27490000 10.52170000
-0.05610000 -10.53690000 10.36440000
0.95750000 -14.65940000 10.15070000
24.46030000 6.62310000 10.47150000
24.71160000 1.22890000 9.96830000
25.08030000 0.91910000 9.64620000
25.26540000 2.89650000 9.61730000
24.91980000 -2.65330000 9.57850000
25.36360000 -1.46700000 9.28600000
25.79750000 -0.23510000 9.00450000
-30.19740000 34.22410000 -5.35830000
-30.36940000 37.41170000 -5.81690000
-30.05740000 36.39460000 -6.14520000
-29.82460000 34.34870000 -6.08600000
-30.62440000 40.65320000 -6.08280000
-30.04230000 37.81210000 -6.48810000
-29.35450000 34.51210000 -6.90260000
-7.09650000 40.53180000 9.46190000
-8.92120000 42.07050000 9.14070000
-9.06050000 40.82490000 9.13320000
-8.31870000 39.40150000 9.25730000
-10.74560000 43.42420000 8.75730000
-10.13330000 40.94370000 8.91360000
-9.83310000 38.20280000 8.92770000
-27.04440000 67.37240000 -8.92150000
-26.15750000 68.08740000 -9.32850000
-26.00310000 67.83380000 -9.80920000
-26.45720000 67.29580000 -9.76880000
-25.15670000 68.71670000 -9.88100000
-25.33970000 68.10710000 -10.32710000
-25.58210000 67.23050000 -10.85590000
-21.22470000 64.89450000 -15.13920000
-20.22520000 64.97410000 -15.54680000
-20.53000000 64.10940000 -15.67750000
-21.08190000 63.59450000 -15.58830000
-19.21990000 65.26720000 -15.83720000
-20.03420000 63.94720000 -15.90540000
-20.79610000 62.58630000 -15.97840000
-24.39590000 82.09820000 -3.47730000
-25.09450000 83.10710000 -3.81200000
-24.57350000 82.72290000 -4.40190000
-23.92360000 81.90780000 -4.39190000
-26.05930000 84.53930000 -4.17600000
-24.75180000 83.15980000 -4.82680000
-23.40910000 81.78120000 -5.38940000
-24.45900000 89.08020000 -11.06450000
-23.61560000 89.16190000 -11.68480000
-22.95690000 88.22070000 -11.52250000
-22.95210000 87.69470000 -11.17880000
-22.57280000 88.93000000 -12.18070000
-22.06840000 87.57490000 -11.66760000
-21.64750000 86.49320000 -11.25410000
-24.05100000 -45.67380000 -1.87410000
-23.88500000 -45.89800000 -2.85500000
-23.82450000 -47.48380000 -2.90920000
-23.87760000 -48.20860000 -2.49300000
-23.77490000 -45.54190000 -3.49290000
-23.73010000 -47.60180000 -3.38990000
-23.73970000 -50.67510000 -3.02430000
-24.26190000 -48.46650000 -4.67900000
-23.91460000 -49.94690000 -5.41870000
-23.75390000 -52.17540000 -5.51570000
-23.85850000 -52.86140000 -5.20220000
-23.56010000 -50.11500000 -6.20600000
-23.46210000 -53.10970000 -6.07820000
-23.35960000 -57.25380000 -5.85670000
-1.31610000 82.45780000 -3.95590000
-1.01560000 83.58080000 -3.38850000
-0.89870000 82.84770000 -3.02700000
-1.00680000 81.91010000 -3.19030000
-0.80750000 84.77060000 -3.11360000
-0.75480000 83.30690000 -2.73860000
-0.71210000 81.52000000 -2.39570000
-8.02180000 80.51160000 -11.63150000
-7.91130000 82.43950000 -11.88680000
-7.41690000 81.86840000 -11.54120000
-7.20470000 80.61690000 -11.25180000
-8.18360000 85.23280000 -12.41170000
-7.20520000 82.67250000 -11.54320000
-6.36830000 80.78350000 -10.81180000
24.91740000 -30.04650000 -1.50760000
24.68950000 -32.02100000 -0.74780000
24.59850000 -32.85790000 -1.21190000
24.64870000 -32.24020000 -1.85650000
24.43110000 -33.97580000 -0.10430000
24.42870000 -34.28320000 -1.12270000
24.38290000 -34.53900000 -2.21560000
28.93930000 45.94230000 -4.55090000
29.17410000 44.75710000 -4.34150000
29.40840000 45.51580000 -4.77200000
29.28820000 46.57970000 -5.03090000
29.37810000 43.09320000 -4.01290000
29.61960000 45.12110000 -4.83230000
29.71930000 47.19390000 -5.65110000
7.77110000 72.92180000 -0.86320000
7.91660000 72.65150000 -1.44310000
7.69240000 72.40440000 -1.04900000
7.47600000 72.25990000 -0.65230000
7.92110000 72.28700000 -1.78280000
7.59130000 72.07300000 -1.12560000
7.26630000 71.77100000 -0.61380000
9.60910000 71.12300000 5.76850000
9.44180000 70.67460000 6.15320000
9.68490000 70.39200000 6.14970000
9.90280000 70.50260000 5.89950000
9.27040000 70.25280000 6.53270000
9.75890000 70.04560000 6.28000000
10.30170000 69.95740000 6.05720000
-9.82410000 -62.98360000 -16.63190000
-8.80550000 -62.13620000 -17.18120000
-8.49880000 -64.19280000 -17.22350000
-8.70230000 -66.06550000 -17.02810000
-7.75980000 -60.88820000 -17.70480000
-7.85270000 -64.75420000 -17.47610000
-7.71650000 -68.74180000 -17.31200000
3.50260000 -12.36360000 -22.61020000
4.65620000 -8.91630000 -22.55340000
4.44780000 -12.20420000 -22.39470000
3.74740000 -15.70740000 -22.33830000
5.89670000 -5.25900000 -22.46210000
4.85410000 -12.38930000 -22.27370000
3.98340000 -19.22040000 -22.02600000
19.63800000 119.91510000 8.91350000
18.72410000 120.61560000 10.48700000
18.85260000 120.52700000 11.07080000
19.43010000 120.06070000 10.48190000
17.77420000 121.31320000 12.33000000
18.61900000 120.67570000 12.09890000
19.43740000 120.00530000 11.92790000
20.12940000 107.14190000 19.95960000
19.15310000 106.95780000 21.03450000
19.01120000 106.31000000 21.01850000
19.39860000 106.01110000 20.48280000
18.18050000 106.83730000 21.98550000
18.53080000 105.98460000 21.42260000
18.59470000 104.99090000 20.99270000
-19.38970000 37.83990000 7.68380000
-19.84320000 39.46410000 7.86990000
-19.98000000 38.78920000 7.88090000
-19.88660000 37.82300000 7.82400000
-20.28110000 40.75820000 7.98890000
-20.32440000 39.26780000 7.95280000
-20.31890000 38.11310000 7.90030000
-15.34340000 25.11120000 13.44830000
-15.22480000 25.13280000 12.80330000
-15.70280000 24.85280000 13.03510000
-15.99840000 24.71090000 13.48020000
-15.06650000 25.14900000 12.24440000
-15.80600000 24.76120000 12.82660000
-16.54910000 24.38620000 13.40590000
10.24970000 65.58750000 5.26140000
9.72330000 65.40720000 5.34020000
9.72590000 65.21580000 5.77920000
10.03410000 65.25710000 5.86020000
9.20130000 65.21110000 5.44290000
9.43690000 65.01400000 6.13730000
9.70730000 64.91400000 6.70600000
8.84280000 63.19790000 5.25370000
8.72650000 64.00390000 4.73440000
8.76670000 63.98580000 4.17650000
8.85080000 63.47250000 4.35160000
8.65940000 64.92760000 3.94730000
8.74010000 64.42340000 3.65160000
8.86920000 63.70970000 3.61570000
-1.60350000 18.63470000 -23.97640000
-1.20170000 22.20340000 -23.93680000
-0.52030000 20.84360000 -24.03670000
-0.34000000 18.58510000 -24.10950000
-0.93850000 25.94820000 -23.86300000
-0.11000000 22.60770000 -24.02380000
0.61710000 19.22710000 -24.16610000
10.08680000 26.96730000 -21.43910000
11.15510000 22.39010000 -20.97110000
10.83480000 21.68500000 -21.18840000
10.22060000 23.13390000 -21.50530000
11.05000000 19.38420000 -21.15860000
9.99190000 20.09200000 -21.74780000
-28.98430000 26.55600000 5.05450000
-29.77910000 29.08290000 4.41650000
-29.84240000 27.99660000 4.03970000
-29.49390000 26.16660000 4.17620000
-30.55480000 32.15680000 3.84490000
-30.21730000 28.69900000 3.55480000
-29.92940000 25.69320000 3.27850000
-23.42050000 -6.93270000 8.42470000
-23.67740000 -6.06360000 8.03980000
-23.93270000 -7.71100000 7.18870000
-23.87650000 -8.90040000 7.05560000
-24.10330000 -5.05180000 7.49250000
-24.21590000 -8.20500000 6.53370000
-24.38820000 -11.13690000 5.50880000
-5.74870000 91.96980000 15.92830000
-6.42130000 92.72420000 15.83410000
-7.18350000 92.26130000 16.22660000
-7.14670000 91.73570000 16.39730000
-7.01140000 93.36000000 15.75900000
-7.84610000 92.50330000 16.30490000
-8.64650000 91.58150000 16.83750000
-25.79790000 110.35600000 10.41280000
-26.81230000 109.89610000 9.56140000
-26.84550000 109.47140000 10.01310000
-26.36730000 109.46800000 10.64800000
-27.79740000 109.47600000 8.65150000
-27.42230000 109.06370000 9.66460000
-26.97500000 108.59040000 10.72510000
-0.93010000 73.47930000 1.02840000
-1.37060000 72.32340000 1.94200000
-0.99600000 72.10690000 1.95900000
-0.60610000 72.58400000 1.48020000
-1.88170000 71.39620000 2.74790000
-1.15220000 71.46010000 2.47920000
-0.38240000 71.62450000 2.07740000
6.46000000 73.49770000 -2.47350000
5.63490000 73.23220000 -1.56280000
5.97550000 72.65330000 -1.48610000
6.54650000 72.52840000 -1.92260000
4.71330000 73.08500000 -0.69640000
5.60190000 72.32810000 -0.99330000
6.65650000 71.53840000 -1.42830000
-12.90730000 -113.36670000 -14.20350000
-13.20850000 -110.29900000 -14.03650000
-12.72290000 -111.38450000 -14.27990000
-12.37080000 -113.95760000 -14.47150000
-13.58750000 -105.70380000 -13.88440000
-12.56690000 -110.34030000 -14.38970000
-11.48100000 -114.87360000 -14.96040000
-17.92890000 -116.07890000 4.30040000
-17.43020000 -115.24740000 4.25050000
-18.10040000 -116.00460000 3.66220000
-18.73810000 -116.89180000 3.38190000
-16.98160000 -114.43970000 4.16610000
-18.31960000 -116.13760000 3.26410000
-19.48650000 -117.64670000 2.55220000
4.60140000 102.64770000 -27.09220000
4.46700000 101.87990000 -26.25860000
4.18980000 101.37420000 -26.55670000
4.10440000 101.40010000 -27.01700000
4.18610000 100.97360000 -25.45060000
3.96670000 100.67900000 -26.23720000
3.66150000 100.16510000 -26.87010000
1.58480000 105.39620000 -29.34370000
2.23040000 104.68280000 -29.19230000
1.70920000 103.18720000 -29.19250000
1.14170000 102.62250000 -29.25480000
2.87380000 104.15520000 -28.99180000
1.74460000 102.14940000 -29.10200000
0.75670000 99.88030000 -29.11330000
9.53800000 -65.89990000 -15.85430000
10.40200000 -65.41160000 -15.40900000
10.19860000 -68.41110000 -15.30630000
9.63250000 -69.96770000 -15.50990000
11.38950000 -64.37560000 -14.93870000
10.41250000 -69.54230000 -15.10510000
9.44710000 -74.82380000 -15.27940000
20.93300000 -26.27540000 -12.33010000
20.70280000 -24.61750000 -12.93050000
21.00840000 -24.25640000 -12.53370000
21.31120000 -24.99390000 -12.00560000
20.45330000 -22.61130000 -13.62520000
21.05160000 -23.32240000 -12.64020000
21.84120000 -23.76310000 -11.50830000
-32.52460000 44.57940000 -1.32230000
-32.32250000 44.67270000 -2.42800000
-32.21650000 43.28470000 -2.38830000
-32.27650000 42.63560000 -1.82340000
-32.15730000 45.00140000 -3.25190000
-32.06870000 43.17910000 -2.98160000
-31.93860000 40.32480000 -2.47040000
-24.19930000 69.87780000 -1.22810000
-25.11290000 69.40290000 -1.71980000
-25.36780000 68.91240000 -1.32720000
-24.99010000 68.91620000 -0.91980000
-25.92550000 68.87120000 -2.06180000
-25.84910000 68.40810000 -1.24700000
-25.60610000 68.02370000 -0.51320000
-15.99730000 -92.09520000 6.15240000
-16.47120000 -91.55870000 5.60460000
-16.38220000 -95.04510000 5.48410000
-16.04020000 -96.87850000 5.77150000
-17.07080000 -91.29310000 4.78880000
-16.51680000 -96.80900000 5.16960000
-16.05530000 -102.96740000 5.27010000
-7.18450000 -53.43290000 10.57270000
-7.57320000 -51.59160000 10.61690000
-7.94940000 -52.55150000 10.49290000
-7.89800000 -53.92930000 10.43140000
-8.02080000 -49.98240000 10.62400000
-8.39110000 -51.87190000 10.44140000
-8.82710000 -54.17390000 10.21780000
-15.26610000 80.85640000 -21.37830000
-15.18130000 79.54910000 -20.98010000
-14.96770000 79.46420000 -20.65140000
-14.94600000 80.24920000 -20.79000000
-15.19040000 78.14130000 -20.58070000
-14.84760000 78.80090000 -20.32030000
-14.60650000 79.69900000 -20.24550000
-13.88910000 88.11390000 -27.44140000
-13.39780000 89.09620000 -27.58840000
-13.23150000 88.12920000 -27.56090000
-13.40540000 87.10120000 -27.46100000
-12.88470000 90.14540000 -27.68430000
-12.89710000 88.26710000 -27.59680000
-12.91510000 86.51850000 -27.46050000
5.94400000 26.21950000 12.37740000
6.44350000 27.19850000 11.98540000
6.71520000 27.26770000 11.28980000
6.62540000 26.93830000 11.11670000
6.75930000 27.93700000 11.82440000
7.01650000 27.83970000 10.99950000
7.19390000 27.67790000 10.13270000
18.69310000 29.83570000 11.32880000
17.00710000 29.95960000 12.02880000
17.25600000 29.37060000 12.01700000
18.06940000 28.96750000 11.72020000
15.46790000 30.00770000 12.65970000
16.42880000 29.15770000 12.37740000
17.43740000 28.14260000 12.06680000
-5.99530000 95.86370000 -11.51910000
-5.02540000 95.64700000 -10.44710000
-4.89900000 95.08290000 -10.31110000
-5.29110000 94.96130000 -10.77020000
-4.01050000 94.68030000 -9.21410000
-4.50350000 94.33860000 -9.85330000
-4.88620000 93.94070000 -10.30440000
-11.41900000 115.00940000 -2.02450000
-11.64560000 115.14960000 -0.50820000
-11.13290000 114.98210000 -0.93330000
-10.83130000 114.83490000 -1.96080000
-12.08990000 115.30360000 1.24510000
-11.02570000 114.95720000 -0.25260000
-10.15810000 114.58340000 -1.77790000
-7.02360000 35.27310000 10.74760000
-6.70850000 35.77230000 10.39080000
-7.75980000 34.47150000 10.09090000
-8.37200000 33.66020000 10.18170000
-6.31990000 36.34410000 9.98370000
-8.24810000 33.88970000 9.70660000
-10.13610000 31.51260000 9.43640000
18.30310000 34.84010000 3.37170000
17.75240000 35.22140000 4.51020000
18.50900000 34.93340000 4.72000000
19.17430000 34.61190000 4.27720000
17.27380000 35.55680000 5.63670000
18.59920000 34.98190000 5.48580000
20.02340000 34.34580000 5.32520000
-23.76190000 -59.31630000 -4.01280000
-24.02420000 -56.17570000 -4.00870000
-23.80980000 -56.56550000 -4.60780000
-23.56550000 -58.63750000 -4.89400000
-24.19340000 -53.58490000 -4.17750000
-23.87520000 -54.80210000 -4.88320000
-17.58780000 -86.96480000 5.65970000
-18.07070000 -87.27570000 5.68590000
-18.68310000 -87.52500000 4.48830000
-18.78740000 -87.53010000 3.81580000
-18.72200000 -87.65710000 5.53770000
-19.33640000 -87.84200000 3.76140000
-20.04940000 -88.06190000 1.93950000
15.82510000 28.60200000 12.60100000
15.99530000 28.06340000 12.52370000
16.87890000 27.52390000 12.22250000
14.26410000 29.06810000 13.11240000
15.48640000 27.87270000 12.65580000
16.52140000 26.79190000 12.24470000
20.06570000 0.35530000 12.96570000
20.23960000 2.25820000 12.14450000
20.26890000 1.66440000 11.88670000
20.18430000 0.40870000 12.08550000
20.42830000 4.36030000 11.51410000
20.40760000 2.52920000 11.37130000
20.40500000 0.35660000 11.17610000
7.19300000 112.69060000 14.55600000
7.20780000 113.31700000 14.46540000
7.66480000 113.37850000 13.81020000
7.89870000 113.14990000 13.48190000
7.22190000 113.98070000 14.37030000
7.90120000 113.69180000 13.38830000
8.59050000 113.54350000 12.48100000
15.10390000 121.46250000 16.13520000
16.19190000 121.42290000 15.39850000
16.46720000 121.50460000 14.75490000
16.09520000 121.59410000 14.68160000
17.21980000 121.26390000 14.81420000
17.06130000 121.49460000 14.07790000
16.87450000 121.63160000 13.53540000
-9.79690000 68.25590000 5.58790000
-11.13350000 68.13100000 5.21740000
-11.22990000 67.61210000 5.35410000
-10.67570000 67.37450000 5.61440000
-12.25720000 67.97240000 4.87490000
-12.08960000 67.35800000 5.13480000
-11.76890000 66.53870000 5.49170000
-11.17770000 75.05750000 14.59720000
-12.07690000 76.24700000 14.73870000
-13.32140000 76.60440000 14.86320000
-13.61250000 76.30460000 14.87040000
-12.88650000 77.30110000 14.85110000
-14.36180000 77.49860000 14.98250000
-15.95050000 77.73490000 15.12450000
-19.56960000 84.12960000 18.24270000
-19.03630000 83.08980000 17.66630000
-18.68280000 83.66870000 18.08410000
-18.74900000 84.43400000 18.56680000
-18.63020000 81.91830000 16.91310000
-18.30650000 83.39130000 17.91880000
-17.80340000 84.80960000 18.85720000
-13.17640000 92.77420000 18.92450000
-13.44360000 91.59950000 18.92470000
-13.11600000 91.11590000 19.18740000
-12.79960000 91.30090000 19.37120000
-13.66920000 90.43930000 18.93800000
-13.09890000 90.34330000 19.29780000
-12.59920000 90.08330000 19.69080000
-2.36430000 22.17550000 -23.79340000
-1.87520000 23.51760000 -23.82820000
-3.10300000 26.08810000 -23.59340000
-1.97950000 26.05350000 -23.74810000
-14.44340000 -38.16200000 -14.24560000
-13.56290000 -39.27110000 -14.94970000
-13.56320000 -41.83180000 -14.83620000
-13.91640000 -42.68800000 -14.51950000
-12.62560000 -40.17980000 -15.70190000
-13.08760000 -43.26460000 -15.19070000
-13.27400000 -46.86280000 -14.89040000
17.48650000 112.13310000 -20.74780000
18.32110000 111.92880000 -19.76550000
19.01900000 110.97530000 -19.21110000
19.02300000 110.57830000 -19.32420000
19.09590000 111.65110000 -18.80050000
19.70660000 110.38830000 -18.48600000
20.44330000 108.85390000 -17.99380000
18.34990000 110.53900000 -11.10450000
18.87430000 109.23300000 -10.49680000
19.28740000 109.44860000 -10.85400000
19.21140000 110.18370000 -11.35390000
19.37410000 107.91270000 -9.91220000
19.65660000 109.00830000 -10.80690000
19.93500000 109.87650000 -11.65340000
5.41200000 75.24110000 -4.80490000
5.61990000 75.00130000 -4.14070000
6.27420000 74.64780000 -4.39770000
6.50960000 74.59490000 -4.86050000
5.72000000 74.72770000 -3.44510000
6.66140000 74.36090000 -4.29940000
7.37920000 74.06310000 -4.99030000
10.32600000 74.10660000 -7.65820000
10.93240000 73.93810000 -7.63090000
10.77130000 73.95470000 -6.86530000
11.42060000 73.78170000 -7.03630000
15.27660000 -81.21950000 2.79300000
14.99180000 -82.97570000 2.73700000
15.21560000 -83.37120000 2.30760000
15.46050000 -82.83010000 2.06600000
14.66280000 -84.96310000 2.70610000
15.18750000 -84.60790000 2.02220000
15.67930000 -84.27460000 1.28300000
3.86870000 -124.40330000 -6.46340000
2.99400000 -124.29100000 -7.59340000
3.15120000 -124.28150000 -8.99760000
3.78420000 -124.30750000 -9.40820000
2.22330000 -124.21400000 -8.09940000
2.75360000 -124.23200000 -9.84440000
3.31880000 -124.20640000 -12.25760000
14.74450000 -94.81070000 -6.03290000
14.92010000 -95.75460000 -4.84220000
14.72190000 -97.53800000 -4.85840000
14.55020000 -97.94290000 -5.43170000
14.98520000 -96.89890000 -3.69370000
14.65490000 -99.14510000 -4.28320000
14.29040000 -101.56690000 -4.84850000
14.80150000 -64.49050000 -12.43820000
15.19650000 -65.00070000 -11.84900000
15.16620000 -66.09680000 -11.74710000
14.96570000 -66.56070000 -11.99530000
15.52900000 -65.24270000 -11.42250000
15.37430000 -66.70440000 -11.45660000
15.16770000 -68.15210000 -11.55980000
-27.01320000 101.09550000 -12.61190000
-27.14310000 102.60990000 -12.21380000
-26.57820000 102.82350000 -12.65660000
-26.18370000 102.24880000 -13.08980000
-27.22060000 104.10700000 -11.73070000
-26.27830000 103.61020000 -12.70080000
-25.38610000 103.19350000 -13.48750000
-31.62910000 101.03400000 2.21230000
-31.78560000 100.84920000 0.68030000
-31.64330000 100.20700000 1.00870000
-31.49070000 100.05510000 2.05410000
-31.91790000 100.72520000 -1.12900000
-31.61240000 99.73540000 0.30730000
-31.29190000 98.94640000 1.83770000
-8.77870000 -123.73890000 -11.06960000
-10.22110000 -123.54220000 -13.04560000
-9.39940000 -123.56450000 -13.72320000
-8.23680000 -123.67590000 -13.11440000
-12.08720000 -123.30670000 -14.62990000
-9.74510000 -123.47660000 -14.73390000
-20.60300000 -112.16100000 -7.79420000
-20.39810000 -113.00100000 -8.04430000
-20.58160000 -114.69670000 -8.21410000
-20.82230000 -115.36500000 -8.21660000
-20.19210000 -114.05020000 -8.52130000
-20.58390000 -115.86330000 -8.42620000
-20.99150000 -118.11850000 -8.60960000
17.67270000 23.46050000 10.86420000
17.33530000 22.95030000 10.50690000
18.23960000 22.26770000 10.20970000
18.79150000 22.24400000 10.26870000
16.84060000 22.67940000 10.22830000
18.40900000 21.80480000 9.94300000
19.97830000 20.87950000 9.64560000
10.94800000 21.22440000 7.68480000
10.03380000 21.88830000 8.08860000
10.05480000 19.69500000 8.02790000
10.59600000 18.26740000 7.77510000
9.09810000 22.41050000 8.49760000
9.59100000 18.97120000 8.20280000
10.32230000 14.93470000 7.81060000
-19.76410000 -100.68930000 -7.03300000
-19.47930000 -99.70550000 -7.93670000
-19.41450000 -102.02570000 -8.53720000
-19.52130000 -103.50990000 -8.31880000
-19.26390000 -98.89600000 -8.67870000
-19.27570000 -102.64690000 -9.16330000
-19.33260000 -106.84730000 -9.52470000
-23.10930000 -88.12120000 -1.85640000
-22.48050000 -88.02950000 -1.81340000
-22.42580000 -88.18430000 -1.41020000
-22.76800000 -88.29640000 -1.25950000
-21.66530000 -87.85490000 -1.66450000
-22.12890000 -88.23500000 -1.07980000
-22.48100000 -88.40820000 -0.75940000
28.56920000 56.29220000 -9.48970000
28.86600000 54.54940000 -9.88480000
28.52910000 55.78420000 -10.23670000
28.27900000 56.96560000 -10.23500000
29.11170000 52.81410000 -10.24720000
28.49270000 55.43750000 -10.60740000
27.88360000 57.78490000 -10.96860000
23.28780000 62.42450000 -14.22590000
23.39320000 63.68440000 -13.50960000
23.85260000 63.25800000 -13.20900000
24.09900000 62.45100000 -13.42270000
23.76840000 64.61540000 -12.52160000
24.32920000 63.37710000 -12.65210000
25.02940000 62.13760000 -12.65440000
-14.32840000 72.22370000 9.10280000
-13.20480000 72.07190000 8.48380000
-12.82450000 71.94560000 9.10710000
-13.08880000 71.93100000 9.74150000
-12.20040000 72.00210000 7.81450000
-12.13300000 71.84730000 9.09910000
-11.91600000 71.72040000 10.43240000
-24.91170000 80.10120000 2.42040000
-24.53430000 80.01630000 1.44670000
-24.28220000 79.46950000 1.86300000
-24.35290000 79.21690000 2.58820000
-24.09820000 80.11250000 0.31130000
-23.97550000 79.26120000 1.56210000
-23.71220000 78.33840000 2.79940000
-16.80210000 -86.65340000 7.82670000
-16.23960000 -86.36910000 9.54820000
-17.00100000 -86.81130000 8.81940000
-17.65620000 -87.17610000 7.68260000
-15.67460000 -86.01520000 11.19010000
-17.23760000 -86.92670000 9.07350000
-18.51130000 -87.62270000 7.31130000
-11.15720000 -69.31200000 10.98150000
-10.79080000 -68.24170000 11.90540000
-10.85390000 -70.59760000 12.16600000
-11.10110000 -72.20710000 11.75400000
-10.44790000 -67.26920000 12.82640000
-10.76490000 -71.60230000 12.68420000
-11.15980000 -76.22210000 12.45500000
8.73570000 110.34980000 10.18300000
9.08270000 110.86280000 9.78430000
9.47630000 110.44610000 9.14000000
9.51660000 109.98090000 9.00110000
9.54250000 111.22860000 9.29720000
9.89360000 110.41550000 8.61130000
10.21950000 109.60040000 8.04560000
8.09030000 106.84250000 12.02630000
7.83820000 106.30300000 13.67450000
7.67870000 106.74310000 13.78100000
7.70680000 107.21590000 13.05800000
7.56670000 105.67890000 15.41410000
7.43810000 106.74420000 14.65820000
7.32920000 107.60870000 13.99150000
-23.47530000 59.03210000 5.25130000
-24.06620000 60.14010000 4.89500000
-24.56840000 59.36960000 5.25320000
-24.24940000 58.33910000 5.60980000
-24.78440000 61.53150000 4.39930000
-25.07370000 59.49820000 5.23100000
-25.09340000 57.12020000 6.10860000
-20.81590000 44.35200000 7.88450000
-22.12060000 46.98750000 7.65720000
-22.33720000 46.68500000 7.66480000
-21.92250000 45.51880000 7.76640000
-23.39090000 49.21200000 7.48950000
-23.02710000 47.47250000 7.64010000
-22.76430000 46.08720000 7.77590000
-10.43970000 -56.70300000 11.40650000
-10.24350000 -58.16250000 11.97470000
-10.43860000 -59.00890000 11.57640000
-10.63980000 -58.58620000 11.04320000
-10.00060000 -59.56480000 12.71020000
-10.39120000 -60.06470000 11.78290000
-10.82580000 -60.62670000 10.72010000
-9.07900000 0.15200000 14.19810000
-9.23830000 -1.42170000 14.40800000
-9.04710000 -4.32940000 14.48260000
-8.90650000 -4.95520000 14.42440000
-9.66710000 -2.10460000 14.55200000
-9.07440000 -6.12060000 14.58480000
-8.75760000 -10.29520000 14.60850000
24.86940000 -29.59150000 0.34090000
24.79440000 -29.16720000 1.22040000
24.58120000 -30.79430000 1.20440000
24.54000000 -31.75870000 0.77060000
24.71020000 -28.77150000 2.17840000
24.46700000 -31.33660000 1.55540000
24.27130000 -33.62230000 1.12210000
21.76610000 32.90170000 8.17940000
21.16450000 33.10520000 8.82120000
21.77930000 32.65540000 8.78660000
22.32540000 32.39960000 8.40860000
20.49540000 33.35410000 9.37950000
21.58420000 32.65430000 9.10480000
22.88380000 31.83040000 8.67440000
-14.79850000 62.62630000 -22.57470000
-14.90480000 61.28510000 -22.21570000
-15.11330000 60.79710000 -22.24730000
-15.15360000 61.34860000 -22.44630000
-15.03010000 59.70450000 -21.79520000
-15.34210000 59.93610000 -22.11040000
-15.55270000 60.42490000 -22.37930000
-16.30290000 62.80270000 -23.06240000
-15.79930000 62.62640000 -22.95550000
-15.75590000 61.76490000 -22.74030000
-15.93380000 61.42410000 -22.69710000
-15.31030000 62.58640000 -22.85370000
-15.47300000 61.38190000 -22.59170000
-8.43090000 113.13210000 -3.86560000
-7.86330000 112.91040000 -2.65390000
-7.51540000 112.48110000 -3.02310000
-7.60530000 112.36730000 -3.78800000
-7.35950000 112.70660000 -1.30450000
-7.07990000 112.15580000 -2.57180000
-6.73610000 111.44690000 -3.77230000
