29.12730000 84.42380000 25.02900000
13.08640000 75.61610000 21.02860000
13.11570000 77.46500000 21.42560000
12.65970000 74.81610000 19.33010000
13.25870000 75.81950000 19.11970000
13.02000000 76.19100000 20.34750000
13.82640000 77.73550000 19.84390000
16.40520000 78.57670000 17.07100000
15.04300000 78.24060000 18.68680000
18.03460000 79.61050000 18.09840000
16.02170000 79.20190000 18.94240000
17.97790000 80.27780000 19.44890000
16.08860000 80.01030000 19.78540000
16.92670000 80.90760000 20.31700000
17.95930000 81.47400000 19.81620000
16.47700000 79.11440000 16.04750000
17.39680000 79.38420000 16.93970000
18.08730000 80.49750000 16.64640000
18.74340000 80.20660000 17.48820000
19.18640000 80.78580000 18.76800000
19.21190000 81.92370000 18.83840000
18.78250000 82.51950000 18.84890000
19.47460000 81.30150000 18.29650000
18.99440000 81.44020000 17.16540000
19.31460000 82.10820000 18.05810000
18.83240000 82.17190000 17.23740000
28.95240000 81.69580000 19.46960000
27.82530000 83.76220000 20.42310000
27.19790000 84.66810000 22.50220000
27.45470000 85.36780000 23.83860000
28.69140000 85.74930000 25.60600000
26.73050000 85.48530000 21.75840000
27.29350000 85.90560000 23.22980000
27.12880000 84.91010000 19.02500000
28.82240000 86.33620000 25.10430000
27.37000000 86.23490000 21.95150000
29.94630000 86.61860000 25.11470000
29.10980000 86.40680000 21.60600000
28.05840000 86.57500000 20.26150000
26.79420000 85.95560000 20.45130000
27.14100000 85.84410000 18.22900000
34.81340000 80.08890000 28.92920000
35.80520000 80.68510000 29.37470000
35.54400000 81.46890000 28.31340000
36.08470000 81.82530000 28.77050000
36.06840000 81.66850000 29.55100000
36.34170000 81.97670000 27.94100000
36.75280000 82.06180000 29.12680000
37.73010000 82.98580000 26.11790000
34.00000000 81.51090000 27.47340000
34.20610000 82.85700000 26.31030000
35.62020000 82.55810000 26.82820000
34.25220000 83.74990000 26.41890000
32.16080000 84.14210000 26.50380000
33.75390000 84.80260000 27.14310000
31.86360000 85.97000000 27.56440000
30.09160000 85.36280000 26.63340000
34.94660000 85.97620000 27.79840000
33.74990000 86.27290000 27.97190000
32.26170000 86.65530000 27.61320000
33.56500000 87.21420000 27.44810000
33.87210000 87.01080000 27.86380000
30.13870000 86.12990000 26.78520000
30.49290000 86.42530000 22.71360000
32.19150000 86.88040000 25.56390000
31.49420000 86.82210000 26.94320000
32.81100000 87.17900000 26.77610000
31.18980000 77.28170000 13.11280000
33.98680000 77.92050000 11.59380000
36.01820000 78.90940000 11.10220000
35.17920000 80.29280000 12.07800000
30.33830000 79.81020000 14.49620000
32.46460000 79.28620000 12.68130000
29.27850000 81.55790000 16.82310000
31.51590000 80.76390000 14.09410000
30.57630000 81.95280000 15.87720000
32.96040000 82.18460000 14.55170000
35.31230000 81.89560000 13.44450000
37.12810000 81.19740000 12.62670000
39.29430000 83.78040000 17.87900000
39.64610000 84.11370000 20.83910000
39.47340000 84.92600000 19.46520000
39.57940000 84.82420000 21.58470000
32.29150000 83.27000000 15.21970000
34.24830000 83.26570000 14.89130000
36.31730000 82.59990000 14.11800000
36.50490000 83.52100000 14.44460000
35.18730000 83.98590000 14.82610000
33.54410000 85.15760000 14.29270000
36.18060000 85.55470000 14.14860000
37.40700000 79.40370000 11.18110000
39.82760000 82.95730000 15.66670000
39.74400000 83.58020000 15.25840000
39.49120000 82.51160000 13.43490000
39.83930000 84.72100000 13.28460000
39.73000000 84.62100000 15.07600000
40.28140000 84.87180000 14.69030000
38.46040000 81.90320000 13.38230000
37.95800000 84.91810000 13.51070000
38.36090000 83.87530000 15.91470000
38.49310000 84.56060000 15.15100000
38.58570000 84.69170000 17.03480000
40.04930000 86.56230000 19.09050000
38.06760000 84.84390000 15.68990000
38.44730000 85.59540000 15.07220000
38.03200000 87.18750000 14.18230000
37.93140000 87.00860000 13.57050000
33.85130000 86.98700000 13.59910000
36.65640000 86.72180000 13.82780000
37.49140000 86.69510000 13.40870000
36.98180000 87.56480000 13.93390000
35.35070000 87.79900000 13.61390000
38.30970000 86.01380000 15.73270000
38.92020000 86.84710000 16.38070000
40.37380000 88.01970000 18.05920000
38.30340000 86.60690000 14.79100000
38.99430000 88.33090000 15.74820000
39.92640000 88.77740000 16.97310000
36.86530000 89.00200000 16.68470000
35.83810000 88.31520000 17.26010000
38.24060000 88.78450000 19.32850000
37.87300000 87.99400000 14.78720000
37.18100000 88.89090000 14.51840000
38.86100000 89.01930000 15.76600000
38.69990000 89.42580000 16.22470000
39.53650000 89.40280000 19.13320000
37.66990000 89.36840000 16.00390000
29.02920000 82.26850000 17.51260000
28.70410000 82.81670000 18.47150000
28.87560000 83.14230000 17.34320000
30.19070000 82.78760000 16.23770000
29.01460000 85.27530000 15.61400000
30.79360000 84.67050000 14.95780000
28.07510000 84.23370000 17.72310000
29.99220000 86.74440000 18.45360000
33.61690000 87.31250000 20.85560000
29.67480000 86.84100000 14.62530000
32.36270000 87.41350000 17.12410000
29.21380000 87.16700000 16.63070000
31.31070000 86.89990000 13.78340000
30.35140000 87.49300000 14.60310000
32.18820000 87.93540000 13.80990000
33.32930000 88.31440000 15.31590000
32.82300000 88.29700000 14.20580000
27.38230000 86.46100000 18.54460000
28.01980000 86.09830000 16.29940000
28.15750000 86.68850000 16.45890000
33.15780000 87.77380000 13.52690000
35.02870000 88.49620000 13.77610000
35.48850000 88.94000000 14.58620000
38.80440000 83.61720000 24.59690000
37.21220000 83.67760000 25.70800000
35.87220000 83.80530000 26.20090000
37.15730000 85.31820000 26.36040000
38.23460000 84.47820000 24.83480000
39.35280000 85.45190000 23.55570000
38.68380000 86.65350000 25.88210000
39.51100000 83.94420000 23.04800000
40.18770000 86.30370000 21.61370000
40.19470000 87.93290000 24.26190000
35.35530000 84.87780000 26.97290000
34.36330000 87.25380000 24.95290000
36.82130000 86.25790000 27.34210000
35.60480000 86.83580000 27.85050000
37.52930000 87.33180000 27.18380000
38.76770000 88.00520000 26.16000000
36.09570000 87.55430000 27.43600000
37.54210000 87.99880000 26.73060000
37.19740000 88.21110000 25.51390000
36.76280000 87.90490000 24.58130000
38.20720000 88.51450000 21.73110000
39.43110000 88.84000000 23.87650000
39.97790000 88.75320000 24.22450000
40.89330000 88.57540000 22.57140000
40.52450000 89.12010000 22.04360000
41.04400000 88.20070000 21.54390000
41.05270000 88.16030000 20.16600000
40.99670000 88.95610000 20.91990000
40.56490000 89.35020000 20.09520000
40.90820000 88.85940000 19.38170000
40.20280000 89.29290000 18.12840000
13.23090000 79.54280000 21.11690000
12.61950000 78.46960000 22.69400000
11.98990000 80.05190000 22.75680000
10.71290000 80.54370000 23.07720000
12.34550000 81.69060000 22.22270000
13.77530000 79.96700000 20.40960000
14.83350000 79.39650000 19.64170000
15.09120000 80.94300000 20.34890000
15.10430000 82.81580000 20.99050000
16.39390000 82.24470000 20.49880000
13.32470000 83.52660000 21.47180000
15.04340000 85.04390000 20.23730000
10.49920000 82.47280000 23.61960000
9.81600000 82.80870000 25.41260000
10.68330000 83.83760000 24.72990000
11.24050000 82.37870000 22.68660000
11.38770000 83.69650000 23.01620000
12.11790000 83.95080000 22.73960000
9.46740000 85.57300000 26.77300000
10.58810000 85.26700000 25.95580000
10.23150000 86.75590000 26.66720000
11.74200000 86.20160000 25.37320000
13.61320000 87.38770000 25.68000000
12.26090000 87.23050000 26.48810000
10.36380000 89.15960000 28.23250000
12.02630000 87.98520000 27.12010000
11.44810000 89.41640000 27.73460000
13.12530000 86.13080000 22.21620000
12.26730000 85.53620000 23.54170000
13.91420000 85.97910000 21.32320000
13.78900000 87.41950000 23.54020000
14.25560000 87.31750000 24.71460000
13.07440000 86.72340000 24.48110000
14.56500000 87.88440000 24.25380000
13.16370000 86.89610000 23.17600000
14.06630000 88.86000000 20.98590000
13.68890000 87.90650000 22.59060000
13.96310000 88.67630000 23.34090000
13.53160000 89.35540000 22.31900000
13.65490000 89.71480000 23.61010000
14.80820000 88.24000000 25.17880000
13.41910000 88.56880000 26.48210000
14.60310000 88.50040000 26.00260000
12.65110000 89.63670000 26.60440000
14.31300000 89.19870000 26.28100000
14.93320000 89.11520000 25.50770000
14.70140000 88.98720000 24.39720000
14.09890000 90.00550000 24.76350000
13.85080000 90.08210000 25.47580000
15.67310000 80.76900000 15.23620000
15.91460000 80.60230000 15.80310000
16.97380000 80.65320000 16.20750000
16.61940000 81.84020000 16.40800000
18.25350000 81.76200000 16.54350000
15.68810000 82.32690000 16.22970000
16.06960000 82.89390000 16.98690000
15.49180000 82.83990000 15.13390000
15.96260000 83.47060000 14.46250000
15.08580000 84.69940000 15.94000000
17.38610000 82.35710000 19.63860000
17.88710000 82.94000000 18.71180000
16.63060000 83.06700000 18.97360000
16.94870000 83.15150000 17.72060000
17.35550000 82.58120000 16.79510000
18.36100000 82.79470000 17.49060000
15.93550000 83.69530000 17.92820000
15.88330000 83.77770000 19.09430000
15.13030000 85.54120000 17.51360000
16.67440000 84.24190000 11.51590000
16.54060000 84.80310000 12.82420000
16.04050000 85.86050000 13.59370000
14.45380000 87.24870000 15.00490000
14.17780000 89.09190000 16.35290000
16.94940000 85.48200000 11.84180000
16.56640000 85.52610000 10.65120000
16.53960000 86.33920000 11.05630000
16.51960000 86.54860000 12.21270000
15.65170000 86.64900000 13.30570000
15.35100000 87.27970000 12.39440000
14.51640000 88.02180000 13.02550000
15.52130000 86.51690000 10.42050000
15.80330000 87.02900000 11.29620000
13.99010000 87.06790000 10.03420000
14.96400000 87.35360000 11.39390000
14.42650000 87.75690000 11.06350000
14.27730000 87.69150000 19.79730000
14.04080000 91.52750000 17.34580000
14.40540000 90.71800000 18.77480000
9.12240000 89.17790000 28.73110000
11.71590000 91.78070000 26.87110000
10.18850000 91.85460000 29.27650000
12.91470000 90.66000000 23.11200000
12.72930000 90.38490000 25.91260000
12.93860000 90.83540000 24.62730000
12.70730000 92.54620000 24.43930000
11.75070000 93.65970000 27.13960000
13.49730000 89.58350000 8.88900000
13.94410000 89.43720000 10.73720000
13.81970000 89.25830000 13.21350000
13.24130000 91.71410000 11.81130000
13.81450000 92.13410000 13.95930000
13.39580000 92.05730000 21.67040000
14.14960000 92.42870000 19.56270000
13.90660000 93.85210000 19.99460000
12.67830000 92.55230000 23.29090000
13.31850000 94.00430000 22.70860000
13.54230000 95.27640000 25.23800000
14.48220000 95.23960000 20.44350000
14.18340000 93.20370000 18.11150000
14.12480000 94.09910000 17.91370000
14.02870000 94.36690000 15.96140000
14.88390000 95.82080000 17.49740000
14.41750000 96.15000000 21.56910000
12.54270000 96.70650000 25.49600000
13.33460000 96.12890000 25.61780000
14.36130000 97.08810000 18.95160000
13.20830000 97.33130000 22.27270000
13.73720000 97.58380000 18.94250000
14.96190000 96.82800000 15.76590000
13.37790000 98.28520000 18.89130000
12.93510000 98.84960000 22.47780000
12.84460000 101.24200000 20.70010000
13.24510000 100.41510000 18.20230000
8.76710000 92.91920000 30.72360000
10.68100000 93.97800000 29.37110000
10.90000000 94.80900000 30.23840000
12.10630000 95.18530000 28.61510000
12.82900000 95.70840000 27.57210000
9.30800000 94.38340000 31.48210000
9.18100000 95.06910000 32.74590000
8.27340000 95.75300000 33.96350000
9.99920000 95.74260000 31.94990000
6.82660000 97.10700000 33.50420000
10.93670000 96.16120000 30.26460000
9.69520000 96.99500000 30.35510000
8.11850000 97.43610000 32.31300000
6.70980000 99.18160000 33.08640000
9.75290000 98.18340000 29.84810000
9.18880000 100.33620000 30.32410000
11.09360000 96.60410000 28.90380000
11.95910000 97.58390000 25.25900000
11.29600000 97.62410000 27.05440000
11.19920000 99.49110000 27.16660000
11.49230000 100.52240000 25.53890000
12.33150000 100.42150000 23.92300000
12.78200000 101.83940000 21.89290000
12.45980000 92.24220000 7.17440000
13.14490000 92.85260000 8.49140000
13.27290000 92.01310000 10.22970000
13.08980000 94.72380000 9.75050000
12.56020000 95.18470000 7.21190000
11.74600000 94.78740000 6.33790000
11.24260000 94.96860000 4.74380000
13.05940000 93.85100000 11.65390000
14.02240000 95.17840000 12.77120000
13.80300000 96.58840000 8.44670000
14.63130000 96.44410000 12.33770000
14.17310000 97.52900000 9.65390000
14.45730000 97.61300000 12.35720000
12.81960000 96.82010000 5.49610000
13.23410000 97.81090000 6.53640000
13.15840000 98.27280000 7.57660000
14.11070000 97.93010000 14.51320000
13.55420000 99.15840000 16.04720000
13.22080000 98.64820000 12.98510000
13.07880000 100.17790000 13.90030000
13.50680000 98.30350000 11.14220000
47.84550000 40.31780000 -24.79850000
47.48780000 40.73300000 -25.16690000
48.18580000 42.26020000 -24.14970000
47.87920000 42.98600000 -22.20610000
47.76260000 43.11870000 -23.17420000
41.14190000 42.96040000 -27.73030000
41.79760000 47.60880000 -27.11890000
42.61290000 47.59060000 -27.10330000
43.81180000 48.62790000 -27.17080000
47.86110000 45.55090000 -22.50600000
48.12430000 48.86760000 -22.93720000
47.53130000 52.36590000 -25.14870000
48.42810000 44.41680000 -24.36090000
48.42210000 47.96490000 -24.57810000
48.54810000 48.28690000 -23.90340000
48.41570000 51.78140000 -22.17550000
48.28060000 57.19760000 -24.41550000
48.57520000 56.52270000 -23.72550000
37.67960000 50.07590000 -29.51610000
40.51070000 54.12420000 -28.06470000
38.05820000 52.93550000 -28.75380000
37.50010000 55.93530000 -27.20400000
38.99230000 57.92590000 -26.61870000
44.02520000 55.34910000 -26.17390000
42.60630000 55.58910000 -26.59110000
39.55270000 57.04890000 -27.56140000
40.21020000 56.45360000 -27.92670000
45.32380000 55.88890000 -26.21110000
43.83300000 59.97590000 -25.29160000
42.66240000 60.77640000 -25.84890000
30.06760000 55.18810000 -28.36400000
35.74650000 58.20000000 -27.25190000
38.18010000 62.05730000 -25.52730000
32.77930000 58.43960000 -26.85120000
31.43330000 58.47360000 -26.51820000
31.04380000 59.18890000 -26.88490000
34.46990000 62.25560000 -24.81440000
32.62780000 61.45620000 -25.90360000
36.21690000 64.28550000 -24.51790000
36.67430000 62.78040000 -25.60800000
34.21840000 63.38200000 -24.42700000
40.99680000 61.12170000 -26.14000000
55.27960000 47.10880000 -11.87260000
56.03140000 49.74440000 -10.92170000
54.57810000 49.35030000 -12.47530000
55.85100000 51.46350000 -6.87940000
55.17670000 49.77420000 -7.80530000
55.38680000 52.37210000 -8.40760000
55.45260000 53.88170000 -7.68630000
56.11680000 54.75080000 -6.07620000
54.75170000 54.81500000 -13.85730000
55.28210000 57.43200000 -11.44620000
56.39850000 55.81860000 -9.63330000
56.33880000 57.12790000 -10.56490000
51.08950000 56.49130000 -19.93230000
54.87150000 58.95850000 -12.37410000
56.57630000 58.84540000 -9.56740000
55.74300000 60.01770000 -10.92130000
53.01770000 57.70560000 -17.73120000
48.38580000 55.70510000 -22.92890000
48.58380000 56.88500000 -22.07500000
54.18480000 57.42330000 -15.72460000
54.61420000 59.22680000 -14.32950000
53.75430000 60.19460000 -16.11010000
52.32130000 60.41390000 -18.23480000
50.61990000 60.30440000 -19.95070000
52.44440000 62.46260000 -17.16540000
54.07810000 62.32460000 -13.81930000
54.76720000 61.75530000 -11.40600000
53.59250000 64.04680000 -12.15910000
53.04660000 64.05600000 -14.64710000
55.19120000 58.13180000 -3.72750000
56.08090000 58.82770000 -5.82030000
56.17420000 57.79280000 -1.79930000
56.53700000 57.84470000 -0.64480000
56.46010000 61.84960000 -1.56420000
55.62370000 61.00550000 -2.99970000
56.53540000 59.91360000 -1.79000000
55.15910000 61.68530000 -3.78230000
55.42180000 60.89470000 -4.68060000
56.08550000 59.22280000 -7.66050000
56.36400000 61.93300000 -8.63290000
55.82330000 63.17780000 -7.10200000
56.16130000 63.24310000 -3.16250000
54.89140000 63.93170000 -5.19040000
54.73090000 64.85860000 -4.66940000
55.57510000 65.68140000 -3.87770000
54.51600000 65.86870000 -6.58560000
53.96060000 67.22510000 -5.06410000
55.37350000 62.63850000 0.54130000
54.37540000 66.30940000 0.21950000
56.09450000 64.62820000 -2.45060000
52.83570000 68.12410000 3.29860000
54.79150000 68.01240000 -3.51060000
53.49870000 68.91900000 -1.35400000
54.21330000 68.69780000 -4.69940000
56.25950000 61.69980000 -10.26610000
55.14040000 64.41620000 -10.70910000
54.34450000 63.61180000 -11.26030000
56.03630000 64.03810000 -9.19080000
55.52260000 64.92430000 -10.10220000
55.28560000 65.66030000 -8.95610000
54.11450000 67.08270000 -8.44610000
46.82490000 68.13910000 -12.19150000
48.43050000 67.65710000 -12.74520000
45.34930000 67.97680000 -14.06330000
46.69090000 59.65510000 -25.10320000
48.09700000 60.36380000 -22.78460000
48.23760000 59.79380000 -22.08060000
48.30560000 59.96870000 -23.55900000
47.71440000 61.45360000 -23.98800000
49.09120000 59.67200000 -21.30660000
47.89080000 62.02990000 -21.63370000
49.97590000 63.07790000 -19.30380000
45.31370000 60.69980000 -25.35040000
43.76050000 62.93820000 -24.62430000
46.08940000 62.62780000 -24.52700000
45.38160000 64.78550000 -23.66540000
47.06600000 64.47620000 -22.26530000
47.25970000 64.06380000 -20.59260000
46.52310000 65.10330000 -20.72850000
46.85150000 64.05130000 -23.33720000
46.19940000 65.97770000 -22.20220000
50.76750000 64.97350000 -16.91990000
52.21660000 65.35430000 -14.20090000
50.53870000 66.24020000 -15.42480000
49.98560000 66.90720000 -14.19770000
47.65160000 65.53790000 -18.77190000
48.05560000 66.65130000 -16.86760000
45.71670000 66.75260000 -18.45960000
47.08540000 67.53030000 -15.42530000
39.38670000 64.86840000 -24.03910000
35.37090000 66.09070000 -22.51810000
35.91270000 65.78070000 -22.79230000
37.83190000 65.95680000 -23.85890000
37.65770000 67.92870000 -22.25550000
36.74250000 69.27550000 -19.81400000
43.37810000 68.02670000 -12.94630000
44.91750000 68.50040000 -11.79660000
42.11480000 68.19750000 -11.77640000
42.03850000 68.21720000 -12.66450000
43.86090000 69.12880000 -11.06920000
42.89620000 68.36430000 -14.73400000
41.28310000 68.56610000 -10.98070000
42.19090000 68.66690000 -10.28480000
44.61940000 67.82180000 -16.05630000
38.19020000 71.36830000 -16.82620000
41.60440000 69.32080000 -19.72660000
38.81560000 70.60610000 -18.92260000
40.55690000 70.48260000 -16.70580000
40.64960000 70.08620000 -13.65160000
43.41660000 69.05470000 -17.81550000
41.99350000 64.07360000 -24.67200000
40.36650000 63.21370000 -24.60290000
40.80040000 67.12880000 -22.21630000
43.67980000 65.17430000 -23.51910000
44.48290000 66.57030000 -22.48690000
42.16240000 66.55200000 -23.02550000
42.31420000 67.95970000 -21.79090000
39.21790000 67.23310000 -22.55530000
40.33590000 69.13060000 -20.35970000
38.90530000 69.62220000 -20.43760000
44.34630000 67.99400000 -17.29160000
44.98410000 67.71950000 -19.00840000
45.83450000 66.88450000 -20.68580000
44.51660000 67.96770000 -20.44890000
53.17200000 67.62670000 -6.08210000
51.37670000 69.06620000 -6.95400000
50.92580000 69.85580000 -6.38320000
49.26720000 70.18560000 -7.46270000
51.71970000 69.00770000 -8.52870000
49.11930000 70.11730000 -9.47270000
50.63140000 71.60320000 -6.14660000
46.47220000 70.81780000 -7.55580000
46.96010000 70.34090000 -7.94450000
46.93770000 70.22790000 -9.38390000
48.47140000 71.16150000 -7.05390000
47.84890000 72.37260000 -7.03520000
52.14240000 69.93110000 4.74310000
51.62970000 70.40770000 3.67460000
50.69980000 72.26840000 3.74620000
51.25720000 71.23160000 1.43240000
52.84710000 70.06900000 -5.38760000
53.33900000 70.26590000 -4.17700000
52.08530000 71.20740000 -2.88610000
50.10450000 72.37140000 2.59240000
49.18620000 73.06330000 1.67970000
50.65220000 72.30240000 -3.22130000
48.74010000 73.86720000 2.90870000
46.68050000 74.02540000 1.63850000
48.54070000 73.20120000 -1.35050000
52.31100000 71.33380000 -4.78420000
49.62790000 72.65160000 -5.86400000
48.18990000 73.22650000 -5.28450000
52.70300000 66.35630000 -11.34710000
52.01100000 66.09920000 -12.14040000
54.24000000 66.93850000 -10.25730000
53.07150000 67.59070000 -10.87320000
50.39910000 67.03900000 -12.46570000
50.30940000 67.50060000 -11.79180000
50.74970000 68.08420000 -11.50660000
52.56980000 68.50560000 -10.32530000
51.27650000 68.91240000 -11.00270000
48.75510000 69.24200000 -11.45250000
50.95460000 69.51180000 -10.07760000
49.83130000 69.63040000 -10.91350000
47.34000000 70.04100000 -10.79930000
40.63320000 68.22900000 -7.83910000
40.53620000 68.25130000 -8.79770000
41.53460000 68.36270000 -8.96900000
42.92120000 69.20440000 -8.42080000
41.32250000 69.35330000 -7.44960000
40.93360000 70.01040000 -6.70070000
43.65010000 70.14920000 -7.83280000
42.70460000 70.96090000 -7.40790000
44.92220000 69.80680000 -10.10540000
45.72360000 69.38840000 -11.29870000
47.14810000 73.04070000 -6.61780000
45.54350000 72.33230000 -7.27740000
46.06760000 73.26020000 -6.05050000
44.01560000 72.25820000 -6.94420000
43.93800000 72.91710000 -5.02390000
42.07440000 71.52060000 -6.49940000
37.42860000 71.55520000 -10.22880000
43.93890000 73.51100000 -0.44070000
46.18190000 73.61130000 -1.88380000
46.02850000 74.60280000 2.20460000
48.44240000 74.98900000 2.91180000
46.74290000 76.32540000 2.45610000
44.26600000 76.55240000 2.26280000
31.10530000 61.38360000 -26.72510000
31.42830000 64.22590000 -25.42400000
33.25500000 64.28120000 -24.96570000
34.61550000 67.11640000 -22.72040000
33.03680000 67.37930000 -23.23570000
36.16140000 68.49650000 -20.42050000
34.66910000 69.35300000 -20.93150000
37.61380000 70.17140000 -19.51130000
32.65470000 70.05730000 -20.74990000
34.09860000 71.28840000 -18.79030000
29.30010000 71.50060000 -19.02480000
37.96130000 71.75780000 -13.86990000
36.21910000 72.27920000 -12.34220000
34.87400000 72.96970000 -13.03760000
37.04760000 71.15580000 -17.15210000
36.29990000 70.42710000 -18.16680000
36.40360000 71.55000000 -15.69690000
34.07470000 72.54180000 -15.94890000
35.54210000 71.07430000 -17.98780000
26.22800000 72.47700000 -18.11430000
25.10290000 73.33090000 -19.26410000
25.76980000 73.25970000 -18.45580000
26.40920000 74.72280000 -18.37730000
23.15840000 75.22730000 -20.42690000
25.42050000 75.41340000 -20.24790000
26.17380000 75.29960000 -19.49420000
25.78820000 75.83470000 -19.86550000
24.18820000 75.64420000 -20.57400000
24.53510000 76.43160000 -20.16030000
25.06930000 76.83550000 -19.35930000
22.82090000 76.42690000 -20.36240000
23.09890000 77.54170000 -19.74050000
26.56780000 75.29560000 -17.87840000
24.85390000 77.28740000 -18.38020000
26.37960000 75.91260000 -18.48650000
23.54760000 77.87130000 -17.82860000
23.77490000 77.97810000 -19.05780000
28.55890000 78.79100000 -10.00150000
21.95830000 76.96630000 -19.54350000
22.44150000 77.80530000 -18.68920000
53.55400000 71.61780000 6.80040000
53.37170000 71.80930000 5.51100000
52.09410000 72.29300000 4.49010000
52.17540000 74.42110000 6.15630000
52.55970000 73.79660000 4.77960000
52.16840000 73.91480000 8.07350000
52.16910000 73.52230000 4.22960000
50.37640000 74.93470000 3.36490000
51.18050000 75.12370000 3.79710000
51.78680000 74.91080000 4.65240000
49.71730000 76.15290000 3.38700000
50.60290000 75.97760000 7.08490000
50.29920000 76.25920000 4.87760000
49.94780000 75.64120000 8.30290000
49.53260000 76.52270000 7.58730000
48.25830000 76.88130000 3.52540000
48.90150000 77.11650000 6.16720000
47.85370000 77.41950000 4.92930000
46.57520000 77.81640000 6.22740000
45.67910000 77.72160000 4.76220000
46.60880000 77.06890000 2.99620000
47.83790000 77.33650000 7.16980000
-28.23030000 55.88240000 2.63680000
-28.29720000 57.61320000 4.64380000
-27.70980000 57.34420000 7.19700000
-25.60970000 58.35530000 -5.07710000
-27.02410000 56.36630000 -2.16190000
-26.88600000 60.80820000 4.70500000
-27.22060000 60.36020000 -1.03570000
-27.68600000 60.36920000 2.41890000
-26.69640000 62.59480000 -0.61720000
-25.92320000 63.47710000 2.74450000
-25.79890000 64.33670000 -0.12930000
-25.93500000 62.09980000 -3.85860000
-25.53600000 64.59570000 -3.13660000
-25.48300000 63.68640000 -4.89340000
-24.89020000 66.19180000 -1.81630000
-24.38810000 66.29200000 0.50750000
-23.83730000 62.79630000 -7.56170000
-24.79620000 62.95410000 -6.34280000
-24.64550000 63.71590000 -7.70400000
-25.73640000 64.02780000 -6.80170000
-26.20610000 64.68340000 -5.32470000
-23.35490000 64.01190000 -8.48650000
-24.16170000 64.53210000 -9.07780000
-25.47000000 64.78540000 -8.58300000
-25.01930000 65.47540000 -9.58960000
-26.19010000 65.64130000 -4.12810000
-18.21280000 65.51030000 -12.17560000
-15.53470000 65.83490000 -14.09590000
-21.84490000 64.75600000 -9.20480000
-19.95290000 66.91060000 -10.12850000
-21.33360000 66.56450000 -9.19960000
-22.99920000 65.35960000 -9.41530000
-24.24080000 65.65180000 -9.91880000
-23.17290000 66.55270000 -9.85370000
-20.72670000 68.11990000 -8.87100000
-22.30300000 67.89030000 -9.12250000
-21.39620000 68.15040000 -8.69560000
-21.33980000 69.04240000 -8.81120000
-18.44610000 67.85630000 -11.42170000
-16.66910000 68.66940000 -12.28200000
-18.28720000 68.49080000 -11.71930000
-20.31030000 68.35300000 -9.54990000
-19.84500000 68.59290000 -10.92800000
-20.88470000 68.87410000 -11.43250000
-21.13670000 68.88760000 -10.09910000
-19.68950000 69.19800000 -12.66610000
-18.56730000 69.60860000 -12.98110000
-26.14090000 65.16700000 -7.56250000
-26.42360000 65.53600000 -6.20610000
-26.10250000 66.95200000 -4.43780000
-26.06190000 66.52660000 -6.39400000
-25.60790000 66.84330000 -9.27220000
-26.35360000 66.97460000 -8.40950000
-26.37760000 66.72570000 -7.45600000
-25.50100000 67.74360000 -5.91150000
-26.22940000 67.94190000 -8.43100000
-26.27680000 67.95350000 -7.56600000
-24.96660000 68.64840000 -6.64920000
-25.31300000 67.28710000 -2.28320000
-25.56240000 68.06890000 -4.00420000
-24.47010000 68.93280000 -1.82590000
-23.32240000 70.12260000 -4.73040000
-23.82320000 69.87380000 -2.72910000
-24.42800000 66.68530000 -10.08130000
-24.91480000 67.97830000 -9.44020000
-23.80410000 67.59140000 -9.84220000
-23.42310000 68.70370000 -8.73570000
-25.50700000 68.50700000 -8.44660000
-24.43190000 69.01490000 -7.82760000
-23.38670000 69.31210000 -6.65470000
-22.37240000 69.65280000 -6.94060000
-21.80470000 68.78410000 -8.47430000
-21.46550000 70.19770000 -7.30190000
-21.42130000 70.26640000 -8.24310000
-21.84150000 71.02540000 -5.64400000
-21.28980000 71.46010000 -6.39770000
-21.78290000 69.54170000 -10.38290000
-21.47560000 69.21770000 -11.64420000
-21.47240000 70.10070000 -12.55930000
-21.77770000 70.50200000 -11.23430000
-21.80360000 70.11750000 -9.66040000
-20.84790000 69.28570000 -12.50930000
-20.60640000 70.02650000 -13.52290000
-21.17330000 71.56600000 -12.52790000
-21.49710000 71.11590000 -9.89330000
-21.09750000 71.72840000 -11.18910000
-20.95590000 72.67760000 -11.89020000
-21.06890000 72.09200000 -7.68450000
-21.60400000 73.07700000 -6.76190000
-20.42080000 72.41930000 -10.50660000
-20.35520000 72.51340000 -8.92630000
-19.19040000 73.06750000 -9.77090000
-19.56880000 73.07350000 -10.71260000
-19.68900000 73.58990000 -8.37870000
-17.42630000 74.53030000 -8.47610000
-20.81710000 72.97860000 -7.93870000
-21.24570000 73.92530000 -7.61390000
-20.65940000 74.26980000 -7.97420000
-23.11650000 63.81310000 6.99260000
-21.45240000 65.08580000 7.08060000
-24.38730000 64.30660000 4.85130000
-18.95080000 68.13250000 8.35170000
-20.42320000 66.04270000 8.13330000
-17.22670000 69.80400000 17.57570000
-17.64940000 70.16970000 18.92560000
-18.28740000 69.61410000 17.84150000
-18.32640000 69.88280000 16.21550000
-16.38860000 70.02020000 16.03450000
-17.53960000 70.71170000 15.42040000
-16.44460000 69.93830000 17.44740000
-19.04680000 69.89960000 17.85110000
-18.98390000 69.73170000 16.89010000
-19.56090000 70.90600000 18.00480000
-19.58110000 70.50080000 16.56220000
-18.85200000 70.35560000 18.86910000
-19.25730000 71.97080000 19.69440000
-19.32590000 70.57590000 15.77830000
-18.84310000 71.34380000 15.13810000
-16.50840000 70.99460000 20.40240000
-16.96060000 72.10310000 24.11310000
-17.16800000 72.29250000 20.86500000
-17.46330000 71.15170000 19.84690000
-18.70590000 71.94010000 20.20570000
-18.10160000 73.40200000 20.94750000
-17.61480000 74.32370000 21.90410000
-19.73030000 74.01890000 18.87420000
-19.83380000 72.40980000 15.95990000
-19.42820000 72.79930000 15.20130000
-19.92350000 75.14550000 17.18020000
-19.61280000 74.58470000 16.02730000
-19.17740000 74.10300000 20.55020000
-18.02830000 75.87800000 21.50270000
-19.29740000 75.96470000 20.48390000
-19.87290000 79.20690000 17.62630000
-19.47270000 78.55610000 18.97540000
-18.93160000 77.10040000 20.47540000
-17.69530000 75.91530000 25.27530000
-16.83670000 77.31070000 29.30290000
-17.62730000 78.82650000 27.56920000
-18.04880000 80.78670000 25.40310000
-18.19880000 78.93110000 20.14980000
-18.25710000 80.79750000 20.74160000
-18.51800000 84.31030000 23.91760000
-20.24660000 68.83130000 5.71000000
-24.68220000 65.25530000 2.79930000
-23.78610000 66.16820000 3.74960000
-22.62380000 66.67900000 4.43150000
-24.59160000 66.31170000 1.91840000
-24.45860000 65.98200000 2.72440000
-24.86880000 66.57790000 3.14460000
-24.11350000 66.59350000 3.67760000
-25.52340000 67.18930000 4.05940000
-25.68740000 66.96290000 2.47190000
-24.78920000 67.18550000 1.22700000
-23.92490000 67.72810000 0.39110000
-24.93310000 68.51280000 0.74460000
-21.57340000 67.02470000 4.90230000
-23.29110000 67.71740000 4.56990000
-21.68780000 69.40400000 4.38000000
-20.98900000 68.39200000 4.49360000
-25.42960000 68.00650000 4.66810000
-23.61890000 69.26490000 5.04760000
-21.66920000 71.89330000 4.46820000
-23.78630000 67.38470000 -0.36860000
-23.94680000 68.35430000 -0.60440000
-20.48120000 70.17040000 4.24300000
-19.54920000 71.71890000 4.18730000
-20.04800000 72.54180000 4.07000000
-18.27210000 71.99840000 8.04320000
-17.87400000 70.27440000 9.90720000
-17.58610000 71.77280000 9.67800000
-15.38240000 71.46370000 10.22450000
-15.41730000 71.59920000 11.41480000
-16.79170000 72.35270000 9.37020000
-16.33220000 73.08210000 8.93600000
-15.79720000 73.38090000 9.05250000
-18.73280000 71.59530000 5.98940000
-18.23860000 73.76240000 6.14100000
-18.73220000 73.40540000 4.47930000
-19.04710000 74.23960000 4.29310000
-18.19850000 74.71770000 5.42880000
-17.29260000 73.19160000 9.28740000
-18.08360000 73.20900000 8.57240000
-17.76630000 73.96380000 9.26600000
-17.02100000 73.83270000 9.27020000
-16.91750000 74.55780000 10.21770000
-16.23520000 74.24060000 10.57600000
-16.32550000 73.94530000 8.97460000
-18.19240000 74.35100000 7.99780000
-18.24220000 74.41080000 8.98800000
-18.25520000 74.60620000 9.90750000
-18.20730000 75.15680000 11.23270000
-20.58330000 75.28620000 9.48240000
-19.95580000 75.15450000 10.87440000
-18.96680000 75.32100000 8.31330000
-18.24820000 75.40260000 7.05200000
-18.64990000 75.23460000 5.31800000
-26.90230000 67.41350000 3.11420000
-26.73260000 67.75130000 3.84570000
-27.41740000 68.06090000 2.27990000
-27.56830000 68.34570000 3.11850000
-26.89460000 69.00170000 4.11280000
-26.51360000 68.04020000 1.50000000
-27.14300000 68.97150000 1.40930000
-27.61370000 69.66730000 2.38560000
-27.63830000 69.37390000 3.06960000
-25.80280000 69.50770000 0.91540000
-26.71090000 70.33470000 1.46220000
-24.60200000 70.60970000 1.26230000
-25.69620000 70.99550000 1.74990000
-27.16090000 70.70600000 3.00910000
-25.64800000 69.54130000 4.68210000
-24.28080000 70.66950000 4.57490000
-24.40380000 71.15190000 3.95380000
-22.78370000 72.14320000 3.99820000
-27.23240000 70.07270000 3.72550000
-26.17830000 70.75970000 4.05380000
-26.47780000 71.18860000 2.79180000
-25.70230000 71.18990000 3.59830000
-24.88170000 71.35500000 2.86480000
-23.46220000 69.71380000 0.17350000
-24.15400000 69.72240000 0.65670000
-23.10280000 70.12970000 -0.71850000
-23.28150000 70.98860000 0.77090000
-22.47460000 71.56830000 -0.28790000
-22.21030000 71.27200000 -2.02810000
-23.92330000 71.34790000 2.02300000
-23.41240000 71.86610000 2.97800000
-22.20620000 72.84360000 1.33060000
-21.57770000 73.76660000 3.42450000
-22.28830000 72.83800000 -1.06740000
-21.62920000 75.22070000 10.22830000
-23.19610000 75.28050000 11.14050000
-21.81700000 75.30540000 11.95730000
-23.45590000 75.70640000 12.38350000
-22.36120000 75.86610000 13.02180000
-24.08600000 75.70910000 11.31520000
-24.17960000 76.29600000 12.13410000
-23.69550000 75.79120000 10.05980000
-24.58100000 76.87880000 11.39470000
-24.50090000 76.43370000 10.64870000
-22.37310000 75.97360000 9.20930000
-23.45520000 76.66400000 9.26440000
-20.80860000 73.83840000 4.08840000
-19.79760000 74.69990000 4.34780000
-20.86110000 74.74990000 2.30100000
-20.69540000 74.91280000 3.53150000
-20.51840000 75.30920000 4.30780000
-19.84720000 75.65240000 5.59720000
-20.62480000 76.31340000 5.98910000
-21.06890000 75.83680000 2.78380000
-21.31100000 76.33550000 4.32230000
-21.63360000 76.76010000 3.15930000
-20.93740000 77.44310000 5.84390000
-20.40810000 76.33290000 8.11280000
-19.49920000 76.03890000 7.31400000
-18.87150000 75.77980000 6.40030000
-20.42100000 76.93280000 7.32010000
-22.05140000 77.21430000 8.66930000
-21.01780000 77.36160000 8.10930000
-21.59330000 78.51120000 8.60530000
-20.70770000 78.14740000 7.68640000
-20.39390000 79.71170000 6.93680000
-20.72960000 78.79650000 5.20440000
-20.71050000 79.57840000 8.31410000
-24.65180000 77.82700000 10.80520000
-23.59120000 77.47890000 12.84350000
-24.30240000 78.34050000 11.55750000
-24.23340000 77.13120000 9.78530000
-23.76540000 77.90610000 9.34290000
-23.91590000 78.52190000 9.78280000
-23.47520000 79.30020000 10.58310000
-22.60270000 78.78970000 9.16050000
-21.86410000 79.56570000 9.26300000
-19.96790000 81.99610000 7.26960000
-21.70990000 71.62910000 -4.27790000
-21.36970000 72.36540000 -3.54480000
-22.12150000 72.06090000 -1.92680000
-21.60660000 73.20450000 -2.84460000
-21.59890000 71.86440000 -5.54480000
-21.29050000 73.21750000 -4.88780000
-21.89570000 73.78490000 -1.88740000
-21.60920000 73.48210000 -5.86330000
-20.49200000 74.05830000 -4.31430000
-20.53070000 73.98870000 -3.60560000
-21.15320000 74.42980000 -2.34360000
-21.42190000 74.05450000 0.10470000
-20.13130000 74.80170000 -0.78650000
-20.19050000 75.18680000 0.75940000
-18.18270000 76.04450000 -1.82230000
-18.87040000 76.68160000 0.22570000
-20.71980000 74.77710000 -1.53510000
-20.04200000 74.75530000 -2.47770000
-18.60750000 74.66190000 -7.68830000
-17.51110000 75.05410000 -7.22360000
-17.84130000 75.95450000 -6.47210000
-21.53190000 74.59230000 -6.53310000
-21.14110000 75.31410000 -5.94800000
-21.16100000 75.18280000 -6.93450000
-20.78920000 74.93980000 -5.04070000
-19.59900000 74.66280000 -3.55770000
-19.23440000 75.42370000 -4.61570000
-20.12450000 75.55920000 -5.19000000
-19.45650000 74.89230000 -7.76080000
-20.49830000 75.27130000 -7.42080000
-20.16030000 75.75360000 -6.67690000
-18.90370000 75.78560000 -6.72950000
-19.37280000 75.89890000 -5.78430000
-18.25080000 76.07850000 -4.63160000
-18.23810000 76.20090000 -5.64980000
-16.89830000 77.59440000 -5.40120000
-18.74810000 75.02280000 -2.63060000
-16.55340000 77.75150000 -3.96140000
-16.46860000 79.38380000 -1.56150000
-15.34500000 79.59430000 -3.34420000
-20.34680000 75.94740000 1.42020000
-20.81820000 76.41830000 1.48630000
-21.52610000 77.16200000 1.98860000
-21.36720000 78.17800000 2.94780000
-19.79590000 77.30410000 0.57650000
-18.58520000 78.38040000 0.24090000
-21.00800000 77.74300000 1.03370000
-20.12740000 78.62910000 0.46720000
-17.66090000 78.03380000 -0.33960000
-16.97270000 80.67360000 0.73420000
-18.84710000 79.76170000 0.56560000
-18.28460000 81.03330000 1.40200000
-15.67500000 83.94730000 0.44410000
-16.63530000 82.89540000 1.46070000
-21.37830000 78.58720000 1.59670000
-21.18520000 78.90850000 4.08930000
-21.49450000 79.61270000 3.59210000
-21.27480000 80.05640000 2.68420000
-20.74360000 79.63380000 1.20310000
-19.92490000 81.04140000 1.89700000
-20.50970000 81.10860000 2.89890000
-20.94650000 79.87550000 4.63780000
-20.14070000 80.46290000 5.40320000
-20.70350000 80.82690000 4.08810000
-19.12560000 81.99510000 4.77000000
-19.38010000 81.65950000 3.62510000
-18.98910000 85.48050000 6.08320000
-18.02090000 82.13770000 2.42650000
-18.40830000 85.45030000 4.31150000
-17.28220000 85.08140000 2.66610000
-15.86750000 71.04540000 14.89690000
-16.75610000 71.91060000 14.83210000
-16.03690000 72.25600000 13.16080000
-17.90980000 72.64720000 14.50620000
-16.85840000 73.04110000 13.90590000
-16.85720000 74.89030000 13.13560000
-18.40720000 74.25120000 14.84150000
-17.03680000 73.99780000 13.67770000
-17.48890000 75.17040000 14.56430000
-18.75140000 75.40690000 15.43050000
-19.42480000 76.31790000 16.03960000
-19.53070000 75.74370000 12.59790000
-17.63610000 76.38580000 14.98050000
-18.26330000 76.72630000 15.06340000
-17.26260000 76.40360000 13.76550000
-18.98900000 77.22430000 14.92280000
-17.66640000 77.51100000 14.62690000
-18.34090000 77.50820000 14.42420000
-17.29690000 75.80260000 12.22660000
-17.91230000 75.93720000 12.35360000
-19.79320000 76.69190000 13.74940000
-17.57560000 76.55340000 13.11970000
-17.65910000 77.33880000 13.90150000
-18.43010000 77.26900000 13.96400000
-18.69660000 79.15860000 19.16220000
-21.47250000 77.69470000 14.42020000
-19.82190000 77.65740000 14.65430000
-23.03220000 76.43900000 13.40280000
-22.54150000 77.80590000 14.01980000
-21.31150000 79.24610000 14.78330000
-21.94660000 79.85940000 14.01380000
-19.99730000 78.76070000 16.08630000
-19.63540000 77.65050000 15.42050000
-19.27930000 80.89670000 17.92730000
-20.44100000 79.01890000 15.38450000
-21.01150000 80.84670000 15.58890000
-20.11540000 81.25670000 16.74350000
-22.79430000 79.38470000 12.53770000
-22.34410000 80.21210000 11.22380000
-21.73530000 81.50250000 13.24810000
-21.68370000 83.09790000 14.36350000
-20.94210000 82.99350000 16.52840000
-19.53730000 82.49870000 17.54920000
-21.27320000 83.36090000 15.75390000
-21.52810000 83.61790000 16.70600000
-21.42690000 84.38900000 16.00650000
-22.15310000 80.06090000 9.94320000
-21.29970000 81.12810000 8.92200000
-21.54680000 82.34510000 10.22320000
-21.13880000 83.47040000 11.90690000
-20.66250000 83.80780000 8.58040000
-21.43450000 84.33460000 13.05130000
-21.24470000 86.83940000 14.16920000
-20.93160000 88.20480000 17.70670000
-20.35610000 87.68720000 13.12530000
-20.44080000 86.10550000 11.64400000
-19.03630000 82.98630000 21.06520000
-18.73240000 82.27710000 19.91880000
-18.74150000 83.38470000 21.93250000
-18.57620000 81.26080000 18.35390000
-18.71390000 82.64950000 18.41770000
-19.48840000 83.11080000 17.94270000
-19.31250000 83.57580000 18.86770000
-19.36750000 83.81380000 19.94760000
-19.09300000 86.22310000 22.24780000
-19.42950000 84.93460000 21.49020000
-21.26550000 83.18880000 17.37740000
-20.49880000 83.43030000 18.62360000
-21.72420000 83.43100000 18.79560000
-22.36430000 83.32600000 17.84780000
-20.09720000 84.39620000 20.12150000
-21.43230000 84.22790000 19.71010000
-19.83790000 86.18350000 21.46060000
-21.00690000 85.83310000 20.85050000
-22.70780000 83.88090000 18.64870000
-23.39870000 84.37120000 17.84680000
-22.48110000 83.91670000 16.97520000
-22.18550000 85.03350000 19.57480000
-23.30280000 84.78550000 18.87270000
-22.29920000 85.63740000 19.40090000
-22.99030000 85.78680000 18.75860000
-21.87870000 84.98990000 16.69500000
-23.07490000 84.80000000 17.04690000
-22.65100000 85.73790000 17.27520000
-22.54260000 86.24500000 18.33430000
-21.41830000 87.02610000 20.37270000
-21.80030000 86.76140000 18.97970000
-19.41880000 89.96690000 23.72730000
-20.60040000 89.94920000 22.33490000
-19.88940000 88.59420000 22.59930000
-21.24600000 86.17040000 17.04060000
-21.96670000 86.37420000 17.86310000
-21.31260000 87.60260000 18.50250000
-20.30580000 82.75530000 7.66280000
-20.27210000 86.52390000 9.89580000
-19.29070000 86.01770000 7.98080000
-19.47440000 87.18570000 9.16320000
-17.65350000 87.15930000 4.07940000
-17.03540000 88.30380000 4.39170000
-23.46520000 85.51260000 17.99700000
-21.15180000 89.53090000 20.57360000
-21.10080000 88.15130000 16.01530000
-21.13840000 90.07860000 15.32500000
-20.66830000 89.26930000 14.08800000
-21.03210000 90.74620000 17.69260000
-21.58900000 91.88740000 15.88120000
-21.13720000 90.40010000 19.35910000
-20.95980000 92.10520000 22.05120000
-21.41660000 92.20500000 20.09940000
-22.57270000 93.19140000 16.91620000
-22.15260000 93.00350000 20.89290000
-22.30460000 93.85820000 21.46370000
-21.79470000 92.61090000 12.97490000
-22.51510000 93.96570000 19.30550000
-22.40230000 93.98940000 15.25820000
-21.89750000 94.79780000 19.62050000
-20.11690000 89.52760000 11.27210000
-19.60530000 89.36570000 9.95550000
-19.01270000 89.96180000 9.16040000
-20.11780000 91.72620000 10.28810000
-18.62210000 89.33470000 6.91930000
-17.75230000 89.65780000 5.13110000
-19.35460000 91.59040000 9.14310000
-18.73310000 91.16930000 7.57950000
-18.24050000 91.48620000 5.87810000
-17.49810000 91.15310000 5.03830000
-18.65020000 92.21620000 6.33320000
-19.82800000 92.99220000 6.87080000
-21.20320000 93.12180000 9.82630000
-19.80120000 94.03700000 6.05900000
-21.88170000 93.71010000 11.76420000
-20.62000000 94.40580000 8.38930000
-20.19920000 90.19840000 13.23170000
-20.81300000 90.72730000 14.12570000
-20.30340000 91.40140000 12.29060000
-21.07870000 91.70990000 13.78690000
-21.52540000 94.51670000 12.17270000
-21.61520000 95.27460000 16.77820000
-21.35680000 96.22910000 14.29940000
-21.61330000 98.21770000 17.92210000
-20.84720000 95.07430000 11.63380000
-20.52720000 95.59340000 11.14300000
-19.41070000 95.29140000 6.96920000
-20.56850000 97.16180000 11.20560000
-19.18500000 99.52090000 7.55610000
-20.43390000 100.32240000 10.97570000
-21.37600000 98.85590000 13.49290000
-20.87280000 101.14250000 13.11570000
-21.48310000 100.58530000 15.06880000
-20.96750000 102.55870000 14.95540000
-19.90050000 103.54450000 11.60800000
-19.92790000 104.22740000 14.22890000
-14.35450000 64.41620000 -19.23850000
-14.25870000 64.64500000 -17.52580000
-13.83810000 64.59120000 -16.51810000
-14.56900000 66.99100000 -14.61200000
-14.47130000 65.75920000 -16.05280000
-15.00890000 65.20040000 -18.10070000
-15.07530000 66.86830000 -16.86450000
-15.17030000 65.88640000 -18.45570000
-14.53000000 67.90370000 -15.56160000
-13.72180000 64.41420000 -20.87100000
-12.57150000 64.27040000 -21.06500000
-13.14000000 65.72570000 -22.33400000
-12.47010000 64.90750000 -22.22460000
-14.57280000 65.44820000 -19.93150000
-13.93240000 66.07100000 -21.42680000
-13.96290000 67.21680000 -21.91100000
-14.74290000 67.25160000 -17.85570000
-13.72320000 67.67940000 -18.87180000
-12.62470000 69.58800000 -18.01150000
-13.99120000 66.97830000 -20.09870000
-14.04330000 67.69450000 -21.13480000
-13.77480000 68.04070000 -20.28700000
-12.94170000 68.62370000 -19.23310000
-11.77100000 69.40680000 -18.84310000
-13.80770000 69.08430000 -17.17760000
-13.40120000 68.72950000 -20.98480000
-12.33080000 69.12960000 -19.94100000
-14.42980000 68.56140000 -14.70460000
-15.13440000 69.09350000 -13.76950000
-11.14760000 70.85440000 -17.89730000
-16.89030000 69.79810000 -12.27680000
-16.03140000 70.20680000 -12.63950000
-15.44700000 70.79560000 -13.82400000
-14.89960000 69.82780000 -15.14680000
-18.12150000 70.80560000 -13.38820000
-16.66940000 71.31770000 -12.35070000
-17.72860000 71.74310000 -12.98040000
-15.72820000 71.94140000 -12.39390000
-14.66580000 71.98740000 -14.24520000
-14.84370000 72.74580000 -12.69860000
-17.58540000 72.57340000 -12.01760000
-16.36400000 72.85230000 -11.88890000
-15.29050000 73.78680000 -11.91220000
-16.89770000 73.46040000 -10.83760000
-15.61410000 74.50320000 -10.44910000
-14.47630000 68.69920000 -16.40070000
-14.45930000 70.68270000 -15.86580000
-13.59370000 71.35010000 -16.87900000
-12.20730000 71.81460000 -17.67820000
-12.41450000 73.90620000 -17.12380000
-13.76810000 73.53470000 -15.67290000
-14.37160000 73.36090000 -13.76210000
-15.11890000 74.28570000 -12.46720000
-14.78410000 74.89040000 -13.51630000
-13.49210000 75.01360000 -15.42600000
-11.86860000 66.21280000 -22.95340000
-10.72420000 67.09560000 -22.55180000
-12.96310000 67.50670000 -22.68710000
-11.50340000 67.71810000 -22.86540000
-9.40500000 67.67860000 -20.77380000
-10.42730000 68.37790000 -21.63200000
-9.44630000 68.91140000 -19.89340000
-12.33700000 68.42230000 -22.45000000
-12.37120000 69.14850000 -21.28650000
-11.38970000 68.80880000 -22.00190000
-11.09230000 69.17290000 -20.89010000
-10.53100000 69.54560000 -19.31810000
-13.28260000 68.58160000 -21.79290000
-8.61590000 69.01800000 -19.28550000
-7.72350000 70.01080000 -19.04100000
-8.87760000 69.91440000 -19.12870000
-7.91050000 70.95840000 -18.88290000
-7.00560000 70.38710000 -19.30250000
-8.63510000 72.10000000 -17.85700000
-9.89380000 72.52400000 -16.86230000
-7.09970000 72.19810000 -19.48960000
-8.79430000 73.44710000 -16.79140000
-7.69430000 74.19820000 -17.30280000
-6.58610000 71.03090000 -20.38290000
-6.02030000 72.72750000 -20.99830000
-5.55140000 71.16060000 -22.11610000
-5.44280000 72.49210000 -22.36490000
-7.04220000 73.23700000 -18.67680000
-5.74380000 73.47700000 -19.56640000
-5.71770000 74.17180000 -18.49440000
-5.49240000 73.73830000 -22.03010000
-5.22790000 74.04860000 -20.85690000
-3.68410000 74.30320000 -19.07330000
-4.43270000 74.28960000 -19.29330000
-4.34160000 74.83150000 -18.15450000
-3.05040000 75.12540000 -16.62160000
-3.61030000 75.09650000 -17.33830000
-2.34660000 75.58260000 -16.11410000
-4.17380000 75.81180000 -17.78710000
-3.28090000 76.34370000 -16.57550000
-6.06050000 75.43570000 -17.93730000
-7.01300000 76.19280000 -17.13050000
-5.10940000 75.20700000 -18.09030000
-4.82070000 76.55450000 -18.01570000
-4.08550000 77.10670000 -17.52530000
-6.03700000 77.04300000 -17.57290000
-5.25590000 77.46870000 -17.62760000
-10.48410000 73.30920000 -17.10210000
-11.82750000 73.70010000 -17.33280000
-10.34380000 74.05000000 -17.41910000
-8.14290000 75.34770000 -16.81850000
-9.21550000 75.11170000 -17.36110000
-10.51360000 75.13220000 -17.83070000
-9.40360000 76.09890000 -17.31920000
-13.70670000 75.64700000 -14.51190000
-12.19010000 76.14760000 -15.94580000
-11.75290000 75.71000000 -16.87210000
-12.11470000 76.49280000 -14.30250000
-11.71690000 77.00270000 -15.16090000
-10.82920000 77.17900000 -14.08340000
-10.80750000 76.70040000 -16.83460000
-11.55640000 76.81170000 -16.38300000
-9.93240000 77.22150000 -16.39060000
-10.04350000 77.52600000 -15.11380000
-8.32330000 77.05570000 -14.86530000
-8.77310000 76.86310000 -16.14220000
-11.21420000 77.41710000 -15.82580000
-7.56360000 76.66330000 -16.15670000
-6.87050000 77.53690000 -16.33810000
-6.13740000 77.92690000 -16.92280000
-19.83810000 71.55340000 -14.11740000
-20.61530000 71.44190000 -13.83340000
-19.11670000 72.35640000 -13.85150000
-18.80100000 73.02440000 -12.99540000
-20.69760000 72.87890000 -12.96700000
-20.16590000 72.76410000 -13.66710000
-20.00830000 73.37420000 -12.90340000
-19.08590000 73.35010000 -11.78150000
-18.19550000 73.14580000 -10.90550000
-15.21220000 75.32910000 -11.05370000
-20.33750000 73.32180000 -12.05230000
-14.63750000 75.85140000 -12.83280000
-13.53760000 77.23340000 -11.25120000
-12.63580000 76.89920000 -12.61870000
-4.55200000 73.11440000 -23.01910000
-3.77000000 73.76960000 -22.80380000
-3.01670000 74.11480000 -21.69450000
-3.80320000 74.45000000 -21.92850000
-4.91440000 74.34360000 -22.08670000
-4.32550000 74.57340000 -21.06800000
-3.57950000 74.36830000 -20.41600000
-11.58180000 77.77310000 -11.04700000
-10.07350000 79.95570000 -8.79220000
-9.79010000 78.65430000 -11.04780000
-2.91630000 76.76210000 -14.23000000
-1.58010000 76.68840000 -15.77690000
-3.22470000 76.86500000 -15.51010000
-1.57690000 76.80960000 -14.92830000
-3.63170000 77.14430000 -14.21630000
-3.43400000 79.98380000 -10.40870000
-4.39750000 77.76360000 -12.88510000
-4.74740000 77.91540000 -13.75360000
-5.98990000 77.95720000 -13.88460000
-4.80480000 78.28470000 -15.00210000
-5.08560000 78.78460000 -11.69620000
-5.65640000 78.69920000 -12.47610000
-3.55680000 77.47100000 -16.70790000
-3.87800000 77.86510000 -15.36420000
-4.79340000 78.19420000 -16.74430000
-1.71150000 80.70210000 -10.55160000
-4.85300000 79.75840000 -10.24890000
-9.26990000 77.25940000 -14.27680000
-9.58600000 77.30380000 -13.25140000
-7.42910000 77.77970000 -13.32410000
-7.41610000 77.19980000 -14.70550000
-11.26560000 76.86090000 -13.12360000
-6.77450000 79.70080000 -11.14950000
-5.98560000 81.01760000 -9.38320000
-8.54940000 81.26760000 -8.44650000
-11.62900000 79.88550000 -8.10330000
