-18.31220000 -33.40610000 20.90520000
-18.42530000 -34.70290000 20.68590000
-18.44600000 -33.75080000 21.21450000
-18.39990000 -33.82450000 21.14140000
-18.55530000 -34.33110000 21.26490000
-18.54160000 -35.04430000 21.19650000
-18.38330000 -34.00990000 21.04330000
-18.45590000 -34.90380000 21.04130000
-18.69890000 -33.22150000 21.28350000
-18.83330000 -33.95070000 21.28920000
-18.87200000 -34.40050000 21.30360000
-18.73770000 -34.44610000 21.31930000
-19.09060000 -34.60180000 21.23950000
-18.91900000 -35.28860000 21.31280000
-18.65730000 -34.64860000 21.29660000
-18.68240000 -35.23970000 21.27760000
-18.66840000 -36.07920000 21.25990000
-18.58260000 -36.29980000 21.19630000
-18.73170000 -36.64410000 21.29730000
-18.62170000 -37.90960000 21.21870000
-18.73470000 -37.59450000 19.90370000
-18.56890000 -36.06800000 20.27280000
-18.53890000 -36.84680000 20.52150000
-18.60850000 -38.10380000 20.45530000
-18.50410000 -36.93100000 20.75800000
-18.59250000 -39.08070000 20.80410000
-18.50280000 -36.40570000 21.01720000
-18.51970000 -37.22100000 20.93400000
-18.58390000 -38.58500000 21.02290000
-19.30110000 -37.66490000 21.31360000
-19.20300000 -38.29190000 21.37820000
-18.95350000 -37.54110000 21.40040000
-19.77190000 -40.27170000 21.26480000
-19.30400000 -39.75500000 21.41840000
-18.96980000 -39.51720000 21.48700000
-18.78020000 -38.71980000 21.38510000
-18.76220000 -40.02050000 21.43280000
-18.68290000 -40.16190000 21.34720000
-18.83720000 -40.92030000 21.52530000
-18.75170000 -42.28720000 21.47430000
-18.63680000 -39.94790000 21.17760000
-18.65710000 -40.80860000 21.14090000
-19.07150000 -42.78590000 21.66650000
-18.88700000 -42.70400000 21.61100000
-18.90140000 -41.60610000 21.59560000
-19.03310000 -41.15620000 21.58300000
-18.68250000 -41.44960000 21.07900000
-18.66430000 -40.66150000 20.83020000
-18.73890000 -42.58090000 21.22040000
-18.81680000 -42.68570000 20.74370000
-18.97190000 -44.23980000 21.60860000
-18.89670000 -43.77360000 21.58120000
-18.94640000 -45.55330000 21.45610000
-18.84280000 -44.00510000 21.48260000
-18.80330000 -43.68970000 21.31980000
-18.84760000 -44.25880000 21.20250000
-19.19340000 -45.28150000 21.74890000
-19.04230000 -45.48330000 21.63840000
-19.03190000 -44.53750000 21.66250000
-19.11730000 -44.01740000 21.72240000
-15.98510000 -48.17720000 17.95150000
-16.06130000 -48.74050000 17.97740000
-15.80830000 -49.28680000 18.04470000
-15.68520000 -48.99910000 18.04780000
-16.15010000 -49.43320000 18.10220000
-15.73070000 -49.89480000 18.12970000
-15.15880000 -50.26290000 18.33250000
-13.11390000 -49.93260000 19.78820000
-12.09970000 -51.22000000 20.29140000
-12.26960000 -50.47550000 20.21280000
-12.83860000 -49.32650000 19.94310000
-11.13420000 -52.37290000 20.69510000
-12.04600000 -50.49070000 20.29410000
-12.79490000 -48.74340000 19.92650000
-12.19220000 -53.66610000 20.13960000
-12.50100000 -51.84590000 20.07220000
-12.83440000 -51.98330000 19.85780000
-12.90010000 -52.87820000 19.75190000
-13.27350000 -51.33790000 19.59910000
-13.50040000 -52.32860000 19.37580000
-12.06190000 -51.96860000 20.29570000
-11.71180000 -52.76870000 20.44520000
-14.18570000 -49.98280000 19.02420000
-13.87480000 -50.88780000 19.19500000
-14.20060000 -51.50880000 18.92330000
-16.50140000 -50.82740000 18.49600000
-16.79240000 -50.32990000 18.56370000
-16.81990000 -50.84180000 18.59200000
-16.70700000 -51.30880000 18.58780000
-17.11500000 -49.88460000 18.55910000
-16.99140000 -50.86650000 18.60090000
-16.93340000 -51.69940000 18.60840000
-15.72740000 -50.64420000 18.17880000
-15.46360000 -51.36990000 18.27020000
-15.95350000 -50.81560000 18.18620000
-15.78240000 -52.28640000 18.28640000
-16.14990000 -52.50530000 18.42530000
-16.08790000 -52.90300000 18.42110000
-15.92170000 -53.05600000 18.36390000
-16.47640000 -52.79260000 18.55760000
-16.21230000 -53.21590000 18.49030000
-16.03030000 -53.52790000 18.43680000
-16.61860000 -51.80840000 18.58720000
-16.45630000 -51.87490000 18.53580000
-16.72830000 -52.25610000 18.60060000
-15.60430000 -53.50710000 18.37150000
-15.21440000 -53.80330000 18.47550000
-15.08580000 -53.27320000 18.47820000
-15.60430000 -54.48290000 18.41320000
-15.01120000 -54.54780000 18.51880000
-14.23460000 -54.63470000 18.78430000
-15.09220000 -52.36810000 18.41970000
-14.71650000 -52.40860000 18.56410000
-11.58850000 -53.16280000 20.50330000
-11.26720000 -53.18350000 20.64730000
-11.75090000 -53.79710000 20.38020000
-11.31400000 -54.00560000 20.57180000
-14.29240000 -52.44620000 18.81870000
-13.79540000 -53.28580000 19.12880000
-15.80130000 -53.45230000 18.36080000
-15.85410000 -53.90260000 18.41490000
-16.92860000 -52.64750000 18.57060000
-16.89500000 -53.08190000 18.53930000
-17.13520000 -52.46250000 18.55000000
-17.52240000 -53.40270000 18.35400000
-16.76510000 -53.46560000 18.52940000
-16.48330000 -53.50600000 18.54200000
-16.88170000 -53.82580000 18.51110000
-16.41160000 -54.17960000 18.52060000
-13.25190000 -53.54170000 19.48160000
-13.11870000 -54.33030000 19.50060000
-10.83320000 -53.55250000 20.80560000
-10.35710000 -53.70990000 20.95990000
-10.63840000 -54.11880000 20.85280000
-16.29260000 -53.53570000 18.51780000
-16.17760000 -53.84690000 18.48470000
-9.66470000 -54.17460000 21.14550000
-9.71200000 -53.77940000 21.09890000
-16.00610000 -54.08510000 18.45750000
-16.01050000 -54.36670000 18.47020000
-16.04580000 -55.46600000 18.50360000
-16.23710000 -54.83290000 18.51400000
-16.47410000 -54.97690000 18.53100000
-16.46910000 -55.39000000 18.56180000
-16.69590000 -54.68180000 18.53260000
-16.96540000 -55.37970000 18.51360000
-10.29900000 -54.73930000 20.94050000
-10.54740000 -55.04610000 20.79830000
-16.02020000 -54.71080000 18.48350000
-15.81380000 -55.04940000 18.43200000
-16.17890000 -56.62070000 18.79690000
-16.08870000 -56.08590000 18.63860000
-16.38920000 -55.83450000 18.65420000
-16.53890000 -56.04870000 18.71870000
-15.58330000 -55.53690000 18.32520000
-15.31760000 -55.48710000 18.30110000
-15.62310000 -55.98790000 18.34530000
-15.15820000 -56.68750000 18.16970000
-12.36980000 -58.61980000 19.48520000
-12.28880000 -56.21330000 19.80200000
-12.86260000 -55.67260000 19.51410000
-13.22030000 -56.64130000 19.17890000
-11.43600000 -57.49630000 20.10580000
-11.82190000 -55.82480000 20.10900000
-11.94690000 -56.79980000 19.92820000
-11.82760000 -58.20130000 19.82910000
-16.64350000 -56.31820000 18.76860000
-16.49980000 -56.75520000 18.85830000
-16.99570000 -56.23260000 18.59630000
-16.87150000 -57.03520000 18.73530000
-11.72740000 -55.01110000 20.25910000
-11.40940000 -55.61020000 20.34360000
-14.98220000 -55.26210000 18.41400000
-14.70710000 -55.78860000 18.41080000
-14.50640000 -56.59420000 18.39600000
-14.11910000 -56.76520000 18.60410000
-14.62780000 -57.40840000 18.24360000
-14.12440000 -58.79590000 18.40540000
-15.76600000 -56.29250000 18.48910000
-15.71060000 -56.66490000 18.52260000
-10.84630000 -55.86600000 20.56800000
-10.63510000 -57.00890000 20.52930000
-16.14730000 -57.04500000 18.85770000
-15.82350000 -56.95140000 18.64430000
-16.19260000 -57.72160000 18.90830000
-15.70580000 -57.14700000 18.57040000
-16.39340000 -57.03530000 18.91010000
-16.50190000 -57.36610000 18.90700000
-15.68370000 -57.53760000 18.60500000
-15.44080000 -57.65400000 18.43840000
-15.92420000 -58.20360000 18.81810000
-15.66580000 -58.81730000 18.71630000
-13.54940000 -57.34440000 18.88910000
-13.28980000 -58.65700000 18.91880000
-14.72770000 -57.89390000 18.16710000
-14.57350000 -58.68420000 18.20990000
-14.99450000 -57.74860000 18.15590000
-14.90110000 -58.73150000 18.17210000
-15.24630000 -57.90360000 18.30980000
-15.28250000 -58.45150000 18.38900000
-11.64170000 -59.07550000 19.83360000
-11.26590000 -58.87680000 20.04310000
-11.82080000 -59.69370000 19.68540000
-11.24560000 -60.10510000 19.94030000
-15.24290000 -58.85220000 18.37350000
-15.00520000 -59.26430000 18.22570000
-15.36640000 -59.34270000 18.51380000
-15.03820000 -60.27190000 18.32810000
-16.58850000 -58.07840000 18.88800000
-16.48540000 -58.79570000 18.90610000
-16.90590000 -58.20520000 18.72050000
-16.89480000 -59.85810000 18.67540000
-10.72430000 -58.11650000 20.37390000
-10.38320000 -58.28340000 20.51210000
-10.13000000 -58.68610000 20.57200000
-10.50620000 -59.90340000 20.28210000
-16.06040000 -59.32470000 18.90880000
-15.95100000 -60.29930000 18.88780000
-16.22550000 -59.64170000 18.94470000
-16.19300000 -61.97690000 18.94120000
-12.21120000 -60.49150000 19.42600000
-12.19040000 -61.20110000 19.38980000
-12.71130000 -60.38920000 19.16330000
-13.01860000 -61.87520000 18.91380000
-14.48140000 -59.82190000 18.22750000
-14.26750000 -60.68880000 18.29430000
-14.63280000 -60.24130000 18.18680000
-14.33970000 -62.47090000 18.26340000
-16.39540000 -59.78160000 18.92600000
-16.50370000 -60.86490000 18.86580000
-14.78440000 -60.16250000 18.19180000
-14.70500000 -61.19480000 18.24380000
-15.78020000 -61.33670000 18.89190000
-15.57310000 -60.95580000 18.81290000
-15.79300000 -62.51920000 18.94110000
-15.36130000 -63.40170000 18.87350000
-15.40000000 -60.49820000 18.65180000
-15.19810000 -61.62190000 18.58810000
-13.20320000 -59.88760000 18.89550000
-13.56250000 -60.64590000 18.64750000
-10.98010000 -60.90350000 19.99680000
-10.92190000 -61.39910000 19.99510000
-11.58820000 -61.40900000 19.69110000
-11.92590000 -62.93470000 19.46390000
-14.04990000 -62.00380000 18.35730000
-13.87610000 -61.87880000 18.43380000
-13.97160000 -63.64150000 18.36180000
-13.46220000 -65.03710000 18.56010000
-12.14400000 -61.74980000 19.39090000
-12.57990000 -62.51190000 19.13000000
-13.66440000 -61.94450000 18.54350000
-13.35630000 -63.15950000 18.68030000
-15.78610000 -63.24390000 18.97920000
-15.55640000 -64.12720000 18.98300000
-15.91920000 -63.38620000 19.00100000
-15.66330000 -64.58790000 19.01530000
-14.58810000 -62.66540000 18.29860000
-14.34140000 -64.12790000 18.32430000
-14.73000000 -62.80640000 18.37120000
-14.36400000 -65.84960000 18.44430000
-15.78410000 -66.12030000 18.96670000
-15.71070000 -65.12700000 19.02480000
-15.90950000 -64.04380000 19.01260000
-16.05140000 -63.92700000 18.95120000
-14.92730000 -63.00860000 18.52790000
-14.86310000 -64.67160000 18.65900000
-10.17640000 -62.66990000 20.26070000
-10.34370000 -64.15140000 20.12820000
-10.50790000 -62.27530000 20.14680000
-10.96930000 -64.59200000 19.86340000
-16.32010000 -63.76820000 18.79870000
-16.37950000 -64.72270000 18.69940000
-16.54610000 -62.74260000 18.72600000
-17.01100000 -63.50910000 18.35190000
-12.94660000 -63.34500000 18.90210000
-12.70710000 -64.23290000 19.00340000
-10.97020000 -62.27940000 19.93930000
-11.40040000 -63.74730000 19.69400000
-14.83140000 -66.15840000 18.77210000
-14.55250000 -67.38060000 18.68950000
-15.07970000 -66.03600000 18.91510000
-14.80820000 -68.70780000 18.95150000
-15.30990000 -65.55520000 18.98320000
-15.32400000 -66.27540000 19.00610000
-10.38080000 -65.65360000 20.08380000
-9.99820000 -66.44840000 20.22770000
-10.68620000 -66.58820000 19.94750000
-10.17010000 -68.73650000 20.13230000
-16.46620000 -65.84000000 18.57090000
-16.24920000 -66.99660000 18.63460000
-16.87230000 -65.73270000 18.29390000
-16.80300000 -67.87940000 18.18920000
-11.43260000 -65.59910000 19.63240000
-11.14270000 -66.82670000 19.73710000
-11.70060000 -65.94770000 19.48920000
-11.08090000 -69.84790000 19.67370000
-12.24520000 -65.81840000 19.20100000
-12.33210000 -67.30290000 19.09190000
-16.11650000 -68.03520000 18.65720000
-15.83550000 -68.25710000 18.81880000
-16.35960000 -68.96950000 18.42540000
-15.98440000 -70.08690000 18.61100000
-10.86580000 -67.59650000 19.84970000
-10.55990000 -69.35580000 19.94800000
-14.10130000 -65.35650000 18.35010000
-13.98860000 -65.10400000 18.34060000
-13.97910000 -66.72130000 18.39130000
-13.62180000 -67.58620000 18.41570000
-13.86600000 -65.03540000 18.37300000
-13.58010000 -66.40480000 18.45460000
-13.87080000 -67.90420000 18.40220000
-13.67280000 -68.76990000 18.39720000
-14.02940000 -68.10000000 18.45050000
-13.73320000 -70.07420000 18.45780000
-15.43330000 -66.35510000 19.01670000
-15.28640000 -67.49100000 19.01480000
-12.37310000 -68.62460000 18.99430000
-11.83870000 -70.57840000 19.18320000
-12.90230000 -68.18340000 18.71210000
-12.40270000 -71.12240000 18.81200000
-14.26180000 -68.36290000 18.59490000
-14.22390000 -69.61980000 18.69980000
-9.64310000 -67.60370000 20.34950000
-9.54140000 -69.55350000 20.36560000
-13.21590000 -67.92220000 18.56400000
-13.08940000 -69.11340000 18.57650000
-15.54300000 -69.12500000 18.93070000
-15.35030000 -68.82110000 19.02450000
-15.45550000 -70.57760000 18.89910000
-14.95020000 -71.53050000 19.07770000
-15.16460000 -68.77880000 19.03680000
-14.87570000 -70.19670000 19.04730000
-13.10500000 -69.84710000 18.52970000
-12.82100000 -71.10760000 18.59000000
-13.38390000 -69.44780000 18.42470000
-13.18740000 -71.12560000 18.42170000
-13.52470000 -69.50800000 18.39080000
-13.47700000 -70.41040000 18.39260000
-9.95000000 -71.46150000 20.16660000
-9.48450000 -71.95420000 20.35820000
-9.76380000 -72.91610000 20.20610000
-14.59130000 -71.54560000 19.06750000
-14.39600000 -71.43710000 18.99890000
-14.46740000 -72.86370000 19.11820000
-13.95610000 -74.06450000 19.05130000
-9.23710000 -71.65750000 20.45930000
-14.16530000 -71.07260000 18.83050000
-13.88680000 -71.90740000 18.74950000
-13.53840000 -71.54880000 18.47910000
-13.43650000 -71.18920000 18.40920000
-13.35940000 -72.63580000 18.49100000
-13.31050000 -71.76130000 18.41580000
-13.68620000 -72.29500000 18.65620000
-13.62970000 -73.21770000 18.72880000
-16.23100000 -71.25740000 18.37490000
-15.89710000 -71.91320000 18.59170000
-15.63500000 -71.78620000 18.77090000
-16.46430000 -72.17580000 18.17910000
-15.88690000 -72.68840000 18.55950000
-15.26580000 -73.81000000 18.92010000
-15.39730000 -71.68460000 18.89920000
-15.09650000 -72.69130000 19.01400000
-13.16430000 -72.37640000 18.42040000
-12.98320000 -72.58810000 18.43500000
-13.10720000 -73.06310000 18.43990000
-12.80070000 -73.84260000 18.45610000
-9.58040000 -74.49640000 20.24070000
-10.07610000 -74.27230000 19.99300000
-11.47350000 -72.89700000 19.23500000
-10.97340000 -73.90150000 19.46570000
-11.62430000 -74.21750000 19.04130000
-10.87480000 -77.66250000 19.24500000
-14.73210000 -74.02140000 19.12090000
-14.48060000 -74.19030000 19.18380000
-14.60930000 -75.24380000 19.14450000
-13.99360000 -76.75780000 19.28040000
-14.30440000 -74.22850000 19.18300000
-13.99140000 -75.40000000 19.19400000
-13.05030000 -73.60350000 18.45440000
-12.86960000 -74.23190000 18.45840000
-13.19800000 -73.63570000 18.51860000
-12.96350000 -74.67440000 18.53030000
-13.44230000 -73.77840000 18.68440000
-13.40790000 -74.43760000 18.75770000
-12.49110000 -72.62150000 18.64290000
-12.09710000 -73.64960000 18.77830000
-12.54840000 -73.21270000 18.56910000
-11.87620000 -75.81100000 18.72340000
-12.63850000 -73.46970000 18.51530000
-12.38300000 -74.65360000 18.56120000
-10.40910000 -75.12300000 19.73320000
-10.06730000 -77.76730000 19.75780000
-14.45530000 -76.39650000 19.19930000
-14.07320000 -77.76370000 19.31080000
-14.63540000 -76.45770000 19.14780000
-14.12570000 -78.68450000 19.30820000
-14.63060000 -79.34430000 19.03580000
-15.27350000 -76.39260000 18.77350000
-15.34900000 -76.91280000 18.68150000
-15.16370000 -78.49210000 18.71080000
-15.90370000 -74.03860000 18.48930000
-15.68970000 -75.95060000 18.49910000
-15.58870000 -77.84240000 18.44730000
-11.70230000 -74.96900000 18.91790000
-11.41550000 -76.90100000 18.93800000
-15.59920000 -73.93490000 18.69650000
-15.26390000 -75.55250000 18.83600000
-14.94690000 -76.48010000 18.99470000
-12.25650000 -75.59200000 18.56050000
-11.96080000 -76.83150000 18.61880000
-12.47020000 -75.40040000 18.49330000
-12.18900000 -77.25940000 18.55310000
-12.64020000 -75.13690000 18.47280000
-12.57580000 -75.79360000 18.50300000
-13.69410000 -76.19230000 19.14900000
-13.53040000 -75.99440000 19.04860000
-13.54930000 -77.30140000 19.18600000
-13.07980000 -77.63880000 19.00320000
-13.22530000 -75.25990000 18.75000000
-12.86690000 -75.78540000 18.60770000
-13.31240000 -75.67870000 18.86160000
-12.85410000 -76.55330000 18.70560000
-13.28490000 -76.21320000 18.92480000
-12.94140000 -76.97710000 18.82620000
-12.59370000 -76.27630000 18.54830000
-12.52290000 -76.94920000 18.60940000
-14.66000000 -77.25000000 19.12060000
-14.35740000 -78.91130000 19.20780000
-12.65330000 -77.22960000 18.72310000
-12.58730000 -77.54540000 18.74850000
-12.44810000 -78.33090000 18.75560000
-12.11240000 -79.00560000 18.67090000
-12.56310000 -78.97240000 18.87380000
-12.07730000 -80.46980000 18.76990000
-13.44820000 -78.61050000 19.26520000
-13.21090000 -79.39470000 19.23930000
-13.61490000 -79.01640000 19.35880000
-13.31330000 -80.99540000 19.41610000
-13.78190000 -79.02180000 19.37750000
-13.71670000 -79.97540000 19.39710000
-12.59250000 -79.78950000 18.98490000
-12.35300000 -80.84560000 18.96290000
-12.81600000 -79.73210000 19.10270000
-12.58980000 -81.35130000 19.16360000
-15.18700000 -79.85640000 18.60310000
-14.97450000 -80.80390000 18.69250000
-15.46560000 -79.95280000 18.39630000
-15.39970000 -82.18630000 18.30140000
-11.10930000 -82.19060000 18.77210000
-10.90450000 -80.33240000 19.02170000
-11.26190000 -78.83280000 18.89070000
-11.45100000 -79.00980000 18.75550000
-12.99030000 -80.14190000 19.22300000
-12.93930000 -81.22670000 19.31440000
-11.77230000 -80.09700000 18.66420000
-11.66540000 -79.65600000 18.64150000
-11.62560000 -81.25850000 18.71520000
-14.10010000 -80.19810000 19.27990000
-13.88150000 -80.51160000 19.35840000
-14.09910000 -80.89830000 19.24790000
-13.63820000 -82.15840000 19.38700000
-11.66870000 -78.60750000 18.66090000
-11.54580000 -81.86930000 18.71610000
-11.29970000 -82.62640000 18.69750000
-11.72040000 -81.67920000 18.71830000
-11.45070000 -82.62000000 18.69260000
-13.67900000 -80.81930000 19.40500000
-13.46640000 -81.66210000 19.42950000
-10.35580000 -81.90160000 19.26570000
-10.01680000 -81.29350000 19.53130000
-10.20710000 -83.49080000 19.23440000
-9.73180000 -80.26390000 19.79110000
-9.23000000 -80.96770000 20.05430000
-14.11220000 -81.43250000 19.21180000
-13.86870000 -82.35890000 19.27670000
-14.38340000 -81.18900000 19.06590000
-14.12420000 -82.74010000 19.09880000
-12.91110000 -81.73710000 19.36850000
-12.69310000 -81.93650000 19.28810000
-13.08620000 -81.83800000 19.42810000
-12.76600000 -82.59800000 19.38860000
-12.15740000 -81.62230000 18.91480000
-11.96260000 -81.70650000 18.79920000
-12.23770000 -82.08600000 19.01290000
-11.78760000 -83.01820000 18.82790000
-12.41780000 -82.22630000 19.14410000
-12.21590000 -82.94600000 19.09860000
-13.26610000 -82.00310000 19.43820000
-13.23230000 -82.45100000 19.43460000
-11.78640000 -81.93600000 18.73750000
-11.60060000 -82.70980000 18.72420000
-14.71590000 -81.42350000 18.82560000
-14.79440000 -82.42550000 18.68790000
-13.57980000 -83.27090000 19.35050000
-13.33040000 -83.49230000 19.42960000
-13.49080000 -83.90070000 19.34580000
-12.95100000 -84.90030000 19.48020000
-8.90460000 -80.71430000 20.25440000
-13.15490000 -83.22040000 19.45180000
-12.90170000 -83.70310000 19.46040000
-10.31710000 -84.25620000 19.07660000
-10.02970000 -85.17440000 19.17700000
-10.82830000 -83.82880000 18.77930000
-10.75800000 -85.00250000 18.72540000
-11.11220000 -83.39980000 18.67710000
-11.17850000 -83.59240000 18.66960000
-14.86770000 -83.57340000 18.54010000
-14.49700000 -84.28780000 18.71880000
-15.17480000 -84.01350000 18.30500000
-14.89210000 -86.01360000 18.32030000
-11.35290000 -83.46650000 18.69850000
-11.25580000 -84.18260000 18.71890000
-12.61830000 -84.32790000 19.44340000
-12.33640000 -84.41240000 19.37040000
-12.49920000 -85.23380000 19.45510000
-11.93380000 -86.10430000 19.36470000
-11.75830000 -84.47780000 19.01820000
-11.30500000 -85.28300000 18.84580000
-11.76290000 -85.10840000 19.12380000
-10.78150000 -87.64370000 18.87390000
-11.06440000 -85.40430000 18.74990000
-10.72320000 -86.54280000 18.74730000
-13.95910000 -85.22770000 18.96550000
-13.52550000 -84.95290000 19.25450000
-13.88200000 -86.52120000 18.89080000
-12.84200000 -87.30290000 19.44580000
-11.82860000 -85.41890000 19.21520000
-11.34860000 -86.87840000 19.11470000
-13.27480000 -84.91620000 19.38990000
-12.89490000 -85.91860000 19.48950000
-12.40130000 -85.80680000 19.48630000
-12.12700000 -86.43140000 19.49290000
-12.55430000 -85.96300000 19.52390000
-12.21750000 -87.02440000 19.56250000
-12.63290000 -86.34460000 19.53400000
-12.47020000 -87.12340000 19.55600000
-9.93860000 -86.36900000 19.13030000
-9.55720000 -87.29020000 19.31890000
-10.28300000 -86.95430000 18.85920000
-9.88640000 -89.15240000 18.95150000
-13.84400000 -87.50890000 18.83650000
-13.35160000 -88.26280000 19.08580000
-14.28920000 -87.74640000 18.55550000
-13.80330000 -89.17130000 18.75530000
-10.44520000 -87.45040000 18.78220000
-10.31320000 -88.49130000 18.84180000
-14.49670000 -88.28300000 18.40320000
-14.28330000 -89.36540000 18.46250000
-14.78040000 -87.90160000 18.26970000
-14.67020000 -89.69820000 18.26910000
-14.94180000 -87.65310000 18.21440000
-14.92100000 -88.34350000 18.20560000
-15.09360000 -86.67290000 18.20090000
-15.19420000 -87.21690000 18.19470000
-12.30510000 -88.19610000 19.59510000
-12.08690000 -88.66720000 19.62230000
-12.35540000 -88.92020000 19.58940000
-11.91160000 -90.84720000 19.68120000
-11.85900000 -87.57910000 19.53360000
-11.60350000 -88.09980000 19.46990000
-11.81450000 -88.45350000 19.59660000
-11.25910000 -90.29880000 19.58650000
-11.84290000 -89.21760000 19.63580000
-11.64610000 -90.34280000 19.66900000
-10.95750000 -88.02150000 19.03760000
-10.51920000 -88.87320000 18.90990000
-11.11190000 -88.10880000 19.16030000
-10.41480000 -89.66520000 18.98860000
-11.20480000 -88.70280000 19.31320000
-10.80650000 -89.93540000 19.26500000
-14.15520000 -90.34480000 18.47130000
-13.85230000 -90.59430000 18.63160000
-14.30620000 -90.96090000 18.37500000
-13.89090000 -92.20690000 18.51040000
-10.26790000 -89.12650000 18.87290000
-10.11340000 -89.58700000 18.90180000
-8.45870000 -88.02630000 19.91700000
-8.89670000 -88.39560000 19.64590000
-13.03930000 -89.03070000 19.23130000
-12.69450000 -89.11520000 19.43040000
-13.22590000 -89.86070000 19.06660000
-12.69400000 -90.62770000 19.33730000
-12.42790000 -89.51630000 19.54520000
-12.29460000 -90.63960000 19.54510000
-9.27020000 -88.64770000 19.38910000
-9.27600000 -90.35020000 19.22970000
-13.46230000 -90.65320000 18.86840000
-13.22380000 -91.44560000 18.95860000
-11.43920000 -91.12090000 19.70090000
-11.14570000 -91.44130000 19.67740000
-11.37640000 -91.87450000 19.74330000
-10.85050000 -92.72340000 19.72910000
-14.41090000 -91.64290000 18.36340000
-14.30600000 -92.41770000 18.40800000
-14.61270000 -91.46210000 18.35920000
-14.53910000 -92.98310000 18.44560000
-9.96910000 -90.19550000 18.93780000
-9.75080000 -90.65770000 18.98550000
-10.08800000 -90.59930000 19.01310000
-9.74210000 -91.70500000 19.08260000
-10.42800000 -90.64980000 19.19090000
-10.45130000 -91.06710000 19.30110000
-12.40260000 -92.25420000 19.38140000
-12.18250000 -91.82610000 19.52660000
-11.97340000 -92.45770000 19.58330000
-14.25470000 -92.75450000 18.40510000
-14.06900000 -92.90620000 18.41010000
-14.32260000 -93.18110000 18.40420000
-11.07790000 -93.41200000 19.81900000
-10.67300000 -94.55690000 19.86120000
-11.11900000 -93.85710000 19.83370000
-10.36160000 -96.69820000 19.96290000
-12.85310000 -92.34780000 19.10930000
-12.97670000 -93.22860000 18.95920000
-11.18010000 -94.11010000 19.82250000
-10.85500000 -95.56080000 19.87830000
-11.55840000 -93.06920000 19.73290000
-11.21060000 -95.01540000 19.77880000
-10.35710000 -91.66050000 19.34750000
-9.93070000 -92.36890000 19.24390000
-10.63420000 -91.74950000 19.49230000
-10.15120000 -92.74240000 19.40090000
-10.79880000 -91.91680000 19.59630000
-10.48280000 -92.68930000 19.55490000
-13.08920000 -94.10360000 18.81790000
-13.55200000 -93.95790000 18.56130000
-9.09080000 -91.91940000 19.22900000
-8.60540000 -92.97720000 19.43470000
-9.24090000 -91.92960000 19.15070000
-13.83110000 -93.67960000 18.44480000
-9.39090000 -91.84000000 19.09760000
-9.18170000 -93.04750000 19.18480000
-11.75840000 -93.10720000 19.64510000
-11.56420000 -94.60580000 19.64420000
-10.35350000 -95.21500000 19.85920000
-10.28750000 -94.52090000 19.76550000
-10.05550000 -96.59220000 19.91500000
-9.75180000 -96.20980000 19.78820000
-10.06500000 -93.48740000 19.48380000
-9.71690000 -93.71280000 19.35180000
-10.04740000 -93.85530000 19.54690000
-9.25680000 -94.87880000 19.35680000
-9.98100000 -94.49450000 19.62870000
-9.50990000 -95.49100000 19.57230000
-9.62340000 -93.23110000 19.23500000
-9.38950000 -93.44150000 19.20050000
-8.01070000 -93.26580000 19.71210000
-9.11600000 -93.86480000 19.23830000
-8.87020000 -94.96030000 19.33320000
-11.19640000 -96.62960000 19.68690000
-10.87300000 -97.50120000 19.78190000
-11.24750000 -97.46200000 19.59480000
-11.52710000 -97.75350000 19.40550000
-9.13110000 -96.31590000 19.53770000
-8.85820000 -96.29040000 19.43400000
-9.15690000 -97.04170000 19.66360000
-8.50660000 -97.93800000 19.54520000
-10.67240000 -96.43810000 19.91370000
-10.35190000 -97.42300000 19.97960000
-10.78270000 -96.55760000 19.87570000
-10.33140000 -98.13370000 19.97600000
-10.68630000 -97.74870000 19.85120000
-10.34990000 -99.27060000 19.91120000
-8.70770000 -95.94260000 19.39620000
-8.42530000 -96.69810000 19.45580000
-9.97670000 -100.51180000 20.01390000
-9.82750000 -100.25560000 20.09080000
-9.82380000 -97.83840000 19.98640000
-9.57030000 -98.02380000 19.93940000
-9.88410000 -98.41820000 20.04300000
-10.04050000 -98.36340000 20.03740000
-9.90170000 -99.09010000 20.06750000
-9.23080000 -98.01270000 19.81540000
-8.98920000 -98.90870000 19.83400000
-9.69000000 -100.17760000 20.12360000
-8.83300000 -99.62850000 19.88520000
-8.56290000 -99.46480000 19.77450000
-8.89210000 -100.63920000 20.05810000
-8.43850000 -101.09730000 19.97740000
-8.34620000 -99.54500000 19.70220000
-8.14730000 -99.27370000 19.60220000
-8.21740000 -100.38600000 19.77530000
-7.99830000 -98.13150000 19.55040000
-7.81860000 -99.35210000 19.60890000
-7.81060000 -99.80650000 19.62030000
-7.95060000 -101.15800000 19.78300000
-7.84950000 -101.86400000 19.85110000
-8.70240000 -101.83680000 20.18230000
-8.30240000 -102.62900000 20.16720000
-7.56180000 -102.77350000 19.86820000
-7.69870000 -102.95740000 19.95600000
-7.82680000 -103.36870000 20.08450000
-9.01520000 -134.05570000 13.67610000
-8.75920000 -134.02510000 13.53720000
-9.74370000 -133.89050000 12.04700000
-9.21760000 -133.89780000 12.11120000
-8.92150000 -133.93320000 12.57280000
-9.77030000 -133.84580000 11.09380000
-8.88830000 -133.87810000 11.65700000
-8.04990000 -133.89240000 12.16380000
-8.51190000 -133.97850000 13.19650000
-7.87640000 -133.96450000 13.38140000
-7.38800000 -133.93120000 13.40960000
-6.92170000 -133.96820000 13.95060000
-7.27430000 -133.88310000 12.71120000
-6.21870000 -133.87070000 13.24000000
-6.16080000 -134.01750000 14.47740000
-6.17000000 -134.06330000 15.05970000
-5.37880000 -133.99210000 14.48750000
-6.59550000 -134.02820000 15.63880000
-4.45150000 -133.97750000 14.64630000
-4.43100000 -133.91460000 14.24500000
-4.75640000 -133.84820000 13.22230000
-4.26220000 -133.87680000 13.91130000
-3.44470000 -133.84860000 13.06300000
-3.21890000 -133.88980000 14.08290000
-6.61140000 -133.96230000 9.90720000
-7.39560000 -133.91180000 11.07040000
-7.64360000 -133.94470000 10.34180000
-7.45910000 -134.00850000 9.42400000
-8.09970000 -133.93530000 10.60170000
-8.20710000 -134.02340000 8.85760000
-7.12440000 -133.88690000 11.81240000
-6.47600000 -133.89060000 11.53180000
-4.42850000 -133.84430000 12.35700000
-3.43420000 -133.84820000 11.87590000
-4.84260000 -133.85870000 11.82690000
-3.28820000 -133.87410000 10.54610000
-5.43250000 -133.88420000 11.19120000
-4.96260000 -133.90880000 10.27830000
-2.38560000 -133.89690000 13.99600000
-2.24960000 -133.87600000 13.32360000
-4.67910000 -133.94340000 9.65810000
-3.79920000 -133.93960000 9.57100000
-5.44530000 -134.00950000 9.19060000
-4.44340000 -134.04410000 8.75040000
-2.58120000 -133.86070000 11.38510000
-2.32040000 -133.86410000 11.87830000
-2.18090000 -133.87610000 10.56390000
-1.90740000 -133.87530000 12.42300000
-1.06400000 -133.89490000 12.29940000
-6.76290000 -134.15120000 8.56280000
-6.01550000 -134.12580000 8.57980000
-6.83750000 -134.35240000 7.40060000
-5.62420000 -134.20100000 8.07320000
-0.40280000 -133.90480000 12.81700000
-3.26880000 -133.93090000 9.46580000
-2.73790000 -133.89720000 9.79500000
-3.47000000 -133.98560000 8.96880000
-2.63030000 -133.95990000 9.17390000
-2.17490000 -133.88800000 10.02700000
-1.83540000 -133.92510000 9.73740000
-5.22300000 -134.24690000 7.78750000
-4.42200000 -134.16490000 8.09920000
-5.69730000 -134.34830000 7.32120000
-4.24240000 -134.30840000 7.41440000
-18.36410000 16.13050000 19.54600000
-18.75840000 15.42980000 20.21760000
-18.60200000 15.31180000 20.33910000
-18.32120000 15.60560000 20.07850000
-19.12100000 14.66510000 20.87730000
-18.64440000 14.93620000 20.72330000
-18.23580000 15.18920000 20.56120000
-19.17540000 16.13420000 19.88000000
-19.56900000 15.93830000 20.07210000
-19.50410000 15.46810000 20.37390000
-19.19230000 15.49030000 20.30820000
-20.03750000 15.70060000 20.29190000
-19.65290000 15.06210000 20.61860000
-18.60000000 14.45920000 21.23390000
-18.52010000 14.68980000 21.03140000
-18.07150000 14.35180000 21.56580000
-18.22340000 14.76580000 21.05750000
-17.01960000 14.34000000 22.17460000
-17.52030000 14.32420000 21.92240000
-17.48630000 14.03760000 22.23620000
-17.16670000 13.91460000 22.51790000
-17.75250000 13.92250000 22.17620000
-17.46370000 13.39080000 22.78390000
-19.77920000 14.65380000 20.80100000
-19.54970000 14.28640000 21.02030000
-20.06560000 14.71840000 20.73410000
-19.96980000 13.89300000 21.09780000
-18.65910000 13.80000000 21.65630000
-18.88040000 14.22370000 21.29840000
-19.23320000 14.11320000 21.22820000
-19.32750000 13.80200000 21.36070000
-18.59830000 14.27700000 21.38420000
-18.30640000 14.11690000 21.65350000
-18.00920000 13.90340000 22.02540000
-18.09250000 13.60880000 22.18370000
-16.61480000 14.06670000 22.54480000
-16.56370000 14.35320000 22.25840000
-16.79550000 14.62100000 21.92160000
-16.16090000 13.75870000 22.88250000
-16.35690000 14.37100000 22.23720000
-16.63220000 14.92330000 21.54240000
-16.82630000 13.83410000 22.69820000
-16.76290000 13.52440000 22.92820000
-15.75460000 13.25790000 23.50690000
-15.44260000 13.79660000 23.05970000
-15.64790000 13.79200000 23.00370000
-15.94440000 13.43900000 23.24890000
-15.05720000 14.34620000 22.52060000
-15.58100000 14.05800000 22.72230000
-15.40260000 13.42440000 23.48800000
-15.30350000 13.73390000 23.18130000
-15.04570000 13.56760000 23.39950000
-15.05380000 13.96570000 22.97940000
-16.69110000 13.12490000 23.18550000
-16.38040000 13.03170000 23.32500000
-16.97550000 12.86360000 23.26730000
-16.55470000 12.18190000 23.72480000
-19.55420000 13.29910000 21.47850000
-19.38890000 13.01740000 21.65610000
-19.97290000 13.06080000 21.41040000
-20.05010000 12.23590000 21.68270000
-15.13490000 13.22510000 23.69730000
-14.86650000 13.20280000 23.69120000
-14.71890000 13.39040000 23.50770000
-14.72260000 12.95150000 23.81810000
-16.16710000 13.05000000 23.42980000
-16.10100000 12.81830000 23.62910000
-20.25550000 13.47480000 21.18300000
-20.18790000 13.00770000 21.36030000
-20.54740000 13.15430000 21.21210000
-20.32070000 12.56900000 21.45590000
-15.37780000 13.22390000 23.67570000
-15.57000000 13.03570000 23.74180000
-17.26200000 12.67060000 23.28480000
-17.25930000 12.24890000 23.45640000
-17.68040000 12.76470000 23.03930000
-17.85610000 12.16770000 23.22470000
-15.86030000 12.78880000 23.75470000
-15.86980000 12.53440000 23.86580000
-19.34790000 12.70780000 21.81400000
-18.92220000 12.96940000 21.94040000
-19.63890000 12.19060000 21.90940000
-19.17580000 12.13650000 22.22340000
-18.43770000 13.14820000 22.20480000
-18.36250000 12.81100000 22.48310000
-19.67740000 11.89200000 22.01420000
-19.40900000 11.71840000 22.23610000
-19.88890000 11.76580000 21.93780000
-19.57750000 11.37210000 22.23510000
-18.21250000 12.61220000 22.74570000
-18.48800000 12.17830000 22.75950000
-14.51540000 12.53630000 23.99770000
-15.87590000 12.18060000 24.04910000
-15.56900000 12.04620000 24.21500000
-16.15260000 11.71580000 24.13590000
-15.85130000 11.26710000 24.45660000
-16.31090000 11.07300000 24.27910000
-16.19450000 10.57120000 24.51760000
-16.50980000 10.90590000 24.18620000
-16.45160000 9.77220000 24.55800000
-20.49580000 11.69750000 21.61750000
-20.23620000 11.55590000 21.80440000
-21.03000000 11.11150000 21.48590000
-20.22680000 11.20960000 21.89620000
-18.51200000 11.68710000 22.92730000
-18.16160000 11.47350000 23.26350000
-18.81940000 11.45060000 22.76020000
-18.44170000 10.70390000 23.26940000
-17.75210000 10.58930000 23.68010000
-17.76110000 11.47850000 23.49010000
-17.98850000 11.20640000 23.45480000
-18.07660000 10.63830000 23.52850000
-15.31120000 11.69840000 24.39100000
-15.38980000 11.12100000 24.58930000
-16.68010000 10.70510000 24.11640000
-16.70710000 9.87820000 24.31970000
-16.83200000 11.06320000 23.91250000
-16.97200000 9.84190000 24.07120000
-17.39870000 11.73600000 23.55830000
-17.21860000 11.40810000 23.69610000
-19.06680000 11.40730000 22.58680000
-19.01510000 11.03750000 22.73720000
-17.11690000 11.04160000 23.80650000
-17.32820000 10.43950000 23.84480000
-20.10270000 10.71640000 22.06630000
-19.63180000 10.59870000 22.37410000
-20.32000000 10.21780000 22.02670000
-19.66810000 9.72960000 22.51880000
-15.51860000 10.62230000 24.72530000
-15.34270000 10.18100000 24.84160000
-15.82570000 10.48210000 24.70740000
-15.78400000 9.54540000 24.91900000
-16.07340000 10.22890000 24.68160000
-16.16680000 9.57040000 24.77270000
-19.18330000 10.58150000 22.71180000
-19.01520000 10.13690000 22.94040000
-18.82970000 9.73540000 23.14790000
-18.44230000 9.85980000 23.41420000
-19.12670000 9.28030000 22.98430000
-18.51740000 8.73340000 23.47610000
-18.18980000 10.08060000 23.55030000
-18.07950000 9.76780000 23.62810000
-15.18100000 9.60830000 24.95330000
-15.31920000 9.06320000 25.04330000
-17.38400000 9.82760000 23.88060000
-17.20930000 9.25340000 23.97440000
-17.60270000 9.60910000 23.81260000
-17.43500000 8.11880000 23.91180000
-17.86710000 9.39610000 23.72790000
-17.95970000 8.48150000 23.73010000
-16.46350000 8.54580000 24.75390000
-16.25830000 8.73960000 24.85240000
-16.39260000 7.05320000 24.95320000
-16.11100000 8.37080000 24.96080000
-20.37120000 9.51920000 22.07510000
-19.97860000 8.96290000 22.39550000
-20.75520000 9.49290000 21.84280000
-20.32180000 7.75670000 22.26580000
-19.49610000 8.82700000 22.76220000
-19.37540000 8.25880000 22.91140000
-15.39760000 8.60940000 25.11270000
-15.25140000 7.90560000 25.19600000
-15.65960000 8.56000000 25.08350000
-15.57120000 7.29440000 25.21070000
-15.92010000 8.13410000 25.05540000
-15.96850000 7.10010000 25.11950000
-19.11890000 4.69550000 23.35250000
-18.86740000 6.77310000 23.39980000
-19.25660000 7.31030000 23.08170000
-19.60800000 6.42140000 22.88460000
-16.64690000 8.92840000 24.54070000
-16.69530000 8.39390000 24.53960000
-17.12080000 8.32220000 24.06760000
-17.01070000 7.97470000 24.17230000
-17.17960000 7.30160000 24.07460000
-17.05100000 6.47330000 24.21880000
-18.19040000 6.96020000 23.70090000
-18.07290000 5.96200000 23.74170000
-18.54300000 6.25500000 23.59650000
-18.66740000 3.77240000 23.60760000
-16.70270000 7.47160000 24.61740000
-16.55810000 6.08320000 24.88360000
-16.81770000 7.54610000 24.45930000
-16.69630000 5.00800000 24.79930000
-16.01990000 5.56790000 25.19140000
-15.82480000 5.03640000 25.27250000
-16.24960000 4.79890000 25.14990000
-16.12810000 2.53270000 25.29240000
-16.89960000 7.20390000 24.36830000
-16.90310000 5.90370000 24.45050000
-17.97140000 4.98290000 23.70500000
-17.64370000 5.44710000 23.75090000
-18.22820000 3.59610000 23.61570000
-17.85750000 2.88820000 23.57390000
-17.47870000 5.16770000 23.79490000
-17.33940000 5.95360000 23.91330000
-17.55650000 3.51690000 23.71160000
-17.30030000 3.82790000 23.94930000
-14.68360000 6.55480000 25.17630000
-14.87130000 5.99950000 25.23040000
-18.75070000 5.77330000 23.53220000
-18.87310000 4.34140000 23.52530000
-17.22730000 6.18740000 24.02800000
-17.14370000 5.30620000 24.12270000
-15.24150000 6.88870000 25.26820000
-15.12780000 6.31450000 25.28210000
-15.43840000 6.00070000 25.30640000
-15.40610000 4.25260000 25.36440000
-15.03990000 5.49620000 25.28670000
-15.12960000 4.15240000 25.32550000
-17.00600000 5.06910000 24.32870000
-16.99240000 4.33020000 24.38810000
-15.65940000 4.77990000 25.32500000
-15.77280000 3.25640000 25.35290000
-19.84660000 5.41970000 22.75340000
-19.66470000 3.96650000 22.95830000
-20.27130000 5.36230000 22.42400000
-20.29940000 2.86640000 22.50210000
-16.41380000 4.71660000 25.06500000
-16.41070000 3.62690000 25.09790000
-20.71970000 4.80380000 22.12600000
-20.95580000 3.44030000 22.01950000
-21.03350000 5.69170000 21.88250000
-21.70800000 3.64450000 21.51120000
-16.42710000 2.54660000 25.13220000
-16.33840000 1.31620000 25.23830000
-16.57040000 2.54300000 25.02940000
-16.50460000 0.54810000 25.16210000
-18.93110000 3.24790000 23.51440000
-18.86750000 2.61420000 23.54620000
-19.02630000 2.78880000 23.45910000
-18.97710000 1.48080000 23.48420000
-18.36740000 3.04670000 23.59230000
-18.23400000 2.47850000 23.56030000
-18.61300000 2.91040000 23.59640000
-18.55190000 2.13270000 23.56850000
-18.76670000 2.49860000 23.57050000
-18.77730000 1.94430000 23.54880000
-19.58000000 2.10940000 23.07950000
-19.31980000 1.65220000 23.28780000
-19.81480000 0.79310000 22.92700000
-19.49660000 -1.50160000 23.22680000
-19.17040000 1.47470000 23.39010000
-19.20470000 0.09030000 23.37920000
-14.48660000 2.52630000 24.94370000
-14.32470000 2.02250000 24.76450000
-14.86200000 2.28050000 25.14070000
-14.89290000 1.11320000 24.99910000
-16.69860000 1.99060000 24.93140000
-16.70380000 0.58620000 24.97980000
-16.82280000 2.67850000 24.75370000
-16.97460000 0.26970000 24.69990000
-15.23060000 2.95620000 25.32730000
-15.16650000 2.27750000 25.28400000
-15.43840000 2.36930000 25.33710000
-15.46360000 0.62220000 25.25670000
-15.10140000 1.82680000 25.22820000
-15.19320000 0.92970000 25.17010000
-14.24240000 1.60020000 24.56970000
-14.49490000 1.05210000 24.59900000
-15.94820000 1.69910000 25.34230000
-15.84710000 1.51480000 25.33810000
-16.18920000 0.64300000 25.31090000
-16.27150000 -0.95200000 25.27610000
-16.97600000 3.14720000 24.49100000
-17.14940000 2.10960000 24.28110000
-16.32200000 0.31710000 25.27590000
-16.41670000 -0.42760000 25.24660000
-15.72110000 1.26790000 25.32600000
-15.87800000 -0.24050000 25.28380000
-18.83190000 1.09390000 23.52450000
-18.75040000 0.67470000 23.51630000
-18.98950000 0.27150000 23.47160000
-18.97070000 -0.77320000 23.44750000
-18.25620000 1.03820000 23.48300000
-18.13250000 0.29130000 23.43430000
-18.47420000 0.20800000 23.45840000
-18.45700000 -2.49270000 23.31610000
-18.65640000 -0.27730000 23.45600000
-18.74750000 -1.44410000 23.39600000
-14.60990000 0.61730000 24.55770000
-14.47330000 0.27160000 24.31150000
-14.82300000 0.34390000 24.70600000
-14.72320000 -0.28300000 24.39440000
-19.15840000 -0.50410000 23.40000000
-19.22340000 -1.26560000 23.36710000
-17.37010000 1.08870000 24.01200000
-17.39120000 -0.43820000 24.14010000
-17.54800000 1.50220000 23.73100000
-17.80000000 -0.90820000 23.57840000
-17.65160000 1.99090000 23.61660000
-17.83200000 0.97400000 23.50070000
-18.03320000 -0.20230000 23.41730000
-18.11330000 -1.55200000 23.38200000
-19.96030000 -0.23200000 22.83330000
-19.84950000 -1.72190000 22.96470000
-20.24180000 0.14730000 22.60370000
-20.22620000 -2.25500000 22.69020000
-15.25690000 0.02710000 25.05400000
-15.14830000 -0.21480000 24.91990000
-15.42700000 -0.66200000 25.04280000
-15.37080000 -1.79680000 24.75260000
-15.00960000 -0.25630000 24.75750000
-15.01620000 -0.84470000 24.58290000
-14.42390000 -0.22940000 24.11920000
-14.21990000 -0.30500000 23.99440000
-14.55500000 -0.70570000 24.09830000
-14.35930000 -1.39550000 23.84190000
-14.68190000 -1.06770000 24.08070000
-14.68720000 -1.56260000 23.94430000
-14.82790000 -1.02100000 24.23490000
-14.96410000 -1.89320000 24.09880000
-13.88610000 -0.44140000 23.90510000
-13.77370000 -1.11960000 23.80660000
-16.50430000 -0.97380000 25.22580000
-16.48330000 -1.66060000 25.22500000
-16.58830000 -0.70610000 25.16640000
-16.67260000 -2.14320000 25.17140000
-19.24260000 -1.64660000 23.35680000
-19.08880000 -1.61490000 23.39010000
-19.36110000 -2.08790000 23.31360000
-19.18720000 -2.39680000 23.34000000
-18.89210000 -1.88180000 23.37170000
-18.85960000 -2.55770000 23.32460000
-16.69730000 -0.37840000 25.04510000
-16.82750000 -1.11550000 24.99100000
-14.99660000 -1.20000000 24.40570000
-15.16600000 -1.87220000 24.39710000
-13.70760000 -1.87540000 23.77020000
-13.38720000 -2.05120000 23.75300000
-14.00730000 -2.36030000 23.77030000
-13.13060000 -2.08980000 23.72010000
-15.37990000 -2.82770000 24.37030000
-15.34160000 -3.21440000 24.18660000
-15.57000000 -3.32260000 24.50900000
-15.82190000 -4.97560000 24.28980000
-15.98560000 -1.49170000 25.23250000
-15.80800000 -1.53010000 25.17670000
-16.22340000 -2.25740000 25.20870000
-16.12010000 -3.30670000 25.10930000
-15.65070000 -1.60310000 25.05950000
-15.73760000 -2.58810000 24.95550000
-15.67640000 -3.20860000 24.74830000
-15.69160000 -3.65700000 24.60350000
-15.93180000 -4.17480000 24.79100000
-15.86440000 -4.46460000 24.58350000
-16.39510000 -2.35140000 25.19880000
-16.41750000 -2.83700000 25.17030000
-19.59240000 -2.82530000 23.23150000
-19.45910000 -2.66840000 23.30060000
-19.67650000 -4.32900000 23.24350000
-19.39410000 -3.17240000 23.31400000
-18.10490000 -2.35520000 23.41320000
-17.92800000 -2.54990000 23.59090000
-18.21290000 -3.10480000 23.40890000
-17.98550000 -3.75470000 23.68670000
-15.79150000 -3.22870000 24.87770000
-15.99780000 -3.82220000 24.94200000
-14.72360000 -2.11850000 23.85910000
-14.56260000 -2.37770000 23.78750000
-14.92140000 -2.60440000 23.91910000
-14.82160000 -3.34860000 23.78280000
-17.39560000 -2.24220000 24.39340000
-17.18080000 -2.64640000 24.78620000
-17.59770000 -3.19970000 24.20680000
-17.37110000 -5.57570000 24.91400000
-16.58480000 -3.49560000 25.18410000
-16.45070000 -3.39170000 25.16900000
-16.48390000 -4.48980000 25.14390000
-16.32810000 -3.96410000 25.12610000
-19.76810000 -2.65600000 23.08260000
-19.94840000 -3.35510000 22.98270000
-17.00010000 -2.55270000 24.98600000
-17.00860000 -3.80490000 25.08230000
-15.20350000 -3.33030000 24.02890000
-15.30500000 -3.96390000 24.00570000
-17.74870000 -3.49290000 23.99390000
-17.70520000 -4.61390000 24.25350000
-14.28720000 -2.71420000 23.76270000
-14.27900000 -3.35660000 23.74420000
-17.68470000 -5.42020000 24.45310000
-17.54160000 -6.30780000 24.80820000
-17.84480000 -5.20560000 24.17190000
-17.74820000 -6.77510000 24.59850000
-16.18200000 -4.15750000 25.02090000
-16.21240000 -4.43920000 24.98610000
-15.33720000 -4.21200000 23.95580000
-15.11160000 -4.01700000 23.81580000
-15.53690000 -4.67610000 23.99920000
-15.30450000 -4.55520000 23.82700000
-18.29080000 -3.93450000 23.39740000
-18.18370000 -4.57320000 23.55180000
-18.43640000 -4.28620000 23.33390000
-18.38430000 -5.56790000 23.45680000
-20.79600000 -2.42030000 22.25640000
-20.86010000 -4.41130000 22.30340000
-20.53530000 -4.91570000 22.58870000
-21.64610000 -2.91580000 21.64740000
-21.19430000 -5.74000000 22.11780000
-20.22900000 -4.80500000 22.83900000
-20.25970000 -6.18900000 22.90450000
-18.02780000 -5.26900000 23.90050000
-18.08490000 -6.10230000 23.97400000
-18.85480000 -3.60670000 23.28490000
-18.69150000 -4.30520000 23.26710000
-19.05260000 -3.93430000 23.28710000
-18.91420000 -6.01680000 23.22930000
-18.58190000 -4.82200000 23.28780000
-18.62550000 -5.77710000 23.29430000
-14.71130000 -4.15020000 23.70950000
-14.37940000 -3.95590000 23.71480000
-14.70240000 -5.10910000 23.64990000
-14.15490000 -4.22090000 23.70490000
-16.45810000 -5.19260000 25.07430000
-16.27330000 -4.86350000 24.98180000
-16.43050000 -5.97980000 24.94410000
-16.15330000 -4.97450000 24.85430000
-16.68790000 -4.15270000 25.18160000
-16.67110000 -5.05620000 25.16310000
-16.79950000 -4.17810000 25.16460000
-16.86170000 -5.99780000 25.12940000
-14.94950000 -4.24190000 23.73810000
-15.05230000 -4.71340000 23.72700000
-20.28510000 -7.52710000 22.96690000
-20.03250000 -7.22890000 23.14160000
-13.92950000 -4.35130000 23.69990000
-14.09340000 -4.90200000 23.67550000
-13.24230000 -5.17890000 23.61530000
-13.19350000 -5.52350000 23.58550000
-13.36260000 -5.18720000 23.60290000
-13.31780000 -5.52720000 23.58020000
-16.04800000 -5.01420000 24.68340000
-16.15810000 -5.61920000 24.64690000
-15.62620000 -5.14730000 23.91300000
-15.47290000 -5.18610000 23.76230000
-15.76640000 -5.56570000 23.94970000
-15.66700000 -6.03530000 23.63780000
-15.89290000 -5.99620000 23.97630000
-15.91290000 -6.42830000 23.79390000
-16.02160000 -6.20290000 24.14210000
-16.09370000 -6.84920000 23.95820000
-16.60560000 -5.48180000 25.11850000
-16.65660000 -6.09280000 25.06990000
-15.23850000 -5.17720000 23.69530000
-15.23730000 -5.58380000 23.62370000
-16.97440000 -4.67180000 25.12550000
-17.09610000 -5.88810000 25.09840000
-16.30700000 -6.58570000 24.60240000
-16.25290000 -6.85290000 24.42010000
-16.50870000 -7.32200000 24.72300000
-16.54160000 -8.41720000 24.38060000
-16.20920000 -6.92380000 24.27430000
-16.30820000 -7.58770000 24.16640000
-15.32720000 -5.94890000 23.54310000
-15.14970000 -6.02160000 23.52900000
-15.59340000 -6.33920000 23.47010000
-15.50790000 -6.61090000 23.39480000
-19.24760000 -4.02470000 23.29210000
-19.28740000 -4.99350000 23.26430000
-14.27780000 -5.66770000 23.66200000
-14.08410000 -5.92300000 23.66040000
-14.65450000 -6.14530000 23.62700000
-14.63070000 -7.26760000 23.60380000
-14.98460000 -6.38790000 23.55470000
-15.13600000 -6.85420000 23.49630000
-19.39420000 -5.90320000 23.24770000
-19.30640000 -6.96030000 23.21550000
-19.64600000 -6.19940000 23.24610000
-19.66000000 -7.81750000 23.20980000
-13.61040000 -5.65920000 23.62530000
-13.91420000 -6.13280000 23.63870000
-14.06860000 -6.95080000 23.58310000
-17.42720000 -6.96570000 24.96220000
-17.30030000 -6.96950000 25.03520000
-17.49850000 -7.53320000 24.87930000
-17.27430000 -8.01540000 24.99710000
-13.28250000 -5.85560000 23.57540000
-13.40290000 -5.86390000 23.56300000
-13.45160000 -5.51930000 23.59280000
-16.73190000 -7.01430000 24.99900000
-16.68080000 -7.50110000 24.90460000
-16.87530000 -7.48710000 25.00340000
-16.91410000 -9.01180000 24.75750000
-18.22820000 -6.74810000 23.83550000
-18.15670000 -7.41230000 24.02340000
-18.46900000 -6.70230000 23.46470000
-18.58970000 -8.04160000 23.43410000
-16.65870000 -7.96750000 24.78120000
-16.71280000 -8.76500000 24.56750000
-19.88000000 -7.26290000 23.20630000
-19.97260000 -8.55380000 23.17250000
-15.75390000 -6.67290000 23.35320000
-15.76240000 -6.88200000 23.25570000
-15.83740000 -6.70090000 23.40210000
-15.97710000 -7.34400000 23.18790000
-15.72860000 -6.93330000 23.22120000
-15.55990000 -6.85660000 23.30520000
-15.79110000 -7.14630000 23.15260000
-15.54540000 -7.20150000 23.25640000
-17.15930000 -6.73310000 25.08440000
-17.06210000 -7.13780000 25.08330000
-16.99910000 -7.74650000 25.02090000
-17.08060000 -8.43240000 24.95890000
-15.93200000 -6.75010000 23.56860000
-16.07040000 -7.14530000 23.63250000
-15.29450000 -6.97670000 23.41140000
-15.13580000 -7.22940000 23.43840000
-18.63020000 -6.53470000 23.30900000
-18.75740000 -7.18120000 23.27120000
-14.09500000 -7.74920000 23.47260000
-13.87460000 -7.97340000 23.39680000
-14.30310000 -8.23860000 23.44740000
-14.04250000 -9.24610000 23.20440000
-13.78540000 -8.31060000 23.34260000
-13.67860000 -7.98760000 23.39990000
-13.81490000 -9.07110000 23.22350000
-13.67860000 -8.98730000 23.28500000
-14.96350000 -7.64850000 23.48050000
-14.66650000 -8.04500000 23.54530000
-15.09330000 -7.91880000 23.42690000
-14.70900000 -8.71570000 23.52180000
-14.43060000 -8.46450000 23.47430000
-14.39460000 -8.99520000 23.41650000
-20.00490000 -9.13200000 23.16960000
-19.83780000 -8.93350000 23.18990000
-13.28010000 -7.72010000 23.80210000
-13.47810000 -7.69000000 23.56220000
