5.91720000 23.26310000 -18.58780000
6.08610000 23.29840000 -18.50770000
5.65480000 23.17300000 -18.76640000
-22.96050000 -83.13110000 -9.61040000
-22.82130000 -83.85260000 -9.73180000
-23.00990000 -82.41640000 -9.62050000
-22.71350000 -84.14480000 -9.82460000
17.35520000 13.79030000 -10.54210000
17.17110000 14.19150000 -10.88010000
16.99400000 14.59000000 -11.18150000
9.50500000 -48.34720000 16.93280000
9.93300000 -48.35440000 16.73790000
9.32800000 -48.85380000 17.06850000
18.71170000 39.84050000 3.76530000
18.83250000 39.19840000 3.36970000
18.51480000 39.54640000 4.38760000
18.45380000 39.03640000 4.59940000
-22.21570000 -75.47470000 9.06610000
-22.04240000 -76.10840000 9.19860000
-21.76470000 -76.21100000 9.43730000
-21.66840000 -75.92030000 9.56110000
18.56420000 42.01710000 4.46140000
18.57280000 40.96280000 4.31950000
18.59400000 40.12750000 4.16210000
-22.06750000 -73.74540000 9.24340000
-22.06380000 -74.69620000 9.20060000
-22.24160000 -75.13720000 9.04140000
16.78090000 10.61550000 9.35810000
16.70260000 10.40240000 9.48950000
16.63740000 12.75720000 9.66110000
16.73120000 11.90980000 9.48480000
4.50870000 106.30470000 21.52710000
4.92170000 106.38250000 21.32010000
5.30980000 106.25460000 21.10260000
17.53160000 17.05260000 -9.79190000
17.68650000 16.84860000 -9.39000000
17.37270000 16.80410000 -10.18330000
5.19090000 12.08650000 -18.68930000
5.71290000 11.86810000 -18.50250000
6.09380000 11.69040000 -18.34460000
-23.32970000 -79.61080000 -9.50680000
-23.10410000 -81.25670000 -9.64110000
-23.75870000 -75.67160000 -9.37330000
-23.60700000 -77.43550000 -9.35430000
-22.36430000 75.58680000 -12.07100000
-22.51780000 74.28770000 -12.06170000
-22.66310000 72.90790000 -12.05150000
9.81980000 -50.30780000 16.86910000
9.96480000 -51.35410000 16.84600000
10.08590000 -53.25350000 16.83730000
16.54580000 -15.12410000 -13.12910000
16.33490000 -15.03250000 -13.31800000
15.96140000 -14.71810000 -13.65470000
16.11500000 -14.99020000 -13.48760000
13.93260000 -67.54120000 -17.86940000
14.27560000 -67.08750000 -17.57440000
14.50220000 -66.65330000 -17.34810000
-14.04940000 114.85740000 17.14080000
-13.78050000 114.74920000 17.46620000
-13.43160000 115.05980000 17.71350000
-0.13030000 -20.71500000 20.86280000
-0.03990000 -21.18160000 20.89980000
-0.24960000 -20.22150000 20.79830000
16.97410000 11.15670000 8.83290000
16.87990000 11.37650000 9.12390000
16.80600000 11.25450000 9.32040000
16.90210000 -33.39600000 9.20670000
16.89310000 -34.78640000 9.17050000
16.84300000 -32.26620000 9.32300000
-24.68610000 85.11770000 2.94420000
-24.51750000 85.08290000 3.36150000
-24.30890000 84.94470000 3.90790000
2.80780000 123.96980000 -6.84750000
2.15550000 124.08800000 -7.20330000
1.73260000 124.14440000 -7.71670000
-14.68170000 -32.19190000 -18.94890000
-14.81400000 -32.49410000 -18.80870000
-15.09640000 -32.33090000 -18.66570000
9.06590000 122.35880000 8.63810000
9.42060000 122.23170000 9.00940000
9.58620000 122.10800000 9.43540000
9.42370000 122.07150000 9.95640000
12.93910000 -20.06610000 14.09360000
13.05840000 -20.32730000 14.05030000
13.12290000 -20.61560000 14.12240000
13.17720000 -20.88550000 14.14600000
13.33830000 -21.14550000 13.98660000
2.06110000 67.32270000 16.10130000
2.14470000 66.47870000 16.30770000
1.79350000 68.80980000 15.77390000
-17.93900000 -84.57910000 14.83290000
-17.68490000 -84.58070000 15.06140000
-17.25230000 -84.77910000 15.42070000
-15.94850000 124.40950000 7.33800000
-15.76380000 124.34920000 7.65250000
-16.09790000 124.37750000 7.08130000
9.29110000 122.03770000 10.48280000
9.40800000 121.90600000 10.87690000
9.55710000 121.74950000 11.14160000
13.14290000 -19.87570000 13.41160000
12.97660000 -19.71720000 13.76670000
12.90850000 -19.83960000 14.02430000
8.70310000 -117.02290000 20.33060000
8.93310000 -117.78040000 20.31720000
9.49440000 -119.07810000 20.32340000
-25.80810000 -73.57530000 -0.73260000
-25.75470000 -74.00070000 -0.48720000
-25.77910000 -73.82030000 -1.13180000
-25.73990000 -73.97750000 -1.58180000
8.60680000 -31.51340000 16.89280000
8.21750000 -31.70410000 17.07030000
8.04140000 -32.05150000 17.17940000
-14.09960000 -20.18590000 19.78660000
-14.09860000 -20.65950000 19.92120000
-14.22770000 -19.82200000 19.50250000
-14.29790000 -19.35910000 19.36300000
1.32390000 -54.24430000 20.53350000
1.38360000 -54.95620000 20.50250000
1.45790000 -56.12930000 20.46510000
12.59690000 61.69810000 11.34550000
12.58640000 60.87950000 11.43600000
12.29660000 60.04880000 11.78400000
11.89320000 59.21440000 12.21340000
0.92710000 72.04200000 15.42270000
0.93710000 72.49000000 15.14780000
0.80010000 73.16400000 14.94390000
16.29110000 66.24690000 10.96120000
16.38170000 65.94440000 11.03170000
16.27960000 66.83160000 10.92700000
-18.93100000 -123.42110000 -6.70640000
-18.79670000 -123.78640000 -6.74490000
-18.69150000 -124.22860000 -6.60100000
19.42090000 -20.18830000 4.59530000
19.48650000 -21.08570000 4.60390000
19.47490000 -21.68880000 4.88540000
-16.14220000 122.43070000 7.49160000
-16.37820000 122.27820000 7.07490000
-16.51290000 122.22790000 6.71460000
20.33310000 -16.57860000 -5.43950000
20.40490000 -17.04820000 -5.26890000
20.27370000 -16.06760000 -5.63820000
-13.86060000 -21.72510000 20.41030000
-13.89490000 -22.19840000 20.41440000
-13.79300000 -22.56610000 20.54160000
-13.67100000 -22.79350000 20.64160000
20.46040000 -15.88250000 -3.25370000
20.47660000 -15.90450000 -3.67990000
20.47340000 -16.14300000 -4.05700000
23.06280000 -96.12020000 11.04810000
22.52000000 -95.20880000 11.47600000
21.85620000 -94.19840000 11.95730000
11.36070000 114.56550000 14.07110000
11.42180000 114.00950000 14.04640000
11.29510000 113.32950000 14.43430000
11.09780000 112.88680000 14.89530000
-0.66210000 76.90420000 17.06150000
-0.95320000 77.03810000 17.15590000
-1.23660000 77.10710000 17.26630000
-13.94760000 -21.11500000 20.26800000
-13.83320000 -21.37910000 20.43160000
-14.09330000 -20.94370000 20.00780000
2.59680000 119.01520000 4.06910000
2.40530000 119.11840000 4.93420000
2.92940000 118.90570000 3.31550000
-4.06170000 -111.39940000 20.24030000
-4.19680000 -111.57480000 20.30290000
-4.65270000 -111.43420000 20.25150000
-25.73620000 -73.82840000 0.28800000
-25.70970000 -74.27010000 -0.16830000
-25.75090000 -73.39300000 0.76230000
-3.46360000 101.96240000 22.66570000
-3.49550000 101.43220000 22.61690000
-3.63100000 102.52160000 22.70110000
-17.12750000 10.00770000 17.66960000
-17.13070000 9.71090000 17.65080000
-17.52760000 9.46630000 17.72030000
-17.26880000 9.48830000 17.67230000
17.61680000 72.84310000 11.41650000
17.46920000 72.72430000 11.50530000
17.33900000 72.50690000 11.53220000
11.78760000 93.75290000 3.30480000
11.72050000 93.23500000 3.39270000
11.82710000 94.43810000 3.35040000
-16.72690000 9.54750000 17.81430000
-16.95300000 9.50320000 17.70300000
-17.11420000 9.53200000 17.65560000
-14.51030000 -22.88060000 19.64390000
-14.58690000 -23.40530000 19.56540000
-14.46750000 -22.20280000 19.60020000
-13.04010000 -100.64330000 -17.27750000
-12.84450000 -102.29430000 -17.27940000
-12.85190000 -103.25410000 -17.21940000
-3.95510000 9.82270000 -21.40010000
-3.31180000 9.77840000 -21.37590000
-4.50830000 9.95000000 -21.39890000
0.45520000 93.67890000 21.71760000
0.19290000 93.75540000 21.96090000
-0.17060000 93.86880000 22.23350000
-0.37580000 93.83030000 22.30020000
1.72130000 -92.46700000 20.52390000
1.38260000 -92.56790000 20.54020000
2.06510000 -92.66090000 20.49420000
-17.70410000 16.16820000 19.35160000
-17.96180000 15.90380000 19.26690000
-18.08750000 15.35110000 19.13160000
-17.42160000 16.32550000 19.35370000
10.88170000 99.79650000 13.36880000
10.64230000 97.79590000 13.41700000
10.38960000 96.41950000 13.62220000
-18.12850000 14.79630000 19.03750000
-17.95640000 14.70650000 19.05090000
-18.28050000 14.49280000 18.95430000
-17.76400000 14.90890000 19.06860000
-23.63480000 80.86910000 -9.68150000
-23.32830000 81.93200000 -9.83900000
-22.98930000 82.49350000 -10.14210000
20.47300000 -35.97600000 3.29170000
20.52430000 -36.45260000 3.10800000
20.42570000 -35.25730000 3.34550000
23.92660000 -76.10070000 0.58720000
24.12240000 -76.09170000 0.43380000
24.22480000 -76.01930000 0.28160000
-15.14260000 59.42820000 16.71110000
-14.81810000 57.75150000 16.95000000
-15.45890000 61.27860000 16.45860000
16.79310000 -17.29430000 -12.54560000
16.92160000 -17.76310000 -12.27980000
17.18030000 -18.44540000 -11.78150000
2.32370000 113.92150000 -14.46760000
2.78070000 113.86260000 -14.38950000
3.87160000 113.93790000 -14.05370000
3.38770000 113.82340000 -14.23400000
-29.80670000 31.24400000 0.53570000
-29.74230000 31.40840000 0.78020000
-29.69160000 31.87670000 1.09920000
-29.69900000 31.62390000 1.06540000
-21.00660000 -110.96230000 -3.37960000
-21.01170000 -111.13990000 -3.80790000
-20.99020000 -111.11800000 -4.47070000
-19.91860000 81.83310000 9.96920000
-20.39360000 81.76370000 9.73360000
-20.84480000 81.69610000 9.50260000
-29.46310000 -20.92360000 -4.63920000
-29.36340000 -21.20800000 -5.27560000
-29.67150000 -20.28650000 -4.17600000
-17.93730000 -17.99290000 17.24610000
-17.86040000 -18.59120000 17.24670000
-17.68510000 -19.03490000 17.34040000
-17.34370000 -19.81710000 17.57280000
14.07330000 92.49620000 -5.86210000
13.77300000 92.42160000 -6.01270000
13.49450000 92.30130000 -6.01780000
-29.89830000 31.92320000 0.19360000
-29.77980000 32.02210000 0.61940000
-29.69710000 32.25530000 1.14810000
-29.71360000 32.06790000 0.99010000
-17.80670000 -123.26600000 -8.29960000
-17.60400000 -122.92470000 -8.63660000
-17.47460000 -122.33470000 -9.01740000
19.66000000 -30.03040000 -5.39040000
19.70070000 -29.75450000 -5.01590000
19.83840000 -29.75480000 -4.27740000
-21.98190000 -42.37050000 -14.16680000
-21.98730000 -43.54140000 -14.07770000
-21.86770000 -41.47380000 -14.35730000
-21.69560000 -40.94450000 -14.63010000
-30.63970000 -15.78410000 -1.60240000
-30.59120000 -16.27020000 -1.48310000
-30.71930000 -15.13270000 -1.53220000
-0.06130000 -42.03620000 21.10520000
0.20290000 -42.23540000 20.97980000
-0.24400000 -41.71780000 21.17140000
-16.15430000 126.08790000 1.34140000
-16.39580000 125.95680000 1.44830000
-16.61100000 125.87260000 1.30940000
-15.91300000 126.19430000 1.22600000
-15.69160000 126.25970000 1.35970000
-29.61680000 32.40840000 1.65070000
-29.63740000 32.18700000 2.04360000
-29.65420000 32.45880000 1.29700000
-3.51720000 21.89190000 -21.05480000
-3.49650000 21.13790000 -21.05860000
-3.65100000 20.38180000 -21.07040000
-3.49470000 23.05880000 -21.01760000
-18.57600000 14.36000000 18.82690000
-18.41510000 14.22240000 18.87470000
-18.76960000 14.23470000 18.69900000
-17.66090000 121.06810000 2.63880000
-17.68100000 120.86110000 2.70970000
-17.68090000 121.33260000 2.45570000
-22.18020000 -46.68850000 -13.75230000
-22.18210000 -47.65090000 -13.69610000
-22.06780000 -45.51010000 -13.86000000
-21.98120000 -44.52320000 -13.99280000
-22.32420000 -29.24280000 -14.66540000
-22.42140000 -29.83450000 -14.58080000
-22.54120000 -30.11430000 -14.54360000
15.40250000 70.75450000 8.19380000
15.34450000 69.93010000 8.33410000
15.18230000 69.34050000 8.26680000
15.26320000 69.36900000 8.36850000
-22.41110000 -51.02620000 -13.46670000
-22.27350000 -49.56340000 -13.55270000
-22.16010000 -48.38120000 -13.64280000
-24.54860000 -18.20830000 -14.15190000
-24.32610000 -18.83620000 -14.31550000
-24.12850000 -20.10730000 -14.43560000
19.54680000 -0.67050000 -1.60780000
19.49290000 -0.61720000 -0.69040000
19.40460000 -0.68880000 0.05050000
11.21620000 11.20830000 15.66100000
11.51040000 11.02610000 15.36980000
11.74660000 10.90520000 15.11560000
-0.87470000 -60.17900000 20.39440000
-0.67860000 -60.79290000 20.46860000
-1.04820000 -60.21760000 20.32000000
-7.50630000 -77.62880000 -20.27010000
-7.39120000 -77.04960000 -20.28720000
-7.23450000 -76.42740000 -20.33390000
-16.89980000 125.69070000 1.23770000
-17.04550000 125.50050000 1.41510000
-16.74460000 125.82520000 1.13420000
18.08840000 78.53380000 11.29700000
18.16930000 78.44030000 11.26590000
17.96530000 78.41050000 11.33960000
18.00490000 78.14500000 11.34500000
17.86070000 78.38210000 11.33220000
17.83730000 78.22440000 11.33600000
-0.52100000 93.80120000 22.32110000
-0.87180000 93.87800000 22.51800000
-1.21600000 93.82620000 22.62560000
-2.54950000 108.07540000 23.03930000
-1.87660000 107.72890000 23.04420000
-1.40780000 107.45880000 23.03090000
-24.70290000 -21.62500000 14.09820000
-24.93340000 -22.09460000 13.78270000
-25.26120000 -22.23230000 13.32860000
-25.43560000 -22.91700000 13.02740000
10.28390000 84.05080000 8.19740000
10.35300000 83.95770000 8.60710000
10.34660000 83.65570000 8.88670000
5.84740000 40.16100000 17.24420000
6.06650000 40.18570000 17.20140000
6.33970000 40.31750000 17.18930000
6.30800000 40.03980000 17.32860000
-20.82310000 -13.17690000 -16.29500000
-20.79480000 -12.21600000 -16.25110000
-20.60970000 -11.82690000 -16.26420000
-20.40530000 -12.36840000 -16.33310000
18.23570000 78.24710000 11.20710000
18.36200000 78.47710000 11.10100000
18.15900000 77.97090000 11.23610000
18.57080000 79.65060000 10.93670000
18.50510000 79.02550000 10.97350000
6.26680000 39.73430000 17.50830000
6.62560000 40.00320000 17.52970000
7.12080000 40.49470000 17.50680000
-16.72840000 75.49150000 -15.90940000
-16.54640000 73.95320000 -16.08240000
-16.28890000 71.67560000 -16.31560000
-17.01980000 125.66920000 0.17350000
-17.07740000 125.56340000 -0.12140000
-17.16050000 125.34400000 -0.43220000
14.21680000 -37.83720000 -16.30650000
14.33170000 -40.35530000 -16.40690000
14.41470000 -42.34030000 -16.47490000
14.52390000 -43.29470000 -16.44960000
11.52070000 -10.26840000 12.74080000
11.21190000 -10.30690000 13.03690000
11.74560000 -10.28800000 12.59150000
17.17750000 -112.27520000 12.28410000
17.06600000 -112.54640000 12.52570000
17.01600000 -112.61630000 12.88450000
-19.90140000 6.22200000 -17.09490000
-20.16150000 6.48190000 -16.87020000
-20.44100000 6.49980000 -16.63500000
18.04630000 77.77020000 11.27790000
17.91240000 77.82750000 11.34910000
17.81840000 77.99000000 11.34650000
14.72850000 -48.43780000 -16.57850000
14.66280000 -46.14930000 -16.52300000
14.61100000 -44.24420000 -16.45180000
7.60680000 93.84110000 -15.06300000
7.91600000 93.72780000 -15.14690000
8.33360000 93.67240000 -15.11160000
-14.33840000 -13.52250000 20.70140000
-14.43450000 -13.78620000 20.69030000
-14.27410000 -13.19120000 20.75180000
-19.80940000 -13.04330000 -16.45930000
-20.00370000 -12.94040000 -16.41440000
-20.22680000 -12.94890000 -16.38380000
4.12650000 -123.10510000 20.14980000
4.00160000 -123.21890000 20.02150000
3.65900000 -123.31130000 19.89470000
15.09820000 69.72990000 8.14700000
15.09230000 69.36790000 8.21000000
14.97140000 69.05070000 8.26220000
14.81210000 68.84630000 8.36650000
-17.04770000 -125.73520000 -8.30080000
-16.88210000 -125.86080000 -8.24030000
-17.12230000 -125.34450000 -8.58820000
-17.14820000 -125.51860000 -8.40860000
15.44570000 -52.83490000 -16.36470000
15.79780000 -58.13740000 -16.41700000
15.18700000 -49.83510000 -16.38130000
-23.51770000 9.92690000 -14.73410000
-23.37120000 9.14170000 -14.77710000
-23.12770000 8.59700000 -14.77390000
-8.68080000 114.74540000 20.99260000
-9.07290000 114.17230000 20.96840000
-8.36260000 115.33240000 20.96980000
21.03040000 -96.15010000 13.86240000
21.45050000 -96.64100000 13.48710000
21.85210000 -97.20570000 13.13090000
18.34220000 -114.48380000 14.30950000
18.49720000 -114.41720000 14.43020000
18.53310000 -114.61330000 14.53910000
18.16840000 -114.67490000 14.19590000
11.11070000 89.89490000 2.36540000
10.98760000 89.62620000 2.16100000
11.23890000 90.25200000 2.58760000
14.90150000 70.22820000 8.01720000
15.00230000 69.98700000 8.04410000
15.10090000 69.95870000 8.07920000
-23.21460000 78.21230000 9.39770000
-23.40640000 78.25280000 9.07950000
-23.80720000 78.30200000 8.31800000
-23.63180000 78.15420000 8.73970000
-20.85540000 -62.36400000 14.19890000
-20.62890000 -61.67030000 14.52370000
-20.36190000 -61.75500000 14.75490000
-27.11160000 32.83510000 11.75610000
-26.96140000 32.61390000 11.97020000
-26.95490000 31.89840000 11.95670000
-27.23810000 33.16060000 11.54650000
6.24480000 7.35340000 17.89720000
6.19990000 7.18200000 17.73160000
6.36420000 7.03910000 17.52720000
-14.45110000 93.22180000 18.60980000
-14.22320000 92.15090000 18.73570000
-14.02410000 91.24990000 18.82310000
23.64360000 -69.60500000 -0.57180000
23.65500000 -69.84640000 -0.30580000
23.61740000 -69.84450000 -0.14780000
23.60370000 -70.07870000 -0.03740000
-3.30090000 89.99660000 22.76720000
-3.47670000 89.61310000 22.91810000
-3.09040000 90.60580000 22.47090000
0.60720000 -15.59050000 21.12550000
0.56830000 -16.02770000 21.15770000
0.57240000 -15.26700000 21.09750000
-26.96760000 31.15130000 11.89760000
-26.81070000 30.85060000 12.05230000
-26.62590000 30.34960000 12.17510000
-27.97430000 -3.72520000 -9.56430000
-27.88210000 -3.59580000 -9.72540000
-28.46340000 -4.43700000 -8.97640000
-28.26410000 -3.99000000 -9.22370000
-14.68950000 -120.49220000 7.83520000
-14.73380000 -121.43800000 7.53040000
-14.61440000 -119.91230000 8.12830000
20.85990000 71.37790000 -1.84580000
20.84960000 70.54550000 -1.54720000
21.00510000 73.15110000 -1.52230000
20.88830000 72.28400000 -1.97970000
-28.57900000 -0.96700000 -9.12450000
-28.88400000 -0.92870000 -8.79340000
-29.05240000 -0.41860000 -8.61570000
14.53660000 41.67020000 10.79720000
14.46840000 42.11390000 10.90830000
14.48060000 42.75250000 10.94430000
14.83020000 41.07970000 10.73060000
14.70380000 41.69020000 10.73550000
14.60990000 41.41430000 10.74230000
14.63780000 40.98550000 10.73120000
5.62070000 80.60670000 10.79480000
5.56990000 80.32230000 10.98640000
5.36210000 80.91960000 10.71100000
5.66250000 80.89910000 10.62620000
1.40520000 -105.60430000 20.67590000
1.73900000 -105.99220000 20.66810000
2.22080000 -106.43420000 20.62130000
-27.31940000 78.01520000 0.69360000
-27.40340000 77.39330000 1.10630000
-27.39670000 77.04230000 1.59600000
-5.63420000 125.29730000 -8.75800000
-6.42330000 125.42010000 -8.61510000
-7.28180000 125.55550000 -8.45770000
-20.02560000 -18.46750000 17.57640000
-19.83040000 -17.78110000 17.79620000
-19.66980000 -17.35730000 17.88760000
-24.12430000 78.35340000 7.70210000
-24.49320000 78.05120000 7.22580000
-24.83210000 77.67350000 6.88680000
-25.18590000 77.53920000 6.35540000
-0.53730000 117.50930000 -15.87560000
0.00820000 117.60730000 -16.20100000
0.55420000 117.63210000 -16.35120000
5.21980000 81.21530000 10.69360000
5.18090000 80.92920000 10.77900000
5.02350000 81.50270000 10.78500000
-26.10330000 76.39690000 5.45210000
-25.83190000 76.79000000 5.70720000
-25.53120000 77.28080000 5.91320000
-1.78320000 -74.17170000 20.50530000
-1.59400000 -76.85960000 20.50950000
-1.30620000 -78.98940000 20.51730000
8.45990000 -106.19670000 19.86680000
8.89510000 -106.79790000 19.82350000
9.21370000 -107.24280000 19.82060000
-17.97440000 -64.15330000 15.19610000
-18.10880000 -64.04290000 15.15970000
-18.67890000 -61.73480000 15.09070000
-18.43270000 -63.07020000 15.13540000
-18.87120000 -61.25540000 15.07990000
-22.78710000 -29.91990000 15.03950000
-22.60430000 -30.68470000 15.07310000
-23.01240000 -29.52090000 14.96930000
-30.33540000 -22.86710000 1.71140000
-30.27820000 -22.94060000 1.93080000
-30.22580000 -23.64420000 2.03980000
-8.36750000 76.32000000 -17.97820000
-8.35350000 75.83690000 -18.01000000
-8.37650000 76.97510000 -17.95030000
-28.49960000 -2.55960000 -9.11670000
-28.26100000 -2.92910000 -9.34590000
-28.12800000 -3.55390000 -9.41300000
-28.67260000 -13.45820000 8.19280000
-28.51460000 -15.01810000 8.38770000
-28.85160000 -12.46250000 7.87540000
-18.25640000 -63.89330000 15.15040000
-18.27600000 -64.43570000 15.17180000
-18.30980000 -65.26730000 15.22740000
-10.85160000 -15.19430000 21.15960000
-10.64930000 -15.31560000 21.22400000
-10.55730000 -15.61730000 21.30840000
-10.92500000 89.01270000 20.43630000
-10.62380000 88.92930000 20.51660000
-11.18230000 89.34650000 20.36800000
1.69810000 7.67270000 19.57640000
1.50770000 7.56840000 19.41250000
1.53470000 7.37780000 19.27210000
-29.62800000 -9.25850000 3.30690000
-29.56230000 -9.73990000 3.31680000
-29.76170000 -8.48880000 3.27530000
14.41560000 43.79480000 11.08980000
14.50850000 43.33210000 10.91790000
14.22910000 44.64180000 11.49730000
14.23680000 44.22570000 11.45150000
-21.89550000 11.67330000 -14.56850000
-22.12760000 11.52430000 -14.50370000
-22.22120000 11.66380000 -14.47120000
-22.19590000 11.30050000 -14.52340000
-21.62770000 11.84430000 -14.75780000
-20.26940000 -109.13030000 -9.04080000
-20.45260000 -109.05980000 -8.58690000
-20.57070000 -109.19180000 -8.17050000
-20.59280000 -109.87690000 -7.87500000
-29.21370000 55.71890000 0.99310000
-29.30100000 55.84350000 0.72590000
-29.35420000 55.73910000 0.48650000
-26.73160000 -40.99110000 -10.16730000
-26.70440000 -39.62170000 -10.43730000
-26.62300000 -38.72300000 -10.69930000
-22.63950000 12.26090000 -14.47980000
-22.44990000 11.90110000 -14.45250000
-22.27230000 11.84530000 -14.44250000
-20.79680000 -110.49990000 -6.84640000
-20.72470000 -110.36140000 -7.24260000
-20.63220000 -110.32060000 -7.61560000
30.84740000 -119.57490000 4.59410000
30.83590000 -119.80920000 4.70930000
30.71540000 -119.89760000 4.95940000
30.54720000 -119.92060000 5.18870000
-24.14380000 45.01830000 15.12920000
-23.88480000 44.57680000 15.35800000
-24.43400000 45.52700000 14.85910000
8.85850000 106.11440000 -9.13030000
9.03470000 105.71750000 -8.69300000
9.08680000 105.18490000 -8.37870000
-4.04700000 59.02110000 18.50670000
-3.49570000 59.32050000 18.44190000
-4.61340000 58.85140000 18.54720000
-22.25240000 -69.30070000 11.15580000
-22.10060000 -70.33830000 11.16690000
-22.41710000 -68.44530000 11.11040000
-8.44220000 100.38810000 21.78640000
-8.65250000 100.10770000 21.59620000
-8.38440000 100.75930000 21.88540000
-22.06980000 10.86490000 -14.54770000
-22.02410000 10.13830000 -14.61530000
-22.20270000 11.14230000 -14.51860000
-21.57010000 -65.60290000 -12.46320000
-21.68420000 -64.76730000 -12.52280000
-21.91610000 -64.75880000 -12.51040000
3.26700000 -13.32960000 19.78640000
3.26740000 -13.70680000 19.92540000
3.31940000 -14.05220000 20.01930000
22.65590000 -120.83420000 15.56410000
22.81460000 -120.96160000 15.39730000
23.07180000 -121.03060000 15.18990000
18.66710000 -29.06130000 -8.36860000
18.88310000 -30.60000000 -8.10520000
18.49540000 -28.81700000 -8.75680000
-19.88870000 -114.87220000 5.15700000
-19.48470000 -115.54750000 6.04020000
-20.02640000 -114.72620000 4.73000000
-19.95260000 -114.96480000 4.71260000
-29.76770000 -23.04620000 4.03220000
-29.90380000 -23.79030000 3.38900000
-29.58140000 -22.70480000 4.72020000
4.29220000 62.08980000 -19.24580000
4.60270000 62.94320000 -19.21060000
4.98560000 63.72870000 -19.15970000
-13.11540000 125.87190000 5.73760000
-13.29710000 125.91890000 5.09020000
-13.52850000 125.97720000 4.50950000
-18.55920000 51.84690000 -15.89970000
-18.51860000 49.71660000 -15.97350000
-18.51930000 47.75030000 -16.02590000
-6.81350000 -22.08020000 21.82340000
-6.84430000 -22.48980000 21.76520000
-6.87750000 -21.78700000 21.85240000
26.62330000 -121.01140000 -11.68740000
26.32230000 -121.08530000 -11.94540000
26.09980000 -121.08700000 -12.10210000
7.21810000 91.27720000 17.22860000
7.42190000 90.92050000 16.92230000
7.47240000 90.33320000 16.70020000
-21.67690000 92.54920000 -4.78650000
-21.91570000 92.33740000 -4.86820000
-22.25140000 92.12360000 -5.15390000
17.78690000 10.80600000 4.59490000
17.77940000 10.60360000 4.38790000
17.82200000 10.38240000 4.23830000
-11.30820000 -48.08910000 -20.23390000
-10.92220000 -48.96720000 -20.34980000
-11.67810000 -46.57500000 -20.17900000
2.75730000 -7.24310000 -20.74410000
2.58570000 -8.81850000 -20.76640000
2.99130000 -5.57680000 -20.71580000
-24.33030000 32.55200000 15.58730000
-24.21790000 33.35550000 15.62200000
-24.46940000 31.75830000 15.50720000
-19.92270000 -115.05570000 4.57820000
-20.00680000 -114.91150000 4.28390000
-20.16180000 -114.53720000 4.03330000
-7.73080000 76.73990000 -18.58550000
-7.68500000 75.91810000 -18.64020000
-7.69790000 75.29770000 -18.66380000
-7.61770000 74.88870000 -18.75110000
13.26870000 21.23000000 12.50140000
13.06200000 19.70510000 12.91110000
12.87400000 18.52340000 13.29060000
-14.44860000 110.19990000 17.90090000
-14.20420000 110.87630000 18.03810000
-14.06180000 111.73490000 17.99820000
15.08670000 57.81980000 10.02950000
15.22200000 57.68970000 10.17960000
15.41230000 57.43010000 10.45530000
-7.80940000 95.58000000 20.92470000
-7.70460000 95.05740000 20.83040000
-7.93350000 96.02880000 20.97740000
12.98740000 120.93030000 -5.23210000
13.07400000 120.75870000 -5.38040000
13.22370000 120.63480000 -5.66550000
-7.17170000 -124.87550000 16.48940000
-7.39280000 -124.94820000 16.45340000
-7.40200000 -124.94700000 16.68300000
-7.24690000 -124.81960000 17.02300000
-7.53870000 74.27640000 -18.83350000
-7.39480000 74.36130000 -18.90400000
-7.20670000 74.59780000 -18.96200000
-3.63130000 -124.91850000 -18.13880000
-3.95180000 -124.99500000 -18.13710000
-3.00270000 -124.85100000 -18.26630000
-28.84790000 5.56720000 7.25790000
-28.87040000 4.87690000 7.17480000
-28.89670000 4.45140000 7.10950000
22.76080000 92.93170000 -1.34040000
22.78710000 92.96160000 -0.99470000
22.79480000 92.93740000 -0.67050000
-19.99870000 -23.07650000 17.24340000
-19.82510000 -22.94180000 17.46280000
-19.65380000 -23.35570000 17.56800000
18.38620000 -41.25700000 -10.86770000
18.08730000 -41.07040000 -11.35990000
17.60480000 -41.43390000 -12.17440000
21.81040000 107.64310000 0.11940000
21.88730000 107.48240000 0.63790000
21.93440000 107.35010000 0.93000000
21.85640000 107.23530000 0.94970000
-6.96520000 -124.61730000 16.23350000
-6.95290000 -124.72110000 16.32460000
-6.98610000 -124.79930000 16.49280000
-24.77450000 87.00660000 -6.29560000
-24.74230000 86.66510000 -6.22920000
-24.60460000 86.49990000 -6.25150000
21.81090000 107.02630000 1.38130000
21.81420000 106.93560000 1.78340000
21.78440000 107.12930000 1.06450000
12.51660000 -22.01940000 14.81480000
12.74220000 -21.96090000 14.63870000
12.93200000 -21.80780000 14.47120000
13.18430000 -21.93460000 14.21410000
12.40170000 120.51250000 -3.80750000
12.45240000 120.56830000 -4.08570000
12.57500000 120.58400000 -4.39600000
5.68450000 53.52040000 -18.78460000
5.89190000 52.73230000 -18.75570000
5.89270000 55.04000000 -18.84460000
5.67770000 54.53030000 -18.84200000
5.27720000 -27.60630000 19.43030000
5.52310000 -29.25570000 19.36080000
5.81380000 -29.86280000 19.32600000
12.03200000 60.09940000 -15.89160000
12.06140000 58.66900000 -15.80290000
12.04100000 62.91500000 -16.02570000
12.09210000 62.05540000 -15.93550000
13.30670000 64.21290000 10.36570000
12.93080000 63.67400000 10.81680000
12.63300000 62.77180000 11.20520000
-26.49150000 -22.77730000 11.27680000
-26.43060000 -23.28220000 11.40410000
-26.35080000 -23.22440000 11.61810000
-26.23540000 -21.41040000 11.96810000
-26.23300000 -22.29910000 11.89940000
15.36690000 34.21520000 10.75910000
15.62040000 33.68400000 10.86860000
15.78400000 33.38900000 10.90610000
15.85260000 33.63090000 10.90080000
-23.24140000 -74.66140000 -10.48090000
-23.08600000 -74.76820000 -10.68840000
-23.06950000 -73.96600000 -10.82100000
-23.30420000 -75.59240000 -10.23200000
28.58220000 -107.36140000 -2.55770000
28.61790000 -106.94060000 -1.81540000
28.59460000 -106.47760000 -1.34330000
15.95600000 33.67600000 10.87730000
16.08660000 33.15010000 10.84010000
16.17190000 32.32000000 10.76190000
-6.79030000 114.06900000 -14.52160000
-6.95020000 114.09210000 -14.43080000
-6.61740000 114.09100000 -14.66180000
-15.87870000 -70.50710000 16.46880000
-15.58680000 -71.80910000 16.60550000
-15.33950000 -72.46800000 16.78390000
-28.66320000 -47.10610000 -0.45400000
-28.55080000 -48.21660000 -0.64220000
-28.47480000 -48.78820000 -1.18160000
-28.54510000 60.51710000 2.67430000
-28.55590000 60.21750000 2.56000000
-28.57500000 60.93330000 2.38990000
-28.54380000 60.82050000 2.56610000
9.44770000 -122.00100000 -20.75730000
9.88960000 -121.57440000 -20.66120000
10.30100000 -121.22160000 -20.61260000
-26.06090000 -23.12220000 12.11650000
-25.69280000 -23.36020000 12.62540000
-26.24670000 -22.94770000 11.83760000
-16.07880000 -126.20450000 5.65530000
-16.21740000 -126.22750000 5.30530000
-16.22120000 -126.25950000 5.04030000
11.69610000 60.52330000 -16.16530000
11.33730000 59.75890000 -16.39360000
11.98240000 61.04100000 -15.97190000
-11.80800000 9.37030000 -20.53440000
-12.48630000 9.03850000 -20.37750000
-11.42380000 9.19320000 -20.64820000
-13.09920000 8.76160000 -20.21760000
-28.44100000 61.19300000 3.42360000
-28.45640000 60.92520000 3.05730000
-28.51210000 60.74530000 2.75750000
-23.91600000 54.26300000 14.37680000
-23.76750000 53.62140000 14.45990000
-23.53500000 53.03060000 14.54570000
5.52130000 54.04500000 -18.81790000
5.27820000 53.80740000 -18.81110000
5.08550000 53.25520000 -18.78950000
5.00410000 52.38180000 -18.73090000
6.28390000 116.87530000 -12.90650000
5.69020000 116.82930000 -13.21820000
4.84830000 116.84120000 -13.70570000
11.32290000 94.37660000 6.71460000
11.31170000 94.00320000 6.29000000
11.26310000 93.46010000 5.94330000
8.71890000 -5.26830000 16.72250000
8.66530000 -5.85430000 16.67240000
8.42850000 -6.42850000 16.74070000
18.31550000 -23.20240000 -7.92890000
18.33510000 -23.56130000 -7.96740000
18.36080000 -22.98090000 -7.93950000
-15.52880000 -113.41880000 -13.96840000
-15.44380000 -113.92810000 -13.79030000
-15.58150000 -112.95280000 -14.11610000
-29.54130000 41.32160000 0.29220000
-29.56570000 41.79930000 0.26150000
-29.51910000 42.14150000 0.49000000
-17.61770000 107.56170000 11.72660000
-17.75510000 106.56570000 11.54550000
-17.54340000 108.61280000 11.64690000
-17.88200000 8.25610000 18.58720000
-18.41950000 8.18510000 18.45330000
-19.33680000 8.08280000 18.13030000
22.41860000 87.52090000 2.35740000
22.37060000 87.52460000 2.83090000
22.31740000 87.61870000 3.18830000
1.76920000 103.77010000 -14.42640000
1.12270000 103.07590000 -14.53140000
2.27240000 104.44220000 -14.35090000
-11.21260000 81.97770000 13.59310000
-11.25810000 81.94170000 13.42710000
-11.22970000 81.83590000 13.35540000
-17.32220000 -8.80730000 17.85090000
-16.88460000 -8.97490000 18.12720000
-16.26630000 -9.15830000 18.44360000
-29.70240000 -17.39500000 1.26010000
-29.69230000 -17.53450000 1.41440000
-29.74160000 -17.47720000 1.70140000
14.51620000 39.50560000 10.66930000
14.56660000 38.94400000 10.63080000
14.66140000 38.53180000 10.62020000
21.76220000 -96.44410000 -14.52500000
22.08080000 -97.15840000 -14.28220000
21.43420000 -96.16590000 -14.85740000
-18.92720000 84.43600000 11.93800000
-18.80450000 84.05390000 12.02420000
-18.67840000 83.61500000 12.06300000
5.01830000 36.34480000 19.21040000
4.73420000 35.92310000 19.32780000
4.24400000 35.21140000 19.55610000
18.43170000 23.18100000 3.82390000
18.22760000 23.35770000 4.49630000
17.99800000 23.27930000 5.20900000
-13.40510000 120.02590000 -11.33800000
-13.47440000 120.13900000 -11.56610000
-13.46520000 120.11360000 -11.76110000
-27.76890000 41.19220000 8.80770000
-27.58980000 41.12500000 9.40470000
-28.13600000 41.46010000 8.16360000
-28.08070000 41.34070000 7.96340000
4.43830000 -111.38810000 20.73930000
4.27770000 -112.03020000 20.79520000
4.29680000 -112.65960000 20.81580000
4.53960000 -110.47430000 20.64750000
15.08910000 27.80710000 -12.86320000
15.40230000 27.53760000 -12.46890000
15.74000000 27.42910000 -11.99000000
-19.71150000 7.07150000 18.24830000
-19.37330000 7.29120000 18.36830000
-19.00250000 7.51800000 18.47310000
2.18050000 -123.29760000 20.60690000
2.33840000 -123.40180000 20.48320000
1.94480000 -123.18310000 20.67370000
-15.22930000 6.29890000 19.53050000
-15.35440000 6.01410000 19.40920000
-15.24880000 5.83740000 19.33040000
29.48060000 -120.62620000 4.00210000
29.33000000 -120.50540000 3.92640000
29.17460000 -120.34000000 3.90030000
19.18520000 6.60980000 -5.12580000
19.23040000 4.89170000 -5.23390000
19.28570000 3.89920000 -5.21380000
-12.61820000 -125.01990000 10.80320000
-12.70550000 -125.19950000 10.70510000
-12.79620000 -125.30620000 10.64650000
-20.59140000 -69.35270000 -13.11300000
-20.37230000 -69.07120000 -13.32400000
-20.28060000 -68.27210000 -13.42830000
-20.75660000 -69.29320000 -12.91170000
-20.81040000 -69.85450000 -12.79620000
-0.92660000 65.87570000 -18.84930000
-0.79240000 65.30720000 -18.85350000
-0.84610000 66.86840000 -18.81570000
-0.69580000 65.88040000 -18.83120000
-1.26670000 64.71960000 -19.12150000
-1.10200000 65.80550000 -18.94060000
-5.86700000 -30.45320000 20.82360000
-5.50250000 -30.45750000 20.81260000
-5.13660000 -30.50980000 20.78770000
-23.42830000 -52.06120000 -13.12480000
-23.50390000 -53.76490000 -12.87210000
-23.32220000 -51.22410000 -13.27650000
18.88990000 -115.20330000 -19.05890000
19.19270000 -115.55590000 -18.99120000
18.71430000 -114.97620000 -19.12690000
12.52590000 120.53030000 -10.48280000
12.73400000 120.66430000 -10.10130000
12.96780000 120.61700000 -9.82400000
13.15570000 120.54880000 -9.58010000
-21.05460000 -70.49860000 -12.39430000
-20.90180000 -70.49690000 -12.61880000
-21.16110000 -70.80120000 -12.23710000
-27.05530000 -60.78970000 -2.70690000
-26.92680000 -61.61160000 -3.00060000
-26.81300000 -62.07700000 -3.41080000
-13.53360000 -124.90060000 9.29510000
-13.75370000 -124.90410000 8.85840000
-13.29130000 -124.94400000 9.71160000
-27.94010000 41.23090000 8.13210000
-27.86850000 41.13210000 7.76200000
-27.68590000 40.99680000 7.37460000
10.84760000 122.42470000 -0.21800000
10.73860000 122.50050000 -0.93490000
10.92480000 122.50630000 -1.21230000
14.48840000 62.07050000 9.48750000
14.64100000 61.97220000 9.42200000
14.73340000 61.87010000 9.43180000
14.67850000 61.61850000 9.49730000
-25.55360000 -62.04380000 6.63400000
-25.43680000 -63.29090000 6.61620000
-25.77490000 -60.58160000 6.50900000
-1.66090000 62.89960000 17.79310000
-1.35940000 64.08080000 17.59440000
-1.20250000 64.77370000 17.49290000
-0.17360000 66.13250000 -18.91860000
-0.43840000 66.21980000 -18.85290000
-0.71060000 67.42850000 -18.80520000
-0.61960000 66.54940000 -18.81830000
-11.62850000 108.50780000 -13.30680000
-11.75640000 107.94760000 -13.32920000
-12.02240000 107.46700000 -13.37780000
-12.41040000 106.92150000 -13.48640000
-19.21310000 93.99410000 -11.85450000
-19.36390000 93.52100000 -11.70710000
-19.28010000 93.17150000 -11.64430000
8.97260000 87.25250000 10.03050000
8.92250000 87.09870000 9.87240000
8.85060000 86.88240000 9.75460000
11.77130000 120.78660000 -11.12840000
12.12390000 120.55130000 -10.98840000
12.37470000 120.42750000 -10.79330000
-0.96770000 67.35680000 -18.83350000
-1.00990000 66.48830000 -18.85540000
-0.82110000 67.86920000 -18.82970000
-0.83710000 67.73050000 -18.82010000
14.66990000 61.34270000 9.52550000
14.76480000 61.18110000 9.54260000
14.83240000 60.95260000 9.57370000
-8.42910000 90.14960000 21.75250000
-8.61990000 89.66840000 21.82820000
-8.33330000 90.62950000 21.55440000
-1.09320000 70.03370000 -18.78100000
-0.98580000 68.51810000 -18.81350000
-0.83440000 68.00550000 -18.81880000
-12.42330000 -122.48240000 11.40110000
-12.27810000 -121.83300000 11.67160000
-12.19320000 -120.92900000 11.91040000
-19.79680000 -29.04040000 17.54390000
-19.55340000 -28.80680000 17.63420000
-19.38000000 -28.54230000 17.66960000
-27.40110000 50.61160000 -6.69870000
-27.24720000 51.41290000 -7.08790000
-27.06620000 52.62140000 -7.45280000
-25.66360000 -57.95220000 7.21910000
-25.78340000 -56.15410000 7.33070000
-25.64150000 -54.61220000 7.70190000
-25.94040000 -53.81340000 7.44920000
-25.79260000 -55.23890000 7.45160000
-25.54960000 -56.46150000 7.59410000
5.74640000 85.63410000 16.70940000
5.56700000 85.26510000 16.68270000
5.91430000 86.11130000 16.78650000
-11.45840000 109.30300000 -13.25040000
-11.23710000 109.85340000 -13.22480000
-11.06760000 110.13780000 -13.25290000
10.10550000 -20.93380000 16.19380000
10.26180000 -20.66200000 16.32730000
10.33450000 -20.43630000 16.40770000
-12.50100000 -37.82370000 -20.19590000
-11.96060000 -38.05330000 -20.36350000
-11.29130000 -38.27460000 -20.55740000
-23.87910000 -7.15680000 -14.75870000
-23.73190000 -7.39090000 -14.81130000
-23.63410000 -8.99800000 -14.79630000
-23.67090000 -10.65400000 -14.75570000
9.80180000 112.96260000 -9.48480000
9.67270000 112.43530000 -9.61610000
9.49520000 111.73630000 -9.76030000
7.40110000 30.51380000 18.11740000
7.06600000 29.73030000 18.21620000
6.76010000 28.64570000 18.22670000
6.71760000 27.98110000 18.14930000
19.30830000 39.63070000 -1.54450000
19.33460000 39.44160000 -0.83800000
19.30450000 40.89640000 -2.04850000
-23.17990000 -7.84930000 -14.85700000
-23.43410000 -7.96610000 -14.84950000
-23.60780000 -7.97330000 -14.82850000
-28.33180000 20.73540000 -8.88730000
-28.52490000 19.48240000 -8.67660000
-28.70020000 18.51310000 -8.45260000
6.75490000 29.21260000 18.33810000
6.44110000 29.48000000 18.61180000
6.15600000 30.01540000 18.90960000
-30.70190000 13.36450000 3.77920000
-30.59200000 13.66510000 4.27520000
-30.52520000 13.30590000 4.56430000
16.21020000 75.03680000 8.81370000
16.45880000 75.01560000 9.49380000
16.65600000 74.88330000 10.04550000
13.13220000 -77.23300000 16.38650000
13.45320000 -78.13830000 16.23380000
13.77740000 -78.86010000 16.06050000
-17.60930000 114.10000000 10.46440000
-17.64740000 113.58670000 10.36460000
-17.70670000 113.23960000 10.13400000
-21.48880000 -30.12060000 16.39240000
-21.72540000 -30.35070000 16.14460000
-21.94250000 -30.22360000 15.91160000
6.38480000 -60.11160000 19.84660000
6.51840000 -61.79750000 19.81390000
6.48650000 -59.54450000 19.80730000
22.48400000 95.38200000 -3.97310000
22.59680000 95.49260000 -3.54850000
22.67520000 95.27360000 -3.06920000
19.35240000 61.22800000 -6.08950000
19.40070000 60.44660000 -5.81660000
19.27160000 61.57640000 -6.38290000
-17.63000000 53.15920000 15.78110000
-17.51310000 50.94800000 15.93470000
-17.59420000 48.81300000 15.94470000
-18.03990000 -17.58610000 17.24600000
-18.17230000 -17.50950000 17.24630000
-18.33380000 -17.44520000 17.29480000
4.79640000 20.52220000 19.58240000
5.28100000 20.94860000 19.39140000
5.76730000 21.31930000 19.23010000
5.52490000 20.83420000 19.40010000
-7.02220000 -94.13890000 -20.25610000
-7.21260000 -95.07210000 -20.16160000
-7.04320000 -91.51540000 -20.30240000
-6.86100000 -92.56420000 -20.33880000
7.54940000 -34.77570000 18.68040000
7.68390000 -34.86990000 18.53380000
7.73780000 -34.59510000 18.41940000
-15.95880000 -123.15280000 -5.71160000
-15.96470000 -122.63640000 -5.65000000
-16.00740000 -123.76740000 -5.61270000
-16.45670000 87.91530000 12.56950000
-16.48500000 87.85450000 12.03500000
-16.29060000 87.46490000 11.90970000
-16.03920000 87.06900000 12.00680000
-20.91440000 92.87530000 6.63220000
-20.90660000 92.86680000 6.84550000
-20.86610000 92.84100000 7.10460000
4.20440000 -113.20820000 20.83190000
3.82620000 -113.60770000 20.89200000
3.29560000 -113.95470000 21.00530000
5.59450000 21.92180000 18.92750000
5.88880000 21.88190000 18.99010000
5.75920000 21.48010000 19.17070000
-17.02660000 122.24310000 4.41370000
-17.15420000 121.81270000 4.25770000
-16.92760000 122.82520000 4.55120000
-6.57260000 -87.53490000 -20.50120000
-6.89550000 -88.59010000 -20.40170000
-7.15070000 -90.30990000 -20.29670000
-20.96240000 -27.15400000 16.59030000
-21.13340000 -27.27630000 16.58490000
-21.56260000 -27.16370000 16.38980000
-21.38280000 -27.28800000 16.50670000
-4.61280000 -30.98120000 -21.72100000
-4.99980000 -31.40890000 -21.69330000
-5.54580000 -31.62070000 -21.65640000
-21.18090000 65.77060000 12.91510000
-21.01900000 64.08090000 13.09770000
-20.92270000 62.65420000 13.24470000
-21.38260000 -25.97390000 16.46990000
-21.36800000 -26.74180000 16.47670000
-21.29210000 -27.21480000 16.53590000
-0.45820000 7.18090000 19.78190000
-0.58040000 6.90970000 19.77970000
-0.41630000 7.46570000 19.81770000
-0.55140000 7.47840000 19.93860000
-1.16550000 120.84820000 4.70170000
-1.00940000 120.88940000 5.49930000
-1.19630000 120.74190000 3.85650000
-17.20050000 92.14020000 14.39700000
-17.11240000 91.49700000 14.39160000
-16.97520000 90.93060000 14.49630000
22.68880000 -68.67110000 0.79310000
22.71880000 -68.94070000 0.67560000
22.70300000 -68.56760000 1.05750000
15.05960000 7.36050000 9.78830000
15.07180000 6.68190000 9.81220000
15.13550000 7.54900000 9.75010000
-23.34870000 12.70550000 16.40210000
-23.39860000 12.17150000 16.29090000
-23.38470000 13.38840000 16.43960000
-1.00520000 7.25510000 20.41390000
-0.79080000 7.28270000 20.17640000
-0.64270000 7.48120000 20.05360000
13.94960000 -47.88980000 -16.68340000
13.76560000 -47.91430000 -16.71360000
13.64720000 -48.27790000 -16.76320000
12.87610000 77.34560000 6.96480000
12.97940000 76.55240000 7.30710000
12.81500000 78.08240000 6.59280000
11.31850000 115.97240000 13.76430000
11.33580000 115.50490000 13.89970000
11.28830000 114.93860000 14.14580000
-21.14080000 -40.92390000 14.89100000
-20.98560000 -42.04920000 14.88500000
-21.21380000 -40.10270000 14.89450000
26.37830000 -99.38500000 6.37900000
26.14360000 -98.27130000 6.55120000
25.92520000 -97.29470000 6.73160000
-6.95520000 85.67380000 21.36250000
-6.97610000 85.24010000 21.46610000
-6.95360000 86.05910000 21.27760000
14.37750000 -121.18020000 19.83400000
14.93050000 -121.23230000 19.68800000
15.54780000 -121.31880000 19.50510000
10.54830000 122.76770000 -9.36270000
11.02790000 122.67500000 -8.74700000
9.51340000 123.05440000 -9.96390000
9.83830000 122.95600000 -9.96330000
18.61260000 -114.68540000 14.60760000
18.81700000 -114.49080000 14.63460000
19.05180000 -114.16380000 14.54810000
21.05820000 -45.96660000 1.78250000
21.07690000 -46.25950000 1.39720000
21.06950000 -46.32750000 1.15490000
-24.17160000 -72.15110000 -9.20140000
-23.87710000 -74.20340000 -9.41470000
-24.51530000 -70.28300000 -8.83940000
26.24050000 -101.48560000 7.58750000
26.26210000 -102.30420000 7.83800000
26.24140000 -100.80500000 7.32540000
9.81190000 23.57880000 17.00420000
9.60760000 23.52850000 17.19080000
9.42100000 23.60580000 17.35710000
29.56920000 -120.95510000 -6.88340000
29.39050000 -120.95490000 -7.05460000
29.15850000 -120.89360000 -7.31840000
9.58030000 22.72890000 16.95710000
9.65050000 22.57590000 16.76330000
9.58540000 22.25580000 16.57980000
21.08220000 -43.45600000 -0.40390000
21.03840000 -43.39270000 -0.16250000
21.14100000 -43.62450000 -0.70720000
10.63090000 84.58190000 4.03680000
10.81350000 84.77460000 3.57520000
10.94550000 85.08040000 3.13280000
-27.28310000 66.12190000 -4.91940000
-27.52580000 64.61270000 -4.94020000
-27.72980000 63.89980000 -4.90600000
-27.09960000 67.24290000 -4.90050000
-21.75880000 28.66340000 -14.44450000
-21.77290000 26.48210000 -14.64270000
-21.75230000 30.06130000 -14.33340000
3.15740000 32.98770000 20.32420000
3.28930000 32.84190000 20.38100000
3.58480000 32.91490000 20.35040000
12.55910000 121.67000000 -4.02810000
12.56300000 121.40120000 -3.83810000
12.57230000 121.92840000 -4.24500000
-27.86900000 63.37050000 -4.87660000
-28.05160000 62.18710000 -4.86140000
-28.18420000 61.67640000 -4.76290000
22.85570000 104.95850000 5.31500000
22.74940000 105.17270000 5.39320000
22.63400000 105.34480000 5.42800000
21.58810000 -48.31270000 -1.52280000
21.63910000 -48.88990000 -1.15000000
21.65310000 -49.24910000 -0.86720000
-4.28380000 14.61880000 -20.38910000
-4.23550000 14.33410000 -20.43850000
-4.33190000 13.80010000 -20.59130000
10.16610000 122.85660000 -9.84870000
10.23830000 122.81010000 -10.02930000
10.46320000 122.69620000 -10.07140000
13.17540000 -109.01560000 19.13960000
13.11380000 -109.25230000 19.15630000
13.39950000 -108.84720000 19.10320000
11.90250000 68.33470000 11.07810000
11.48210000 68.14800000 11.45780000
11.11600000 68.66140000 11.63800000
18.57120000 -107.67280000 17.20970000
18.56390000 -107.33540000 17.22170000
18.75060000 -107.27370000 17.11560000
-27.57170000 74.52470000 -3.85900000
-27.73890000 72.28310000 -3.95750000
-27.48480000 75.80030000 -3.69320000
24.23850000 -104.44210000 11.50700000
23.99220000 -104.51600000 11.60780000
23.64300000 -104.41900000 11.80810000
17.10810000 -97.83080000 -18.87470000
16.94360000 -98.07910000 -18.93610000
16.78840000 -99.29590000 -19.10000000
16.77710000 63.01780000 -10.57860000
16.75780000 62.64610000 -10.52220000
16.75920000 63.28090000 -10.74710000
-26.84110000 -24.71210000 9.39080000
-26.88800000 -25.57150000 9.28650000
-27.01890000 -25.99450000 9.17530000
10.85040000 -91.03680000 -20.98010000
11.37470000 -91.81850000 -20.85240000
11.93560000 -92.21320000 -20.63990000
2.39660000 88.58030000 20.59640000
2.29760000 88.56010000 20.87430000
2.18850000 88.54780000 21.08030000
6.78810000 4.54320000 17.33280000
7.27540000 3.74250000 17.20000000
7.69130000 3.01690000 17.07470000
-23.04570000 -73.01140000 -10.99640000
-22.87140000 -73.26800000 -11.20190000
-22.55470000 -74.26930000 -11.38850000
-22.65720000 -73.92110000 -11.35880000
-22.51500000 -75.06060000 -11.30490000
-22.14170000 -74.74560000 -11.49220000
-22.33140000 -75.15090000 -11.39900000
-22.46660000 -75.46940000 -11.29140000
16.36740000 63.42930000 11.19910000
16.48990000 63.28100000 11.30910000
16.59540000 63.12340000 11.36070000
10.08730000 85.01040000 9.71100000
9.98290000 85.09350000 9.77140000
9.85460000 85.14090000 9.79540000
2.97320000 113.22640000 -14.41760000
2.77580000 112.49770000 -14.52050000
3.06620000 113.69920000 -14.34700000
11.55590000 -46.57910000 -18.46970000
11.64430000 -47.41140000 -18.44810000
12.04850000 -47.20530000 -18.13000000
12.03160000 -48.08760000 -18.19070000
12.43430000 -47.99790000 -17.84440000
12.34700000 -48.54650000 -17.94790000
18.88320000 81.57570000 10.59270000
18.74940000 80.93630000 10.77220000
18.61690000 80.26120000 10.91450000
15.23870000 -84.27430000 16.77190000
14.97540000 -84.13400000 16.99950000
14.59120000 -84.01050000 17.28570000
-0.52410000 2.06420000 20.25500000
-0.50610000 1.80800000 20.16680000
-0.43560000 1.57630000 20.11140000
-18.58700000 -124.88740000 3.31490000
-18.53500000 -124.73090000 3.55370000
-18.44860000 -124.67620000 3.86140000
-18.34400000 -124.84420000 4.11920000
-21.80410000 10.01140000 16.59430000
-21.78240000 9.51960000 16.45780000
-21.77720000 9.24270000 16.44090000
-29.28210000 -0.43080000 7.48310000
-29.25660000 -0.47850000 7.08160000
-29.26450000 -0.53600000 7.76200000
-23.69910000 41.75900000 15.69920000
-23.83180000 40.94570000 15.64610000
-23.92860000 40.50770000 15.56180000
29.37070000 -112.66640000 -3.73690000
29.52530000 -113.38320000 -3.79670000
29.23810000 -112.00770000 -3.78670000
11.64740000 -45.82550000 -18.37850000
12.03550000 -46.10520000 -18.10370000
12.35010000 -46.96060000 -17.87830000
9.52370000 21.01350000 15.91700000
9.56300000 20.54940000 15.92310000
9.46290000 21.23830000 15.99200000
0.65740000 -79.00030000 -21.42930000
1.44610000 -79.34250000 -21.48130000
2.05930000 -79.81610000 -21.51480000
10.92720000 22.39110000 14.62940000
10.60690000 22.14130000 14.91720000
11.18600000 22.76620000 14.36550000
0.68730000 96.43490000 -16.59950000
0.39760000 96.36520000 -16.72060000
0.97540000 96.63400000 -16.40010000
-5.92030000 -11.14480000 20.27600000
-6.69290000 -11.18900000 20.27890000
-7.45800000 -11.22820000 20.24780000
11.08710000 18.44620000 15.04910000
11.32920000 17.89100000 14.93070000
11.68660000 17.40530000 14.67330000
14.36920000 -112.77020000 -20.45060000
14.53650000 -113.07890000 -20.55500000
14.23860000 -112.54250000 -20.41630000
-18.28720000 -124.99980000 4.26350000
-18.21530000 -125.02470000 4.48520000
-18.11110000 -125.13220000 4.69320000
10.10440000 -74.08440000 -20.23740000
10.60520000 -74.36410000 -20.07500000
9.62650000 -74.15610000 -20.38910000
17.60500000 -44.96920000 9.89000000
17.62570000 -46.16270000 10.04940000
17.58450000 -47.51110000 10.27000000
18.61650000 -113.00550000 13.72650000
18.46030000 -112.94810000 13.46940000
18.26850000 -113.03820000 13.08080000
-11.35190000 -73.43480000 18.00370000
-11.62900000 -73.35930000 17.83750000
-11.76180000 -73.57600000 17.76480000
-27.48760000 70.65940000 3.84180000
-27.67190000 69.95280000 3.82090000
-27.81190000 69.46300000 4.02680000
-9.74790000 5.91650000 20.16940000
-9.32900000 5.68770000 20.33420000
-8.85430000 5.37580000 20.42200000
-8.53280000 5.23400000 20.54730000
