-31.69760000 -84.96780000 -17.99370000
-32.44050000 -82.71100000 -16.66000000
-21.09950000 -81.35890000 -13.24810000
-20.01640000 -67.46060000 -8.89860000
-18.51230000 -66.33620000 -12.41550000
-28.66010000 -80.25120000 -21.01050000
-30.87730000 -79.63430000 -18.69510000
-33.90230000 -80.35070000 -14.06340000
-33.15390000 -77.88150000 -16.13470000
-32.04560000 -75.67130000 -18.29970000
-38.28500000 -96.87960000 0.96410000
-37.72480000 -91.94870000 -5.80470000
-37.97210000 -91.95450000 -1.85440000
-38.24270000 -93.73320000 -0.60450000
-35.69270000 -87.62280000 -6.97620000
-35.88310000 -88.17380000 -2.89000000
-38.17720000 -95.39960000 2.90130000
-38.05130000 -93.54990000 3.44790000
-37.27170000 -92.22900000 1.72900000
-35.41300000 -88.22730000 1.46050000
-37.74770000 -92.54400000 5.36170000
-36.92200000 -90.64160000 3.66520000
-36.83910000 -91.27660000 6.74490000
-35.13380000 -88.63690000 6.11770000
-25.54110000 -96.77050000 -8.15600000
-25.44350000 -96.33700000 -9.28240000
-25.10610000 -94.91000000 -6.03310000
-24.57680000 -90.18540000 -7.40250000
-23.93010000 -84.19130000 -7.81430000
-23.69890000 -84.08140000 -3.13240000
-22.73790000 -64.71560000 -2.15050000
-23.77690000 -84.20820000 -9.09220000
-22.62920000 -90.48890000 -1.40370000
-20.84210000 -92.21210000 1.65480000
-22.84420000 -65.48210000 2.66760000
-20.97430000 -79.62480000 2.07860000
-20.43220000 -70.52500000 4.24820000
-34.71180000 -85.07440000 -8.76120000
-33.60580000 -83.68010000 -2.64440000
-33.75570000 -82.23820000 -6.31230000
-34.61010000 -81.26290000 -11.22050000
-34.41380000 -78.19220000 -9.95570000
-33.23850000 -79.53800000 -4.89630000
-33.14330000 -83.40240000 -0.05940000
-33.05480000 -84.75710000 1.81240000
-31.86960000 -82.14620000 1.98040000
-32.21220000 -80.49450000 0.29510000
-31.85160000 -77.21970000 1.28180000
-34.97860000 -72.17620000 -8.77070000
-34.34380000 -70.16280000 -2.18490000
-22.86400000 -79.61210000 -8.85550000
-21.02100000 -63.68080000 -6.21700000
-22.95310000 -79.55570000 -8.13870000
-34.74160000 -75.99730000 -12.21750000
-35.02080000 -71.73230000 -13.54590000
-18.99440000 -92.75920000 -21.67340000
-13.55480000 -66.92870000 -16.80240000
-9.13880000 -67.22000000 -18.85210000
-7.51120000 -77.63380000 -22.07320000
-3.96190000 -67.05280000 -20.51950000
1.69060000 -85.20100000 -25.90550000
4.19200000 -96.12330000 -28.88700000
4.33040000 -66.37910000 -21.69310000
-0.04530000 -68.12540000 -21.43660000
-3.50660000 -85.67750000 -33.34790000
-17.36770000 -83.59340000 -28.73980000
-12.98250000 -82.75260000 -30.22240000
-18.98810000 -82.34070000 -27.82460000
-19.99410000 -81.07960000 -26.95510000
-19.55470000 -79.31310000 -27.03860000
-21.31460000 -75.50940000 -26.59400000
-16.15040000 -79.84800000 -28.59940000
-19.19390000 -81.41340000 -27.82380000
-17.16550000 -72.69460000 -28.56040000
-15.95000000 -63.84050000 -14.71500000
-7.88560000 -82.62170000 -31.53860000
2.36950000 -84.98840000 -32.75940000
-3.49510000 -83.13710000 -32.27930000
6.84770000 -83.68300000 -31.70070000
3.16210000 -81.00230000 -31.31010000
-5.28660000 -78.43600000 -31.50340000
-12.47710000 -78.01820000 -30.03790000
-8.87150000 -77.67360000 -30.76400000
-3.85760000 -77.59910000 -31.20330000
3.80690000 -77.70820000 -30.94140000
-3.13520000 -72.47340000 -31.13450000
-15.83310000 -115.61070000 12.24110000
-21.30770000 -111.15240000 24.59410000
-20.49630000 -110.33010000 21.61560000
-23.61500000 -109.69490000 23.88600000
-22.54910000 -109.20980000 21.91570000
-20.41790000 -109.39390000 20.53120000
-17.77520000 -109.86420000 20.03080000
-18.30590000 -111.06050000 22.42200000
-15.90410000 -110.44610000 20.23580000
-17.86590000 -109.18910000 19.83440000
-21.78070000 -108.06370000 21.09420000
-23.87490000 -107.65720000 22.51710000
-18.43520000 -107.45270000 20.22190000
-22.02260000 -105.44960000 21.51870000
-14.41140000 -117.64860000 14.67700000
-12.45210000 -114.11550000 13.41020000
-11.61080000 -116.75600000 14.99150000
-13.98410000 -112.39600000 11.08900000
-12.42540000 -111.58150000 10.95880000
-10.36480000 -110.62720000 10.60970000
-9.68070000 -112.81060000 12.82670000
-14.31810000 -108.02870000 6.97170000
-9.83400000 -108.78660000 8.81860000
-10.24100000 -105.15140000 6.84560000
-6.62360000 -104.57310000 7.08070000
-7.88300000 -114.24380000 14.19760000
-6.69830000 -114.66940000 14.35960000
-5.11970000 -113.85110000 13.29170000
-7.26930000 -111.42090000 11.56290000
-14.51040000 -109.71340000 18.97010000
-14.57590000 -107.52580000 18.72070000
-9.89360000 -109.81020000 16.72530000
-10.12320000 -108.37280000 16.06880000
-11.72110000 -110.91950000 20.45740000
-11.85880000 -105.26380000 17.36970000
-7.20280000 -108.91450000 14.78680000
-8.39610000 -110.92120000 20.44950000
-9.39800000 -105.85120000 15.35710000
-3.98200000 -109.48930000 15.10720000
-2.75920000 -108.93580000 14.46910000
-4.74710000 -107.40250000 13.54110000
-7.03390000 -107.68500000 14.18210000
-7.29870000 -105.91450000 14.57230000
-10.95060000 -103.20830000 16.98870000
-7.98560000 -103.59410000 15.56870000
-5.25370000 -105.08610000 13.74080000
-6.23450000 -103.16590000 14.16480000
-31.24260000 -95.53240000 17.97550000
-30.96740000 -94.54130000 20.29470000
-30.96100000 -95.19300000 19.28100000
-13.10720000 -104.31640000 5.17450000
-15.46320000 -102.24740000 4.62160000
-13.70850000 -103.95630000 4.61710000
-13.05740000 -101.50340000 4.07970000
-15.57260000 -96.66500000 4.29580000
-9.92130000 -101.90720000 5.04610000
-17.51280000 -95.42350000 4.08920000
-9.59510000 -100.37580000 4.09570000
-8.52170000 -97.76140000 3.79370000
-13.84700000 -95.28560000 4.13060000
-9.43820000 -94.40340000 3.91710000
-6.94710000 -102.14830000 15.13360000
-22.53850000 -113.49480000 33.27950000
-23.44320000 -111.26910000 27.10060000
-23.79560000 -112.24080000 32.13370000
-20.11500000 -112.73030000 28.94980000
-24.62730000 -110.23680000 26.76580000
-24.96010000 -108.49510000 24.77700000
-25.53730000 -108.79750000 26.94980000
-25.58300000 -106.69680000 26.21410000
-24.67430000 -106.51470000 23.52610000
-23.53960000 -105.91200000 22.24440000
-25.01110000 -104.92460000 24.71060000
-25.24110000 -109.22030000 29.00380000
-24.15880000 -111.23940000 31.86590000
-24.73100000 -108.44490000 31.18720000
-25.08830000 -104.75290000 29.96590000
-18.97250000 -104.36850000 20.78640000
-17.47000000 -105.44580000 20.38690000
-24.50050000 -108.83850000 33.18940000
-22.59460000 -114.46560000 36.11090000
-24.60320000 -105.06380000 32.82650000
-25.02780000 -106.53150000 33.57660000
-24.91980000 -104.63680000 33.77580000
-24.44860000 -102.91970000 33.59300000
-24.56210000 -102.08430000 34.50840000
-14.24000000 -103.58610000 19.06490000
-6.63130000 -100.37880000 26.02260000
-4.87630000 -99.56640000 23.87310000
-0.67440000 -99.99130000 25.57970000
-22.63760000 -104.17720000 22.38900000
-22.82000000 -102.99110000 23.54520000
-25.18780000 -103.77590000 26.10480000
-24.11640000 -102.52390000 25.09840000
-24.04320000 -102.05600000 26.14270000
-24.44190000 -102.84180000 28.82520000
-21.69510000 -101.12820000 23.79360000
-20.62510000 -102.12510000 21.77980000
-18.01950000 -102.42850000 20.58540000
-16.67450000 -101.32080000 20.32460000
-21.30700000 -100.56730000 24.80280000
-19.21260000 -100.18600000 22.40290000
-16.22220000 -100.37800000 20.90620000
-17.07750000 -99.35010000 23.00880000
-19.72390000 -100.32800000 27.09400000
-15.62480000 -99.75210000 24.50860000
-23.99320000 -102.53390000 31.41610000
-22.46130000 -101.18290000 28.55380000
-23.65160000 -101.47910000 34.04920000
-21.78820000 -101.18120000 31.54430000
-21.68520000 -100.74890000 33.47190000
-19.16280000 -100.49790000 31.75240000
-14.05540000 -100.50850000 27.72700000
-9.70200000 -100.53250000 30.10520000
-12.47670000 -101.33890000 18.46250000
-10.66800000 -102.04420000 17.57590000
-13.76460000 -100.57190000 19.48500000
-12.39040000 -99.68920000 20.66880000
-14.98330000 -99.29780000 21.75920000
-13.35670000 -98.98240000 22.18060000
-10.72330000 -98.57300000 20.89830000
-10.12210000 -100.83170000 18.67790000
-8.09070000 -101.77290000 16.84480000
-6.41030000 -101.04120000 15.94260000
-9.06050000 -99.68820000 19.14640000
-6.08980000 -100.25980000 16.82740000
-8.78150000 -98.07560000 19.49300000
-6.74810000 -99.08270000 17.90690000
-8.13020000 -97.30510000 19.59820000
-7.56090000 -97.22830000 18.20110000
-6.19090000 -96.62240000 16.71240000
-6.30850000 -96.19330000 17.34230000
-16.90500000 -91.57680000 17.94860000
-16.00590000 -91.23510000 17.46710000
-17.04580000 -91.75080000 17.35950000
-8.88150000 -90.51080000 13.86280000
-11.20730000 -90.17380000 17.68780000
-8.24190000 -90.38180000 17.74790000
-9.07270000 -99.97090000 24.57380000
-14.95650000 -90.71630000 18.89000000
-16.20470000 -90.49860000 20.54140000
-10.93150000 -89.97430000 20.09620000
-14.10480000 -89.52160000 21.47250000
-9.83920000 -88.49160000 22.25780000
-7.29340000 -89.88150000 19.46200000
-4.49010000 -88.57690000 21.15340000
-13.20800000 -87.80870000 24.21580000
-8.52550000 -87.85150000 25.01450000
-5.71630000 -87.56490000 23.79540000
-5.45420000 -87.83150000 22.39140000
-4.21380000 -109.33820000 9.57250000
-2.42160000 -106.05310000 8.02940000
0.90350000 -113.17760000 12.51630000
1.48070000 -114.12520000 13.49120000
-0.02530000 -113.70350000 13.01140000
-0.35940000 -112.99400000 12.29970000
-2.13330000 -113.65310000 12.76110000
-2.41330000 -112.17660000 11.41780000
0.00690000 -112.33140000 11.83440000
1.23490000 -112.44700000 11.90050000
-0.26930000 -110.80200000 10.67660000
-4.24020000 -111.24570000 11.04210000
1.95690000 -113.22590000 12.56130000
1.69840000 -109.67190000 14.94610000
2.07380000 -109.15500000 14.54410000
-1.19770000 -108.38740000 14.23470000
0.64340000 -108.18360000 13.55220000
2.33230000 -108.40140000 14.19480000
1.86380000 -107.91800000 13.24320000
2.63590000 -112.36960000 11.78090000
4.02580000 -110.22930000 9.79740000
8.39310000 -109.74570000 8.95570000
6.98490000 -112.53910000 11.61350000
1.87080000 -108.15200000 8.54640000
6.81300000 -108.33750000 8.11080000
3.18050000 -107.63380000 13.61070000
0.92410000 -106.06440000 7.80310000
-1.51260000 -106.56640000 12.62530000
-2.14110000 -105.10580000 12.45460000
1.18400000 -106.14770000 12.27150000
0.66120000 -105.61410000 11.50790000
0.23930000 -107.43570000 13.19670000
-3.42730000 -103.36980000 12.65230000
-0.72950000 -105.10650000 11.55930000
-1.24910000 -102.97540000 11.45970000
0.72170000 -103.77060000 11.18160000
-2.73300000 -101.94460000 11.61840000
4.85850000 -104.53800000 7.02630000
2.75100000 -105.95340000 11.60630000
3.28590000 -106.97570000 12.93720000
5.28370000 -104.79770000 11.15480000
5.18130000 -106.02800000 11.78890000
4.51240000 -107.00000000 12.87100000
6.10660000 -106.41250000 12.40360000
8.03590000 -105.92260000 11.49050000
2.67770000 -102.64290000 11.27470000
4.35180000 -98.53490000 11.31540000
4.82020000 -100.76100000 11.03780000
9.10630000 -102.48180000 11.06590000
10.97480000 -106.00550000 7.76220000
12.26750000 -108.08540000 8.17370000
18.03030000 -107.89210000 7.56210000
14.39680000 -103.33430000 7.13250000
17.82450000 -104.24190000 6.65250000
5.64150000 -100.62980000 6.32990000
9.87320000 -102.43600000 7.29690000
11.58680000 -103.79840000 7.53990000
18.26100000 -95.04980000 4.37360000
20.73840000 -102.70440000 5.35400000
14.39530000 -95.69510000 5.46170000
-6.10940000 -101.65650000 5.28460000
-0.35880000 -101.48440000 5.91260000
-6.34010000 -99.97360000 4.01200000
-3.22100000 -101.41170000 5.23980000
-2.98130000 -99.66470000 4.60510000
-2.07640000 -96.72350000 4.13020000
-0.20060000 -99.96770000 5.10780000
-4.68000000 -95.97970000 3.59110000
-5.15610000 -92.01020000 3.77680000
-5.17310000 -61.48230000 7.09470000
-9.35060000 -86.18650000 4.66930000
-2.21120000 -92.11730000 3.99310000
-1.93850000 -95.25740000 3.70020000
-3.73910000 -101.66500000 12.12940000
-5.10470000 -100.93450000 14.07990000
-3.49960000 -99.59970000 12.26850000
-2.63010000 -99.28550000 11.84600000
-4.43770000 -99.96380000 13.47230000
-0.67720000 -99.67740000 11.66690000
2.30140000 -98.85500000 5.51270000
0.21540000 -97.73580000 4.25860000
2.26800000 -96.87090000 4.86460000
0.25900000 -95.67270000 4.42230000
0.02770000 -92.61480000 3.98070000
3.31730000 -91.26090000 4.48670000
4.20460000 -94.37140000 4.96570000
1.57340000 -84.85590000 4.54900000
-1.20940000 -85.74070000 4.52190000
8.24930000 -93.72800000 5.41990000
10.70910000 -94.36720000 5.58540000
5.99990000 -83.56270000 4.74140000
9.73370000 -86.89290000 4.50990000
8.48390000 -109.61130000 15.05400000
5.13200000 -109.51940000 14.89560000
4.86370000 -108.61360000 14.67390000
5.25780000 -106.98970000 13.46580000
7.21730000 -107.64950000 14.06370000
8.91840000 -108.77250000 14.40200000
9.32260000 -107.50120000 12.76410000
7.77230000 -107.31930000 13.20780000
11.66140000 -109.64620000 14.91590000
11.03580000 -108.27470000 14.12110000
12.99210000 -108.56460000 13.90650000
14.81750000 -107.96020000 13.56340000
11.81550000 -107.17530000 12.42890000
10.89480000 -107.84460000 13.33980000
11.11090000 -106.10870000 11.70780000
12.26030000 -104.62100000 11.64030000
14.25480000 -105.45090000 12.70800000
16.24460000 -105.21440000 14.68020000
13.01860000 -101.45460000 11.68070000
11.12010000 -100.41530000 11.19160000
12.52420000 -98.52460000 11.83800000
15.62290000 -100.98590000 13.71460000
14.52150000 -100.97930000 12.80790000
17.12410000 -101.80510000 14.91940000
13.76270000 -98.95310000 12.73260000
15.58130000 -98.82590000 13.90870000
13.33740000 -98.01490000 13.81570000
14.41460000 -98.54300000 13.82990000
18.14310000 -105.86430000 16.72180000
20.81510000 -105.89450000 18.17380000
17.83760000 -103.74860000 16.24490000
22.23510000 -102.44630000 17.67420000
19.86650000 -102.16770000 16.44380000
24.86020000 -104.82750000 19.33910000
14.27820000 -98.19100000 14.59650000
11.32090000 -97.03410000 15.36460000
14.57130000 -98.65210000 16.51250000
18.67120000 -100.42650000 15.28490000
19.22000000 -99.03340000 15.61680000
22.36670000 -100.01660000 16.93680000
17.43090000 -98.21740000 15.11570000
16.14520000 -98.44100000 14.71290000
15.44050000 -98.12880000 14.05280000
16.70300000 -98.40480000 15.64090000
18.81370000 -98.60960000 15.60910000
18.75270000 -98.60780000 16.33610000
-4.56500000 -98.60970000 15.00410000
-5.19710000 -99.24920000 16.28300000
-3.77320000 -97.17850000 13.25600000
-5.38240000 -97.68440000 16.16880000
-4.72400000 -96.31080000 14.94800000
-3.88850000 -96.12870000 13.42670000
-5.10690000 -95.71340000 15.75450000
-3.56190000 -95.63650000 14.18450000
-3.22040000 -97.34430000 12.11660000
-0.90180000 -97.03630000 12.05910000
-1.85770000 -97.01500000 11.85400000
-3.63230000 -95.76540000 12.42620000
-2.80700000 -96.75270000 11.77330000
-2.86010000 -95.77720000 11.91790000
-1.26030000 -95.77620000 12.14830000
-1.97210000 -95.37950000 13.26790000
-2.39920000 -95.45200000 12.29540000
-0.58650000 -95.83270000 12.66560000
-4.50300000 -95.50060000 16.74020000
-3.46840000 -95.07860000 15.52100000
-4.20120000 -96.59250000 18.48260000
-3.26340000 -95.54980000 17.71340000
1.50340000 -97.50790000 11.53050000
0.56650000 -96.81580000 12.00080000
0.32050000 -95.63260000 12.40430000
0.63340000 -94.58890000 13.10250000
1.34450000 -95.38810000 11.81720000
4.22030000 -95.06030000 11.77890000
6.09000000 -95.61380000 11.27490000
3.57380000 -93.96720000 12.80720000
5.84370000 -94.60350000 12.29340000
6.03640000 -93.63120000 12.60340000
-2.28970000 -94.93030000 14.05270000
-6.69830000 -90.85020000 12.72400000
-8.36800000 -90.81530000 12.66160000
-6.92300000 -90.14900000 12.40860000
-9.62560000 -90.26100000 12.72190000
-6.05220000 -90.92340000 13.49260000
-5.66900000 -90.59230000 12.71070000
-5.71860000 -89.66360000 12.47580000
-4.74180000 -91.58420000 12.42710000
-3.36070000 -92.20600000 13.52380000
-3.25620000 -91.94210000 11.93340000
-4.60590000 -91.60440000 13.21790000
-3.64250000 -89.82010000 12.11700000
-2.32580000 -92.58240000 12.91150000
-1.72070000 -92.54790000 12.01590000
1.18080000 -91.09380000 11.47600000
-3.59400000 -93.31080000 17.12780000
-4.23790000 -91.83220000 15.35300000
-5.30600000 -91.40940000 17.20240000
-1.36480000 -93.30620000 13.85610000
-3.05900000 -94.35530000 15.24530000
0.40380000 -92.50560000 12.04220000
0.57040000 -91.81280000 11.48230000
3.49340000 -92.46540000 11.47930000
-1.68280000 -88.08770000 11.96020000
1.57590000 -92.99510000 12.65360000
6.04580000 -92.53180000 11.75640000
5.20440000 -92.06920000 11.11180000
-0.64330000 -98.54560000 22.72480000
4.18000000 -93.57690000 19.14880000
1.06690000 -92.39550000 19.49170000
6.15020000 -92.23330000 19.86860000
7.21380000 -94.35990000 19.30610000
-4.87370000 -90.87630000 18.64790000
-1.57510000 -90.42510000 19.89160000
-1.63980000 -89.02650000 20.81810000
-1.17340000 -92.80550000 18.80380000
5.04730000 -89.89770000 20.97390000
8.53500000 -90.91840000 20.30630000
9.67650000 -97.55650000 11.28350000
9.43100000 -95.28550000 14.10840000
11.24440000 -95.75970000 11.92280000
11.51880000 -96.13710000 12.94460000
7.61140000 -94.56900000 12.63440000
9.04370000 -93.79060000 13.56280000
9.11910000 -92.98490000 12.53690000
7.95170000 -92.26190000 11.40590000
12.58370000 -96.40420000 12.29610000
12.37340000 -96.52640000 11.72100000
13.14900000 -97.56560000 12.24110000
13.09090000 -97.67160000 12.97750000
13.44140000 -94.01680000 11.83570000
13.98670000 -94.02630000 11.44500000
12.81230000 -92.95340000 11.23920000
12.79260000 -93.07550000 12.01160000
12.14120000 -92.71940000 13.02900000
12.04580000 -91.95890000 11.36470000
10.84790000 -92.25530000 12.07800000
12.43820000 -91.60920000 11.04300000
14.44600000 -91.28690000 11.21820000
9.17030000 -91.55280000 10.84590000
10.74770000 -89.28110000 10.86100000
3.66270000 -85.30640000 11.82260000
13.90840000 -89.64610000 4.23110000
10.00810000 -61.48940000 7.14610000
12.12650000 -90.76400000 10.80870000
15.21240000 -88.48140000 11.13770000
10.23190000 -94.54000000 16.31200000
13.41370000 -93.65470000 15.49420000
12.72520000 -93.33590000 16.89490000
14.56640000 -91.49620000 17.77650000
14.56310000 -92.44770000 15.02090000
17.03230000 -91.78540000 14.98350000
17.24820000 -92.62410000 13.79230000
15.89010000 -93.03080000 12.00040000
16.34200000 -90.62440000 11.80200000
18.22900000 -91.63780000 13.08810000
17.85700000 -92.67420000 13.32850000
18.62870000 -90.70470000 13.13850000
20.23540000 -88.85150000 12.22030000
18.10250000 -90.81050000 17.31110000
19.54060000 -91.48390000 14.38300000
19.09150000 -90.80870000 16.01960000
19.88200000 -87.49260000 11.48030000
17.83200000 -86.13810000 11.03900000
13.08260000 -82.93810000 11.67680000
10.05800000 -81.68050000 12.03130000
21.11700000 -83.03200000 10.58230000
-34.83410000 -92.15650000 11.82400000
-33.89440000 -87.90530000 7.86030000
-33.01880000 -85.00350000 4.49650000
-32.58950000 -87.32220000 9.08980000
-31.76250000 -90.04720000 12.87090000
-32.40120000 -93.64130000 15.28060000
-29.65660000 -94.09940000 18.55100000
-29.71860000 -94.00320000 17.73560000
-29.18560000 -91.63150000 16.00060000
-26.53850000 -92.41580000 17.59670000
-26.87480000 -88.75910000 14.32760000
-28.51550000 -85.97370000 10.87870000
-26.37380000 -83.67670000 9.96230000
-30.20070000 -83.20160000 6.58360000
-23.78460000 -84.94990000 11.80110000
-23.35310000 -88.76360000 15.00170000
-19.72830000 -94.55230000 2.85580000
-18.95600000 -93.32990000 3.35570000
-19.16080000 -89.46410000 3.17330000
-17.39750000 -90.19530000 4.08110000
-13.35250000 -87.22670000 4.69450000
-15.01640000 -77.70220000 5.32400000
-17.64730000 -81.19870000 4.18690000
-16.78100000 -79.13100000 4.82050000
-19.08420000 -80.02940000 3.44610000
-18.20600000 -70.56500000 5.64670000
-16.74110000 -76.20090000 5.20690000
-16.37580000 -66.15840000 6.93080000
-19.31070000 -85.98430000 12.94810000
-21.23580000 -83.80790000 11.99030000
-24.87470000 -82.93560000 10.44360000
-23.58730000 -79.93630000 11.31770000
-25.99520000 -80.69460000 9.58590000
-11.59520000 -61.48620000 7.72130000
-31.25460000 -79.78870000 2.51380000
-31.08170000 -81.62700000 4.15420000
-29.78280000 -81.73210000 6.14240000
-30.79540000 -79.44340000 4.26800000
-29.36890000 -80.17140000 6.33730000
-31.93540000 -72.72750000 4.22820000
-29.81080000 -75.40160000 6.75960000
-32.67620000 -70.98920000 2.45810000
-33.89460000 -68.89250000 0.23360000
-27.58700000 -82.26520000 8.38720000
-27.91560000 -71.54640000 9.55780000
-30.82540000 -92.76410000 21.60000000
-29.21050000 -93.48740000 19.75040000
-26.63770000 -92.66190000 18.78950000
-27.48660000 -92.16280000 20.67010000
-27.74460000 -91.17730000 21.69180000
-28.79630000 -90.25960000 26.84060000
-28.61310000 -90.41070000 23.63310000
-21.36770000 -90.37610000 21.16820000
-25.62220000 -89.32200000 23.19600000
-23.27920000 -91.61180000 17.67760000
-23.66930000 -92.03060000 18.43070000
-23.08380000 -91.47720000 20.04740000
-22.64010000 -89.25910000 22.32810000
-19.02970000 -90.86810000 19.58280000
-25.52470000 -88.96240000 24.90660000
-28.56240000 -89.89530000 29.83660000
-25.06930000 -88.64940000 29.82140000
-23.52140000 -88.34820000 27.09040000
-21.32970000 -88.27900000 23.69610000
-17.58110000 -88.45270000 22.80250000
-19.63520000 -87.73910000 30.49390000
-16.98510000 -87.48900000 28.02100000
-19.19400000 -91.32310000 18.02640000
-19.00250000 -91.32400000 17.24750000
-19.59350000 -89.83650000 15.92630000
-17.17140000 -89.92280000 15.40380000
-16.68020000 -90.86790000 16.28030000
-15.81450000 -90.86760000 16.85040000
-14.40050000 -90.73060000 15.45300000
-13.88210000 -90.04540000 14.12090000
-17.85460000 -87.67390000 13.77750000
-13.18030000 -88.86640000 13.13900000
-15.61230000 -86.29300000 12.91670000
-12.19290000 -90.43520000 14.84760000
-11.75000000 -90.59830000 13.44920000
-9.71000000 -87.96260000 12.57060000
-17.74680000 -83.48240000 12.67030000
-19.40610000 -78.86970000 12.98460000
-12.68980000 -85.06680000 12.92080000
-13.82730000 -77.83850000 13.93860000
-8.67860000 -81.82520000 13.38890000
-13.85050000 -87.50030000 27.25180000
-22.71360000 -72.63120000 13.14970000
-25.14540000 -72.23790000 11.79910000
-17.49840000 -74.26360000 14.24730000
-11.78030000 -71.89630000 15.40220000
-18.31690000 -66.50720000 16.19950000
-20.72040000 -67.63860000 15.16610000
-15.29040000 -66.43560000 16.60620000
-21.06160000 -64.16650000 16.11640000
-3.51570000 -86.28360000 4.37430000
-1.96260000 -61.48670000 7.58970000
-2.02900000 -83.96500000 4.61150000
0.52710000 -61.48750000 7.29230000
4.06490000 -82.52290000 4.52220000
5.41380000 -61.48780000 7.20960000
7.32630000 -61.48680000 7.26110000
-2.86350000 -75.06240000 14.09660000
18.39070000 -88.62850000 3.41860000
8.23530000 -74.47780000 13.22030000
19.00050000 -80.15250000 11.30640000
16.19960000 -79.36750000 11.72490000
12.35850000 -79.77110000 12.30710000
13.05940000 -76.00310000 12.54030000
15.93820000 -76.62040000 12.02450000
3.35950000 -66.97680000 14.77370000
-10.89160000 -62.71230000 17.66530000
-4.61530000 -60.66320000 17.28010000
-1.18020000 -63.26100000 16.04600000
-46.38790000 -41.79080000 15.31490000
-46.86220000 -39.16560000 13.02010000
-44.68080000 -39.96430000 10.29330000
-45.51590000 -44.28900000 19.29650000
-43.99560000 -45.26310000 17.67410000
-47.45580000 -40.46010000 16.35420000
-47.80940000 -38.84070000 18.26120000
-47.73000000 -37.65110000 14.63390000
-46.31990000 -35.98110000 10.41350000
-47.65840000 -34.18240000 14.83750000
-47.08590000 -34.35210000 12.15270000
-47.93770000 -35.72360000 16.67210000
-35.89160000 -62.68970000 -14.37240000
-29.65220000 -71.95630000 -21.57880000
-26.56180000 -69.89120000 -24.28730000
-33.03540000 -66.06190000 -18.50230000
-29.04300000 -62.27670000 -23.08360000
-31.85670000 -60.01540000 -20.61150000
-35.70810000 -70.28320000 -10.49730000
-35.36820000 -68.86910000 -5.85170000
-37.60450000 -60.84930000 -8.47260000
-36.44230000 -64.09060000 -5.16230000
-37.86280000 -60.40560000 -6.73990000
-37.38950000 -61.77620000 -10.60600000
-37.66300000 -60.31420000 -3.97900000
-38.72180000 -55.68690000 -8.59020000
-40.02740000 -53.29430000 -4.70780000
-39.05850000 -51.43030000 -8.07130000
-38.36220000 -48.84230000 -10.77330000
-35.18000000 -57.13650000 -16.52870000
-29.88980000 -52.27780000 -22.60760000
-34.30890000 -48.64660000 -18.34220000
-36.80700000 -49.33070000 -14.40470000
-37.94000000 -53.23140000 -11.88980000
-22.51330000 -66.03430000 -26.85050000
-16.13620000 -61.42530000 -29.50330000
-11.88360000 -70.64030000 -30.36390000
-6.45750000 -66.33150000 -31.38840000
-10.60150000 -60.94550000 -30.65090000
-0.97920000 -64.79880000 -31.44640000
-3.96740000 -59.57950000 -31.40970000
-26.40230000 -54.44670000 -24.92040000
-21.17900000 -56.11320000 -27.77580000
-18.46060000 -49.84280000 -28.42990000
-14.10040000 -50.62750000 -29.33170000
-5.40880000 -52.40780000 -30.60110000
-31.03840000 -45.42170000 -21.53380000
-35.55530000 -43.84630000 -16.20700000
-37.48480000 -43.86430000 -12.70550000
-33.94860000 -38.55200000 -17.18100000
-31.35780000 -39.26110000 -20.20360000
-35.88750000 -36.05940000 -13.56560000
-30.75700000 -30.24510000 -17.93090000
-22.90630000 -44.57170000 -26.52730000
-26.87250000 -42.15590000 -24.21850000
-29.05990000 -38.82990000 -22.11480000
-22.48680000 -38.07980000 -26.23660000
-28.79990000 -34.74120000 -21.00380000
-26.78730000 -34.20930000 -22.75030000
-11.26510000 -41.28380000 -29.79700000
-3.39710000 -46.13910000 -30.55830000
-15.85470000 -37.04310000 -28.65070000
-21.11130000 -32.81420000 -26.06740000
-8.07180000 -34.73040000 -30.12020000
-26.57770000 -25.26290000 -20.20010000
-23.83080000 -32.85490000 -24.86400000
-24.46670000 -28.83220000 -23.12690000
-19.17560000 -26.47060000 -25.29690000
-21.23290000 -23.55960000 -23.43100000
-14.64270000 -32.53260000 -28.48210000
-15.64690000 -28.91760000 -27.41510000
-8.51790000 -29.43270000 -29.29510000
-11.55040000 -24.34320000 -27.32490000
-4.75860000 -22.02670000 -27.84730000
-33.34380000 -67.38000000 1.98430000
-35.51550000 -64.50250000 -0.89430000
-34.44680000 -63.91880000 1.77090000
-36.07320000 -62.40190000 -0.34210000
-31.56640000 -68.31960000 6.45270000
-32.80150000 -67.32920000 4.70170000
-33.83200000 -65.46460000 3.87100000
-33.01730000 -66.51670000 5.60300000
-31.15930000 -67.07960000 7.94050000
-28.32350000 -67.28950000 10.52680000
-33.78060000 -64.98020000 7.87990000
-34.16110000 -65.29250000 5.83760000
-32.87040000 -66.30540000 7.40250000
-32.10900000 -65.62090000 9.34130000
-35.59920000 -62.16720000 3.60410000
-35.03080000 -63.69440000 4.46330000
-36.33000000 -60.67390000 2.05550000
-38.11080000 -58.35580000 0.52240000
-35.14580000 -63.38010000 7.40550000
-34.30260000 -64.51940000 9.15000000
-36.42240000 -62.22790000 8.73350000
-36.85350000 -60.87860000 7.55310000
-37.39890000 -59.46620000 5.73790000
-38.72890000 -57.91040000 6.21860000
-39.17910000 -56.75480000 -0.97100000
-40.44040000 -52.50310000 0.19640000
-40.30870000 -50.79040000 -6.06130000
-41.54750000 -47.74460000 -3.87280000
-39.64270000 -47.20690000 -7.00310000
-38.99870000 -56.80130000 6.19520000
-40.03890000 -55.10100000 3.96870000
-38.82040000 -57.35440000 2.90740000
-39.01710000 -56.10900000 1.65820000
-39.92320000 -53.10740000 1.59210000
-39.63670000 -55.78820000 2.84200000
-40.23830000 -52.59730000 3.06390000
-39.68210000 -53.98530000 4.60340000
-38.24280000 -56.41630000 6.65820000
-38.54000000 -53.12690000 4.75760000
-36.47360000 -54.69340000 6.13540000
-36.73060000 -51.71410000 4.06220000
-41.50520000 -48.11320000 0.34710000
-40.52320000 -50.04550000 2.04970000
-40.34720000 -48.72870000 2.97340000
-38.75840000 -50.35780000 3.64340000
-36.03000000 -50.55870000 2.65500000
-35.37290000 -54.24630000 5.19650000
-35.06610000 -50.73770000 1.73890000
-34.54910000 -52.83600000 3.34030000
-36.90690000 -49.09710000 3.05480000
-36.29810000 -49.37680000 2.68080000
-39.82620000 -47.51670000 3.32270000
-38.28810000 -47.43470000 3.31200000
-34.92150000 -48.83350000 1.77340000
-32.78530000 -49.01740000 0.56240000
-37.08640000 -47.44600000 3.03870000
-36.01280000 -48.72830000 2.40210000
-34.28150000 -50.41870000 1.36570000
-33.77790000 -46.72340000 1.76670000
-28.62520000 -66.14640000 11.71730000
-32.05680000 -65.03970000 11.73290000
-33.31790000 -64.35320000 11.90550000
-30.22310000 -65.30210000 11.96200000
-26.64560000 -65.90380000 13.00530000
-27.96860000 -64.81850000 14.10930000
-31.84000000 -63.65910000 14.70600000
-30.02360000 -64.81360000 14.01820000
-34.73400000 -62.28830000 12.54760000
-28.54070000 -63.22080000 16.90130000
-37.05760000 -60.92520000 9.50120000
-36.23580000 -62.37380000 9.88200000
-35.26150000 -60.43000000 12.43830000
-36.27770000 -59.22020000 10.60070000
-33.65640000 -61.43940000 14.61160000
-34.64360000 -58.21160000 11.33550000
-35.77570000 -56.67830000 8.50980000
-33.68330000 -56.72150000 9.72120000
-33.22330000 -58.10600000 13.11770000
-32.25130000 -56.88840000 11.23280000
-31.81260000 -56.08520000 7.68780000
-31.76280000 -56.84910000 13.64030000
-29.35940000 -55.80410000 10.62930000
-29.56060000 -61.30820000 18.13430000
-31.27520000 -61.17320000 17.11500000
-27.00790000 -62.67050000 17.73770000
-26.25630000 -63.59050000 15.69610000
-28.29860000 -62.77770000 20.77910000
-32.98720000 -61.07470000 21.17250000
-33.06910000 -59.12080000 19.32160000
-28.66210000 -61.50020000 20.20370000
-25.28460000 -62.52650000 17.87080000
-26.02660000 -62.31800000 19.20960000
-28.34400000 -61.07650000 19.10040000
-27.33040000 -61.55060000 19.84620000
-29.90510000 -60.13620000 19.30290000
-36.51080000 -59.77190000 22.65660000
-36.22060000 -58.49530000 20.14420000
-34.63020000 -61.38760000 22.63040000
-38.66960000 -56.50490000 21.39220000
-36.28250000 -56.92700000 18.59000000
-34.98060000 -56.01210000 17.47080000
-37.60860000 -54.66880000 18.61770000
-32.26900000 -59.77680000 16.60760000
-32.86280000 -59.11330000 15.47340000
-31.49420000 -57.27910000 16.33940000
-30.11780000 -55.83470000 13.10930000
-30.72040000 -55.67000000 15.19300000
-29.74690000 -54.81460000 14.92880000
-30.94240000 -59.43170000 18.32490000
-31.68330000 -58.53000000 17.59870000
-31.76570000 -58.58780000 18.45500000
-32.57450000 -57.39070000 17.82940000
-31.74680000 -56.46940000 17.41500000
-31.97100000 -55.25720000 17.18670000
-30.80970000 -55.31780000 16.70840000
-34.26170000 -53.32310000 16.58060000
-24.86000000 -66.21970000 13.66180000
-23.70400000 -63.85250000 15.32970000
-24.34330000 -62.60440000 16.50110000
-22.36400000 -62.92210000 16.76690000
-23.22470000 -62.88680000 16.80150000
-21.63320000 -61.79410000 17.19360000
-22.91660000 -62.59860000 17.46510000
-23.86980000 -62.40930000 18.17740000
-22.86860000 -62.16700000 18.08490000
-18.04240000 -62.07480000 17.46220000
-24.93780000 -62.36790000 19.58780000
-22.86390000 -61.34130000 18.86580000
-21.29100000 -60.07730000 17.91550000
-26.07220000 -55.49040000 10.60710000
-27.12190000 -54.37000000 13.14130000
-25.68030000 -54.38490000 11.78700000
-24.41380000 -54.61420000 11.27330000
-25.19210000 -53.12790000 13.46630000
-22.11100000 -54.24300000 10.72450000
-34.30410000 -55.47110000 6.85520000
-36.98620000 -45.71340000 3.13420000
-36.30760000 -47.43490000 2.63330000
-39.52200000 -54.23940000 21.21660000
-38.81080000 -51.64260000 18.86740000
-36.06820000 -52.22750000 16.71810000
-37.57060000 -50.27620000 17.19740000
-30.75460000 -52.05000000 16.48430000
-29.74190000 -52.41400000 17.01930000
-29.39830000 -53.00870000 16.72460000
-34.32970000 -49.60750000 15.74350000
-35.35080000 -47.23590000 15.44230000
-30.81550000 -50.81390000 15.84780000
-31.39050000 -48.98840000 15.35920000
-28.61660000 -47.95780000 15.04680000
-30.10830000 -48.21180000 14.96650000
-32.77840000 -47.24310000 15.28720000
-30.63870000 -47.18600000 14.80460000
-42.32020000 -47.58240000 18.97000000
-39.68650000 -47.84860000 17.29320000
-41.42870000 -45.96190000 16.60020000
-36.91850000 -46.58930000 15.49320000
-35.94780000 -44.03690000 13.71480000
-34.79640000 -44.97670000 14.38700000
-39.22400000 -45.27860000 15.04920000
-42.25780000 -43.52500000 13.80610000
-40.53030000 -43.64680000 12.77310000
-38.83860000 -43.73560000 12.93000000
-33.12970000 -45.54810000 14.65410000
-31.17060000 -46.88360000 15.18110000
-31.22530000 -45.53910000 14.55990000
-35.16630000 -42.37150000 12.11310000
-33.64430000 -44.19040000 13.50020000
-33.30810000 -43.77640000 12.94240000
-32.23610000 -44.43940000 13.65900000
-23.69200000 -51.73070000 13.09180000
-25.04670000 -49.04360000 15.15810000
-22.73080000 -49.50190000 12.84410000
-41.07250000 -45.93850000 -5.39750000
-42.11460000 -42.71750000 -1.67550000
-41.56750000 -41.94760000 -4.43770000
-39.45790000 -40.26230000 -6.53460000
-38.85410000 -42.11430000 -8.89670000
-40.47460000 -37.91250000 -4.65690000
-41.96740000 -44.09510000 0.87390000
-41.43300000 -43.57860000 2.73130000
-42.24270000 -39.66160000 2.22320000
-41.75640000 -37.18550000 -2.70600000
-42.45910000 -36.89270000 1.93000000
-41.76500000 -35.05930000 -0.23290000
-37.77070000 -37.62830000 -10.49190000
-38.81020000 -33.26460000 -4.99050000
-40.35710000 -31.75250000 -1.59070000
-37.33630000 -33.00660000 -9.30320000
-34.05440000 -31.24670000 -14.52120000
-32.05960000 -24.48280000 -14.03620000
-38.29370000 -28.30820000 -2.69700000
-36.96980000 -27.27590000 -5.83210000
-34.80440000 -25.19000000 -9.93550000
-31.65040000 -21.79270000 -12.63150000
-35.18170000 -21.97090000 -5.34750000
-33.27480000 -20.31550000 -8.33720000
-40.90420000 -42.06690000 5.68850000
-42.82110000 -39.18480000 6.06380000
-41.97160000 -40.64410000 5.01670000
-42.74530000 -41.61290000 10.31670000
-41.35750000 -42.35100000 9.34280000
-40.30530000 -44.17190000 3.60800000
-37.32780000 -43.41240000 4.08190000
-39.28560000 -43.10420000 4.43330000
-40.16060000 -42.92740000 8.34450000
-38.86450000 -42.92860000 6.26490000
-38.07300000 -42.96410000 5.19530000
-37.30320000 -42.33790000 5.37790000
-41.01220000 -42.31840000 3.86150000
-41.81070000 -40.85930000 3.52050000
-39.07480000 -42.61850000 8.94570000
-37.91500000 -42.66490000 6.17720000
-37.53710000 -41.61950000 7.20030000
-36.48980000 -41.24670000 5.65270000
-37.05160000 -41.04560000 8.39310000
-35.39650000 -40.85080000 4.74130000
-35.24400000 -39.93360000 6.54370000
-44.18060000 -36.06140000 6.72500000
-42.71440000 -37.71320000 4.03100000
-45.26810000 -38.01400000 9.36190000
-42.86590000 -34.22000000 3.65230000
-41.28170000 -31.62170000 1.33220000
-39.42230000 -43.07530000 11.33870000
-37.43010000 -41.86450000 10.71090000
-34.75330000 -40.48660000 9.68300000
-34.64170000 -39.88410000 7.90950000
-31.28860000 -43.23590000 12.38280000
-32.79060000 -41.17110000 10.91160000
-45.57450000 -32.90420000 8.95690000
-46.50340000 -31.76930000 11.92240000
-33.59750000 -41.56060000 3.52930000
-34.61360000 -41.59670000 3.91020000
-34.23790000 -43.56510000 3.03000000
-33.98460000 -40.17550000 4.61110000
-32.58800000 -41.82710000 3.15360000
-32.65700000 -40.95300000 3.60820000
-31.73240000 -40.61490000 3.96440000
-33.01950000 -39.52720000 5.90560000
-31.68310000 -41.23460000 3.31090000
-30.71170000 -41.23220000 3.32320000
-31.14190000 -42.32190000 2.85960000
-28.50870000 -41.27210000 3.27710000
-30.21250000 -39.98090000 6.27260000
-27.36090000 -41.69860000 10.73660000
-32.75640000 -40.01370000 9.08220000
-27.65780000 -40.72520000 6.77310000
-26.48400000 -40.93910000 8.43560000
-28.51540000 -42.15930000 11.32720000
-25.60690000 -40.14200000 4.55280000
-25.81170000 -40.49830000 7.02430000
-42.31680000 -31.37270000 3.45240000
-43.96750000 -29.59170000 7.62100000
-39.96810000 -27.51120000 1.47690000
-43.75950000 -27.43470000 9.97200000
-46.39970000 -30.46870000 14.66460000
-38.60820000 -23.90290000 1.92170000
-36.99060000 -20.96120000 4.22540000
-40.90230000 -24.12290000 9.50600000
-36.17390000 -20.51940000 0.38910000
-32.84500000 -18.13070000 -6.06780000
-36.61370000 -20.55560000 7.07080000
-33.93360000 -17.89560000 6.46050000
-28.33220000 -22.54620000 -17.42690000
-23.68780000 -21.65030000 -20.97200000
-17.78940000 -21.14720000 -23.99760000
-10.75760000 -18.76720000 -25.20830000
29.47220000 -127.59410000 35.79020000
31.58740000 -127.99110000 34.87650000
34.84020000 -127.64020000 35.70290000
31.95480000 -127.67980000 33.64870000
36.92930000 -127.61780000 34.10650000
36.79730000 -127.03560000 36.25120000
33.59850000 -124.19590000 36.85210000
7.16880000 -126.53500000 34.73650000
7.52610000 -124.99510000 35.34590000
3.33670000 -120.27440000 36.70830000
-9.89560000 -115.96880000 37.23760000
-7.71410000 -115.32210000 36.49600000
1.10130000 -117.06210000 37.40280000
-0.68410000 -116.01630000 37.27000000
6.61470000 -117.70500000 36.69770000
4.64480000 -114.68980000 34.97050000
-1.03150000 -115.49990000 36.86540000
4.96160000 -116.27410000 36.73030000
6.24840000 -115.33920000 35.93630000
12.86930000 -127.42790000 34.19760000
15.31430000 -127.51070000 34.56700000
12.08810000 -126.48600000 34.37890000
20.29710000 -128.06650000 33.71470000
17.60240000 -127.01490000 35.03670000
10.60860000 -123.68520000 35.48550000
20.10930000 -128.29460000 31.89310000
9.45050000 -124.16410000 35.22760000
10.86300000 -124.98580000 34.59810000
7.41830000 -120.46930000 36.06130000
9.28540000 -120.36390000 35.90510000
13.26850000 -121.93840000 35.86370000
11.18620000 -118.78310000 36.48100000
19.89030000 -122.52550000 36.14220000
17.67610000 -118.31080000 36.89930000
23.83310000 -119.79970000 37.22310000
23.85870000 -128.18880000 33.57800000
26.05550000 -128.26870000 32.13060000
25.33640000 -127.96080000 35.11140000
27.71010000 -128.06980000 33.88720000
28.41360000 -127.88560000 30.60810000
31.66490000 -127.65520000 28.58550000
29.22850000 -127.72340000 33.14170000
32.25610000 -127.31810000 31.36570000
36.17850000 -127.33190000 32.98790000
26.83000000 -118.10920000 37.63690000
18.76010000 -117.47720000 36.91940000
26.97580000 -115.52950000 33.56440000
19.72770000 -115.23060000 33.12150000
21.18870000 -116.57770000 36.04700000
29.45520000 -114.13970000 32.51740000
30.38940000 -115.81640000 35.78110000
32.42160000 -118.47150000 37.95500000
28.87680000 -116.96170000 36.99330000
30.78280000 -113.82160000 34.03280000
32.74490000 -113.73280000 35.74240000
8.93210000 -118.10310000 36.08210000
8.22430000 -116.39490000 35.98040000
11.23560000 -117.51840000 36.42190000
9.92180000 -116.89030000 35.30630000
12.55880000 -115.74680000 34.01720000
11.17370000 -116.75320000 35.69760000
9.88670000 -115.82280000 33.76970000
8.50340000 -115.49100000 35.13390000
10.61930000 -114.98530000 31.39150000
15.41680000 -116.86860000 36.35830000
21.03600000 -113.70640000 28.81320000
26.97200000 -113.68590000 29.04340000
37.27680000 -121.82580000 37.56710000
32.21510000 -116.72010000 37.42190000
-25.28440000 -100.03480000 35.76500000
-28.62710000 -96.51560000 35.61790000
-29.12770000 -94.44540000 35.07610000
-24.88420000 -93.59480000 35.66210000
-30.51370000 -92.88610000 33.80020000
-29.27460000 -91.09690000 32.81350000
-28.16150000 -92.26610000 34.21530000
-16.30300000 -100.08600000 33.03860000
-5.04220000 -99.93770000 32.22070000
-11.85310000 -99.08410000 33.71910000
3.08270000 -99.05070000 33.63550000
-7.43080000 -97.50370000 35.14400000
1.38180000 -100.53400000 28.39550000
5.05230000 -100.47040000 30.35750000
-9.15360000 -95.70280000 36.28100000
4.30480000 -96.41820000 35.75100000
-23.81340000 -100.46050000 35.47650000
-20.04470000 -99.50680000 34.99500000
-22.55140000 -99.03860000 36.07670000
-24.97830000 -97.73670000 36.37670000
-20.14400000 -93.42530000 36.33780000
-19.84910000 -97.59990000 35.96900000
-20.76710000 -96.09730000 36.48960000
-16.48400000 -99.50400000 33.91420000
-15.90140000 -96.98000000 35.48590000
-14.85240000 -94.23790000 36.50970000
-21.81510000 -91.25910000 35.10320000
-24.55390000 -89.85330000 33.08190000
-19.15770000 -88.82550000 34.46010000
-21.04020000 -88.32420000 32.68040000
-8.48810000 -92.69060000 36.68640000
-16.22510000 -90.40180000 36.15880000
-8.41340000 -91.08090000 36.41740000
-10.52120000 -89.16640000 35.51420000
-14.75350000 -89.02670000 35.85240000
-20.55080000 -85.45470000 37.34990000
-18.53230000 -87.22800000 36.74110000
-17.26660000 -87.89070000 37.47630000
-16.30470000 -88.64490000 35.71870000
-16.26800000 -87.92930000 35.40660000
-15.44230000 -87.38690000 34.55150000
-16.42590000 -88.09530000 36.20170000
-15.23110000 -88.43770000 36.30250000
-12.68180000 -88.56030000 35.68560000
-14.49550000 -88.50000000 37.85820000
-12.94250000 -88.14910000 36.26240000
-17.38380000 -87.44660000 35.95510000
-19.75990000 -85.56950000 34.83190000
-18.71450000 -85.72300000 34.72040000
-16.70010000 -86.11660000 35.07860000
-15.40530000 -86.72470000 34.97390000
-12.94700000 -88.16450000 38.70980000
-15.24400000 -88.07340000 38.74400000
-19.12530000 -86.12850000 38.69520000
-17.06420000 -87.62530000 38.48380000
-15.84240000 -87.09620000 39.33450000
-18.73330000 -85.56590000 39.45160000
-18.88550000 -84.50490000 39.59840000
-15.26340000 -85.39800000 39.66710000
-13.36050000 -88.47960000 37.57060000
-10.48950000 -85.28000000 39.63800000
-10.97910000 -87.55460000 25.69690000
-11.98580000 -87.20570000 29.34640000
-9.71970000 -87.68190000 27.10300000
-11.30020000 -87.20470000 30.71220000
-6.91940000 -87.11310000 28.50520000
-6.67550000 -87.52030000 27.22910000
-3.87290000 -86.94730000 28.67560000
-9.06700000 -86.87880000 31.39820000
-4.94800000 -94.27990000 36.69580000
2.26780000 -95.11980000 36.26190000
3.37620000 -92.32780000 36.14200000
-0.74330000 -89.32130000 35.41570000
-9.94270000 -87.84560000 34.85970000
-7.80420000 -87.15700000 33.76950000
-13.81340000 -86.78960000 33.96220000
-13.85550000 -86.06980000 34.57360000
-11.87660000 -86.42660000 34.02760000
-11.78260000 -85.32260000 34.87970000
-11.08510000 -87.54260000 35.61020000
-9.97910000 -86.99120000 34.63950000
-9.50830000 -86.64780000 33.07560000
-11.06010000 -86.23850000 34.63830000
-9.39630000 -87.44110000 37.18800000
-11.00320000 -87.48640000 36.40320000
-9.65690000 -87.48960000 38.25230000
-10.26420000 -87.15490000 38.99480000
-6.97730000 -86.30900000 37.10250000
-9.83760000 -86.57670000 35.31480000
-10.16260000 -85.75090000 35.01420000
-6.67560000 -85.50620000 35.04180000
-6.36640000 -86.79100000 32.07010000
-4.53270000 -87.59280000 33.90690000
-0.81930000 -86.96770000 32.49020000
4.34240000 -87.90650000 34.30430000
-7.03800000 -82.44110000 32.68880000
-6.29480000 -84.45400000 33.73200000
-10.36040000 -82.51870000 33.45740000
-4.74350000 -84.64510000 35.39420000
-4.62990000 -83.17550000 32.24900000
-3.23060000 -83.13600000 32.54320000
-2.86530000 -83.40440000 34.36200000
-6.64860000 -85.63200000 38.40610000
-12.77800000 -84.48520000 39.58960000
-7.40100000 -85.23730000 39.21730000
-6.88930000 -83.83570000 39.34330000
-10.45970000 -82.36900000 38.95490000
-4.16000000 -83.69640000 37.00000000
-4.99190000 -83.91230000 38.57830000
-5.61470000 -80.79080000 38.08880000
-4.26290000 -82.16660000 38.11770000
-1.84940000 -81.94410000 34.40580000
-2.07000000 -80.92710000 35.37130000
-3.37280000 -82.15620000 36.95440000
4.39660000 -100.19910000 26.29150000
3.58180000 -98.95230000 23.54400000
5.18260000 -99.95700000 31.90960000
10.08320000 -100.72940000 28.26420000
8.69520000 -100.45050000 26.16700000
8.73890000 -99.85580000 23.95590000
11.41460000 -100.82470000 25.40930000
12.78840000 -100.70190000 26.90170000
17.22570000 -100.80350000 29.57400000
19.38580000 -100.32850000 31.65560000
16.53020000 -99.55590000 33.23280000
6.34000000 -97.86850000 34.73570000
15.30370000 -95.01490000 36.31260000
16.87470000 -98.37170000 34.49420000
16.06250000 -100.61850000 26.20440000
13.75640000 -100.81110000 24.97330000
20.96910000 -100.78620000 23.60630000
18.51610000 -100.41150000 25.10440000
20.31090000 -100.75810000 21.45990000
23.60270000 -100.34350000 20.58720000
22.11460000 -100.69880000 21.40360000
22.22410000 -100.57860000 20.29690000
22.55820000 -100.50320000 23.99480000
24.62950000 -99.77820000 23.19530000
24.30500000 -100.47250000 27.49880000
10.77050000 -99.59480000 22.08380000
16.10990000 -99.84630000 22.28730000
26.21690000 -100.37590000 30.42330000
27.88470000 -99.81230000 32.49730000
26.09820000 -99.12890000 33.76920000
28.03660000 -100.07680000 29.56770000
-0.38110000 -87.19850000 23.80540000
0.12270000 -87.43520000 22.76410000
2.47840000 -87.17950000 26.08370000
3.06230000 -86.72010000 30.71690000
5.64830000 -88.16930000 22.38570000
5.29380000 -87.59260000 23.62500000
9.33990000 -88.04570000 23.21720000
7.77200000 -87.42770000 26.72250000
10.38950000 -87.07010000 32.27290000
6.90230000 -86.82770000 29.40710000
12.34430000 -86.92260000 30.49660000
8.91330000 -87.39640000 33.33030000
-1.97270000 -82.37360000 33.32790000
7.22880000 -81.09540000 30.18680000
7.44120000 -80.31400000 29.35370000
8.66530000 -82.03820000 30.62320000
7.84380000 -81.78220000 32.20960000
6.14900000 -79.70970000 30.79480000
7.97170000 -78.19040000 27.97500000
10.35260000 -77.45510000 28.57560000
11.76670000 -91.61130000 19.49540000
10.42020000 -89.20580000 20.99790000
9.20410000 -88.99860000 21.70860000
15.55300000 -89.92030000 19.89240000
12.82000000 -89.53190000 20.53080000
12.46410000 -88.50250000 22.07910000
10.99230000 -88.23100000 22.28320000
15.64090000 -88.42640000 21.82640000
14.03240000 -87.90200000 23.74580000
18.07950000 -90.04390000 18.58490000
17.69930000 -88.72430000 21.73520000
20.30650000 -89.48100000 19.51960000
20.70490000 -90.40810000 17.63300000
20.57390000 -88.12100000 21.69000000
18.41720000 -87.77810000 23.48500000
11.71690000 -87.49350000 25.54040000
12.17030000 -87.84960000 22.98700000
15.74050000 -87.43180000 27.54470000
24.03170000 -87.52830000 25.53050000
22.63760000 -87.71070000 22.09950000
10.26640000 -92.94830000 36.34690000
18.05510000 -92.85900000 36.54620000
22.58150000 -97.62490000 34.93130000
27.08690000 -98.46950000 34.61280000
30.71150000 -96.84010000 35.34360000
27.20600000 -93.38030000 36.33090000
18.73050000 -90.67310000 35.98610000
26.53320000 -90.94210000 36.04420000
24.72030000 -89.43500000 35.25170000
16.16820000 -89.05890000 34.86600000
24.73530000 -88.32160000 33.87400000
31.19890000 -91.91400000 35.86330000
9.55290000 -89.88600000 35.39010000
16.19930000 -87.90240000 33.37250000
10.24560000 -83.33860000 33.87090000
8.16210000 -81.60470000 33.69850000
11.48470000 -83.86540000 33.78860000
9.59900000 -82.97870000 31.89620000
14.81810000 -83.58890000 33.66310000
6.03640000 -79.77410000 31.86660000
13.08580000 -82.00970000 31.74180000
9.08170000 -81.24860000 34.60320000
7.05050000 -79.76340000 33.41040000
12.75370000 -84.00280000 35.42520000
11.61010000 -83.42030000 35.44770000
11.60700000 -82.55660000 35.73540000
12.15960000 -80.62300000 35.16830000
7.81640000 -78.06700000 33.35120000
18.95220000 -87.47060000 31.68630000
13.67710000 -84.12910000 34.68270000
15.66550000 -84.16230000 35.62400000
13.81530000 -83.57880000 36.30780000
17.23950000 -83.62590000 36.40420000
18.44020000 -83.91240000 34.93310000
18.34510000 -83.83190000 35.86700000
18.65400000 -82.34330000 32.81290000
26.08620000 -87.61640000 31.35420000
20.41100000 -83.11740000 34.47820000
21.07900000 -81.47580000 32.58970000
22.52800000 -81.25190000 34.26630000
13.94330000 -74.98130000 28.46390000
16.75470000 -80.63760000 31.56350000
15.05650000 -82.42860000 36.42770000
16.20720000 -82.64390000 33.06910000
20.54740000 -78.88100000 30.37080000
22.19100000 -77.99110000 30.01690000
22.88350000 -80.16630000 32.34090000
17.79840000 -78.04940000 30.41250000
20.30390000 -76.01140000 28.99080000
24.40110000 -77.65130000 30.93660000
16.43890000 -83.17770000 36.62400000
19.76140000 -82.77160000 36.51180000
18.53870000 -82.27340000 37.03330000
20.73230000 -81.42470000 36.77280000
20.96460000 -82.47200000 35.71080000
17.10160000 -77.81290000 34.91500000
19.09380000 -79.03050000 36.06950000
20.51450000 -80.04540000 36.80780000
13.52510000 -75.32570000 33.49770000
22.69540000 -80.21340000 35.61400000
22.36970000 -79.15050000 36.19880000
24.26650000 -78.73440000 33.59000000
24.39450000 -76.27680000 34.76980000
21.99890000 -74.88090000 35.41130000
22.06730000 -78.08620000 36.17870000
24.53180000 -72.82080000 34.99460000
23.61440000 -72.91200000 35.30070000
-26.86480000 -89.36780000 31.45140000
-21.16890000 -83.45520000 33.45470000
-20.81730000 -80.61830000 30.93420000
-19.52000000 -83.98270000 32.97500000
-22.41600000 -80.29810000 31.87090000
-17.61250000 -83.54860000 33.30740000
-19.98570000 -79.87680000 30.43670000
-17.49070000 -78.68450000 31.11800000
