-2.12640000 34.78900000 12.62810000
8.66720000 -22.99640000 -9.52950000
8.09200000 -23.45560000 -9.79920000
6.05310000 24.42610000 -8.97760000
5.46090000 25.16730000 -9.01220000
9.00750000 -19.45570000 3.02460000
3.29830000 15.00320000 7.99850000
-11.20960000 -31.84500000 -10.43790000
-11.48870000 -30.98520000 -9.38670000
3.13570000 35.89110000 11.89160000
2.89830000 35.96810000 12.18140000
2.49880000 35.94480000 12.36810000
3.12140000 36.48370000 12.41860000
-6.04910000 38.15920000 12.64440000
7.77440000 -18.74080000 -11.89200000
7.33720000 -19.47440000 -12.23360000
7.13590000 -19.25480000 -12.62160000
7.80620000 -18.33110000 -11.84820000
-3.67560000 36.97660000 -3.27370000
-3.83150000 37.08140000 -2.99380000
-3.29320000 37.13770000 -3.36250000
-12.32500000 -6.43290000 1.51230000
-12.42730000 -5.23860000 1.37430000
-10.88770000 -27.99090000 -4.10920000
7.19570000 11.94840000 6.88620000
8.42760000 9.44410000 -11.62770000
8.14000000 10.26640000 -11.75390000
7.01070000 10.52110000 7.08500000
5.35280000 47.94610000 15.84510000
8.32470000 -40.81270000 -5.63900000
8.63010000 -39.97290000 -5.23360000
8.46000000 -40.56890000 -5.43730000
-13.89750000 -16.85500000 -3.40190000
-13.71120000 -16.80240000 -2.94080000
1.75290000 -38.09450000 -15.25820000
1.56210000 -37.80460000 -15.25830000
1.49540000 6.83500000 -16.37070000
-6.43560000 33.94940000 4.98020000
-6.51240000 33.67180000 5.01470000
-6.14940000 33.67660000 5.31900000
-14.09560000 16.74990000 -0.37530000
-13.50400000 17.64300000 -0.44890000
-13.79600000 17.04810000 -0.33750000
-12.52880000 -16.16390000 -10.78000000
-6.41590000 32.55680000 5.50420000
-6.43980000 33.01260000 5.34910000
-6.04810000 32.83550000 5.54550000
-5.47670000 7.17630000 4.82300000
-10.77230000 45.54200000 7.35460000
-10.76370000 45.14500000 7.30230000
-3.78080000 29.49140000 6.92320000
-4.09790000 29.58590000 6.74230000
-13.05750000 -2.76470000 0.46040000
-12.73230000 -2.40270000 0.74540000
-4.30310000 25.54600000 -10.15400000
-3.13630000 25.31070000 -10.58100000
13.62930000 4.04150000 -8.95920000
-8.84460000 30.97110000 -4.27090000
6.45940000 -25.77010000 1.55180000
6.32550000 -26.00570000 1.10200000
9.50880000 -28.00590000 -6.10650000
-11.52740000 -25.37500000 -4.79340000
-11.11470000 -24.47200000 -4.00760000
6.16020000 -25.74910000 2.14390000
6.45520000 -25.69260000 1.88140000
1.49590000 56.66200000 9.19440000
0.85530000 -28.72390000 3.29450000
6.57830000 5.68380000 6.84180000
6.80950000 5.10160000 6.69080000
7.31780000 4.63670000 6.37040000
-12.68800000 6.62610000 -11.27640000
-13.37530000 5.90070000 -11.02140000
-14.72100000 -6.22120000 -5.03780000
6.87080000 41.10050000 3.93200000
-0.12410000 55.94470000 4.34070000
-11.06350000 -46.83690000 -9.26130000
-10.92200000 -46.11010000 -9.48510000
6.30240000 5.15800000 6.78710000
-10.81850000 -22.22270000 0.80000000
-16.09500000 6.43860000 -5.16590000
-15.90040000 7.25620000 -5.99230000
4.96050000 35.93350000 8.50230000
5.24470000 36.55090000 8.85100000
6.66120000 41.21950000 3.37030000
9.93090000 23.07780000 -6.22600000
10.15380000 22.32100000 -6.44950000
-5.90270000 33.07660000 -4.89590000
-5.16610000 33.57860000 -4.90540000
-5.67700000 33.60950000 -4.42500000
7.06970000 9.23660000 -13.61070000
6.59870000 9.97200000 -13.79430000
-9.52240000 -0.86000000 2.35090000
11.31710000 -2.91490000 -10.98280000
11.28140000 -3.64830000 -10.89340000
10.92060000 -6.24860000 -10.86600000
11.28260000 -5.15430000 -10.70990000
-6.02920000 -26.35380000 -15.92580000
-5.19620000 -26.58040000 -16.24550000
2.11420000 19.57660000 8.50280000
1.82350000 19.32310000 8.67140000
-4.79710000 -42.33790000 1.71060000
8.64660000 22.66750000 -6.82360000
-12.84730000 -12.59570000 -0.86710000
-12.59770000 -10.76800000 -0.19610000
-12.79060000 7.40970000 1.78320000
11.73650000 -9.46510000 -9.64550000
12.11380000 -8.49550000 -9.32350000
7.39680000 7.14150000 -12.26520000
7.34820000 7.66740000 -12.29030000
6.01300000 30.70740000 -5.17050000
-9.44500000 43.42500000 6.28570000
7.79320000 -41.47790000 -6.93320000
2.54830000 7.31200000 6.29450000
-7.57530000 -50.02250000 1.70180000
-11.18980000 -49.21150000 -1.70890000
-10.95570000 -48.84850000 -1.47840000
0.51070000 42.49500000 -1.69380000
-0.37990000 -19.15330000 -16.98370000
4.69670000 -40.57930000 -13.07180000
4.96150000 -39.16570000 -12.86030000
13.35060000 -10.00460000 0.98540000
-10.55000000 -48.72010000 -0.75520000
-5.11050000 -21.88480000 2.43370000
-4.64630000 -21.63320000 2.45940000
-4.49000000 -21.99090000 2.36040000
-8.30690000 -22.40360000 -14.87380000
-2.22810000 43.36950000 16.28700000
-12.35550000 -17.39430000 -7.17040000
-12.72290000 -17.06160000 -6.83030000
-12.43760000 -17.40360000 -7.74730000
-13.73530000 -17.54080000 -4.34090000
4.74080000 9.85020000 7.61970000
4.35130000 10.29010000 7.56150000
5.63240000 -16.99990000 -14.10960000
1.74680000 -25.92800000 -16.12880000
1.85940000 -26.64240000 -16.04340000
-13.23880000 -18.24860000 -5.06700000
1.01790000 -48.16220000 -15.50200000
1.58640000 -50.16480000 -15.42050000
0.66820000 -48.65410000 -15.60940000
-11.19790000 -20.64570000 0.02940000
-3.47300000 20.18570000 5.21460000
-3.64730000 19.38500000 4.91050000
-4.09440000 17.39340000 4.47140000
-4.09990000 17.12600000 4.58420000
7.15510000 -24.13720000 2.93450000
6.29490000 -24.71430000 3.06540000
14.91550000 0.23060000 -0.48130000
15.32930000 0.56310000 -1.12340000
0.19370000 -45.59090000 -15.54190000
15.28610000 -0.64790000 -4.95860000
-14.60890000 17.49540000 -1.41040000
-1.90020000 -22.63280000 -17.26740000
-12.69060000 -19.96020000 -3.53180000
-13.62480000 0.16430000 0.58290000
-13.46850000 1.25260000 0.68850000
-13.75630000 0.28110000 0.42450000
-14.71060000 17.60360000 -1.71120000
3.41510000 24.94640000 6.08700000
3.95310000 25.42620000 5.94130000
-12.59260000 -20.63330000 -2.46550000
0.10360000 -21.45190000 -17.12780000
8.91130000 -34.68180000 -3.86450000
8.79700000 -35.28310000 -3.73690000
8.92360000 -35.11620000 -4.22310000
-9.31590000 -40.73930000 -0.66260000
-8.84740000 -40.53430000 0.03040000
-8.38700000 -40.63370000 0.49980000
12.75190000 -12.53070000 -3.81170000
13.12070000 -12.08240000 -3.95370000
13.44910000 -11.94670000 -3.93230000
8.67760000 -35.71580000 -3.33850000
0.69240000 39.24220000 -1.82790000
-8.00610000 -52.46150000 -12.80890000
5.30520000 -18.18530000 -13.85150000
-4.18080000 -51.59580000 3.36920000
-4.77460000 -51.90810000 3.27680000
-2.73030000 -52.77320000 3.99420000
-3.68660000 -51.93590000 3.53720000
-3.61530000 -52.61790000 3.65650000
13.78720000 12.56540000 2.57030000
11.62490000 1.65800000 4.37260000
-12.64790000 10.81760000 -11.15990000
-12.42620000 -7.57060000 -11.86010000
6.35540000 52.67290000 12.73650000
-5.92730000 -32.27380000 1.54320000
-5.38850000 -31.56400000 1.89130000
-5.15830000 -32.41910000 1.94480000
-5.23130000 -30.73480000 1.93420000
7.82290000 -5.21880000 -13.96470000
7.62300000 -4.37750000 -14.26430000
7.48570000 -4.82690000 -14.58900000
-12.00200000 -8.70970000 -13.18130000
-12.02170000 -7.58370000 -13.25570000
-12.19750000 -7.69040000 -12.72880000
-2.74180000 32.64450000 8.34040000
-3.24620000 32.65040000 8.04590000
-6.53980000 -41.76070000 -13.64220000
-6.07370000 -40.99850000 -13.85300000
-6.51580000 -40.91660000 -13.56060000
-9.39840000 -47.59360000 0.32910000
-9.19530000 -46.15960000 0.19260000
-9.19620000 -48.06600000 0.58280000
-14.80330000 -4.05480000 -8.38830000
-14.58960000 -3.85530000 -7.50000000
-14.52190000 -3.63790000 -7.05840000
5.84430000 -36.65740000 -12.29810000
6.11210000 -22.13880000 3.60590000
-10.93700000 -35.99750000 -8.04310000
-10.86150000 -35.72170000 -6.77350000
-13.45840000 -18.44650000 -3.06130000
-4.25560000 55.69680000 4.68330000
-3.85020000 17.34170000 6.43190000
-3.61830000 18.29830000 6.57290000
-3.89370000 17.51680000 6.16280000
-3.79700000 -13.24910000 2.55800000
-3.32310000 -15.04460000 2.50040000
7.83460000 -42.28800000 -6.96730000
-2.60950000 20.52740000 7.73240000
6.63620000 40.31700000 3.33490000
6.75460000 41.24020000 3.17240000
-12.05020000 -21.14070000 -4.23130000
-11.91070000 -21.13000000 -4.53240000
7.00580000 41.14550000 3.79590000
-2.30790000 19.91250000 7.96870000
-1.88830000 20.59430000 8.23980000
8.53550000 18.03730000 -10.51410000
8.29020000 17.80180000 -10.75630000
5.53900000 -21.50160000 -12.89750000
5.72020000 -21.54330000 -12.67940000
5.20610000 -22.11040000 -13.03600000
8.35380000 25.10240000 4.48750000
8.29880000 26.19070000 4.45990000
-2.36220000 20.54730000 7.95890000
6.70200000 3.89610000 -14.23900000
6.77670000 2.63810000 -14.21620000
6.89750000 2.45320000 -14.00830000
6.28900000 24.61040000 -8.99900000
6.43300000 24.11090000 -9.21600000
-10.84680000 -38.10120000 -9.75210000
3.00770000 47.80490000 17.33940000
2.77160000 46.86660000 17.34700000
-8.93820000 6.34960000 3.54590000
-11.96120000 -20.77800000 -11.62470000
7.83270000 45.93650000 6.42180000
3.19880000 -8.42450000 -16.95430000
-6.91720000 -53.51690000 2.49240000
-7.07630000 -52.94250000 2.40730000
-9.16330000 2.60650000 2.93610000
-9.14440000 3.82900000 3.08080000
-9.04920000 4.12620000 3.18010000
-0.34210000 31.35930000 8.06130000
-0.12040000 31.60450000 8.01080000
-6.35410000 -52.73230000 2.76390000
-2.01580000 -54.26080000 4.21520000
13.33910000 19.36930000 -0.55130000
9.29490000 -24.09980000 -0.92350000
14.51250000 13.47760000 -2.98200000
14.43770000 13.45190000 -2.01710000
-1.34670000 -53.90660000 4.23810000
-1.81970000 -54.62860000 4.34970000
-4.42210000 27.89230000 6.89200000
-3.74770000 27.40920000 7.12550000
-3.83200000 27.24380000 7.01450000
13.11950000 -3.95160000 -7.93480000
14.68060000 -0.93960000 -5.64170000
14.90010000 -0.78130000 -5.45270000
6.96690000 -46.39820000 -0.83110000
13.20770000 -1.80330000 -8.39910000
13.25330000 -2.69920000 -7.98230000
13.38280000 -2.00480000 -6.93010000
7.69670000 -45.54620000 -2.28110000
-8.67720000 5.37050000 -15.27820000
3.12950000 19.41080000 5.81710000
-11.55610000 28.49290000 -1.64610000
-9.26580000 30.59330000 0.97550000
-9.44740000 30.94410000 0.42440000
7.59850000 -46.53370000 -1.80010000
7.57690000 -45.68840000 -1.64920000
-11.94190000 21.54730000 1.00890000
-10.32880000 30.28660000 -0.35840000
-15.80360000 5.69450000 -7.72340000
-16.11270000 5.55790000 -6.11370000
-15.91770000 6.39790000 -7.14590000
-15.96040000 5.44590000 -6.94560000
8.16150000 -48.83470000 -6.00870000
8.11990000 -48.70560000 -5.59070000
2.54470000 -10.18480000 4.36900000
14.00960000 -2.25830000 1.97870000
13.82030000 -2.62610000 2.22550000
-4.73540000 34.68110000 10.31390000
-13.21880000 -14.22820000 -0.28170000
-4.92790000 -49.27910000 -14.85140000
-5.48970000 -48.20260000 -14.53980000
12.33400000 -7.63870000 1.54720000
10.19970000 -19.81710000 0.64110000
-11.83440000 -4.98660000 1.84590000
11.15460000 -9.80940000 2.27980000
11.76200000 -8.89360000 1.89770000
12.18610000 -8.60340000 1.59590000
-7.19650000 -23.76380000 -14.84330000
7.33640000 47.62320000 5.28060000
-11.97640000 -24.91850000 -7.45560000
-11.99390000 -25.65250000 -7.43070000
-7.94230000 -52.11510000 1.93580000
-0.25660000 -51.12590000 4.29760000
7.86780000 -12.91890000 -13.16860000
7.94600000 -13.45450000 -12.86130000
11.10050000 25.69970000 2.16800000
-4.43120000 10.86190000 -15.77830000
-6.57240000 -21.80980000 2.54030000
14.48750000 11.41900000 -1.85690000
13.27900000 -12.34380000 -1.20160000
13.08520000 -12.92720000 -0.37880000
13.10850000 -12.90130000 -0.68210000
1.10550000 12.36840000 7.29010000
1.18760000 12.36020000 7.51230000
0.34980000 21.64790000 8.97610000
-0.24800000 21.79490000 8.94200000
-1.76250000 -19.95890000 -17.33970000
-12.73630000 -10.07950000 -11.26970000
-9.70940000 48.48870000 10.04940000
5.50470000 -35.15040000 0.89590000
11.39380000 -19.92960000 -5.73990000
11.52170000 -19.46700000 -5.67860000
0.27690000 -19.80380000 -17.03020000
-15.36740000 5.15350000 -1.34500000
-15.38020000 5.36300000 -1.83190000
-15.54550000 5.09220000 -1.94470000
-15.82990000 5.09660000 -2.55360000
11.19090000 13.98200000 4.43950000
10.73440000 13.95410000 4.78000000
11.67540000 13.61390000 4.09300000
-10.85500000 -38.96400000 -4.12090000
-5.49270000 11.69940000 5.23640000
11.11650000 14.28760000 4.27620000
11.06110000 14.64810000 3.73190000
4.18040000 -41.04480000 -13.70990000
3.51810000 -40.53280000 -14.27040000
4.01800000 -40.33690000 -13.85610000
11.25220000 -20.49550000 -3.01110000
11.09440000 -20.58860000 -3.17740000
11.17530000 -20.24840000 -3.43320000
-4.61320000 38.68670000 -0.89160000
11.01090000 -22.13840000 -6.12550000
-8.21890000 -10.85050000 2.86270000
11.18240000 -20.35250000 -3.15510000
-15.26770000 5.24780000 -1.88010000
-1.58610000 -21.99190000 2.94610000
-2.90330000 -23.76780000 2.75140000
-8.44800000 40.62560000 3.81340000
-14.56620000 -6.25660000 -5.05640000
5.40160000 54.17180000 11.64340000
5.52490000 54.14460000 11.28440000
5.58670000 53.75670000 12.23440000
-0.10070000 0.41520000 3.84890000
6.79350000 -21.90720000 2.95680000
7.08530000 -22.19340000 2.82290000
7.11460000 -22.46480000 2.82240000
10.49790000 2.30500000 5.24900000
-11.64040000 -9.97260000 1.95210000
13.51020000 20.73510000 -0.16910000
-4.69510000 -23.90440000 2.07840000
-4.49480000 -24.15120000 2.22580000
3.57410000 -0.33450000 -16.59030000
6.23780000 -31.48180000 -12.11620000
-10.12510000 -53.98560000 -11.54630000
3.78620000 -35.88030000 -14.40790000
3.26820000 -36.33610000 -14.20800000
13.15360000 -12.20060000 -3.27400000
13.34640000 -11.98830000 -3.30850000
3.48800000 28.40140000 6.79890000
-7.93800000 -18.66280000 -16.21350000
1.55050000 34.76920000 11.90030000
9.79640000 -55.28060000 -3.87450000
-12.61180000 -12.75260000 0.68510000
8.69640000 -33.90460000 -6.96840000
8.90450000 -33.58860000 -6.34670000
11.16010000 -5.89980000 3.27730000
-7.47990000 39.03910000 11.34350000
-5.27520000 55.96550000 7.70560000
-13.39990000 -55.81650000 -4.24180000
-13.48130000 -55.45680000 -4.30830000
-13.49180000 -55.94690000 -4.91780000
-5.62510000 -34.28040000 -15.52680000
12.69180000 -12.43180000 -4.23130000
0.40440000 -17.46530000 3.07460000
2.62710000 -21.45820000 4.03280000
3.61520000 -20.67880000 3.99790000
12.29090000 -15.00020000 -3.58560000
-10.59950000 -20.57770000 1.12830000
-11.92320000 -17.24960000 -12.03130000
12.53110000 -14.10680000 -2.61090000
-2.79950000 23.50610000 5.99980000
10.30930000 22.24000000 -6.21310000
10.13840000 23.01030000 -5.98140000
-5.58690000 -57.05660000 4.05510000
10.10480000 22.26650000 -6.30740000
9.88590000 23.02950000 -6.08000000
-3.08170000 22.98260000 5.65580000
-14.03080000 13.70660000 -0.68780000
-9.93390000 -42.75730000 -11.03910000
-2.43540000 -36.60180000 -15.06050000
-2.27970000 -36.37840000 -15.20140000
-12.34060000 -12.14800000 1.30310000
7.97880000 -55.93760000 -11.06930000
-8.61560000 12.04850000 3.37620000
7.93480000 -52.89140000 -10.04130000
-10.03250000 -16.94850000 1.13720000
-10.29240000 -17.97230000 0.80160000
8.77570000 -55.79040000 -8.85460000
-1.04230000 35.45340000 13.49800000
-7.09050000 -38.84210000 1.30750000
-7.84960000 -38.73560000 0.77000000
-7.49000000 17.85470000 -10.91310000
-7.94140000 18.48810000 -10.38100000
3.99230000 -40.66380000 2.30230000
3.00630000 37.93350000 -0.65120000
5.77960000 -54.03360000 2.88400000
5.31250000 -54.23110000 3.49760000
4.95860000 -54.30820000 3.75560000
-6.86330000 35.95700000 5.67370000
-6.44930000 35.14640000 5.30220000
-6.56090000 35.43280000 5.63660000
-5.11780000 7.88360000 -15.49680000
-12.91440000 -54.24770000 -2.72780000
-4.62500000 14.93120000 5.12160000
-11.21150000 -41.59240000 -6.38760000
-11.98030000 2.94520000 1.69770000
-11.90900000 3.89890000 1.82100000
3.05040000 52.16230000 15.98860000
9.96700000 -21.97200000 -8.39910000
-9.71030000 46.59930000 5.66600000
-3.47730000 9.19100000 5.43350000
-4.31510000 9.03170000 5.21680000
-4.09790000 9.39330000 5.37700000
-11.93090000 -20.31220000 -5.75070000
-11.70290000 -18.66350000 -0.27230000
-11.79990000 -18.35310000 0.07470000
-16.21070000 3.72140000 -5.51370000
-16.11930000 3.93810000 -6.15380000
-16.10580000 4.57910000 -6.02500000
-16.08990000 5.19470000 -6.28470000
-16.01420000 4.52010000 -6.55320000
-3.84380000 9.37460000 5.37970000
7.21660000 43.56030000 5.72440000
7.25320000 43.92830000 5.83610000
7.23980000 43.71980000 6.14240000
-9.08260000 -16.67220000 -15.28640000
-9.89170000 -15.32910000 -14.63720000
-12.04840000 -19.86820000 -5.25590000
-9.94900000 -17.95640000 0.73750000
-5.16300000 14.31050000 4.87220000
6.59410000 5.66480000 7.00010000
6.26700000 5.12820000 6.94390000
-4.23200000 -33.29010000 -15.89320000
-3.74970000 41.93160000 -1.20130000
-6.50430000 2.65310000 -15.96270000
11.58720000 -1.55900000 3.65480000
-4.20010000 13.99140000 -13.03420000
2.19310000 -17.79280000 3.99180000
2.16110000 -16.41450000 3.98150000
2.01700000 -19.67330000 4.17690000
7.84470000 -26.84780000 -1.02680000
8.06060000 -26.48920000 -1.30550000
7.64780000 -26.57360000 -0.74600000
-14.06660000 -12.22710000 -3.33500000
-13.93010000 -12.12080000 -3.12730000
7.87450000 -16.60640000 -12.13400000
7.64470000 -16.68790000 -12.44620000
1.33050000 -19.08170000 3.37560000
-7.57150000 -32.40090000 0.74690000
5.36660000 50.37260000 15.68070000
-12.86560000 -10.40890000 -9.22270000
-12.77840000 -10.05930000 -9.52000000
-12.73420000 -10.40190000 -9.73090000
-13.03640000 -9.77140000 -9.22680000
-10.49870000 45.24900000 7.69720000
11.06880000 -15.59710000 1.04330000
-1.96860000 -54.29170000 4.06120000
-1.55830000 -54.92260000 4.25260000
-1.62690000 -54.49720000 4.09530000
6.02490000 -53.33680000 2.23110000
6.03650000 -53.66220000 2.38970000
-15.12020000 7.77790000 -3.99790000
-1.79470000 -54.65400000 4.19380000
-10.24330000 -4.81330000 -15.12780000
7.04020000 -35.95290000 -10.66370000
7.08200000 -36.64790000 -10.48420000
5.33650000 -14.21400000 -15.51020000
5.37860000 -54.14960000 3.61840000
5.34170000 -53.80000000 3.17310000
8.26080000 -36.58580000 -2.71160000
7.80320000 -36.66480000 -1.93670000
4.52730000 18.00430000 5.48880000
4.75090000 18.34420000 5.32650000
7.18510000 -37.48980000 -10.27600000
5.67370000 -5.72630000 5.23120000
7.47860000 51.51760000 10.97280000
7.63510000 51.37070000 9.91930000
12.38380000 -15.72100000 -1.58260000
12.39100000 -16.31520000 -1.97470000
0.67200000 9.17490000 -15.07430000
0.72390000 9.87210000 -14.90000000
1.18040000 9.30030000 -15.18680000
-3.29140000 -2.33360000 -17.54310000
-1.90990000 -2.87730000 -17.56400000
-2.30200000 -1.59220000 -17.44540000
-8.55140000 12.15120000 -12.08080000
14.27140000 15.02740000 -0.55280000
-1.28400000 -1.70810000 -17.44500000
2.07400000 24.48780000 6.71200000
-11.85850000 -26.97820000 -6.47050000
-11.84110000 -27.68540000 -7.14350000
8.51770000 -24.35070000 1.06040000
8.84430000 -23.94760000 0.13400000
8.87090000 -24.22470000 -0.03970000
8.98020000 -24.70120000 -0.20680000
6.64630000 -48.32240000 -11.24400000
6.08840000 -48.33030000 -12.09490000
6.76980000 -49.03250000 -11.08930000
6.78070000 -47.46320000 -10.61330000
-9.93590000 -26.22090000 -12.69560000
-14.41430000 -10.64660000 -5.64770000
-14.56690000 -10.07970000 -5.59640000
2.25490000 27.09210000 7.17840000
6.87040000 -8.54360000 -15.05300000
7.01150000 -7.88570000 -14.92730000
-10.41550000 48.17850000 8.85370000
-1.69330000 13.76920000 -15.06110000
-1.06030000 14.30870000 -14.82900000
-10.17330000 11.05870000 -12.51630000
-10.01230000 11.23200000 -12.49500000
-10.33050000 11.46350000 -11.76210000
-9.69680000 10.88030000 -13.10000000
-10.67360000 6.46580000 -13.97380000
-10.83550000 4.60800000 -14.31120000
-6.59900000 -21.57590000 -16.33690000
-6.24520000 -22.63310000 -15.87040000
-15.09270000 -3.18460000 -2.12000000
-15.28440000 -3.55590000 -1.83710000
-14.85750000 -2.62690000 -1.94660000
12.32210000 14.55690000 1.95220000
15.25300000 6.96010000 -3.62720000
-11.48520000 4.28950000 -13.75450000
-11.18470000 4.15370000 -14.12170000
1.21230000 32.15800000 8.18090000
13.12570000 -4.89030000 2.04180000
13.01310000 -4.65260000 2.27990000
8.40930000 15.15030000 5.04580000
1.28750000 31.82040000 8.15510000
11.35450000 -1.15530000 -11.16450000
11.47520000 -0.90720000 -11.04700000
13.66160000 -4.36250000 1.31040000
-8.34660000 -21.04410000 1.36830000
-8.29410000 -20.70970000 1.61010000
-11.06230000 -30.94320000 -4.59130000
-10.43380000 -31.69670000 -3.95270000
5.59810000 -47.09990000 -12.61740000
-5.21100000 -55.23390000 3.42100000
2.30920000 39.54440000 -0.84450000
6.41620000 -44.03480000 -11.39310000
7.85600000 15.24390000 -10.70530000
8.10280000 15.25830000 -10.56680000
6.99730000 -51.75460000 -11.31980000
3.65320000 30.87840000 7.03690000
-7.43460000 1.64850000 -15.69120000
-7.91040000 1.77950000 -15.76820000
8.23220000 14.93680000 -10.71880000
-6.80630000 26.68070000 4.72880000
-6.43700000 26.83160000 5.32790000
-12.66590000 25.59390000 -3.08310000
-12.28030000 26.03440000 -3.92270000
4.88370000 31.41550000 5.95850000
-0.13900000 27.38240000 7.63940000
-6.63610000 26.71950000 5.09680000
1.57560000 48.05470000 -0.64880000
-6.02650000 26.24990000 5.38640000
-5.71570000 25.66150000 5.53840000
6.55990000 28.95920000 4.05410000
6.22870000 28.87860000 4.57770000
9.48960000 -18.10680000 2.04200000
9.84190000 -18.06360000 1.40420000
14.17990000 9.88880000 1.22550000
8.96670000 17.07130000 5.01380000
11.23460000 25.77580000 2.21520000
14.10520000 7.75670000 1.68440000
13.81370000 8.60910000 2.00560000
13.65580000 9.79870000 1.82860000
-11.96380000 -45.11500000 -5.13070000
-12.53730000 -56.22880000 -0.61710000
14.01730000 8.96650000 1.39730000
-14.94740000 -13.81410000 -4.31780000
-11.95220000 -46.08980000 -4.65040000
-12.07950000 -46.53250000 -4.72190000
-12.69570000 7.54370000 1.66800000
-13.07220000 7.32910000 1.44560000
-13.93570000 -11.26140000 -1.43240000
-13.62330000 -11.77660000 -1.44830000
-13.22480000 -12.29640000 -1.52910000
12.86680000 11.60860000 2.62120000
2.95280000 44.18780000 16.11880000
3.78560000 20.84300000 -11.13250000
2.94650000 8.61540000 6.80010000
2.43620000 8.79660000 6.57320000
13.55230000 -5.63110000 -6.11740000
13.31840000 -5.78840000 -6.29510000
11.31040000 21.52740000 3.68700000
-9.85190000 45.53580000 8.45760000
13.27390000 -5.39330000 -6.50890000
13.18340000 -5.71600000 -6.65980000
-8.97460000 -40.50880000 0.12650000
5.16750000 31.31410000 5.30680000
5.12130000 31.48140000 5.69040000
5.38270000 31.04770000 5.15090000
5.17160000 31.03200000 5.34120000
-12.01060000 -19.63300000 -5.62000000
7.66330000 -45.45880000 -1.51710000
4.24170000 11.24420000 7.42930000
4.55630000 11.59980000 7.50170000
9.28850000 -2.78520000 4.84750000
7.69950000 -44.64720000 -1.82870000
7.52600000 -43.79100000 -1.81840000
-0.32410000 40.05060000 16.20550000
5.56630000 -51.53620000 1.98130000
5.93110000 -51.59290000 1.56640000
5.75580000 -51.82000000 2.03210000
5.50480000 -51.05790000 1.89290000
-5.36250000 47.44440000 -0.35390000
2.87530000 37.25750000 13.05720000
3.09330000 37.82800000 13.55900000
3.24010000 37.23670000 12.93000000
-5.60940000 -5.45320000 2.46010000
15.57260000 -2.22420000 -2.41080000
15.65120000 -2.60140000 -2.25820000
15.66240000 -2.49240000 -2.58910000
15.72530000 -1.80180000 -2.17630000
15.66090000 -1.78950000 -1.74720000
15.67280000 -2.35540000 -2.09430000
-2.13640000 11.97260000 5.83160000
8.91400000 -17.06660000 3.07570000
7.70300000 43.41540000 7.40500000
10.91320000 -17.00790000 1.17410000
11.21170000 -17.07830000 0.59540000
9.41030000 29.47880000 -2.08240000
8.90770000 -17.59490000 3.03800000
9.01270000 -12.64640000 3.19970000
8.99140000 -13.01730000 3.31580000
14.48750000 3.38340000 -5.46070000
14.62720000 3.18660000 -5.39910000
-14.76020000 6.14320000 -1.81190000
-14.79320000 6.25010000 -2.21640000
-4.15290000 16.22970000 4.47130000
9.00000000 29.26380000 -3.24750000
-13.20770000 18.99250000 -8.12040000
14.60570000 4.80210000 -5.13310000
-4.27330000 16.61000000 4.17560000
-4.50190000 16.99140000 4.00050000
14.01530000 14.06050000 -0.48820000
13.96200000 13.62930000 -0.49860000
1.40950000 -42.10290000 2.60540000
-10.27420000 -42.74750000 -10.51580000
6.66990000 -32.81690000 -10.51170000
6.74300000 -32.04510000 -10.44400000
-11.55440000 2.24660000 2.39140000
-11.44370000 1.61160000 2.44230000
-11.14190000 2.58970000 2.58460000
-10.89500000 -43.52600000 -9.53110000
-10.53200000 -43.89980000 -10.00570000
-11.05230000 -44.12940000 -9.09910000
3.24810000 -32.88790000 -14.96510000
3.60020000 -33.64390000 -14.64060000
-0.29700000 51.57810000 16.77680000
6.48580000 -31.16990000 -10.98530000
8.56590000 -52.20530000 -7.27990000
8.44400000 -52.00980000 -7.72120000
8.45800000 -51.96990000 -7.15800000
14.20790000 13.34990000 -5.18830000
14.16470000 12.80100000 -5.59110000
6.52030000 -24.41890000 2.88470000
14.37320000 13.81890000 -4.51960000
14.54700000 13.64360000 -3.52870000
14.48510000 13.82440000 -4.06750000
7.01180000 43.40590000 3.35440000
-5.56620000 33.64970000 -4.78590000
-10.57930000 -15.85730000 -13.34710000
-11.22790000 -16.25850000 -13.12600000
-10.57010000 -15.35700000 -13.46690000
10.22020000 -13.92580000 1.82080000
7.41640000 13.66760000 -12.14460000
-4.52100000 42.13680000 -0.81470000
-10.68600000 -35.35500000 -10.95660000
-10.54760000 -35.61250000 -11.11220000
4.85420000 35.67950000 2.99670000
-11.45000000 1.40570000 2.58960000
-11.15600000 2.63630000 2.74880000
6.37230000 -33.88790000 -11.94800000
7.65900000 2.38840000 -12.26460000
7.96350000 1.19480000 -12.19580000
9.26420000 1.14840000 -11.94660000
-16.27250000 4.37350000 -3.67610000
-16.26230000 5.39890000 -3.90380000
-16.18780000 5.10400000 -3.41630000
1.41970000 36.91100000 13.15820000
1.85650000 -51.68330000 -15.38120000
-1.72190000 37.07900000 13.80620000
12.62310000 7.12400000 4.35970000
-8.54930000 -37.88590000 -12.74490000
-8.00090000 -38.00200000 -13.12950000
-7.38070000 -18.51280000 2.67820000
-7.74270000 -19.27490000 2.45210000
3.89260000 51.09460000 1.60230000
3.14880000 -17.60880000 4.33230000
2.93020000 -17.24050000 4.34280000
4.54090000 -35.32470000 -13.43370000
-9.71230000 14.23980000 2.51620000
-10.06680000 13.95740000 2.61360000
-8.85310000 13.98310000 2.96190000
-9.28930000 14.34700000 2.63990000
-7.38090000 43.54700000 13.91220000
-6.02250000 34.43530000 6.67380000
-0.08660000 -5.59290000 3.73670000
-0.22210000 -7.90920000 3.48620000
-15.72430000 -1.90780000 -2.65690000
6.05580000 25.01150000 -8.90290000
3.20050000 -38.09270000 -14.63700000
3.27670000 -39.23460000 -14.59690000
9.70800000 -4.59030000 4.65770000
9.73490000 -3.61200000 4.78530000
-5.25630000 12.89730000 -13.19610000
-1.00870000 38.58230000 14.95750000
4.07120000 -39.27130000 -14.00680000
3.66170000 -40.52660000 -14.35960000
2.95410000 -40.09860000 -14.80610000
4.25580000 -14.12460000 4.23850000
4.54460000 -13.88570000 4.22610000
2.08110000 25.33190000 -10.39840000
5.43240000 54.01420000 11.27990000
5.46590000 53.66730000 12.16870000
4.53750000 -14.65850000 4.18450000
4.97310000 -14.30900000 4.31360000
4.23030000 -14.43340000 4.21570000
4.41890000 -15.56740000 4.17170000
-6.72120000 24.25820000 -9.48050000
-5.76550000 25.35640000 -9.70540000
12.46770000 -17.60820000 -2.63780000
12.27900000 -17.86570000 -3.24730000
12.50510000 -17.28320000 -2.62640000
1.03770000 8.69680000 5.11540000
7.74200000 25.79800000 -6.81240000
-6.45690000 -19.34350000 2.73160000
10.89690000 -20.71040000 -0.39910000
4.01080000 -23.65260000 -13.49180000
1.89060000 20.57830000 8.32350000
-7.95450000 53.78730000 10.68560000
8.03290000 24.84700000 -7.15920000
-7.02750000 30.42510000 4.40420000
-6.77370000 30.21170000 4.71380000
7.11280000 -35.99120000 -9.83970000
1.53160000 -8.77400000 3.54920000
1.87550000 -9.39730000 3.60980000
4.11550000 53.41500000 14.31170000
-13.92880000 7.23600000 -0.73590000
-15.08820000 -9.22900000 -2.38990000
7.00080000 -32.65360000 -10.28890000
5.29310000 33.30940000 3.09930000
1.96480000 -6.39980000 3.84990000
1.48380000 -6.22420000 3.68400000
2.56930000 -53.92440000 4.38790000
3.18130000 -53.86190000 4.18200000
8.33210000 9.13010000 6.37240000
-8.48280000 -54.68340000 -13.50460000
12.55680000 22.70600000 -0.54780000
8.70310000 5.55190000 -12.04040000
-9.59100000 -24.46070000 -12.86290000
-2.87560000 -45.48610000 -15.09690000
-3.32640000 -46.56750000 -15.00040000
12.61900000 22.70290000 -1.25250000
7.87030000 5.10800000 -12.27550000
1.64330000 35.76420000 -4.42030000
-0.42050000 -37.16360000 -15.07740000
-3.02680000 -48.27630000 -15.19460000
-2.75980000 -47.22660000 -15.18580000
7.36270000 5.79760000 -12.31170000
7.58050000 6.27270000 -12.15810000
-13.96110000 -13.96260000 -2.16890000
12.87470000 5.79330000 -10.03110000
2.15180000 30.22830000 7.31670000
2.71140000 30.98640000 7.10040000
7.18590000 6.42050000 -12.56420000
-4.75650000 34.63610000 -3.89690000
-10.97580000 -35.71150000 -7.80150000
-10.89870000 -35.71320000 -7.42520000
12.85050000 2.09360000 -10.13290000
-5.79160000 -13.35570000 2.68110000
-6.16000000 -14.02180000 3.02550000
4.62390000 -5.17910000 4.85500000
13.46210000 19.30930000 -2.31880000
13.61380000 19.00770000 -1.97060000
13.49230000 18.62310000 -2.62870000
-3.83100000 -31.40000000 2.44710000
-11.26890000 -43.03000000 -8.96540000
-11.38910000 -43.02270000 -8.23050000
-11.30680000 -43.84520000 -8.81580000
7.92960000 -8.52590000 -13.79050000
7.96480000 -8.45720000 -13.54460000
-5.31190000 -52.89270000 3.10270000
13.81190000 3.10980000 2.28520000
7.98190000 -43.97580000 -6.67060000
8.02440000 -44.27140000 -6.27820000
-5.86540000 -52.71090000 2.89420000
-9.13270000 -46.90560000 -11.71230000
5.09380000 -8.45980000 4.64830000
-11.80970000 -4.09400000 -13.57030000
-11.90370000 -53.73950000 -8.87410000
-12.20670000 -53.73950000 -8.16300000
-12.02700000 -53.39060000 -8.43800000
-13.62870000 18.09200000 -7.67550000
-12.25790000 -3.55220000 -12.42000000
-6.35360000 -18.91780000 -17.08100000
-9.82970000 -34.25330000 -12.27580000
-13.08220000 18.97200000 -8.02140000
-11.05390000 -39.44370000 -9.51320000
-10.76120000 -39.67500000 -9.98040000
-9.84760000 -33.54820000 -12.31940000
-6.61860000 -51.54480000 2.50370000
-7.00270000 -48.63120000 1.95080000
-11.76520000 -23.07000000 -6.24750000
6.50650000 23.13850000 -9.54280000
6.26840000 -43.90040000 -11.28630000
12.07350000 -8.59960000 1.86970000
11.58860000 -9.39250000 2.18760000
-11.14260000 -50.94470000 -9.36040000
5.63730000 -43.21790000 0.72340000
5.33200000 -43.16340000 1.26230000
5.47280000 -43.63020000 1.18600000
5.07190000 -43.26950000 1.57320000
7.19130000 0.07790000 -13.33030000
7.43140000 -1.09180000 -12.69070000
7.12960000 0.80510000 -13.77790000
-1.60510000 31.48560000 8.20880000
6.03020000 33.99630000 -0.32000000
6.21880000 33.75420000 0.30510000
5.71830000 34.43870000 -0.74340000
11.65400000 -15.99170000 0.04490000
11.57230000 -15.60370000 0.11640000
5.88380000 -43.35620000 0.39960000
7.67330000 49.39480000 8.60970000
-2.70400000 35.83390000 13.30780000
3.07010000 -40.25150000 -14.57790000
-12.20660000 -1.54780000 1.27130000
-11.92390000 -0.99070000 1.82580000
5.45940000 4.92390000 6.40670000
5.69370000 5.27710000 6.49990000
7.61550000 -6.11800000 -14.16730000
7.69880000 -5.42110000 -13.83090000
7.68000000 -5.07770000 -13.54580000
1.97380000 -51.93490000 4.23220000
1.90300000 -52.52900000 4.39290000
2.75900000 -52.57270000 4.01880000
-7.94410000 44.32350000 13.84120000
7.92650000 -17.55950000 -11.02650000
7.56410000 -4.53160000 -13.11500000
7.52100000 -3.98990000 -12.76960000
-3.57740000 29.09030000 6.94460000
10.47400000 -7.85100000 3.44350000
10.92710000 -8.04280000 3.07280000
15.03980000 -5.80210000 -2.31760000
14.80760000 -6.14800000 -2.31180000
14.71740000 -6.66820000 -2.07480000
-1.71750000 17.62340000 8.56430000
-1.34670000 19.53960000 8.67160000
2.56520000 32.36990000 7.57000000
8.02770000 -51.54750000 -8.99390000
8.35190000 -50.73400000 -7.65320000
-8.16050000 -23.98800000 1.42320000
-7.58050000 -42.37110000 -13.27880000
-4.77390000 32.30110000 7.01540000
0.02900000 -54.59560000 -15.89230000
-0.16270000 -55.00380000 -16.02240000
8.48140000 -51.10420000 -7.28860000
-14.16230000 -0.80570000 -1.07580000
-14.08750000 -0.67490000 -0.33020000
-14.02900000 0.14300000 -1.04270000
5.77210000 36.74420000 6.78330000
5.57170000 36.41440000 6.39350000
5.65160000 36.52040000 5.94020000
14.59300000 -3.39490000 -0.88490000
8.33110000 -50.97760000 -7.75720000
8.44510000 -51.21630000 -7.90340000
8.26290000 -51.18560000 -8.15220000
2.47280000 -22.62800000 -15.18020000
-12.49700000 -14.51650000 -7.88580000
-10.03170000 -41.65600000 -2.81920000
-10.10810000 -40.91320000 -2.07870000
-14.96100000 7.97560000 -9.22500000
-10.34780000 2.93940000 -14.88870000
-9.68280000 2.50210000 -15.54230000
-14.41080000 -10.75550000 -5.45150000
12.66490000 20.92750000 -3.55780000
-14.29730000 -9.97750000 -8.05500000
-16.23190000 4.93200000 -5.85560000
-16.32010000 4.70740000 -4.97810000
-16.25280000 5.10300000 -5.59900000
-16.23000000 4.50540000 -5.51510000
4.82750000 -16.68050000 -14.93730000
10.81460000 12.98670000 5.11840000
11.26200000 12.80930000 4.42560000
10.84880000 13.57130000 4.76350000
-12.95910000 4.16290000 0.86330000
-8.92970000 -6.20360000 2.35790000
-7.94500000 52.61200000 4.53770000
8.69760000 -34.23290000 -3.68640000
8.52940000 -33.88470000 -3.11960000
8.63970000 -34.20170000 -3.35020000
15.01510000 1.04040000 0.73630000
14.99450000 1.26840000 0.09100000
-4.70300000 10.50820000 5.28690000
-7.94890000 14.70720000 -11.60740000
12.51010000 21.36310000 2.26750000
-0.16100000 -55.25610000 4.56870000
-3.67330000 34.92700000 -4.18910000
13.33850000 4.32830000 -9.22180000
13.69050000 6.10600000 -8.60170000
-3.32390000 19.70010000 7.18270000
-3.56310000 19.51000000 6.76240000
13.30710000 19.29700000 -2.28100000
13.45470000 18.99830000 -1.94560000
13.22640000 19.61330000 -2.53070000
12.98020000 2.73180000 -9.68790000
12.27980000 -14.33610000 -5.75290000
12.20950000 -15.10420000 -5.34700000
12.21820000 -14.91740000 -4.69230000
12.30840000 -14.36760000 -5.29030000
-9.60550000 -46.65580000 -0.14060000
5.05660000 -26.10110000 -12.62680000
5.39360000 -24.78940000 -12.51710000
-12.00070000 -4.09640000 1.66790000
-11.85670000 -3.49550000 1.83010000
-11.66700000 -4.06310000 1.90190000
15.00740000 10.39420000 1.08470000
-12.12050000 -4.24270000 1.49740000
-12.25380000 -4.23140000 1.15040000
-9.19580000 -11.67490000 2.18370000
-9.50360000 -11.61790000 1.99420000
14.62610000 10.69220000 1.49790000
14.89050000 10.87480000 1.45030000
15.02850000 10.62570000 1.13500000
15.06270000 10.98050000 1.25340000
-13.01800000 7.56870000 -11.00160000
13.33850000 -11.03870000 -1.69110000
9.48550000 -55.71850000 -1.94280000
9.43770000 -55.72650000 -2.20050000
7.46880000 -41.28630000 -8.27760000
-4.43260000 6.85140000 5.30510000
-10.75370000 -24.40100000 -11.11550000
7.91870000 -42.09380000 -6.52990000
7.89380000 -41.48630000 -6.30570000
7.86840000 -41.65180000 -6.79770000
-5.86940000 -55.52130000 -15.09430000
-6.08230000 -55.08580000 -14.89880000
12.96480000 -6.43700000 -6.74630000
13.02680000 -5.69630000 -6.63280000
12.99010000 -5.58800000 -7.47570000
13.07470000 -6.18650000 -6.30580000
13.19030000 -5.75810000 -6.20310000
8.16520000 -24.26600000 -9.34690000
8.00640000 -23.70110000 -9.72550000
13.38370000 -6.15820000 -5.96510000
13.40300000 -5.12600000 -6.12170000
4.43820000 8.85200000 7.23780000
-6.57300000 -50.48920000 2.44120000
-7.22210000 -51.19060000 2.14230000
0.19360000 9.17170000 -15.10490000
-3.16450000 -43.17900000 2.47040000
-3.05610000 -44.90120000 2.79240000
5.41150000 -14.67590000 4.60730000
4.92280000 -14.88290000 4.27940000
-6.93400000 -47.98800000 1.84620000
-9.51860000 -52.00400000 -11.59020000
5.36930000 -15.80660000 4.60250000
5.72260000 -16.54680000 4.74430000
5.43860000 -16.92560000 4.65790000
-3.17500000 -1.24090000 -17.37850000
-3.32140000 -1.85480000 -17.56010000
-4.65570000 33.69580000 7.83080000
-2.95460000 -55.58260000 4.62570000
5.21750000 34.79730000 -1.45730000
13.82820000 7.83850000 -7.96990000
13.37010000 8.08560000 -8.71450000
14.00200000 8.05870000 -7.48050000
4.81030000 -16.98730000 4.28320000
4.63600000 -15.31820000 -15.75080000
5.06620000 35.04420000 -0.97270000
4.62430000 34.96040000 -2.29190000
4.88640000 35.00210000 -1.81170000
-6.25090000 -8.06390000 -17.43800000
11.39200000 -16.62690000 -8.05510000
11.86560000 -15.49620000 -7.42430000
-6.57040000 37.55960000 2.52300000
11.54630000 -16.70460000 -7.66590000
-8.02810000 -36.48490000 0.21790000
-7.70410000 -36.51950000 0.46020000
1.78140000 43.71780000 16.40800000
2.26820000 36.97960000 -2.82960000
-15.83090000 -1.68330000 -5.23560000
-15.72650000 -2.43010000 -4.94450000
-8.72330000 42.09880000 11.23300000
-6.52140000 37.08350000 2.24260000
-9.78210000 -27.41770000 -1.28660000
-9.87600000 -26.30060000 -1.40610000
-4.47130000 -48.28410000 -14.78730000
-5.49290000 -48.11980000 -14.36260000
-4.84330000 -49.12310000 -14.70270000
-5.05590000 -47.87430000 -14.50660000
-8.11620000 41.22730000 12.01350000
8.14460000 -46.30580000 -7.03850000
8.14400000 -45.71560000 -7.13400000
-9.26830000 -26.96260000 -0.54990000
-9.64920000 -26.01390000 -1.15300000
4.33900000 -16.60070000 -15.39850000
4.91090000 -16.72900000 -15.06500000
8.16470000 -46.64730000 -5.69690000
-8.94400000 31.31500000 1.39580000
-5.03700000 -21.29220000 2.30170000
-7.69720000 -28.30980000 -15.08150000
-5.81560000 -33.85910000 -15.40180000
-6.03930000 -34.48030000 -15.16690000
4.99940000 35.68630000 5.35090000
4.70510000 35.37450000 4.95660000
-3.00500000 25.91760000 -10.36700000
-11.72000000 -46.90110000 -7.82090000
-11.48050000 -45.92300000 -8.36020000
-11.38640000 -46.63160000 -8.61900000
-5.48720000 -33.73650000 -15.57520000
-5.19100000 -33.96000000 -15.65460000
9.00500000 4.81460000 -11.75490000
0.63790000 34.44210000 11.36270000
-0.29700000 34.03560000 11.04340000
-5.46860000 -40.96960000 2.06840000
-7.67190000 50.86290000 14.24110000
4.85700000 35.20320000 1.37940000
-14.39990000 -0.24580000 -1.33770000
-7.40030000 -52.35760000 -13.37520000
-6.94060000 -52.38260000 -13.75510000
-12.57680000 -10.08370000 -11.25850000
-12.57730000 -9.70980000 -10.65810000
-3.73440000 18.06620000 4.61730000
-3.62090000 18.59630000 4.88450000
-3.74020000 17.94500000 5.04440000
16.15800000 7.49600000 -1.74870000
2.35930000 -19.82200000 4.12080000
2.69380000 -18.86690000 4.18080000
-12.97980000 2.19010000 0.90960000
-12.19740000 4.10530000 1.35060000
-15.82160000 -1.59880000 -4.70590000
-15.88560000 -1.79830000 -3.99520000
-3.89540000 -40.94150000 2.61910000
-4.46560000 -40.56320000 2.55050000
-1.20150000 -11.44970000 2.83140000
-0.59340000 -11.53810000 2.95230000
-5.41280000 -40.89070000 1.93990000
-11.35030000 -41.56080000 -6.31440000
5.58730000 15.12540000 6.01550000
7.91710000 -31.42940000 -1.64270000
6.78540000 -46.51760000 0.12870000
6.93890000 -47.80980000 -0.09620000
-12.16660000 -48.67800000 -6.77610000
-12.06950000 -47.99900000 -6.57550000
-12.12540000 -48.30440000 -6.00410000
-8.22610000 -20.63890000 -14.51430000
-1.93330000 5.01460000 4.06630000
-1.73130000 5.57990000 4.05700000
-1.31870000 5.13100000 3.82160000
10.04330000 10.28240000 5.80230000
6.58960000 -56.22890000 3.82560000
7.96080000 -7.11380000 -12.54990000
-7.63880000 12.89590000 4.21070000
-9.58450000 -52.13690000 0.90300000
4.99330000 -44.47350000 -13.30400000
7.89290000 -6.41110000 -12.90040000
-11.63690000 -50.87240000 -7.97290000
-11.49190000 -50.85690000 -8.30130000
-11.16710000 -50.69060000 -9.12410000
-11.39410000 -50.45850000 -8.48490000
-12.27660000 4.63920000 -11.53920000
-8.22250000 33.59540000 -0.32450000
9.30710000 -54.68830000 -5.34480000
9.53360000 -55.24900000 -5.02260000
-12.15410000 -9.52320000 1.67210000
14.37650000 -4.70320000 0.91390000
14.66450000 -3.20900000 0.92880000
14.70900000 -3.72250000 0.65750000
-1.55080000 -35.62750000 2.88970000
4.30390000 30.51630000 6.89130000
3.94110000 30.39620000 7.19830000
-11.10010000 -50.23020000 -9.31970000
-11.20930000 -49.70130000 -8.84060000
-11.53560000 -49.69400000 -8.17170000
-11.32460000 -49.68020000 -8.46000000
-1.67240000 26.69520000 7.38620000
-6.31790000 -13.03960000 3.02960000
-0.38490000 49.48790000 -0.64200000
12.71340000 22.74520000 -0.55600000
-5.87490000 46.85210000 -0.18730000
-3.69650000 44.07700000 16.22470000
3.04060000 -36.10930000 2.19110000
12.76700000 22.73260000 -1.10490000
3.25760000 -19.13480000 -15.18570000
4.51000000 26.18590000 -9.27940000
3.66390000 -37.77740000 1.96540000
2.64290000 -1.87840000 -16.89960000
7.53760000 44.50150000 5.02350000
8.24750000 -48.22400000 -4.33580000
8.30630000 -48.86290000 -3.88410000
3.76670000 -2.28350000 -16.58980000
7.97860000 48.28850000 8.83100000
-6.46700000 -53.87150000 -14.41420000
-2.64280000 4.11310000 -15.99140000
-2.37120000 4.45260000 -15.92460000
-2.46230000 5.13090000 -15.92760000
5.22820000 34.90350000 -0.31010000
1.46810000 12.39480000 -14.35390000
1.57620000 11.56560000 -14.42780000
-16.00790000 1.63070000 -6.18090000
-15.91000000 1.69590000 -6.66690000
-8.15820000 8.94470000 4.17490000
-7.22930000 9.56360000 4.55960000
-7.43300000 8.60630000 4.37990000
8.28730000 -37.31160000 -7.53910000
8.11360000 -37.82280000 -7.80860000
15.60740000 4.50120000 -2.28550000
-8.08240000 10.37200000 4.16550000
-8.09070000 9.72730000 4.21270000
0.75350000 -51.07790000 4.12260000
1.39730000 -52.54550000 4.23690000
6.64780000 6.56650000 -14.09610000
15.50920000 8.01950000 -2.39370000
15.41090000 7.78000000 -2.58690000
15.54490000 2.95950000 -3.83940000
1.74210000 -51.91530000 4.09910000
9.57690000 14.44760000 5.43870000
9.92420000 14.19580000 5.42490000
4.06050000 19.76740000 -11.32170000
3.84790000 19.89450000 -11.23180000
8.41180000 -39.13570000 -7.50220000
-12.30860000 23.24300000 0.31280000
-12.58150000 -21.97820000 -8.76380000
0.22980000 -19.79980000 -16.87710000
-9.97700000 8.78680000 -13.74830000
-9.03540000 9.48510000 -14.22620000
13.88740000 -6.33520000 0.83730000
6.03100000 -38.45550000 -12.25550000
5.80300000 -38.41860000 -12.51890000
5.88100000 -37.70250000 -12.42640000
5.87790000 -45.75410000 0.84400000
6.35420000 -45.37600000 0.38420000
-4.04910000 18.94710000 4.48380000
-3.81410000 19.48980000 4.66620000
-3.79710000 18.80440000 4.69960000
5.66540000 -36.35780000 -12.58980000
5.91360000 -36.60510000 -12.45150000
10.62500000 27.75210000 1.79770000
15.07490000 3.28200000 0.00420000
8.16570000 48.22200000 8.36470000
-4.02410000 6.87370000 5.36890000
1.16880000 -38.07810000 -15.23030000
-9.88250000 -43.30680000 -1.68630000
-10.01080000 -43.95260000 -1.70360000
-9.30260000 -17.01430000 2.16030000
-9.44520000 -17.71080000 1.97930000
-9.26350000 -17.51930000 2.27300000
6.51590000 39.20930000 10.15950000
6.51750000 39.49250000 10.49350000
8.36780000 9.44340000 -11.47870000
-10.93920000 12.87670000 1.89350000
-11.39890000 12.92060000 1.60220000
-8.30040000 -10.55190000 2.99280000
13.45480000 -5.09130000 1.58950000
-7.89180000 -36.61840000 0.51990000
7.21610000 41.16930000 9.10940000
7.25220000 41.03190000 9.34040000
7.07320000 40.36920000 9.08400000
7.36390000 41.69360000 9.91380000
9.37370000 11.53810000 -11.45020000
-6.89930000 34.70930000 4.46210000
2.61030000 20.77570000 7.07430000
13.10670000 -8.97030000 -5.60350000
4.75520000 44.20290000 14.81800000
-3.66890000 37.75000000 -2.02520000
-3.12660000 37.73320000 -2.32930000
13.75790000 -9.97170000 -4.70110000
13.81350000 -9.02340000 -5.11540000
-11.16350000 16.48640000 2.01530000
-10.98490000 16.09690000 2.01470000
-6.11810000 34.16630000 -2.72480000
14.01910000 -9.08110000 -4.20470000
13.98730000 -8.50720000 -4.42400000
14.06290000 3.51790000 2.26960000
13.93800000 3.05970000 2.37960000
-10.65190000 -14.55310000 -13.25980000
3.59290000 31.89900000 -6.24350000
-13.78640000 10.82750000 0.66640000
14.03190000 2.18960000 2.19930000
13.66660000 2.76930000 2.54890000
-12.29040000 -4.22730000 1.52200000
-12.01940000 -4.22010000 1.87660000
-11.06210000 -20.40620000 -0.28100000
-10.79040000 -20.16610000 -0.23060000
-2.02390000 45.03650000 17.02140000
-8.76290000 -54.55600000 1.90770000
12.37200000 0.47170000 3.38600000
-12.06110000 12.69570000 0.98700000
-12.70160000 12.84760000 0.42450000
13.74270000 0.20970000 2.47040000
4.29550000 32.23620000 6.47030000
6.02000000 14.44300000 -12.16670000
-4.09340000 39.90430000 14.80250000
-11.23990000 -43.32130000 -4.71750000
11.25280000 -19.74090000 -4.02690000
11.36190000 -19.90460000 -3.62250000
11.51760000 -19.55030000 -3.86410000
11.05880000 -20.27310000 -3.09180000
-3.84960000 2.42400000 -16.24070000
-5.03630000 1.23850000 -16.35020000
-7.60550000 28.22440000 4.36580000
1.16630000 -23.65740000 3.53720000
0.73800000 -23.14090000 3.42040000
10.99470000 -20.34870000 -3.61110000
10.95230000 -20.52330000 -3.14340000
13.09470000 -12.73960000 0.00620000
12.67540000 -13.17710000 0.29890000
6.14550000 -41.46300000 -10.85480000
6.11490000 30.74280000 4.69720000
0.07460000 24.30700000 8.64820000
10.64220000 -21.26490000 -2.42280000
10.77180000 -20.99650000 -3.09430000
1.07140000 44.66070000 17.10980000
8.57680000 -38.75390000 -4.55040000
-10.36320000 -6.11980000 2.39190000
-5.08840000 -55.26440000 3.30060000
-5.63650000 -55.53240000 3.22550000
-14.62900000 -2.88740000 -9.41720000
-14.34900000 -1.60290000 -9.67630000
-14.50940000 -2.24040000 -9.45390000
8.48520000 19.10210000 -8.94500000
6.71170000 32.88930000 1.23600000
6.34680000 33.50650000 0.37570000
-14.74600000 -5.85830000 -9.07790000
1.42110000 21.50390000 8.59620000
1.28650000 22.13350000 8.46190000
1.05840000 21.98230000 8.68210000
6.70270000 -25.02010000 -11.55030000
-3.91080000 -27.94200000 2.78110000
7.68910000 45.89250000 11.19870000
7.81240000 46.27480000 10.39830000
7.09040000 -38.04250000 -0.69900000
7.33930000 -35.99000000 -9.25860000
13.91890000 -7.57440000 -0.54750000
-1.35410000 -16.30870000 2.34040000
-2.29410000 -17.03320000 2.19900000
-1.90410000 -16.44790000 2.23210000
-1.94610000 -50.19190000 -15.46840000
-2.04200000 -48.84790000 -15.34950000
-1.90100000 -51.21360000 -15.53440000
-15.97160000 3.41740000 -6.11830000
-15.97300000 3.14090000 -5.78410000
5.67020000 -9.75390000 4.80390000
5.16250000 -8.43950000 4.50500000
-8.66950000 13.37480000 3.05020000
-8.07460000 13.82010000 3.17830000
5.69720000 -6.41580000 4.99300000
10.69880000 23.61960000 3.37130000
14.60730000 -6.51720000 -2.73130000
14.56100000 -7.06660000 -2.70990000
-8.57120000 -37.40250000 -0.01650000
1.59850000 9.44720000 5.82560000
8.18730000 24.12570000 -7.29240000
3.97110000 -19.16710000 4.09490000
3.60650000 -20.57380000 4.14360000
2.73300000 -21.29380000 4.18380000
6.22780000 32.01890000 3.90620000
8.29710000 25.46880000 -6.86310000
4.03670000 -21.64090000 -14.74180000
5.58470000 11.84700000 7.46820000
5.78610000 11.73570000 7.23390000
-0.51760000 52.09170000 16.46900000
-6.51190000 35.22010000 7.79840000
13.63130000 -1.91100000 2.31890000
15.68260000 4.67950000 -2.62730000
13.77060000 -1.39450000 2.18170000
13.64640000 0.38090000 2.35670000
0.07340000 -7.23290000 3.78300000
-0.48230000 -7.67860000 3.59070000
2.88930000 -36.28270000 -14.27370000
-9.21320000 52.11670000 9.09580000
-5.45760000 -52.11540000 3.13640000
2.94320000 -18.64660000 4.33230000
-16.06380000 1.18370000 -3.56370000
-16.00940000 1.27130000 -3.18080000
-5.92460000 -53.10630000 3.08640000
-6.49720000 -52.68040000 2.88250000
-6.74550000 -53.34450000 2.76180000
-5.86270000 -52.79930000 3.05890000
9.35460000 13.06900000 -11.10480000
-15.08000000 5.72070000 -1.30350000
-9.40490000 -51.93150000 -11.47200000
-2.11050000 35.19510000 12.85730000
-2.31290000 14.37430000 -13.73350000
-11.84680000 -12.33200000 -12.95740000
-11.62180000 -12.22020000 -13.15360000
12.88840000 -7.30150000 -6.51220000
13.01290000 -6.45230000 -6.40920000
4.26710000 -39.34670000 -13.82400000
-10.52150000 48.29190000 8.89250000
1.08940000 1.57290000 4.19610000
13.12880000 -5.36600000 -6.44740000
7.10280000 25.03960000 -8.31460000
6.95610000 24.33800000 -8.81840000
4.04740000 -40.99760000 -14.09100000
4.30900000 -41.08910000 -13.80610000
-12.37070000 1.18280000 -12.68030000
-12.47940000 1.23650000 -12.17970000
12.12750000 -15.72450000 -4.79610000
12.34250000 -14.89410000 -3.01780000
4.44790000 -41.40700000 -13.58120000
-1.45120000 -55.55430000 -16.46290000
4.01570000 -38.23640000 1.86920000
11.82530000 -17.76580000 -1.02230000
1.02170000 -48.15060000 -15.34200000
1.45620000 -48.77950000 -15.26750000
0.59430000 -49.25960000 -15.47030000
1.72630000 -50.55780000 -15.23730000
8.49020000 -7.91600000 -11.86480000
8.30140000 -8.63980000 -11.96280000
