3.24970300 -31.29818900 12.68119000
4.12671200 -31.25272000 12.38077000
0.79317900 -28.64403000 13.62998000
0.72025800 -27.66253100 13.66465000
1.43123400 -26.64702000 13.58469000
1.88315700 -30.08797100 13.23270000
2.55940500 -27.81144900 13.07047000
4.63766000 -27.24646900 12.35953000
0.96620200 -37.19585000 13.21750000
0.50318100 -36.06739000 13.32810000
1.43089800 -38.36311000 13.02201000
3.20747000 -35.92533900 12.56132000
2.90057600 -37.64876900 12.64164000
3.99465800 -38.93190000 12.14475000
2.96285100 -38.95161800 12.62119000
3.93231200 -36.61269000 12.27701000
3.85590500 -38.12889900 12.21158000
4.47841400 -36.22512100 12.00333000
3.44942000 -40.60160800 12.35142000
0.58556000 -32.20071000 13.52408000
1.06486500 -33.17345000 13.42508000
1.66066600 -33.31250000 13.25767000
1.72044900 -34.28094900 13.19596000
1.67806100 -35.78813200 13.06272000
2.32139500 -34.73408100 12.89683000
2.83285300 -32.23407000 12.81962000
3.85520400 -33.76350000 12.32004000
2.84039900 -48.45541000 10.58354000
3.63047600 -46.05363100 11.80455000
3.49561500 -48.96088000 10.26576000
4.34474300 -45.48442100 11.37290000
0.49267800 -43.50466200 13.26738000
0.82791900 -42.49482000 12.99613000
0.90253400 -40.79650900 13.04026000
0.75225600 -45.54105000 12.93186000
1.64012800 -46.11668000 12.73841000
2.57740100 -43.22024200 12.48069000
2.03329400 -45.46128100 12.55599000
2.54907200 -40.41268900 12.70664000
2.73330500 -44.80794100 12.42403000
4.04605200 -44.94482000 11.72596000
3.65148100 -43.20900000 12.04475000
2.60463300 -44.12720100 12.54558000
4.03695400 -44.45727200 11.85809000
3.53877800 -42.67290900 12.16019000
1.32945400 -39.51522100 12.95902000
0.32083500 -51.76945900 12.18919000
0.56857000 -51.86940000 11.69757000
0.82033700 -52.09206000 12.20060000
0.23267700 -51.60062000 12.79945000
1.00963200 -51.90039100 12.75870000
1.38630900 -51.80328000 12.78921000
1.71456700 -51.27418900 12.83421000
2.12787600 -52.06539200 12.53151000
1.75048900 -52.32577900 12.28778000
2.30754000 -51.57025900 12.61682000
2.68931300 -52.18656200 12.18036000
3.54883900 -50.23312000 10.29921000
3.32055900 -52.03567100 12.00656000
3.46470200 -51.37385200 12.02193000
3.61502000 -51.82521800 11.91559000
3.84394600 -50.75165900 11.76890000
0.70117300 -48.95407900 13.39406000
0.32715200 -51.15687200 13.11111000
0.40336600 -50.70172100 13.21822000
0.67175100 -47.68904900 13.34940000
1.32018100 -48.57590900 13.26433000
0.49083000 -46.04304900 13.01755000
0.65838700 -48.38822200 13.41985000
1.16041900 -47.55756000 13.24713000
1.80784300 -47.38864100 12.98972000
2.68178700 -48.57788800 12.65568000
2.70524100 -47.50717200 12.60154000
2.56903700 -46.02998000 12.34481000
2.41660300 -48.66862100 10.81108000
2.57441900 -49.55878100 12.66117000
3.31611000 -47.86225100 12.30204000
2.56100400 -51.28778800 12.54495000
3.15305300 -48.75579800 10.46235000
3.38118100 -48.74185900 12.25453000
3.35839800 -47.05281100 12.19413000
4.15413600 -47.35055200 11.75352000
4.68470200 -47.98527900 11.34434000
6.92038800 37.30542000 -10.16347000
7.34732200 41.09404000 -8.84737600
7.29908800 45.42578100 -7.39129700
7.45717500 41.97428100 -7.90101800
7.22043700 45.62704800 -8.10612600
7.37478500 47.02206000 -5.78385700
7.47000700 45.90615100 -5.71254800
7.45012600 45.54806900 -5.53264900
6.44010000 33.70772200 -9.44869400
6.77990800 35.04671900 -9.91115800
6.86272500 36.19179200 -10.15992000
6.87447700 34.58672000 -8.51339100
7.30400800 36.25981900 -7.74166300
7.23843100 35.92411000 -7.08010300
7.07159600 35.73228100 -9.12728300
7.20224900 38.09952900 -9.42718100
7.35081300 37.68285000 -8.64937800
7.54922800 39.89135000 -8.05025700
7.44910300 37.13348000 -6.80544500
7.65470600 40.13880900 -6.29653400
7.51086600 38.47526900 -5.31289100
7.66834900 39.98815200 -7.07247400
7.56148500 38.26318000 -7.58431400
7.62449600 38.90649000 -6.70131900
7.58388500 38.80123900 -7.77144800
7.28406000 44.50307800 -5.14964400
7.52040400 42.29946100 -6.95020900
7.31452800 43.72491800 -5.05098100
7.40476800 43.14088800 -4.96350800
7.58326100 42.10509100 -3.36733400
7.55483000 41.63811100 -5.64113900
7.59408900 41.54069900 -5.01674800
7.63836400 41.27386100 -6.92603700
7.55961300 40.50674100 -4.98696300
7.57667600 40.00590100 -5.18386300
7.69882200 41.63790900 -4.00551800
7.81269300 41.07450900 -3.99093100
7.83906300 41.93446000 -2.63079500
7.30052900 44.76736800 -2.78566900
7.24959300 44.67865000 -2.19804900
7.36113800 45.34223900 -2.92692600
7.41965300 43.90195800 -2.94185800
7.38194800 46.07587100 -3.25430500
7.26968900 43.58142100 -1.85038800
7.66245000 42.84446000 -3.16939700
7.47910200 46.57907100 -4.80522400
7.28051900 44.06893900 -3.81851500
7.71058000 43.03447000 -2.78864500
7.58352200 43.39096100 -3.27273000
7.08685400 35.73862800 -3.76992200
7.29030200 36.85754000 -4.62032500
7.21165000 36.27439100 -4.06112100
7.35694100 37.44863100 -5.19301800
7.45327200 36.28675800 -2.83040800
7.36646600 37.33295100 -1.87371200
7.36188200 36.13301800 -3.30306400
7.40558400 37.25059900 -3.87197300
7.62457000 37.32397800 -2.59211500
7.60081500 36.85804000 -3.09731500
7.75466900 38.39510000 -3.30910700
7.52598000 38.01507200 -4.70162400
7.58553500 39.21427900 -5.13497400
7.07557200 41.71957000 -0.98097300
7.50528500 38.58335900 -1.60635100
7.68023000 41.21149100 -1.40212100
7.54314200 38.02248000 -1.85390900
7.53755000 39.37680100 -1.32758100
7.72135400 41.49499900 -3.00918000
7.62705500 40.15702100 -4.45308900
7.78781400 39.73381000 -1.67815600
7.75249500 39.07125900 -2.86361100
7.71800500 39.71234100 -3.27535400
7.83151600 42.13647800 -2.19660200
7.74908800 40.00146900 -3.55440700
7.77480900 40.48278000 -1.48318200
7.79827500 39.54542900 -4.13918500
7.79035900 39.37962000 -2.02817800
7.85181900 40.88250000 -2.30204400
7.81018200 41.80905900 -1.79772700
7.88701000 41.30851000 -1.81852500
7.80420500 38.50880800 -2.36178000
7.76286900 38.32119000 -2.83883100
7.80813400 38.80090000 -4.41274500
7.81976700 38.69940200 -3.63247100
7.21335300 42.57122000 -1.35623600
7.58254300 42.73420000 -2.07387500
6.41461600 27.00635900 -5.70732800
7.69010400 26.09623900 -5.50218400
7.96646500 26.70010000 -5.21468700
7.07342000 31.34345100 -2.53840600
7.23254100 29.99484100 -3.61185200
6.68969800 29.46031000 -4.23977500
7.88794100 31.36644900 -1.99527500
8.33661600 29.33332100 -3.77507700
8.93601800 30.02113000 -2.99206100
9.08289100 30.74081000 -2.04191600
9.00284200 27.69507000 -4.24823000
9.83696900 27.98234000 -3.62164400
9.07187200 29.63587000 -3.25054900
9.96770500 29.92332100 -2.38904900
6.92489800 32.21891000 -1.98655800
6.75414700 32.89120900 -1.29976900
7.04353400 32.49842100 -1.29208800
7.53863200 36.61682900 -2.50215300
7.40141800 31.71987000 -1.96227500
7.94211600 31.69592100 -1.50355300
9.59456900 30.88019900 -1.41291300
6.78650500 18.26884100 -6.92849700
7.42487500 17.83783900 -6.60770800
7.99302800 18.60815000 -5.78736400
6.49665500 19.87599000 -6.86422000
6.60033900 24.51055000 -6.23117400
6.88478100 23.58551000 -6.18603000
6.97235000 21.20148100 -6.40825600
7.14502700 19.50211000 -6.48072500
8.10433500 23.50128900 -5.52663400
7.50466900 21.86817900 -5.96812600
7.83062800 20.31767100 -5.72772200
7.99138500 19.59244000 -5.67817800
8.02149600 21.46913900 -5.53283500
8.52506400 22.30212000 -5.30329400
9.10604700 23.24126100 -5.13660000
8.32716400 20.14694000 -5.45033000
9.26124100 19.47022100 -5.27450200
9.16346900 21.27738000 -5.24624300
9.60804300 20.89956100 -5.09487200
9.95155900 21.43667000 -4.83895900
10.33227000 20.27683100 -4.44694600
8.37157900 24.96076000 -5.29106800
8.97814400 26.43300100 -4.69376600
8.07332000 25.42663000 -5.36649100
9.31368300 25.50342900 -4.82608100
9.56225100 26.83754000 -4.28227300
10.13996000 23.39994000 -4.62826300
9.69939500 24.85374100 -4.76371000
10.32131000 27.27959100 -3.69769500
10.73654000 25.84536000 -3.83249100
10.81128000 24.49921000 -4.16260400
10.32951000 29.22221900 -2.61903700
10.55870000 27.84506000 -3.33336100
10.57767000 30.42347000 -0.88137100
7.34601900 33.23749900 1.62051100
7.30077400 32.92182900 0.00988000
8.17626800 31.97654000 3.61354700
7.86744700 32.08140900 -0.86610900
7.84705200 32.57384100 3.16178800
7.51835800 33.05073900 2.68868500
7.78686800 32.42330900 -0.25399300
8.33235500 32.56023000 1.42281700
8.58917600 32.18761800 0.24078600
8.38931500 32.52159900 2.06199000
9.03817300 32.06666900 2.02007300
9.36170100 31.15638900 3.13692600
9.25574100 31.65781000 -0.34187000
9.24877900 31.85384000 0.22212200
9.70999700 31.15897000 -0.81272000
9.70018300 31.67649100 0.97748100
9.64237800 31.70554900 1.35150200
9.01996400 31.76376000 2.79005200
9.79578900 31.41326000 1.97330200
10.99339000 30.32155000 -0.30723500
10.44705000 31.02944900 0.90689700
6.05042800 33.30028900 4.04960400
5.86389100 4.22998600 -12.33057000
6.40059500 6.59119000 -12.20433000
6.25505700 4.50576000 -12.30759000
5.82005900 7.48019900 -11.86904000
6.75785500 7.71824500 -12.09490000
6.15190700 5.36522700 -12.31040000
6.89475400 7.28355500 -12.16911000
6.70577400 5.64787000 -12.26919000
7.53179700 8.30423300 -12.06519000
7.42321000 6.63037900 -12.08433000
7.66616400 7.92643800 -12.05674000
7.86737700 4.44559100 -11.83793000
8.55934400 7.79094500 -11.73930000
8.42766300 6.85705000 -11.80149000
8.94607400 6.91612600 -11.55892000
8.62832900 5.85790000 -11.66497000
8.83869000 5.22244200 -11.42147000
9.37070500 7.32941400 -11.13099000
9.42875200 6.28535000 -10.77021000
6.43209800 12.20173000 -10.07858000
5.86009700 8.02448800 -11.81062000
6.30260700 9.30302900 -11.52384000
6.40604800 11.42639000 -10.70302000
7.15656500 8.77816300 -11.93281000
6.41932200 10.32490000 -11.22498000
6.74206100 9.94569100 -11.45042000
6.93560300 11.24161000 -10.73382000
6.82282100 9.63929500 -11.54274000
7.27805900 10.10661000 -11.50458000
7.61099200 10.73624000 -11.23932000
7.47802500 9.13886700 -11.85952000
7.99826000 11.59485000 -10.63650000
8.14584200 12.18487000 -10.00961000
8.05664900 8.91037500 -11.80946000
7.66566500 10.21822000 -11.50902000
8.24759200 11.21072000 -10.86503000
8.20173100 10.52453000 -11.21573000
8.54605500 11.53445000 -10.53080000
8.96859100 8.82732900 -11.34162000
8.97446900 11.28956000 -10.24573000
8.94950900 11.71585000 -9.82774200
9.16059800 11.67559000 -8.84028500
9.07030000 10.28121000 -10.70616000
9.32488800 9.92109500 -10.44592000
9.15360400 9.70335900 -10.90824000
9.17898400 8.21738400 -11.33576000
9.25885700 10.38681000 -10.36039000
9.47217800 8.34406900 -10.91019000
9.75624700 10.02461000 -9.41542200
9.57694600 9.35544800 -10.18158000
9.54781800 7.47391500 -10.70162000
9.72055400 8.70790900 -10.07913000
9.86697300 7.64319700 -10.19943000
5.84053800 14.58465000 -9.27558600
5.54757500 12.86170000 -11.33282000
5.44704500 15.12739000 -9.08023600
6.61182300 13.96094000 -8.68048100
6.94107600 14.74519000 -6.96410800
6.68531700 13.59110000 -8.91159200
7.10593100 13.28955000 -8.75809800
7.32151700 14.14681000 -6.82804500
6.76913200 14.40045000 -7.46542000
6.91988800 12.76907000 -9.33531200
7.34918700 12.46684000 -9.63095900
7.47394700 12.95675000 -8.97624000
7.38435300 13.81388000 -7.17595800
7.56437900 13.29129000 -8.21650500
7.08529300 13.62355000 -8.33792300
7.91748800 14.60486000 -6.34477900
8.42403200 13.39552000 -6.11617900
8.51355300 12.11283000 -9.94395800
8.48837100 12.41072000 -9.38354600
8.63638500 12.47454000 -8.78533200
8.70043300 12.95814000 -6.43500700
7.90941900 13.17446000 -7.83354100
9.03901700 13.14829000 -5.71416600
8.72904500 13.57326000 -5.80951100
8.79637400 12.13812000 -9.42372500
9.32816600 12.73835000 -5.77906800
9.42506500 11.57355000 -8.43709000
9.96111100 11.85771000 -7.29035100
8.97494500 12.43430000 -7.75030400
9.28103200 12.54068000 -6.38898100
9.50387400 10.01711000 -9.87493400
9.22436000 12.07537000 -8.06106000
9.69339800 11.00638000 -8.68391200
10.15075000 11.51539000 -7.94806400
5.98089800 16.48244100 -7.22503400
7.07929400 15.85593000 -6.84093300
7.67711500 16.02174900 -6.56631100
8.21331300 17.46842000 -5.72905100
8.05689000 15.49322000 -6.31124800
8.69306500 14.33965000 -5.80467200
8.54667800 16.80964100 -5.54966800
8.54090900 18.38007900 -5.52484100
8.94100900 14.98313000 -5.54193900
9.26557500 16.31973100 -5.33546700
9.47551100 17.52096900 -5.22650500
9.85457900 13.89067000 -5.18640600
9.65442800 15.91760000 -5.15537200
10.40573000 17.52939000 -4.57427400
10.38802000 14.47104000 -4.69277200
8.49102300 19.35942100 -5.49612200
8.99117800 19.04027900 -5.41163200
9.83411400 19.55794900 -4.91598800
9.80199000 17.86539100 -5.00397700
7.54465000 32.14653000 4.05993100
7.98516700 30.01046000 5.47049500
8.04348200 30.40803000 5.17001900
9.37474100 27.53998000 5.99948700
8.66689900 29.78838900 5.14908400
8.52222500 30.40218000 4.82309500
9.34890700 30.24394000 4.17233800
9.82509700 28.84410100 4.80930100
10.40807000 27.22307000 5.35385700
9.74956000 30.40634000 3.50046300
11.31295000 28.01263000 3.72995600
5.98911800 2.45356800 -12.19131000
5.84261900 -1.40161100 -11.83307000
6.79058300 0.99174800 -11.83848000
6.85160600 -2.76676000 -11.34197000
7.94162000 1.90351500 -11.57197000
8.00087700 3.06956900 -11.69885000
6.01563600 -2.23266900 -11.64626000
7.53721300 -0.81214400 -11.46597000
7.94620000 0.22657100 -11.45274000
8.14512500 2.48976100 -11.57480000
8.60729400 1.23188100 -11.13485000
8.15340000 1.26258600 -11.45333000
8.57043700 2.25995600 -11.26936000
8.53929600 -0.18320900 -11.08873000
9.27007300 0.70338100 -10.79677000
8.34314300 3.03952200 -11.53593000
8.72625200 4.05699800 -11.28598000
8.93539300 2.53781100 -10.92233000
9.49027800 5.38457900 -10.63720000
9.21660300 3.36246000 -10.74814000
9.67540100 12.60167000 -5.71068400
10.72347000 24.95800000 6.30179400
6.36949100 27.79814000 7.34360300
7.04672300 26.33859100 7.71921300
8.54433900 27.76108000 6.35349100
7.88928900 26.33636100 7.35361300
9.28509000 27.06875000 6.29025800
5.35886300 -6.59236100 -11.54940000
5.63442600 -7.68078200 -11.61666000
5.71209800 -4.71828700 -11.47988000
5.67378400 -3.42914100 -11.56130000
6.45967200 -7.76250300 -11.38284000
6.37185600 -5.74137400 -11.29244000
7.36549500 -3.81319400 -11.12319000
7.52782900 -4.82105900 -11.01821000
8.20897600 -3.70960700 -10.78536000
7.37294600 -5.77331800 -11.11257000
8.39458200 -4.73004000 -10.71200000
8.64377800 -5.79125700 -10.74276000
9.54238600 -3.77839200 -10.48190000
8.43531600 -1.90872800 -10.91876000
9.03215700 -2.73485200 -10.68559000
7.21835700 20.62731000 9.75607900
7.44408500 23.35397900 8.74112500
7.88314900 21.99255000 9.04166200
8.50272700 23.33132000 8.29862000
9.05574500 24.63265000 7.49954800
9.20670800 22.61887000 8.19956000
9.59081600 19.82111900 8.84818100
9.98511400 23.06591000 7.60086600
5.08368000 -14.86269000 -11.68386000
5.76986300 -13.74576000 -11.60452000
6.30386700 -13.75840000 -11.44155000
5.33721300 -11.94368000 -11.73599000
5.58996600 -9.90088500 -11.65805000
6.60206300 -11.05724000 -11.28329000
5.90165100 -9.13311000 -11.57662000
7.37009200 -7.70960800 -11.14346000
6.81227100 -9.36109100 -11.27774000
7.97139500 -10.96495000 -10.84231000
7.94509000 -14.07118000 -10.85562000
7.73026600 -10.10367000 -10.96945000
8.70360200 -11.15378000 -10.51571000
9.27098800 -7.78694100 -10.40670000
8.78393600 -9.08037400 -10.55776000
8.31734100 -13.64762000 -10.69491000
7.69858100 -8.28150000 -11.05953000
6.62504900 16.39131000 10.95170000
6.06232200 17.06789000 11.05820000
7.80865100 16.13979900 10.48490000
7.70518700 17.60108900 10.30887000
8.52606900 16.31296000 10.11167000
8.71517200 14.46013000 9.90640800
9.82002700 15.32035000 9.56497800
9.47126100 18.12315000 9.35483400
9.61565000 14.47437000 9.63297100
9.20080800 16.73394000 9.75974100
6.85416300 18.86755900 10.37900000
8.25091900 20.24017900 9.39731400
5.04255800 -18.97112100 -11.22702000
5.92837000 -18.95852100 -11.21352000
6.35176400 -18.54250000 -11.14235000
7.90048400 -19.65867000 -10.60952000
8.57469600 -19.74268000 -10.36111000
5.48976700 -16.16964000 -11.57272000
5.95906300 -15.58584000 -11.50399000
6.72112700 -17.40992900 -11.10891000
7.57020200 -15.29042000 -10.95175000
7.84520200 -16.85112000 -10.83615000
9.39152100 -17.07114000 -10.10177000
9.12700300 -18.84049000 -10.16146000
9.32912000 -14.44918000 -10.16812000
8.91801800 6.14215600 9.38355600
9.49139600 8.23119900 8.96352400
7.67005500 13.13751000 10.63004000
7.65840800 9.95345600 10.56184000
8.41700300 13.73875000 10.13016000
8.21256400 10.61420000 10.21370000
7.79461400 8.07621100 10.38333000
8.43145700 7.92580700 9.93172100
8.55069100 11.86864000 9.91556400
8.74273600 13.39626000 9.80301500
9.00287700 10.93485000 9.48680200
9.07055600 11.49707000 9.41839000
9.29281500 13.50739000 9.56937200
9.22859300 12.46414000 9.40193500
9.46128700 11.22472000 9.21261600
9.43101300 9.81148900 9.15724500
9.93954600 9.70926900 8.94712600
9.87383300 8.80012800 8.83008000
9.47296800 13.98516000 9.62277800
6.90706900 15.40898000 10.91538000
8.10328400 14.34162000 10.39719000
7.00267500 13.84770000 10.93674000
4.76165000 -22.17396000 -9.74285300
5.72556500 -22.43265900 -10.24257000
5.21912400 -22.83499000 -9.52271500
4.79250900 -23.08385100 -9.26219700
5.98905200 -22.09403000 -10.45742000
5.70725600 -20.30015900 -10.95985000
5.70264500 -22.86154900 -9.83910400
6.20344900 -20.98298100 -10.73308000
6.02635100 -22.93029000 -9.96325500
6.36296100 -23.44356900 -9.15330900
6.42966200 -22.66247900 -10.22977000
7.23510000 -20.19492900 -10.62994000
6.95347500 -23.51242100 -9.22295500
6.45175200 -22.09981900 -10.43632000
6.83922600 -21.91930000 -10.35216000
7.23730200 -22.76041000 -9.98623000
7.17805500 -23.23024000 -9.69837000
7.50820600 -22.06119900 -10.19255000
7.31969400 -19.35125900 -10.74188000
7.74369600 -23.06809000 -9.83209000
8.19397600 -22.29810000 -10.12387000
8.55610000 -22.94311900 -9.80312000
8.39721800 -23.54324000 -9.33654800
8.33821800 2.55897100 9.74869300
8.90866400 0.11855300 9.24722900
9.33415400 2.04412100 9.07578100
7.37016700 2.06157900 10.18735000
7.12926500 5.07199300 10.40897000
8.15902500 5.60182400 9.83933100
8.54882300 4.69977600 9.66110800
9.14996900 4.59101500 9.23318300
6.52263400 7.87371800 11.03043000
6.36138500 7.12275900 11.04685000
7.75284200 6.75396300 10.26102000
4.80607200 -32.91157900 -10.68567000
5.03815400 -31.84126100 -10.44831000
5.24492500 -30.17686100 -9.58293800
5.75144900 -29.59524000 -9.25545200
5.16804100 -27.81123000 -9.39343200
5.17618200 -28.27117000 -9.54531400
5.05191300 -26.24107000 -8.91057800
5.77918000 -27.23584900 -8.55461900
6.05058700 -26.51232900 -8.55550800
6.46200300 -26.27249000 -8.38045500
6.18496700 -28.36825900 -8.62020700
5.91321000 -28.94704100 -9.13932100
6.79169700 -25.03603900 -8.05622300
6.39612000 -27.67107000 -8.21360400
7.14087800 -28.84384000 -7.84056400
6.49021800 -29.60354000 -8.87146800
6.81890000 -26.68812000 -8.21160500
7.20349600 -27.02586000 -7.96574200
5.39335200 -23.96351100 -8.84390000
5.95713100 -23.58058900 -8.87876600
6.30026000 -24.20430900 -8.39992900
6.76589300 -24.39291000 -8.11990500
7.69244800 -24.62755000 -7.50308200
7.37334300 -24.29696100 -7.87267800
8.24337800 -24.15278100 -7.57088000
8.05916200 -25.36022900 -7.15340800
6.76021700 -23.90694000 -8.48490600
8.13439700 -23.68012000 -9.12099800
7.69546100 -25.03315000 -7.40198600
8.33815800 -24.34330000 -7.18094000
8.53342700 -24.64499100 -6.87323700
8.76636200 -24.14672100 -7.15979900
7.63307500 -24.03838000 -8.07063500
7.34640700 -3.18075800 10.47788000
7.73369900 -4.15865700 10.52701000
8.39443500 -3.68779200 9.85220900
7.82523100 -2.80000300 10.27964000
9.18413600 -4.25720200 9.32990200
8.74045300 -4.37583600 9.61679900
9.35314100 -5.26381800 9.21406500
9.23177500 -4.76041400 9.23931100
8.90819800 -2.80378000 9.82633000
6.86752900 -1.49638600 10.88761000
6.24623600 -1.63254500 11.01829000
5.81485700 -2.00015600 11.24393000
6.64248600 0.54293100 10.86466000
6.64282500 1.88180000 10.57169000
7.29429800 -0.86511400 10.70994000
6.61449000 -2.06179400 10.85093000
7.43616300 0.76813900 10.23514000
7.49826700 -1.60341800 10.67435000
6.30337000 -2.67133100 11.11966000
7.50233100 -0.01694900 10.41233000
8.25203400 -1.41373800 10.29807000
8.32545600 -0.89014400 10.14200000
8.12186100 0.69282500 9.76090000
8.24750400 -0.33635900 9.92795400
8.05590400 -1.72611400 10.41428000
9.03410800 -1.25377300 9.65823900
9.94894500 -1.44147300 8.67148400
4.99060500 -36.92869900 -10.28824000
5.59467600 -36.63261000 -10.37508000
5.47473300 -36.97333900 -10.29781000
4.93274000 -35.23164000 -10.67856000
5.43374400 -37.49655200 -10.02771000
6.90612900 -34.12508000 -9.74531300
5.88336700 -36.51734200 -10.25711000
6.14700700 -37.37760200 -10.01573000
7.84802500 -34.71097900 -9.27274400
7.52829000 -36.45706900 -9.28872100
6.44770400 -36.14703000 -9.93536800
4.72610100 -30.33695000 -10.02329000
5.46785900 -32.01285200 -10.13337000
5.26304200 -31.09952900 -9.76820400
5.37216400 -33.54278900 -10.44666000
6.19692900 -31.21591000 -8.82720900
6.16289000 -31.58296000 -8.81489800
6.25813100 -32.66524900 -9.67029700
6.60641900 -32.37857800 -8.78904100
6.09492500 -33.13922100 -10.03074000
5.90849800 -30.19294000 -9.13685300
7.00074900 -31.88434000 -8.24060600
6.64391400 -33.46498900 -9.80419900
6.95433400 -32.32640800 -8.39527400
6.78317200 -33.19345900 -9.51376900
7.62260600 -33.25891900 -8.51301600
7.27736300 -30.51024100 -8.37876100
8.12954900 -34.31723000 -9.05525200
8.02442700 -32.88542200 -7.74504800
8.29358500 -32.30304000 -7.44633900
7.87893500 -31.10693900 -7.90084900
8.47290200 -30.79104000 -7.38403600
8.49551100 -33.54193900 -7.68893000
6.84367500 -29.35390100 -8.52261200
8.09564800 -30.65788100 -7.76351100
8.34804200 -29.80937000 -6.88390600
8.27334300 -30.46416100 -7.50320000
7.51732600 -28.52862000 -7.48106600
9.06064000 -28.70327900 -6.43612100
7.39466800 -10.01002000 11.25403000
8.06340300 -9.66541900 11.06647000
7.84990200 -10.63914000 10.77705000
7.78057500 -9.07446300 11.38640000
8.74138000 -9.58125700 10.65227000
8.74290800 -9.03775500 10.81314000
9.02579500 -9.37659300 10.48228000
8.51027300 -11.32580000 10.09204000
8.98723800 -8.82607500 10.63780000
9.22122800 -9.94787800 10.04433000
8.99653000 -10.92013000 9.78068800
8.85201100 -8.08606600 10.70839000
5.50297700 -7.18394500 12.46079000
5.90245200 -4.93939600 12.18381000
6.26742900 -6.16665300 12.14811000
5.66635300 -8.52736200 12.18864000
6.20308200 -6.96459800 12.23978000
6.67347500 -4.46437800 11.59782000
7.06578000 -8.89137000 11.74326000
6.26991600 -7.64334800 12.18088000
7.38349100 -5.61184300 11.51957000
7.75184000 -6.04409400 11.35807000
7.72913800 -8.28224100 11.52521000
7.68233300 -5.28365700 11.17716000
8.43181800 -5.83694800 10.63809000
8.47316900 -8.20221300 11.05892000
8.60127900 -4.96454700 10.01013000
8.30519200 -6.67124100 10.98570000
8.80107100 -6.52106700 10.42343000
9.33038400 -7.14774700 10.05216000
6.24602800 -3.50685300 11.50693000
4.58962000 -41.24202000 -9.22066700
5.83523800 -41.84125100 -8.50005800
6.20083400 -41.21952100 -8.35657700
5.28944300 -38.30654100 -9.48047000
3.90030700 -37.11605800 -9.93497700
5.56583000 -40.92569000 -8.67571700
5.87754300 -39.72946200 -8.84779500
4.77779400 -39.10823800 -9.14592400
6.09416400 -40.55958200 -8.54607900
6.66638000 -40.27035900 -8.60277100
6.88023100 -38.12813900 -9.56261300
6.60077800 -38.68167100 -9.38840600
7.35034000 -39.63922900 -8.93835400
7.26266500 -41.07566800 -8.13485500
7.14345200 -37.91849900 -9.45213300
7.58383000 -39.00001100 -9.07187700
8.39773200 -40.45531800 -8.34222600
8.07840100 -36.88821000 -8.89535000
7.52785500 -15.13456000 11.03090000
8.27897000 -13.41935000 10.52801000
8.99651700 -17.37789900 9.87944000
9.18750600 -14.78251000 9.70217800
4.91389100 -11.99946000 12.58580000
5.80849600 -10.92059000 12.11637000
6.68899800 -11.67046000 11.66373000
6.35565500 -12.34923000 11.87517000
7.39600800 -13.18070000 11.24321000
6.95029300 -10.94106000 11.41414000
7.47141800 -12.58144000 11.18267000
7.23084900 -10.49288000 11.22990000
7.60265600 -10.84611000 10.93010000
6.45322200 -9.51153400 11.71464000
6.09526400 -9.94247100 11.83774000
4.10974700 -48.72377000 -9.19814500
4.12178900 -47.66738900 -9.16189000
4.70826200 -45.21638900 -8.86965400
5.07413500 -46.58734900 -8.67464600
5.24245800 -48.51974100 -8.49207500
5.45590900 -47.49152000 -8.35500500
6.64857700 -46.35845900 -7.79659500
7.14262100 -47.19726200 -7.33004200
4.66076100 -43.63925900 -9.01333000
5.49567700 -42.79808000 -8.75826500
4.50048800 -42.31282000 -9.25246600
5.30632300 -44.83739900 -8.59890200
6.05586900 -43.20417000 -8.45095300
6.21380800 -45.06572000 -8.14650900
5.59647900 -43.86711100 -8.56624800
6.38999800 -43.57309000 -8.18148200
6.42046800 -41.77898000 -8.17314100
6.57432900 -43.63457900 -8.02071600
6.97028800 -44.97296900 -7.70125800
7.38976400 -41.85519000 -7.73862300
6.78994900 -42.47267900 -7.86493500
7.78508200 -42.76844000 -7.20382900
8.32452400 -42.29853800 -7.15142800
7.82021300 -43.25426900 -7.07983700
7.86804600 -46.91708000 -6.88203900
8.36554100 -41.74918000 -7.54251500
6.81358900 -21.84712000 11.42274000
7.12708700 -19.87936000 11.24985000
7.78261100 -22.80176900 10.75749000
8.24662400 -20.54825000 10.42827000
8.43201000 -23.75449900 10.24054000
8.72651800 -20.78305100 10.03233000
3.86442400 -15.39542000 13.03313000
6.72557100 -19.00338900 11.50443000
6.14117400 -17.35601000 11.88628000
6.48604100 -14.72569000 11.69110000
7.02542100 -17.08373100 11.38800000
7.81697000 -18.95924900 10.83521000
8.20061900 -15.30736000 10.55745000
8.55102700 -18.43335000 10.26483000
4.28879900 -51.22737900 -9.50599700
3.05902600 -51.72547900 -9.85052800
4.73194200 -51.98780100 -9.85453800
4.50025100 -51.53395800 -9.60116500
5.78877300 -50.63196900 -8.81857600
6.96748200 -51.19743000 -9.12345600
7.11426300 -51.37773100 -9.20323300
7.42144300 -51.30604200 -8.97259500
4.55792900 -50.20579900 -9.12245700
5.04601500 -49.63652000 -8.74054700
5.26715500 -50.29156900 -8.78598100
6.03420400 -49.77059900 -8.15679000
6.13300600 -49.26181000 -7.95731500
7.22438300 -49.29921000 -7.15671400
6.36529400 -48.34627900 -7.70052600
7.23025300 -48.55802200 -7.14671500
8.26221300 -48.77790100 -6.31816800
8.55995400 -51.12287100 -8.11158800
6.82170800 -50.13452100 -7.79142000
8.13160200 -28.85914000 9.97666000
3.88907600 -26.80781900 12.64786000
5.43156200 -25.63279900 12.03922000
5.79851500 -27.78881100 11.77787000
6.63531300 -26.95626100 11.32175000
6.40236200 -24.31823900 11.58897000
7.91540000 -25.97714000 10.54301000
5.19073600 -21.17036100 12.30248000
5.57177600 -23.59958100 12.07589000
5.83333200 -21.84723100 11.95806000
7.34864800 -34.84875900 10.17533000
8.19721300 -35.36986200 9.37196800
8.04535300 -34.24844000 9.64926700
8.28099200 -36.42337000 9.25997700
8.31270200 -32.50756100 9.53098100
4.28737300 -30.25947000 12.33567000
5.06324600 -32.76227200 11.81675000
5.28929900 -29.21009100 11.96488000
5.46191600 -30.54194100 11.71506000
6.18232100 -33.02936200 11.15342000
6.42933800 -31.54434000 11.06620000
6.42935300 -34.11496000 10.91648000
7.18539400 -28.90136900 10.82474000
6.75589200 -33.42396900 10.71793000
7.34050500 -31.24754000 10.45347000
8.08154500 -31.68176100 9.83072500
6.59919500 -28.49533100 11.26133000
7.83114100 -48.48000000 5.76445000
7.62544100 -44.14201000 9.29978300
8.55353300 -43.72504000 8.27267800
5.41160600 -41.45515100 11.23283000
5.69617300 -39.84577200 11.10892000
6.71719600 -43.41000000 10.04495000
7.18186200 -40.71015200 9.88693800
6.45895100 -42.39741100 10.42386000
6.64482500 -41.85205800 10.31671000
6.63507300 -38.78496900 10.37070000
7.28148000 -43.54690200 9.55532600
8.12826400 -39.91878900 9.19015100
8.53170800 -40.77283100 8.72560300
4.82527600 -37.58736000 11.59513000
5.20068300 -34.59695800 11.62809000
5.17342500 -38.69446200 11.43699000
6.28106300 -35.87733100 10.80479000
7.01981100 -36.31055800 10.19852000
5.71401900 -37.79618800 11.05637000
8.06095600 -52.17742200 6.72764600
3.78838000 -49.53793000 10.09921000
4.93878100 -50.32735100 9.13069800
6.34490600 -50.94173800 8.05811000
5.87317400 -48.47911100 8.16344500
5.22901200 -51.72258000 9.52109800
6.60552000 -50.08707000 7.53776500
6.20365800 -50.29690900 7.99194200
6.43445300 -48.22254200 7.55739500
6.71335900 -51.91941800 8.14814700
6.79253500 -48.29974000 7.16837700
7.06827800 -50.11325800 7.01209000
7.05684600 -51.78426000 7.67881000
7.15280000 -48.25569200 6.71060900
7.27384300 -49.32363900 8.69371500
7.50053200 -48.41516900 6.26879600
7.90129500 -52.10108200 7.15252800
7.43534900 -51.78615200 8.19281100
7.85748900 -49.56045900 5.89135300
7.54382500 -51.96849800 7.23085300
7.60209700 -51.16772800 8.15151900
3.41960200 -48.13040200 10.13844000
4.51112700 -47.82387900 9.25733200
5.04498600 -45.85940900 10.82438000
4.73210800 -46.91070900 11.30672000
5.04293500 -48.36272800 8.91933500
4.92853600 -48.96545000 9.12474400
5.83364300 -47.04309800 10.35696000
5.89341500 -47.64094200 10.32362000
5.43343100 -48.54613100 8.59710700
5.10539800 -45.60913100 10.78051000
6.49277400 -44.88903000 10.14567000
6.11985300 -48.64160200 9.93606800
6.21353400 -48.22868000 9.95809400
6.15139300 -48.30968900 7.86845500
6.46868900 -45.67594100 9.62503600
6.99368400 -45.00835000 9.60062200
6.74073500 -45.47792100 9.48361800
7.05818500 -47.56749000 9.16013700
7.78930100 -45.47277100 8.38236000
7.84401300 -48.03479000 8.26275000
6.77399100 -45.99597200 9.28128600
4.72576600 -41.88224000 11.60486000
5.12243000 -44.80236100 11.16388000
5.48512600 -43.27438000 10.98106000
5.41439000 -44.40045200 11.10282000
6.82839600 -44.46653000 10.00968000
3.55777400 -50.93835800 10.41153000
3.75646900 -52.18648100 11.12288000
3.82164400 -52.04325900 11.66639000
3.94061400 -51.82899100 10.62734000
4.27470400 -52.18642000 10.84983000
4.28975300 -52.11677200 11.22917000
4.38022600 -50.82463800 11.32409000
4.41175800 -51.90744000 11.27304000
4.40129800 -51.93449000 10.41017000
4.43402800 -50.57492100 9.63452600
4.88491500 -51.49618100 10.88380000
4.65200000 -49.83644900 11.14668000
4.84102700 -52.16679000 10.70679000
4.61986400 -51.20296100 9.78373100
5.16193800 -51.88974000 10.67358000
5.89014200 -50.66486000 9.95844000
5.80787300 -52.23658000 9.44763400
5.83933100 -52.28696100 9.72305900
6.19175100 -51.73629000 9.72141400
6.12635000 -51.87424900 8.75246700
6.45135600 -51.95608100 9.36623100
6.53298000 -49.59941100 9.38452300
6.36803800 -52.16783100 9.14645300
6.73066500 -51.71762100 9.08633600
6.93190200 -52.03751000 8.67522400
7.22647600 -52.07412000 7.89089700
11.03273000 22.37949900 -3.74502200
10.92588000 21.58737000 -3.84018000
11.26416000 26.99196100 -3.15096500
11.35294000 24.85533900 -3.80910300
10.70743000 23.31749900 -4.15035600
11.85513000 25.37121000 -3.40528500
11.62115000 27.06621000 -2.81820100
11.24517000 24.37560100 -3.89148700
11.64644000 22.87616000 -3.40788800
11.92995000 24.43077100 -3.44836900
11.63019000 23.71820100 -3.42470500
12.07621000 23.29859000 -3.29539100
12.54495000 26.00145000 -2.45907000
12.77079000 23.65477900 -3.10029200
12.30435000 25.22180900 -3.11748100
12.70288000 22.93276000 -3.25966500
12.84405000 24.14855000 -2.97807500
13.17885000 23.28290000 -2.90918900
13.19914000 24.01600100 -2.65874900
13.44783000 24.63315000 -1.95063400
13.74147000 21.57295000 -2.99704100
13.96943000 23.88530000 -1.29601200
10.70016000 29.78854900 -1.74885400
10.85198000 28.59569000 -2.71840200
11.33599000 29.84429000 -0.64974700
11.52393000 29.81232100 0.07734700
11.70580000 27.82127000 -2.34836900
11.60023000 28.75168000 -1.75124100
12.32905000 28.51903900 0.92048600
11.77254000 29.08739100 -1.06161100
12.09760000 28.50219000 -1.17500100
12.18441000 28.93077100 0.47026700
12.24452000 28.67754900 -0.60503400
12.16243000 28.95026000 -0.10949300
12.79290000 27.79836100 0.44575200
12.55688000 27.43993000 -1.35086600
12.74382000 27.72736000 0.86374500
12.91975000 27.41654000 -0.30514000
13.07507000 26.05854000 -1.59249300
13.29167000 26.06488000 -1.10946100
13.44311000 26.20589100 0.12552500
10.78920000 30.55146000 1.51539300
11.30661000 29.93996000 1.34129100
9.93842000 9.39603000 -9.58098900
10.24375000 9.00270800 -9.57886900
9.84560600 6.49058800 -10.36244000
10.41610000 7.95323700 -9.82905300
10.10349000 10.34515000 -8.96627200
11.45814000 7.96980700 -9.39268200
10.74616000 10.23286000 -8.68654900
10.85996000 9.58180000 -9.04933500
11.59253000 9.36682700 -8.66869800
11.94314000 8.12631600 -9.03981900
12.36272000 8.18193000 -8.60754000
10.42625000 11.50142000 -7.48134800
10.65646000 10.90625000 -8.24538400
11.07893000 10.83427000 -7.62410400
11.68216000 9.95027200 -7.91206500
11.01392000 14.43953000 -4.36195900
11.13374000 15.50333000 -4.35073600
11.93431000 17.27426000 -4.21807200
12.75696000 17.97139900 -4.11410000
11.72243000 13.94194000 -4.26259300
12.41505000 16.02776000 -4.18980000
12.25252000 14.59615000 -4.12422800
12.88012000 16.71215100 -4.08080100
12.90636000 16.01689000 -4.03594400
13.46779000 17.16787900 -3.84896100
12.78146000 14.91017000 -3.91995100
13.18216000 15.12618000 -3.64762000
13.73831000 16.80257000 -3.52551200
13.96046000 16.15967900 -2.93266500
14.28092000 16.65452000 -2.56443700
10.64219000 19.97974000 -4.20656300
10.99832000 19.47923100 -4.10161000
11.37263000 16.48875000 -4.31680100
11.12636000 20.89423000 -3.83285000
11.37839000 20.32077000 -3.84372600
11.63376000 19.63413000 -3.95350700
12.31485000 21.57225000 -3.55613600
12.77981000 19.82033900 -3.86868000
13.04559000 21.69096000 -3.40819300
13.16724000 18.16268900 -4.02150200
13.18933000 19.64331100 -3.81418900
13.37977000 21.18182000 -3.39925700
13.70921000 17.73041000 -3.71834800
13.58564000 19.77522100 -3.61546200
14.16690000 21.38501900 -2.37853000
13.95618000 19.20245900 -3.35459600
14.07848000 17.99521100 -3.20782400
14.15821000 20.39031000 -2.74043100
13.84185000 22.77224900 -2.27087900
14.18644000 22.59227000 -1.60908300
14.08624000 23.88892900 -0.72616000
13.97809000 24.18003100 0.70407700
14.10897000 22.69735900 1.64963300
14.07296000 24.05882100 -0.07229000
14.30777000 22.80950900 -0.06539300
14.33610000 22.41686100 -1.03281400
14.24667000 22.45397900 0.80771400
12.05064000 27.94430900 2.42063000
11.88946000 27.64463000 3.12167900
12.42999000 25.51359000 4.29691100
12.71520000 26.92204100 2.06619800
12.62631000 25.83099000 3.62180100
12.85176000 25.33472100 3.73844000
13.26954000 26.61932000 0.55832500
13.51325000 25.43660000 1.58981900
13.40195000 24.72080000 2.58554600
13.56711000 24.23711000 2.99722900
13.68482000 25.34054900 -0.65883800
13.66761000 25.39996000 0.75345400
13.84236000 23.63690900 2.03897700
10.93150000 30.11086100 2.00564300
10.11534000 29.21742100 4.22568300
11.14226000 27.36024100 4.52091000
11.36459000 29.56611100 1.84154500
9.09009300 -0.02472800 -10.85586000
10.56785000 0.14352300 -10.33828000
10.76620000 -0.08910700 -10.22924000
11.22369000 0.99529800 -9.91217900
9.43157500 2.19271600 -10.65966000
9.88034700 5.34466700 -10.42536000
11.08859000 6.88880700 -9.80414500
10.66511000 3.84361700 -10.22796000
10.75075000 1.91233500 -10.18651000
10.95144000 5.79333700 -10.02632000
11.51697000 5.88921900 -9.77196100
11.01454000 3.03919400 -10.05272000
11.16083000 2.43903300 -9.94845000
11.72712000 2.84923200 -9.51204900
12.05622000 3.97669100 -9.34743500
12.10965000 1.86660600 -9.14559400
12.86558000 4.83871100 -8.61471900
12.88800000 3.12834800 -8.39420000
12.79442000 3.68734700 -8.56887400
13.26937000 4.93507300 -8.01018700
13.24198000 4.17769200 -7.98199300
13.23509000 3.39960700 -7.95791700
13.44212000 3.47812900 -7.61922600
11.92741000 7.55278500 -9.24590900
11.77672000 5.77907100 -9.61587400
12.26982000 9.00783500 -8.01516200
13.07026000 6.95850500 -8.27723900
12.77735000 8.73837300 -6.48667200
12.76479000 7.63272400 -8.47531500
12.58014000 8.67725000 -7.63293200
12.69837000 5.88364300 -8.80926200
13.30899000 7.39547700 -6.46661300
12.96083000 8.01461700 -7.19392000
13.16569000 7.47821500 -7.00789300
13.34976000 7.68208900 -6.03725700
13.05820000 5.83798800 -8.41401800
13.38418000 6.44994000 -7.01650300
13.01021000 7.55259000 -8.13031400
13.12203000 7.57064200 -7.80464000
13.23318000 6.49982000 -8.05421600
13.40986000 5.00760200 -7.38753200
13.67987000 5.65450000 -6.68042800
13.71366000 6.90605000 -6.14848100
13.54011000 5.19529800 -6.97147900
13.63494000 6.49038600 -6.49417300
10.61875000 11.46234000 -6.59407600
10.68049000 12.44200000 -5.05597800
9.72859900 13.16220000 -5.36181500
10.63180000 11.81800000 -5.65352300
10.84064000 11.53215000 -5.90773200
11.07540000 12.57167000 -4.78520300
11.63962000 10.49090000 -6.54549400
11.40317000 11.54441000 -5.35941900
11.91427000 12.72755000 -4.46183600
11.44016000 12.17649000 -4.88612600
12.08314000 10.22210000 -6.04925000
12.02634000 10.63538000 -5.62366900
12.11403000 9.57485600 -7.40114700
12.53109000 9.29872600 -6.39059900
12.75553000 9.40323900 -5.75188800
12.46665000 12.65749000 -4.23640500
12.93005000 9.72934300 -5.28323900
13.04018000 8.69780600 -5.81541000
12.62497000 10.56186000 -5.10202200
11.85795000 11.67475000 -4.95696900
13.27040000 9.06005500 -5.22659300
12.91870000 11.94482000 -4.17126000
13.27950000 10.04831000 -4.85933100
13.07970000 11.39608000 -4.33973900
13.59247000 8.32874000 -5.07973500
13.59535000 9.41129400 -4.80403900
13.86961000 8.73478800 -4.68748900
14.22480000 7.91852700 -4.41201100
14.44834000 11.75628000 -2.82335100
13.87629000 11.50238000 -3.63567500
10.77290000 13.55804000 -4.58984400
11.20319000 13.15154000 -4.52826100
12.36439000 13.81589000 -4.06425100
12.85137000 13.22877000 -3.93555500
13.49219000 14.79800000 -3.41704700
13.23371000 12.32669000 -3.84241800
13.53575000 14.13689000 -3.49652500
13.82013000 15.57825000 -3.04569800
13.77297000 12.18561000 -3.43987600
13.80934000 13.56511000 -3.39020200
13.89838000 21.58131000 4.20578600
14.12706000 22.25061000 3.24362800
11.69254000 24.95521000 5.50406500
11.42796000 25.01372000 5.72696500
12.24304000 23.38120100 5.73050500
12.53525000 24.87449100 4.58029700
12.71265000 25.11496900 4.17685500
13.34824000 21.63855900 5.10214800
12.95246000 23.15329000 4.96317100
13.48809000 23.33033900 4.01108400
13.52838000 23.91390000 3.53171300
14.17575000 22.58437000 2.69681400
9.18817000 -5.68413500 -10.59066000
10.04292000 -4.02838900 -10.26132000
10.41508000 -4.98436700 -9.86281800
10.11968000 -2.10308700 -10.31342000
10.80965000 -2.71683200 -9.79940200
11.05170000 -3.46326800 -9.53078700
11.77271000 -2.09513400 -9.00753200
11.65066000 0.29647800 -9.48201900
11.31222000 -0.10090900 -9.83982900
13.02356000 -0.49721100 -7.91939700
13.09752000 -2.49436000 -7.52022700
13.52846000 -2.00067700 -7.16884800
12.17318000 0.55198500 -8.94838900
11.82699000 18.73382900 7.75479700
12.38425000 18.89484000 7.25168400
12.80849000 19.28857000 6.70145200
13.61248000 17.14035000 6.45456500
13.11527000 20.46250000 5.93442300
13.92088000 19.68129900 5.04404300
11.03504000 23.11066100 6.87650100
11.12739000 21.76446000 7.33554600
11.66367000 22.35125900 6.70206300
12.10146000 21.76269900 6.54154000
9.30982900 -8.96168300 -10.28152000
9.15328300 -11.28001000 -10.27969000
10.35358000 -8.92757300 -9.50362600
9.87016200 -10.18443000 -9.84902400
9.11666000 -7.19418000 -10.49453000
9.86363200 -7.02248100 -10.02249000
9.80271400 -5.71089900 -10.23367000
10.23458000 -7.94176800 -9.63118900
11.70421000 -9.55555000 -8.15590900
11.09710000 -9.84861400 -8.75643300
12.36559000 -7.07399500 -7.75606700
12.68931000 -8.11130500 -7.13413300
11.18002000 -5.30443600 -9.11922600
12.33768000 -5.40327500 -8.00594500
13.00781000 -3.61539200 -7.41884800
12.83656000 -5.33231000 -7.47847900
13.03549000 -5.67798000 -7.16836000
10.50623000 13.42957000 9.24863200
12.47217000 11.83382000 8.18045800
12.98919000 13.78556000 7.71921300
13.58515000 11.86999000 7.36209700
14.00210000 12.51824000 6.87839300
10.71509000 20.26112900 8.08402100
11.85746000 14.00272000 8.52475500
11.02640000 16.40061000 8.83176200
11.11052000 16.94584100 8.69431100
12.09739000 15.88895000 8.21573400
12.32729000 17.27028100 7.76114500
12.23965000 14.36098000 8.25870300
13.15543000 16.99107000 7.03696300
13.14829000 14.87525000 7.47067800
9.64575500 -18.71876000 -9.89174800
10.42120000 -15.31372000 -9.38564500
10.81772000 -17.51034000 -9.13979500
11.22621000 -17.39897900 -8.77096000
9.65254100 -12.99298000 -9.95925300
10.07135000 -14.14931000 -9.69210200
10.65908000 -13.06942000 -9.16073000
10.06582000 -12.08193000 -9.65786200
11.16921000 -15.57224000 -8.77144800
11.43722000 -12.84079000 -8.38180000
11.85843000 -11.44803000 -7.92159500
11.66808000 -16.80038100 -8.26076700
12.13838000 -11.57238000 -7.52602600
12.20872000 -11.88274000 -7.33877000
11.74725000 -12.96890000 -8.01052300
12.12115000 -16.51230000 -7.51601600
12.19401000 -14.26614000 -7.12099600
12.16240000 -10.69200000 -5.39205500
12.32913000 -12.25494000 -6.88326500
12.32336000 -11.84416000 -6.36043700
12.28534000 -14.39914000 -6.54220000
12.41543000 -10.73713000 -6.76341200
12.18887000 -10.97820000 -5.14961400
12.35560000 -8.44016300 -4.50397200
12.32682000 -9.50550200 -4.49014700
12.46648000 -7.96377800 -3.86259100
12.21142000 -11.98041000 -5.53371600
12.35920000 -10.91407000 -7.13393600
12.26204000 -10.15910000 -5.67541700
12.46120000 -10.17662000 -6.97591600
12.36520000 -8.78909800 -4.87882400
12.35085000 -11.40953000 -4.75790000
12.58876000 -9.26239800 -6.38648900
12.40087000 -9.33660000 -7.30842700
12.59774000 -7.60708900 -4.54747200
12.48863000 -9.17349100 -3.91019200
12.90510000 -11.95789000 -3.66453000
12.73251000 -8.10480200 -5.73882600
12.64973000 -8.89814300 -7.02796700
13.23155000 -7.16797800 -5.87407700
12.98432000 -7.78889900 -6.56232700
13.21536000 -6.92262400 -5.32868900
12.44464000 -7.62628900 -3.87168800
12.60045000 -6.58192700 -2.84830000
12.61772000 -8.56400600 -3.37945000
12.77246000 -6.02628000 -2.40214900
12.47085000 -7.53864900 -3.47774900
12.76282000 -6.44353800 -3.66099400
12.95283000 -5.55973300 -1.60287200
12.85393000 -6.07575700 -1.40324000
12.96231000 -8.77322500 -2.51735800
12.76775000 -6.69176100 -2.00141000
13.00909000 -6.25853300 -0.73148600
12.96179000 -5.77525100 -2.80523900
13.10790000 -5.15274500 -0.63757600
13.12603000 -5.26172000 -0.13787300
13.30362000 -4.84081500 -0.94855500
13.40888000 -4.68841000 -0.44165000
13.32563000 -4.30639300 2.31656500
11.69644000 3.98390900 7.19586800
9.92028500 7.26789800 8.49118800
10.20554000 5.67385100 8.20422800
9.80164200 6.58735500 8.54849600
10.32003000 6.99229200 8.23938100
10.95447000 5.74772800 7.80188600
10.50093000 8.63032100 8.64505100
11.23838000 5.01875200 7.59418400
10.80680000 6.82459100 8.09492300
11.18746000 8.66245000 8.60231900
11.83880000 8.85620800 8.42501000
12.64020000 4.78066500 7.50910000
12.39413000 5.55050200 7.72491000
12.31726000 7.15930800 8.03944500
12.95532000 8.80552700 7.85162900
13.59120000 5.75511600 7.31476000
9.72379200 11.71174000 9.21129900
10.21518000 12.23884000 9.27278200
10.79532000 11.75394000 9.05503600
12.21908000 10.32276000 8.32208100
13.80321000 9.59148200 7.28720700
9.09309300 -23.56366900 -9.08487100
9.31373100 -21.49308000 -9.87325500
9.56037700 -23.29620900 -9.17350300
9.63616400 -21.52714900 -9.71737100
9.40640500 -22.41350900 -9.69472700
10.06009000 -22.95348000 -9.12703900
10.48049000 -22.29663100 -9.09627700
10.44284000 -22.64584900 -9.03853800
11.32553000 -22.28916000 -8.47555000
11.28162000 -22.64102000 -8.41811600
11.82604000 -22.32447100 -7.93587700
10.47425000 -18.96569100 -9.33431400
11.19179000 -20.26308100 -8.71206100
11.57069000 -21.18096900 -8.33364300
11.67411000 -18.62751000 -8.21688300
12.07497000 -21.13238900 -7.72371900
11.91555000 -17.16859100 -7.92190000
11.98695000 -19.55089000 -7.77633100
12.79865000 -19.77006000 -6.11336700
12.43748000 -21.56864000 -7.15328400
12.34500000 -17.19585000 -6.89284700
12.28827000 -13.32480000 -5.38726200
12.24320000 -12.77549000 -5.48299600
12.20799000 -16.09427100 -7.10207600
12.29287000 -15.74649000 -6.28231500
12.44745000 -15.87826000 -5.77696900
12.51580000 -17.32774900 -6.37655100
12.96553000 -13.81482000 -2.55523100
12.96591000 -17.10679100 -5.28537000
12.99153000 -15.30109000 -4.51987500
12.42911000 -11.15937000 -0.13538100
12.41732000 -12.74606000 -0.93006300
12.59470000 -13.77169000 -4.77007300
12.50264000 -12.02383000 -0.66730500
12.23324000 -14.94928000 -1.70096000
13.18565000 -14.27383000 -3.01752300
12.99132000 -11.12330000 -1.11633300
13.09698000 -10.06951000 -1.01855600
13.24288000 -11.59602000 -2.74985600
13.06298000 -11.66214000 -1.58931100
12.43910000 -10.96031000 0.39233200
12.51299000 -10.36534000 0.42221300
12.52084000 -9.88421200 0.22442500
12.65326000 -10.19950000 -0.16285800
12.72040000 -7.93876800 0.87046200
12.63275000 -8.57368700 2.11288900
12.62230000 -9.13372300 1.13258700
12.69370000 -7.86973500 1.50466900
12.64004000 -9.23522800 0.60756100
13.04435000 -6.87946500 2.90115500
12.90235000 -9.03582800 -0.27733400
13.07861000 -5.60754700 0.34156700
12.99300000 -6.99515000 0.36386500
13.09117000 -7.18825600 -0.37234900
13.18705000 -8.76631100 -1.62760900
12.67791000 -4.03729800 4.45946600
12.94787000 -4.06632300 3.65504700
13.03962000 -5.11213500 1.29849300
12.85060000 -6.01858200 1.67475500
13.05869000 -4.55453100 3.07164500
12.81672000 -6.89816400 1.12306000
12.66568000 -8.06827100 3.57121700
13.02576000 -6.59817400 2.51120200
13.02163000 -5.30657100 3.44751600
13.12738000 -4.74897500 2.05839700
13.09850000 -4.79864600 2.62328100
13.18907000 -3.60784700 3.48646000
13.25931000 -4.08437600 2.95678900
13.05345000 -5.49106200 2.70975300
13.11536000 -6.08257300 3.63928100
11.72466000 -0.37952300 6.57843300
11.73996000 -2.69442900 6.43517900
11.41492000 -2.27231900 6.96034700
12.07607000 -3.35265100 5.90231600
12.00496000 -0.24554700 6.17682100
12.49978000 -3.39709000 4.89502100
12.10464000 -1.93648400 5.76642900
12.71512000 -4.64872400 4.73014900
12.43965000 -1.62889100 5.29841800
12.59217000 -2.95933400 4.71471100
12.51930000 -0.98650000 5.40599500
12.97222000 -0.27509700 5.54716000
13.07198000 -2.62233400 4.22232800
12.98407000 -1.35612600 4.98842700
13.31530000 -3.11410500 3.72283500
13.39063000 -2.31043000 4.25478500
9.84128500 1.41078000 8.64542200
10.00460000 3.23987300 8.46153900
10.79038000 -0.11498000 7.68477600
10.91679000 3.11848600 7.47616700
10.86312000 -1.67367600 7.67905200
11.29329000 3.26579300 7.15664100
11.38715000 1.62274700 6.95027300
11.72558000 2.46273400 6.79369400
11.94885000 0.48912100 6.35159400
12.19874000 1.15305700 6.32281200
12.49969000 0.49288800 6.02457300
12.24941000 0.27204300 6.03298200
12.35950000 1.75986900 6.46575700
13.41072000 1.39640600 6.42714100
12.87101000 1.02069900 6.21373300
13.02660000 3.55532700 7.11445900
10.38272000 5.23883100 8.00587900
9.27040800 -25.04194100 -6.20330000
9.00372000 -23.78820000 -8.56278000
9.20164000 -25.84056100 -6.27067500
9.19366400 -28.23176000 -6.39730300
9.22451300 -23.91346900 -7.41527700
9.88052800 -23.71521900 -7.91572200
9.64662600 -24.63257000 -5.93851500
10.10522000 -23.94338000 -5.95820800
9.27666200 -24.44076900 -6.33636900
9.56633400 -23.58723100 -8.78125800
9.53715000 -25.52920000 -5.94252600
10.84406000 -23.48801000 -6.97991600
10.01871000 -24.47291000 -5.51964200
10.51525000 -23.66803000 -5.55707600
10.24031000 -23.25111000 -8.77919800
10.86985000 -23.43228900 -6.01585700
10.70482000 -23.52669000 -5.02799400
10.91720000 -23.27096000 -8.08040500
10.70510000 -23.78747900 -4.54065000
10.22794000 -23.71291900 -6.44557000
11.21717000 -23.04611000 -4.99501900
11.70161000 -23.11657000 -6.66112100
11.35024000 -23.01939000 -8.06997100
11.40957000 -23.19994900 -7.43802600
11.86198000 -22.62900000 -7.72786900
11.99615000 -22.76946100 -7.18445300
12.09203000 -22.57934000 -5.48210000
11.93803000 -22.89698000 -6.74619000
12.14737000 -22.22179000 -7.48934400
12.32569000 -22.37084000 -6.97072800
12.51898000 -22.25542100 -6.39754700
12.73853000 -21.91011000 -5.75795300
11.16917000 -23.14776000 -3.71753100
11.27315000 -22.86273000 -4.36644300
11.41651000 -22.47394000 -3.52117600
11.74330000 -21.65914000 -3.23181500
11.69188000 -21.81045900 -2.55176300
11.81158000 -21.34575100 -2.52476900
11.88138000 -20.98261100 -2.01573600
11.90943000 -20.34995100 -2.10346800
11.65002000 -22.29056000 -4.08601800
12.14511000 -21.49721900 -3.89719500
12.09386000 -20.42111000 -2.55116700
12.74903000 -20.08227900 -3.32779500
12.76484000 -21.05686000 -4.30785300
12.69262000 -19.13900900 -2.74245500
12.64066000 -21.79763000 -5.19196800
