1.54031600 10.63656200 -0.33233800
1.12051100 10.66157300 -0.27146000
0.89821400 10.46610600 -0.33244100
0.86645300 11.03359300 -0.24174700
0.66471300 10.66821700 -0.23622900
2.71619600 9.24835700 -0.63673500
2.20616300 9.51446900 -0.62832100
2.40044600 9.80004300 -0.55440800
3.49277000 8.54860600 -0.48162300
3.06526000 8.76500300 -0.63417600
3.19639800 8.99950000 -0.54755400
3.97858200 8.05191500 -0.43634600
3.68878800 8.19243800 -0.50383900
3.83171600 8.39721200 -0.40967600
4.10274800 7.74524400 -0.55077500
4.32674100 7.70909100 -0.42134000
4.24596000 8.01987200 -0.36124500
4.69711000 7.29094000 -0.53251300
4.61261100 7.51921200 -0.43435000
4.89257400 7.39743600 -0.44000100
4.82620100 7.62826100 -0.37374500
5.18898900 7.90861700 -0.53180800
5.20269200 7.73151500 -0.44667100
5.12737600 7.91191100 -0.42984200
-1.18133000 11.78213200 -0.29502400
-1.54808600 11.88020700 -0.62654800
-1.50448800 11.66796500 -0.38537100
-1.70703200 7.83891700 -0.18438100
-1.28944400 7.57378700 0.12068200
-1.98644100 7.49822800 -0.51652000
-1.63598700 7.23910100 -0.15038200
-1.33986000 8.17597600 0.03558100
-2.00838300 8.12719400 -0.52921800
-1.23292900 6.97151400 0.05795100
-1.49872100 6.77198100 -0.12468100
-1.81528500 6.97661600 -0.30103800
-2.12843200 6.90353900 -0.58501900
-1.95796100 6.82862100 -0.34886900
-1.96160600 6.62484600 -0.35323800
-1.72628200 6.53573800 -0.19770000
-1.47769400 6.06958800 -0.23129300
-1.16798400 5.83947300 -0.21086300
-1.75079200 6.12292500 -0.29291500
-1.52194500 5.85598000 -0.22950000
-0.16831100 4.10955700 -0.51834900
-0.39314800 4.30136800 -0.31807000
0.07866000 4.33636700 -0.38016000
-0.13766700 4.54456800 -0.17960700
-0.78273500 5.59860600 -0.08063800
-0.40910600 5.83541100 -0.02946500
-0.81856600 5.92892300 -0.12294800
-1.19743800 6.06903900 -0.15873300
-0.47846200 6.05406900 -0.02348700
-0.87601600 6.12175900 -0.03872900
-0.53106100 7.01049100 0.23440800
-0.88383600 6.69004200 0.06875500
-0.90442900 7.30723100 0.25919600
-0.57349700 7.65242400 0.32325400
-0.94935600 7.90816900 0.23872900
-0.61246200 8.22911300 0.23603900
-0.99705400 8.49633400 0.11909800
-0.65156100 8.79555200 0.11998000
-1.05866000 9.08758000 0.04468600
-0.70515700 9.37283800 0.13999900
-1.17404200 9.77116000 0.07867600
-1.50731200 10.26928000 -0.04765500
-0.73080200 10.20648900 0.18211200
-1.05142100 10.65699300 0.08664900
-0.93961700 12.03072800 -0.30362600
-0.75864700 12.22248000 -0.31673200
-0.94442000 12.30055200 -0.28871300
0.95725000 6.69983100 -0.35969800
0.90498300 6.79522000 -0.35576100
1.17747500 6.84156100 -0.45244300
1.23271200 6.97717300 -0.49605400
0.90213800 7.58122600 -0.24204400
0.81853200 7.33848400 -0.21870400
0.69768300 7.36084200 -0.04060100
0.46195100 7.50079600 0.13009100
0.12340600 7.72633600 0.23689500
0.71382600 7.77978600 -0.03399300
0.42897500 8.02625300 0.09428000
0.09573200 8.27901600 0.13659400
0.64927900 8.31218500 -0.10988200
0.37174700 8.56187000 -0.03371500
0.06273400 8.81049300 0.01501100
0.56033900 8.82013800 -0.20185800
0.32509800 9.06733800 -0.09626800
0.04365600 9.33454900 0.05428700
0.52699100 9.31891500 -0.21108000
0.35877900 9.58832000 -0.05621700
0.41727100 10.08143800 -0.10148700
0.02154200 10.29213600 0.09983700
0.31158500 10.91679800 -0.08411200
-0.25035200 12.15810600 -0.42943000
-0.41433000 12.28904000 -0.37365500
-0.14549700 12.36609300 -0.57945800
-0.29429700 12.46609500 -0.43739500
-4.51713500 11.27738400 -1.54867900
-4.13057900 11.19753000 -1.37503900
-4.18975000 11.07937200 -1.62690500
-3.78955000 10.94055100 -1.35983900
-3.30863400 10.83694600 -1.08038700
-3.47474700 10.77332600 -1.36826900
-3.14690300 10.66434700 -1.03691600
-4.85447000 11.85000400 -1.73207500
-4.79624300 11.88981400 -1.58912700
-4.77885900 11.56182400 -1.60224100
-4.38643600 14.50241400 -1.52820500
-4.51215700 14.65214800 -1.61164300
-4.72700900 14.29716800 -1.62011300
-4.61095100 13.60975600 -1.53667500
-4.75545900 12.67377400 -1.59129400
-2.58540100 10.42048000 -0.63423300
-2.40193200 10.48997800 -0.51735300
-2.44931900 10.28845400 -0.74472500
-2.32773900 10.24369000 -0.51453100
2.07003700 10.38582600 -0.46958800
1.64615600 11.00372100 -0.41150000
1.15930800 11.16342000 -0.27480700
0.82986400 11.52904500 -0.32983600
0.57182200 11.29328400 -0.25124000
3.01787600 9.70955100 -0.76630300
2.57147300 10.05111000 -0.63196000
2.69071900 10.22962400 -0.84413300
2.21894400 10.65664500 -0.60258500
3.70237700 8.98397500 -0.59276300
3.32336100 9.22732700 -0.61589800
3.40231800 9.38374000 -0.83273500
4.20779200 8.42985400 -0.48996800
3.93780500 8.59346900 -0.47893200
3.99595100 8.71602500 -0.62950800
4.47017900 8.03589600 -0.30738200
4.37489300 8.23075700 -0.37904000
4.12134400 8.28176200 -0.40072700
5.01122500 7.55407900 -0.41199900
4.98281500 7.68970000 -0.33668200
5.10146600 7.64797800 -0.41190900
5.04374700 7.77832500 -0.35038500
-2.01692500 10.17497700 -0.31531100
-2.29177300 9.98214900 -0.65908200
-2.04961200 9.78558800 -0.36251100
-0.10738400 11.19678500 -0.03255900
-0.38281500 10.74619500 0.12406900
-0.48126600 11.49014100 -0.09925100
-0.73243600 11.11419700 0.02705900
0.18337500 11.54244100 -0.25514200
-4.12289500 14.49820800 -1.51506500
-3.91325100 14.41993700 -1.53496300
-3.90308400 14.62005400 -1.52152500
-4.23813200 15.16818400 -1.71329000
-3.99170400 15.04497900 -1.70002800
-4.44283900 14.94608600 -1.69634900
-4.24049900 11.80527900 -1.42977900
-3.98540400 11.41197900 -1.28286200
-3.39891600 11.40359100 -1.08185800
-3.03139700 11.16643200 -0.86970400
-2.51703900 11.21163900 -0.62120300
-4.44291400 13.08335600 -1.50941700
-4.56439600 12.22745400 -1.48808600
-4.39001600 14.10691500 -1.51506500
-2.27353700 10.98208000 -0.53090600
-1.95199600 11.18131000 -0.44863900
-1.60874300 11.38893900 -0.32856000
-1.71736400 10.79602000 -0.24684400
-1.31195200 11.06664400 -0.09641000
1.18966700 11.59295300 -0.42616600
0.81286200 11.93294000 -0.58028300
0.49766700 11.81237800 -0.42245300
-0.34778400 11.85532400 -0.25677900
-0.56474500 12.07844100 -0.29979300
-0.74692200 11.79406900 -0.20896500
0.18316700 12.13993100 -0.53871900
-0.09591300 11.87693700 -0.35260600
-3.77677300 14.29936500 -1.60903300
-3.77849200 14.52317600 -1.56149100
-3.69049600 14.30439900 -1.73649600
-3.68504200 14.55569000 -1.61773100
-3.77740300 14.70071400 -1.57195300
-3.88441300 14.79168800 -1.55358000
-3.82875200 15.02459700 -1.73921700
-3.75623600 14.85566400 -1.62201100
-3.88751800 14.90296400 -1.63423700
-0.02401200 5.72304700 -0.01393800
0.29851800 6.05335000 -0.09797700
-0.06433800 6.06670700 -0.04718200
0.23622400 6.30846900 -0.04882100
-0.15252400 6.21701400 0.06474100
0.21610500 7.19490000 0.20323000
-0.09187400 6.83255500 0.16486500
-0.19356200 7.40036700 0.30353900
-0.23466700 7.97357100 0.27127300
-0.26426700 8.53325400 0.14748400
-0.29445400 9.07319000 0.07635900
-0.32111500 9.70650300 0.18992700
0.63060000 9.92880400 -0.27827300
0.80286500 10.15278300 -0.42868500
0.95681100 10.15902600 -0.56691600
1.08588700 10.25693200 -0.42232600
1.37112500 10.00527500 -0.61041300
1.73257300 9.78215800 -0.58444200
2.09965000 9.38421700 -0.84049100
2.57829700 9.04061900 -0.77749600
2.97316000 8.63661500 -0.83212700
3.37650500 8.38340100 -0.60260800
3.64561700 8.12989700 -0.63190500
-2.08370500 9.44580600 -0.60237600
-2.13937600 10.64476200 -0.44292500
-2.57411900 10.75803500 -0.60706300
-2.85866000 10.64425100 -0.78995200
-3.09165000 10.97702400 -0.91463600
-3.62434900 11.16654700 -1.17455200
-4.43625800 11.43022900 -1.39977700
-4.63655200 11.65894100 -1.46731200
-4.69976900 11.40246600 -1.74044700
-4.64958200 11.45801800 -1.48206100
-0.58416100 12.37949800 -0.29326700
-0.99934300 11.45106500 -0.12487800
1.09296900 7.25561600 -0.52930500
0.67439800 6.73641400 -0.20156500
0.81855300 7.12145500 -0.17217400
0.30038800 6.55700700 0.04901800
1.20827400 7.59421500 -0.51835100
0.82405500 7.20778000 -0.23089000
0.41168600 6.79207700 0.02896800
-0.04428400 6.49078800 0.14996000
-0.04217200 6.57651400 0.02370200
-0.48891300 6.39222100 0.04484400
-0.86657900 6.33871000 0.04192400
-0.87511000 6.40262900 -0.09033500
-1.19760200 6.43027500 -0.09381900
-1.47908300 6.48832000 -0.10214200
-1.47645200 6.57630700 -0.17285100
-1.73463600 6.65556800 -0.16820700
-2.11468800 7.15795600 -0.52567800
-1.94597400 6.92283100 -0.35340700
-1.71307100 6.77905900 -0.21755800
-1.20218700 6.56851000 -0.08918200
-0.50066500 6.54090700 0.05213700
0.35047400 6.88859100 0.05994100
0.54890900 7.14500600 0.02959100
0.77489300 7.20727800 -0.21929300
1.00723000 7.82357000 -0.54028400
0.86271800 8.06621400 -0.27224100
0.90980100 8.33876800 -0.55087400
0.76225100 8.58217900 -0.33358100
0.79265700 8.82780500 -0.56358100
0.66949400 9.06457600 -0.36152400
0.74189700 9.30774600 -0.56618100
0.68701400 9.58343100 -0.37198200
-2.13713800 6.66744800 -0.58274600
-1.98076700 6.41180700 -0.37956600
-1.73058000 6.33002000 -0.23957100
-0.50666500 6.24302700 0.07202600
-1.20948100 6.27854200 -0.06842200
0.57150100 6.43298100 -0.19449500
0.78873200 9.83140500 -0.56844000
0.56727000 6.24113200 -0.17451400
0.70419500 6.13803000 -0.19416000
0.53754900 5.99103200 -0.14675100
0.51462400 5.68157900 -0.12122700
0.57241800 5.33448600 -0.11798700
0.23882400 5.42840600 -0.06836100
0.36222600 5.06882200 -0.12555100
1.45717300 6.61423700 -0.44279100
1.15530200 6.66878000 -0.39783700
1.41712600 6.81109000 -0.50368200
0.78240700 6.43185300 -0.26279700
1.03652200 6.42388900 -0.31173900
1.58606500 4.12182500 -0.34928200
1.16841900 4.03892400 -0.31195300
1.96745700 4.08290400 -0.31385600
1.61991000 3.98983400 -0.27797200
2.61749200 5.67267200 -0.28106600
2.59927800 5.61465800 -0.18751600
2.56108900 5.95497400 -0.24419300
2.45333000 6.19206400 -0.32552800
2.25018000 6.27955900 -0.25856800
2.41987500 6.10046100 -0.18684700
2.03122700 6.40835000 -0.34704100
1.79530700 6.35522700 -0.27556100
2.01520800 6.28794500 -0.19934400
1.57749500 6.40627100 -0.32709100
1.40048300 6.28614800 -0.22627900
1.60171200 6.29227700 -0.18641400
1.15019500 6.22902700 -0.23624700
1.01249300 6.05847500 -0.15822900
1.21430500 6.12727300 -0.14471300
0.88638900 6.05041500 -0.16428600
0.92348400 5.93523600 -0.12049300
0.98387800 5.97515800 -0.10041000
0.85707700 5.76639500 -0.14136800
0.89555300 5.50190900 -0.12141900
0.96862000 5.72854100 -0.10197500
0.76404800 5.27722800 -0.10805700
0.73075200 5.03304400 -0.08318500
0.87192800 5.25098700 -0.08354700
0.58206000 4.75204700 -0.16166000
0.62375700 4.70598700 -0.13640600
1.73664100 11.29508700 -0.63919500
2.88043800 9.49928000 -0.62465800
3.60802500 8.78610300 -0.47172000
4.92526600 7.70147200 -0.33970300
4.92365800 7.80407300 -0.32119000
4.94509700 7.92793700 -0.34218500
4.84141900 8.06715600 -0.36338200
4.83526400 7.93594700 -0.33468100
4.53641200 7.80916100 -0.35125900
4.40509800 7.44581000 -0.55077600
4.55922000 8.26534400 -0.39816200
4.41453200 8.38328600 -0.55433500
4.85295000 8.25430100 -0.55294700
4.98583000 8.08153000 -0.43094100
4.78499700 8.21141700 -0.43789400
5.14682900 7.58324000 -0.48608700
4.98372300 7.38783900 -0.48611000
4.69648200 8.09478400 -0.32721900
4.64298400 7.94861200 -0.31145800
4.79838300 7.80172000 -0.33894900
-1.33258900 4.95795900 -0.08915900
-1.72789100 5.32095200 0.08516400
-1.11071600 5.27160700 -0.12555600
-1.57914800 5.60776600 -0.08645500
-2.19467300 5.49740300 0.47866800
-2.60562100 5.72614900 0.33063400
-2.40911700 5.89589700 0.34751900
-2.76194800 6.04378800 0.17797700
-2.97576700 6.29949300 -0.27860000
-2.93268600 6.16492700 -0.00959900
-3.15167500 6.20039800 -0.52342300
-3.12624400 6.06265700 -0.18483200
-1.98625800 4.98610400 0.49122300
-1.69256200 4.75531300 0.48377000
-1.87632100 5.28958300 0.52603000
-1.52433200 4.26912200 -0.02424400
-1.20233800 3.99665600 -0.51834700
-1.37056800 4.48284600 -0.01033400
-2.99743500 5.73651500 -0.26781400
-2.78978600 5.68360300 0.03652300
-2.45633000 5.24206800 0.04523600
-2.25402400 5.23332500 0.28968400
-2.03481100 4.87163600 0.14330500
-1.80199600 4.62889300 0.24129500
-1.58157700 4.30793000 -0.18634200
-1.21028200 4.30948100 -0.31522100
-1.47198700 4.68429200 0.05762800
-1.65893500 5.01589300 0.22184800
-2.07898700 5.63649000 0.25431700
-2.31170700 5.97110700 -0.16306800
-2.63344000 6.11928800 -0.13546300
-2.74932400 6.16569400 -0.52688900
-2.84051700 6.20598400 -0.28736000
-2.79384300 6.22173600 0.05090100
-2.94166300 6.22376200 -0.55520100
-2.91578100 5.42903200 -0.28441100
-3.21736700 5.78363000 -0.51834500
1.32681100 4.15724400 -0.01685600
1.27236800 4.14109200 0.42137500
1.62883500 3.99520700 0.39865000
1.51496600 3.96074600 0.79504800
1.81011800 4.03894700 -0.02141500
2.16899600 3.99976200 0.39377800
1.96802900 3.87385200 0.75667300
2.36611400 4.29277000 -0.01163400
2.62186100 4.42523100 0.42582000
2.47630700 4.07197100 0.78428200
2.66480600 4.82418400 0.00884700
2.79102700 4.88348200 0.46559900
2.80719500 4.47291700 0.87760400
2.69545800 5.34863400 0.02905900
2.72394200 5.36760000 0.48648500
2.86887900 4.90299000 0.94571700
2.51643000 5.79089500 0.04610400
2.41459400 5.71832800 0.49291600
2.66803400 5.34389500 0.95545700
2.13372100 5.98441200 0.05356300
2.01535800 5.80150200 0.48624900
2.29459100 5.57030500 0.94514500
1.75536800 5.99129200 0.06935000
1.68917700 5.73785000 0.51898700
1.93797600 5.56945900 0.94783100
1.42681200 5.84866000 0.10026300
1.36007300 5.53937300 0.59018200
1.59379900 5.40840300 1.02963400
1.21137600 5.67176100 0.12072800
1.24757900 5.41695900 0.60440600
1.36632900 5.27240900 1.05793400
1.10121200 5.51974500 0.12244900
1.13168700 5.20139700 0.56627300
1.28431500 5.11875800 1.06755200
0.99276300 5.18286200 0.09290500
1.09135000 4.76742500 0.50855600
1.21478200 4.80384200 0.99813800
0.94591900 4.68118200 0.03708700
1.13297100 4.35143200 0.45312800
1.25280500 4.38653300 0.91334000
1.04518900 4.33270800 -0.00258700
1.30443200 4.12393400 0.81617300
2.23863300 3.27962300 2.27300800
2.06358300 3.54517200 2.32425600
2.44397700 3.53452800 2.27765300
2.23929400 3.76003000 2.37478500
2.87200100 3.85911300 1.99480900
2.77378600 3.88769600 2.22623100
2.87991700 4.15379200 2.12944700
1.93915200 3.26381600 2.22659500
1.82975800 3.53546200 2.20898700
1.90503200 3.77026400 2.34250100
2.79534500 4.90017300 1.85482800
2.84243000 4.64655300 2.05174300
2.68468200 4.84042900 2.05086900
2.53149300 4.66293000 2.20268500
2.45443100 5.06798800 1.87028200
2.29311400 4.87348700 2.12475400
2.13724100 4.66281000 2.28268900
2.07739700 5.07260400 1.88459400
1.95848500 4.83635700 2.14217700
1.79959700 4.61951600 2.23049100
1.76071100 4.88479100 1.95583500
2.93616400 4.47176400 1.87176100
2.74205700 4.41181200 2.20705200
2.59125900 4.15000000 2.35203500
2.35998500 4.41841200 2.36647600
2.19526700 4.17752800 2.44302600
1.98215900 4.42101600 2.37175300
1.84220200 4.18695300 2.36985100
1.66532800 4.39563800 2.22337600
1.60539200 4.17525400 2.13782000
1.50264500 4.58157400 1.95687500
1.46541600 4.40925700 1.89356500
2.63467100 3.67666200 2.24719500
2.42753200 3.93530700 2.39220400
2.02760600 3.97971000 2.42084900
1.75530500 3.96775000 2.28430200
1.71493900 3.72593100 2.12952300
1.60188300 3.89824900 1.95935000
2.46066700 0.21133800 3.20269300
2.33102800 0.01876000 3.14438500
2.24204700 0.23255300 3.14196400
2.12000700 0.02808400 3.06764300
2.85241800 0.18678800 3.22389500
2.63421000 0.01025400 3.17899800
2.58628000 0.39131100 3.13992700
3.10893200 0.16836500 2.80331100
2.95602200 0.03898700 2.95373900
3.00532900 0.31616600 3.07346600
2.86477900 4.89769100 1.45296800
2.92587700 4.43509700 1.40862900
2.57809900 5.24853900 1.45325400
2.18275700 5.33181800 1.44349300
1.85718200 5.25729300 1.47705300
1.52747300 5.02637900 1.55650100
1.44742500 4.94218100 1.56677300
1.34895200 4.74138600 1.51538100
1.36353100 4.39189200 1.43867900
1.40764300 4.06212500 1.20367400
1.50377200 3.99782500 1.63954400
2.31902800 4.12111100 -0.01672300
2.62111300 4.35220100 0.00060200
2.66256400 4.58311000 0.00851900
1.74176400 3.29202800 2.04746300
1.81101400 2.92270300 2.10957300
1.63555300 2.98991100 1.86134300
1.67466600 2.53972800 1.98074400
1.59189900 3.16138300 1.40015500
1.62139400 3.35130300 1.70633000
1.55756400 2.79827100 1.55102100
1.66893400 3.73814800 1.30230700
1.59969600 3.65920600 1.51841600
1.83863000 3.56974900 1.27378200
1.67491700 3.41282500 1.33470400
2.07369600 3.69503600 1.18557200
2.29739100 3.59818600 1.26824300
2.02403700 3.40174900 1.22728900
2.54594400 3.83572200 1.27179400
2.66994500 3.72788600 1.47208000
2.43853200 3.44086000 1.30085900
2.86329100 4.04415600 1.60839800
2.73187000 3.57864000 1.77613000
2.73750200 3.48331500 2.04609500
2.59944100 3.30108200 2.14042300
2.39960200 2.94839700 2.19379300
2.04576400 2.90812700 2.22517600
2.18838200 2.52780100 2.19290700
1.87749300 2.51549000 2.14670800
1.59840100 1.29797300 1.80107800
1.62921900 1.72309000 1.92535700
1.63462100 0.88699400 1.91663000
1.69437600 1.28674900 1.99540600
1.56899600 1.30523400 1.48056400
1.55043700 1.73853700 1.61537400
1.57310900 0.87690300 1.63626400
1.71175700 1.28761100 1.29902300
1.60436000 1.73946200 1.33003400
1.59685500 0.85385500 1.35503300
2.13741600 1.29280900 1.30027800
1.93547600 1.73122600 1.24867300
1.89973500 0.84321200 1.25977600
2.38710900 1.32923000 1.47388200
2.31665500 1.75224100 1.32018300
2.26383700 0.87362800 1.34932900
2.45010900 1.34736200 1.86068600
2.49112500 1.76491800 1.65749300
2.41648200 0.95930900 1.63678500
2.25974500 1.31560800 2.08036800
2.43341300 1.74560500 2.02507100
2.35239200 0.99501100 1.98416300
1.91311900 1.27987600 2.09392200
2.12710700 1.72187600 2.12367600
2.05308400 0.93243000 2.13040300
1.80596400 1.71474000 2.07905700
1.76665800 0.89263000 2.07216000
1.65539700 0.58691900 2.07102900
1.55570400 0.52499800 1.75533100
1.61963800 0.31451200 2.08257300
1.52391100 0.52615500 1.40509700
1.45381600 0.20630300 1.47714000
1.68265200 0.50658400 1.20756700
1.52990600 0.22978000 1.17913100
2.10862500 0.53227500 1.20933700
1.88594700 0.24161000 1.08141500
2.34825500 0.60480400 1.39390300
2.24732900 0.29648100 1.17398200
2.44018500 0.78474400 1.77053300
2.46471900 0.52817300 1.51889700
2.21367000 0.76521800 2.16229000
2.45569800 0.65639700 2.13767000
1.87008500 0.67254000 2.20417500
2.11461000 0.59885000 2.42630000
1.79669900 0.47275800 2.36349700
1.88066600 0.32364800 2.64284000
1.75707700 0.10235800 2.34883000
2.03990700 0.21897700 2.94344200
1.63109100 0.16496300 1.81365300
1.94843500 0.10310600 2.39219100
2.21958900 0.09983600 2.44062100
1.83923200 0.17013800 1.80873200
2.59451400 0.09812500 2.43575600
2.19679700 0.16808400 1.83107400
2.90532300 0.13329400 2.24783600
2.56852600 0.18156200 1.83571600
2.80627800 0.43601500 2.34053400
2.66478400 0.39541300 1.81998300
2.54117700 0.50435900 2.73817200
2.16104200 0.47809000 2.78645200
2.19131700 0.37638500 3.06113300
1.57406100 0.21148400 1.48137300
1.81929300 0.20313300 1.40816300
2.24488600 0.22690900 1.42690000
2.53164600 0.25543400 1.51645700
1.78499300 3.17552700 1.18007400
1.62927700 2.91960600 1.18047500
2.22649100 3.18229500 1.17586400
1.98116300 2.91263400 1.08774900
2.53097600 3.18170900 1.36391200
2.37709100 2.93437900 1.15694900
1.67537500 3.51885100 1.94874000
2.52020600 2.55707400 2.07922200
2.65615800 2.99957900 1.93460400
2.67758100 3.35469600 1.72382800
2.58807200 2.81526700 1.56889300
1.61805100 3.59865000 1.74237100
2.72324800 4.12705600 1.16515100
2.29134000 3.83645200 1.03564600
1.79576800 3.80638300 1.04309600
1.46856400 3.93194700 1.13734500
-1.42744600 12.44076000 -0.42098500
-1.12390300 12.38597600 -0.21825500
-1.32316000 12.51157600 -0.18014100
-0.42374800 12.53511100 -0.24557500
-0.20453800 12.65839800 -0.41676300
-0.28714600 12.69706000 -0.22939100
-0.76580500 12.44948600 -0.16387900
-0.60278000 12.58265900 -0.07547400
-0.95622000 12.51062400 -0.04583500
-1.32459600 12.80067600 -0.00810300
-1.35195100 12.68043000 -0.04527000
-1.43966400 12.82491300 -0.05150700
0.03348400 13.55697600 -0.36997700
-0.13058500 13.30030200 -0.22305500
-0.01838600 13.79530600 -0.24859600
-0.18649500 13.50968000 -0.12667500
-1.73781900 13.75856700 0.00017200
-1.89784100 13.75719200 -0.08602900
-1.85161500 13.86899200 -0.02954300
0.10156900 14.09152500 -0.43465600
0.02992100 14.29146400 -0.31474400
-0.05198800 14.03931900 -0.18786700
-0.77350500 14.82426800 0.01446400
-0.90995100 14.56168700 0.00615000
-0.95002300 15.05191800 -0.00192500
-1.11127900 14.75282600 0.01278900
-1.12895800 14.04730600 0.01924200
-1.02440000 13.87398300 0.01031000
-1.21073500 13.97001200 0.10329800
-1.07233400 13.77795000 0.09943000
-1.38691400 13.48855000 0.12684400
-1.42297400 13.53456600 0.18797600
-1.33945500 13.54677500 0.18231600
-1.91632700 14.68527700 -0.10696600
-2.13365400 14.42545500 -0.19843700
-1.95659900 14.96775900 -0.19518000
-2.20576500 14.65467300 -0.29400300
-1.30119800 14.48015200 0.00915900
-1.39708600 15.00093000 -0.02853900
-1.55862000 14.69681400 -0.01629900
-1.16684200 14.30236400 0.01384600
-1.30630100 14.14781700 0.05321900
-1.42329500 14.28641700 0.01320700
-1.29332300 13.81830200 0.18432600
-1.38028900 13.94496700 0.10449600
-0.60061100 14.61750200 -0.01486700
-0.47278900 14.84872800 -0.04463100
-0.63678200 15.10162100 -0.03471100
-1.25622900 13.51663900 0.13030800
-1.18269600 13.56860100 0.18762100
-1.28013900 13.60933100 0.25262100
-1.05219800 13.52750300 0.11698100
-1.04004800 13.57418100 0.17816300
-1.01376900 13.98211100 -0.03647700
-0.92026200 13.85821400 -0.02264400
-0.25808400 13.74152100 -0.06250700
-0.37545200 13.91025600 -0.03604200
-0.17992200 13.97587300 -0.10743100
-0.30368900 14.06432500 -0.07162800
-1.05280400 14.10053600 -0.04731100
-1.11591600 14.19643700 -0.02449500
-0.45320800 14.46223300 -0.06353400
-0.60562000 14.36725600 -0.05448500
-0.76213200 14.45522000 -0.02423000
-0.72251700 14.24532000 -0.03443200
-0.56420300 14.17359000 -0.00933400
-0.46896200 14.27050900 -0.05084100
-0.35173300 14.33417100 -0.09020400
-0.25482600 14.38198400 -0.10964200
-0.34111300 14.59130600 -0.08065600
-1.01419500 14.34281200 -0.03538700
-0.88963000 14.29783500 -0.06120600
-1.62898400 13.88353300 0.00119500
-1.61259000 13.65088700 0.02726400
-1.51223300 13.81384900 0.03139600
-1.54700800 14.31838100 -0.03014000
-1.64633400 14.26000900 -0.07824300
-1.64884000 14.48186500 -0.02959800
-1.76680400 14.37929100 -0.08841800
-2.16291400 13.94308100 -0.22820800
-2.07882400 14.03391800 -0.15982600
-2.06760600 13.86345300 -0.17040000
-1.96850400 13.95822400 -0.08865700
-1.75206900 13.97257700 -0.01362100
-1.63983400 14.08440800 -0.03587000
-1.53765900 14.02475300 -0.02419000
-1.47404800 14.18358400 -0.01576400
-1.43470100 13.74363100 0.12170500
-1.45575500 14.01051200 0.01557000
-1.88283500 14.27028300 -0.14133900
-2.02516500 14.33382600 -0.16570300
-1.89321000 14.48462300 -0.09233500
-2.10213800 14.19542200 -0.20236700
-2.21470000 14.19045000 -0.26927100
-2.18731000 13.80864300 -0.35122300
-2.16796200 14.04728600 -0.23574200
-2.24144200 13.94253900 -0.38614000
-1.54772100 14.14744600 -0.04865400
-1.75842900 14.17611100 -0.08066800
-1.86553700 14.06417600 -0.06428100
-1.98237500 14.14665000 -0.14493700
-0.49850400 14.00826300 -0.01635800
-0.64549500 14.07172400 -0.00685900
-0.43289800 14.11910700 -0.03020700
-0.95232500 14.05653000 -0.05977800
-0.97702200 14.15474100 -0.07653400
-0.83473900 14.13292300 -0.04123800
-0.78631200 13.97117800 -0.02607200
-0.23149600 14.16317800 -0.10342200
-0.34756600 14.19325100 -0.06090700
-0.25577400 14.25745700 -0.10435800
-0.27744100 14.86761000 -0.15560700
-0.40979000 15.13509200 -0.11331700
-1.16137600 13.45191700 0.14588600
-1.26613700 13.43904000 0.14243700
-1.16071400 12.84360200 0.02649300
-0.98607200 12.98750600 0.05317500
-1.00657100 12.71931600 0.03396300
-0.83439600 12.90134800 0.04483600
-0.53952700 13.37209900 0.01439900
-0.58866900 13.21353300 0.03694300
-0.67893600 13.34313500 0.05742400
-1.03095300 13.36762000 0.15803900
-0.90139700 13.42294500 0.11601400
-1.56957500 13.40589500 0.06427100
-1.43546800 13.37806400 0.10978000
-1.61398900 13.23640600 0.00491300
-1.48777500 13.25383700 0.05866700
-0.80001000 13.18618000 0.10520000
-0.90806000 13.17574800 0.10457000
-0.80281100 13.22912300 0.07658900
-0.90535700 13.30798200 0.16574700
-1.03010000 13.29120700 0.21392300
-1.16558700 13.32417200 0.18857600
-0.91060800 13.24995900 0.13530300
-0.80100900 13.26191400 0.13874200
-1.12554300 13.03167300 0.09066300
-1.01504800 13.10144500 0.14694600
-0.88403900 13.10137200 0.08807900
-0.79938000 13.31290800 0.11316100
-1.15839000 13.24023300 0.16924700
-1.02679700 13.20470200 0.10470800
-1.14833600 13.13523900 0.13435700
-0.74593400 13.14399600 0.06134000
-1.30381800 13.35070500 0.14665800
-1.38072600 13.27600900 0.13139200
-1.27407000 13.27283100 0.19547700
-1.36938300 13.20700400 0.10570900
-1.27321000 13.17783600 0.09697800
-1.37149400 13.12937500 0.06593600
-1.26490400 13.07875000 0.11708000
-1.36421300 13.05567800 0.04233800
-1.25578300 12.97478800 0.03113900
-1.46831100 13.20071600 0.06706900
-1.47255400 13.15943300 0.01563200
-1.47319700 13.12066100 0.02210800
-1.45486200 13.06897800 -0.00204200
-1.49110400 13.57985300 0.09881400
-1.37260000 13.67559300 0.20783500
-1.17697500 13.70416500 0.20421100
-0.91526400 13.62795000 0.06761200
-1.75102500 13.48279000 -0.06411300
-1.49923900 12.67295200 -0.18004800
-1.17582600 12.58647800 -0.02280100
-0.79936800 12.63838000 0.01697800
-0.33962000 13.25325300 -0.05584300
-0.39401200 13.49770700 -0.01872500
-0.61126300 13.88172600 -0.01028600
-0.77016500 13.74075300 0.00126100
-0.62654900 13.59866700 0.00999700
-0.77175600 13.49481100 0.05962800
-0.48499500 13.74528800 -0.01111100
-0.66189200 13.02913500 0.02843200
-0.47725900 13.10250300 -0.00582900
-0.62100300 12.87706600 0.01374500
-1.37528600 12.95519500 -0.00704600
-1.48628200 13.00484200 -0.03333600
-1.63543400 13.07390600 -0.05503500
-1.60859100 12.87445300 -0.12802300
-1.75265800 13.16594000 -0.11261800
-1.81662800 12.99612200 -0.33132600
-1.91091100 13.30814600 -0.31449700
-2.02764900 13.13524200 -0.62593300
-1.71206600 12.76541000 -0.41665400
-0.42032800 12.97669400 -0.05043300
-0.58857700 12.71667700 -0.02590400
-0.37236500 12.82104000 -0.11388500
-0.22483900 12.97224900 -0.20531400
-0.17919000 12.82823500 -0.30794000
-0.28437700 13.10619800 -0.12152700
-0.08405100 13.12921800 -0.33622300
-0.11152800 14.38985100 -0.18816100
-0.14026100 14.23785600 -0.14637300
-0.11840100 14.15899100 -0.15108800
0.05731700 14.56245400 -0.45296700
-0.10213600 14.67221800 -0.27113800
-0.06380500 14.99338200 -0.42591700
-0.22625200 15.16694600 -0.27621100
-2.01788200 13.63229000 -0.29672500
-2.20677500 13.48336700 -0.62959000
-0.07837700 12.94487800 -0.47516000
-0.11453900 12.72213700 -0.62563200
-1.58398400 12.56544800 -0.46683800
-1.77591800 12.75425400 -0.61050200
-1.49220200 12.42312900 -0.59982500
0.14774800 14.39907500 -0.65025600
0.15904900 13.84811500 -0.58005300
0.22515200 14.17528400 -0.82950000
0.05573500 13.31829700 -0.51332900
0.04788300 13.09277600 -0.66533600
0.19000200 13.57700900 -0.73346800
0.06166300 14.83419200 -0.62851100
0.14969500 14.67957300 -0.85755300
-0.08255100 15.25248400 -0.60043800
0.06303000 15.08805100 -0.82786800
-2.35421500 14.31558500 -0.46765900
-2.26804400 14.94401900 -0.44385400
-2.42249300 14.62517300 -0.60671600
-2.29823000 14.02547800 -0.44850400
-2.38538200 13.95709900 -0.63339800
-0.53390200 15.36797300 -0.13494500
-0.36725700 15.36395100 -0.21001400
-0.47923600 15.56300500 -0.26552700
-1.67761600 15.22623300 -0.15230800
-1.15264700 15.28507600 -0.07387500
-1.41055800 15.48703200 -0.20213600
-0.80822800 15.33133000 -0.08350300
-0.96850000 15.55368200 -0.18983800
-0.68936600 15.57922700 -0.22350600
-0.62440400 15.73821900 -0.40981700
-0.41034200 15.60979900 -0.46545300
-0.58476300 15.79983100 -0.61461900
-1.69577700 15.63620700 -0.39941700
-1.15393200 15.74513900 -0.35321600
-1.43927600 15.86599600 -0.53149000
-0.84096400 15.78174500 -0.36923700
-0.97055200 15.98133700 -0.54549800
-0.76912500 15.93883100 -0.57908700
-2.08300900 15.18602500 -0.40800100
-1.87799400 15.40777600 -0.38101100
-2.21893800 15.21040600 -0.58533400
-1.93126000 15.62115100 -0.58804000
-0.26380300 15.39546200 -0.37242400
-0.34585100 15.58535600 -0.67312000
-0.10253000 15.36514400 -0.76566000
-1.72209500 15.88769400 -0.66652400
-1.10797100 16.05186300 -0.62119400
-1.37364800 16.04146000 -0.72984300
1.58179900 2.13533600 1.80262200
1.72964800 2.12773700 2.04688800
1.54178700 2.64209000 1.28147000
1.53650700 2.41523800 1.54385700
1.97965900 2.12166600 2.14531100
2.33897100 2.14149500 2.12740500
1.75215500 2.63666100 1.09365100
1.60290500 2.35954100 1.19047700
2.19393400 2.64243800 1.09191600
1.95846500 2.35239600 1.10552800
2.47700200 2.66230300 1.25526400
2.34762700 2.37315300 1.17433200
2.55067600 2.15294900 1.89720300
2.55512700 2.43329600 1.57215800
1.73442600 2.06965900 1.19632300
1.54053800 2.09031200 1.38397600
2.17222900 2.07477600 1.19623800
2.44950900 2.10979400 1.37536300
-0.09315800 5.02626400 -0.01842900
-0.39799500 5.31359500 0.02501500
0.12993000 4.78439600 -0.14924300
0.30087500 4.52684200 -0.33642400
0.44755000 4.75977000 -0.25240900
-0.40407000 4.72575200 -0.04446400
0.33970900 4.12272500 -0.51834900
0.49474000 4.28456800 -0.44562100
0.67357100 5.82158900 -0.15697500
-0.72204100 4.93897000 -0.05622600
-0.97972100 4.67071400 -0.16887400
-0.67461100 4.48100400 -0.19739400
-0.88528000 4.25360900 -0.38084900
-0.62353100 4.06708700 -0.51834800
-1.14655800 4.47034600 -0.27057000
-0.97858800 4.02875000 -0.51834800
-1.48658800 6.27769400 -0.14624800
-2.21111400 6.45764600 -0.57427800
-2.08021600 6.20144600 -0.37487500
-2.11949200 7.05996500 -0.58144500
-1.90510200 5.89224500 -0.15736700
-2.43680900 6.24686900 -0.54759800
-4.71049400 0.08704600 -0.42944600
-4.47539100 0.18750500 -0.38490100
-4.45661000 0.02392400 -0.51834300
-4.09127600 0.16904800 -0.45796900
-2.22190900 3.91183800 -0.49200700
-2.94460200 3.84498000 -0.25331200
-1.81019100 4.21428300 -0.22192100
-2.60798100 4.26146700 0.00671900
-2.98308300 3.63975500 -0.51150700
-3.19649900 3.49914300 -0.32262400
-3.42929200 3.72621000 -0.12636700
-3.02208100 3.33511200 -0.51217100
-3.11573200 2.94092100 -0.30265200
-3.41769800 3.27172100 -0.14576800
-2.89459800 2.32738500 -0.51570900
-2.90578000 1.61523700 -0.40030400
-3.19897900 2.24109600 -0.21220000
-2.73051100 1.17377900 -0.53244300
-2.81494600 0.93076800 -0.42965500
-3.00600900 1.24457600 -0.35300000
-3.42760500 0.16005800 -0.51834400
-3.01153000 0.41717600 -0.42917200
-3.62398600 0.35996400 -0.39178200
-4.96564700 0.14446600 -0.51834200
-4.81914500 0.18954600 -0.42814800
-4.84240900 0.03688800 -0.51834200
-2.62527200 0.55129600 -0.51834500
-3.01165100 0.74157800 -0.35853100
-2.85754400 5.45276200 -0.28441100
-3.12153800 5.06319800 -0.08005000
-3.40514600 5.24030900 -0.54426800
-3.63254400 4.89785100 -0.26746500
-4.15558800 4.30201300 -0.26190200
-4.02230700 3.92963500 -0.11207300
-4.46131500 4.10344400 -0.52830800
-4.31322600 3.72581300 -0.29962700
-4.00835800 3.29246300 -0.10760000
-4.41849300 3.36243600 -0.52060100
-4.10968100 2.82184000 -0.27196400
-3.67653700 2.18173200 -0.18709000
-4.03602200 2.19678900 -0.52754700
-3.67341400 1.60411500 -0.39233800
-3.36143300 1.24681600 -0.34856500
-3.68865900 1.28556100 -0.54517600
-3.50712700 1.06286300 -0.42671200
-3.34574300 0.84805700 -0.35571700
-3.76944800 0.94184000 -0.51834400
-3.71256100 0.74275000 -0.42636200
-3.89694000 0.51526100 -0.38434100
-4.17430700 0.66202200 -0.51834300
-4.39407900 0.44006900 -0.44998800
-4.19078300 0.33016500 -0.39460300
-4.58708300 0.26291700 -0.37840900
-3.02429800 4.65825900 0.06453800
-3.46939800 4.09051100 0.01295100
-3.75924500 3.57246600 -0.10390700
-3.59880900 2.84021100 -0.05627200
-3.27485700 1.59486100 -0.27429700
-3.14786000 1.02977800 -0.33802300
-3.34990100 0.59536900 -0.33719000
-4.70355000 0.36020600 -0.51834300
-1.43339900 4.02747400 -0.51176400
-0.79797800 4.11596000 -2.00826400
-0.60755900 4.10768900 -2.16550000
-0.60367500 4.11756100 -2.49580600
-0.37243300 4.09051300 -2.51114500
-0.87463200 4.04366100 -0.65400300
-0.95245200 4.04324100 -0.82971800
-0.37243300 4.59654000 -2.91090900
-0.84175000 4.60854800 -2.73144200
-0.62105000 5.14503600 -3.03767500
1.58606300 4.07092600 -2.45018200
1.95912700 4.59358500 -2.32480100
1.15041800 4.57131000 -2.79368600
1.57247600 5.12161600 -2.63926800
2.11900900 4.10984600 -1.95249600
2.36404700 4.75829100 -1.56889300
2.25170800 5.21893800 -2.01166200
-0.98931100 4.14938000 -2.15745200
-1.23629200 4.59950300 -2.48292200
-1.09711900 5.10421200 -2.93265400
-3.28611900 6.09758600 -0.82497400
-3.07473700 6.33056000 -0.82559900
-3.13721600 6.17903700 -1.15539300
-3.12767900 5.93574500 -1.53151500
-2.91629700 6.16871900 -1.53214000
-2.87160700 5.88197700 -1.89771000
-2.82253600 5.59982000 -2.19615800
-2.62333900 5.83336700 -2.19615800
-2.56346200 5.52451600 -2.43483000
-1.62628000 3.94082000 -0.71334900
-2.70476800 3.75217800 -0.71334800
-2.16767200 3.87596100 -0.97332300
-2.96390400 3.49602900 -0.71055800
-2.94010100 3.63649800 -0.95724200
-2.94928500 3.02635100 -0.69103000
-3.02465300 3.35777100 -0.92931900
-1.32213200 3.97947400 -0.71335000
-1.39634300 3.98506500 -0.98211500
-4.10902500 4.66607000 -0.53234200
-3.60495500 4.62208000 -0.05965000
-3.84181500 4.98361500 -0.84633300
-3.03683200 5.52878300 -0.88529000
-3.41863400 5.23680900 -1.21205300
-4.40282700 4.39653000 -0.81755200
-4.12875700 4.66465600 -1.14536400
-4.53937000 3.81058500 -0.77033900
-4.47064500 4.08566100 -1.07103600
-4.32242800 2.83181300 -0.76415800
-4.41851000 3.35817900 -1.02719100
-3.85763600 1.63577800 -0.72922700
-4.04747700 2.21598400 -0.95908500
-3.66667600 1.06010800 -0.72319700
-3.72139000 1.29311400 -0.88518200
-3.09506900 5.50505300 -0.88529000
-3.16382100 5.81900800 -1.19192000
-2.78573200 1.63770200 -0.67150300
-2.93942900 2.37055600 -0.85993000
-2.66132500 0.85167000 -0.66871300
-2.78268900 1.19631400 -0.81739900
-3.14701400 3.04957900 -1.18815600
-2.98547000 1.66056400 -0.97885600
-3.27821800 2.37724800 -1.25177800
-2.82366900 0.85167000 -0.98761900
-3.03359900 1.16053500 -1.07576100
-3.63831000 3.00438400 -1.50804300
-3.41703300 1.67070200 -1.11393900
-3.75540500 2.31558200 -1.25857600
-3.25394100 1.19751000 -1.10207400
-3.48725900 0.98375200 -1.05960900
-3.58616600 1.28713000 -1.00127900
-3.74816600 1.65400900 -1.01659900
-3.66667600 1.06010800 -0.93860200
-4.13640400 2.89041900 -1.25673100
-2.72305200 3.79726600 -1.32957700
-2.22914200 4.02301600 -1.73480500
-1.62628100 4.00107100 -1.38961500
-3.09924000 3.50757000 -1.27036700
-3.17018000 3.64621400 -1.59855600
-3.36607600 3.35606600 -1.51224500
-1.41727100 4.09773400 -1.85442200
-1.32213300 4.01708700 -1.39840600
-3.43900600 3.70322100 -1.78683700
-3.64328200 3.44388400 -1.65611900
-3.92104300 3.54079600 -1.72796300
-3.99946200 3.28142100 -1.53573100
-4.30738300 3.63311000 -1.33742200
-3.68928900 4.88749200 -1.51395200
-2.88938200 5.43310700 -1.60363500
-3.12801200 5.01716100 -1.84417300
-4.23715200 4.28234600 -1.39526800
-3.86641100 4.44514900 -1.70196200
-4.15544500 3.80992700 -1.59556400
-2.87718600 5.57407500 -1.89245500
-3.98603900 3.89876900 -1.75199100
-3.35442400 4.51044000 -1.93558900
-3.57195900 3.96651900 -1.89151700
-2.41973600 4.99388000 -2.01854200
-2.65942100 4.47941600 -2.01244200
-1.78694900 4.37376200 -1.98525500
-2.96233000 4.05934900 -1.89899600
-2.48026300 5.15740600 -2.62138400
-2.28106600 5.39095400 -2.62138500
-2.15701500 4.98469200 -2.71855300
-1.96823600 4.59282700 -2.68907000
-1.78173300 4.75749200 -2.68907000
-1.56376200 4.35560400 -2.59626000
-1.39949600 4.22909800 -2.24236100
-1.56061100 4.20219800 -2.24236000
-2.17918500 4.77193000 -2.38026300
-2.66364600 5.34040500 -2.21291700
-0.88016400 5.76384700 -2.98953600
-0.62845600 6.38419700 -2.88349200
-0.38417700 5.79980900 -3.02579100
0.63098500 5.80515900 -2.95201000
0.89701300 5.10074100 -3.04534200
0.87833000 6.38473200 -2.69664500
1.18239200 5.78832900 -2.75214000
1.42367800 6.38536900 -2.37541800
1.89186000 5.76721600 -2.31044700
2.11444300 6.26625300 -1.84870400
2.45085200 5.81589800 -1.52415200
0.06075200 5.80804700 -3.02551600
0.33970600 5.11867300 -3.19523900
0.34148600 6.41231100 -2.79917300
-1.41521900 5.62428800 -2.91727500
-1.19320400 6.22762900 -2.84508800
-0.16831300 5.11208900 -3.20297600
-0.17023500 6.39813200 -2.88229400
2.57358600 5.32679100 -1.04679000
2.53372500 6.13443400 -0.96628600
2.63174700 5.70969900 -0.61462900
2.33676300 6.44473000 -0.95174100
2.48666600 6.31166900 -0.57277800
1.41639700 4.05772200 -0.02684700
1.00598200 4.07078400 -0.02953100
0.97720000 4.18643600 -0.01730300
2.03941800 3.98626500 -0.02957700
1.66987000 3.97527000 -0.03759200
2.77539200 5.16110100 0.04532900
2.83077700 4.90118400 0.04267100
2.71090100 5.77401900 0.08587400
2.84747200 5.60787200 0.10364400
2.36688600 6.17053100 0.11119400
2.62075900 6.22565800 0.15578300
1.88704700 6.27163500 0.11958000
2.12251300 6.51616100 0.17896400
1.48020300 6.20081300 0.12925100
1.60150100 6.52604500 0.17980000
1.09527100 5.96803800 0.13251000
1.11374400 6.32633100 0.16296100
0.95234200 5.80688400 0.12974900
0.79221900 6.11176300 0.14486300
0.86042400 5.46860400 0.10821900
0.71757400 5.80350500 0.11885200
0.73565700 4.98151400 0.07532900
0.59305500 5.29801300 0.09744300
0.74779100 4.44428200 0.01022400
0.48903700 4.71125300 0.04790400
0.62684000 4.23817200 -0.01328600
2.01028000 3.97464000 -0.15687000
2.26750600 4.02718700 -0.02682800
2.24795900 4.05707900 -0.27259000
2.44059100 4.17450100 -0.13942300
1.26516600 4.02685000 -0.15516400
0.94545500 4.06939500 -0.26325700
0.75995300 4.13358400 -0.14497500
2.84364700 5.26287400 -0.07551900
2.80254400 4.92570700 -0.23784100
2.74630300 4.60621600 -0.11610600
2.78731700 5.98108400 -0.02984700
2.84780400 5.66107000 -0.20735400
2.38257400 6.44550400 -0.00108400
2.62196900 6.28546300 -0.18128500
1.82291100 6.56331600 0.00988100
2.08497000 6.56087800 -0.16969400
1.34401700 6.48132300 0.03206500
1.55475500 6.57115400 -0.13954100
0.88763900 6.20968300 0.05026400
1.07666500 6.37054600 -0.07821000
0.72878800 6.01657900 0.05174600
0.76232800 6.13781500 -0.03499500
0.67366300 5.55245000 0.02049600
0.69615200 5.81224200 -0.04672900
0.51136300 5.03646800 0.00306600
0.58965200 5.31016300 -0.06211100
0.51598600 4.43647700 -0.10345400
0.48120400 4.73528500 -0.14352300
0.58780200 4.25798100 -0.25143900
2.13549400 4.20355800 -0.34980200
2.33640400 4.23202600 -0.29890400
0.89701500 4.08686300 -0.43287900
0.70814600 4.14320600 -0.37841500
2.52485200 5.00131400 -0.51100700
2.33717300 4.51573700 -0.88907400
2.62248800 5.33869200 -0.35190000
2.58920900 6.00533100 -0.40907400
2.28822300 6.42169600 -0.42131000
2.03461300 6.56212000 -0.61120600
1.75894800 6.51300800 -0.42757200
1.32838900 6.43955300 -0.34032900
0.90749600 6.18370900 -0.22354400
0.78132500 5.99902400 -0.17075600
0.75015400 5.53995400 -0.13814300
0.59582800 5.04083400 -0.13140700
0.50590600 4.46317700 -0.32074600
0.64217300 5.04507300 -0.06978900
0.80667300 5.52489700 -0.08540700
0.84287800 5.96495600 -0.06125400
0.96124400 6.12459900 -0.08675300
1.36981800 6.37081600 -0.13811000
1.79642600 6.44508700 -0.18035100
2.30349600 6.34769900 -0.18318800
2.67129400 5.95731300 -0.18840000
2.70737600 5.28929700 -0.20904500
2.56779900 4.67509800 -0.23953000
2.50247700 5.00686900 -0.20436900
-2.22732800 9.70453400 -1.01510100
-2.35775000 10.15101300 -1.13695300
-2.20694800 9.94202900 -1.53671600
-2.01028800 9.07588200 -0.94485000
-2.03937000 9.39136700 -1.40155700
0.78981600 9.56122200 -0.85718800
0.77291100 9.06319500 -0.86501300
0.71413300 9.30604700 -1.23140900
-2.07530900 8.43869000 -0.87540900
-1.97319400 8.75199000 -1.29192500
0.88572000 8.59233400 -0.86502300
0.76205100 8.82882700 -1.22928700
-2.10968000 7.80236400 -0.86473700
-2.04007500 8.12016100 -1.22323100
0.99227200 8.08619500 -0.86486200
1.09495800 7.57345500 -0.86380200
0.97016000 7.82982500 -1.22264200
-2.05542100 7.17346500 -0.86284200
-2.02591900 7.49307300 -1.22156200
0.90858800 10.03602600 -0.81248200
0.77869800 9.85275400 -1.18490800
0.87226700 8.34256500 -1.22324700
-1.95118000 9.68550900 -1.83916500
-2.06522400 10.17129600 -1.96059300
-1.74923000 9.94237500 -2.15792600
-1.81622600 9.07035600 -1.71355600
-1.64634000 9.38663800 -2.04801700
0.56700100 9.56631300 -1.63849100
0.55844400 9.06272900 -1.62655000
0.33170500 9.30800800 -1.98051900
-1.82975700 8.43829600 -1.63768100
-1.58313500 8.76085900 -1.97173700
0.62436500 8.59226100 -1.62704800
0.34713900 8.82705000 -1.95872800
-1.85022800 7.80819200 -1.58789300
-1.58872800 8.12593000 -1.91395600
0.70721500 8.08619500 -1.58833600
0.79065100 7.57345500 -1.63871000
0.46468700 7.82359400 -1.92069500
-1.80782000 7.22008800 -1.63520400
-1.57490600 7.53625500 -1.92191100
0.63697900 10.12932700 -1.62244600
0.34524800 9.84402900 -1.98246900
0.39437200 8.33703200 -1.90837600
-1.42577900 9.67086800 -2.23572700
-1.49775600 10.17971100 -2.29861400
-1.17263900 9.91917400 -2.30500900
-1.35893800 9.07880500 -2.14374200
-1.12374900 9.37582200 -2.23915700
0.09414100 9.57219800 -2.18111200
0.09862300 9.06612800 -2.13340000
-0.14749300 9.32702900 -2.22937300
-1.33205600 8.45590500 -2.09731200
-1.09186100 8.77809000 -2.16756900
0.11350700 8.57732800 -2.08661700
-0.13996600 8.81664300 -2.16050800
-1.33301300 7.84284500 -2.03935700
-1.08729400 8.16868000 -2.09328900
0.16288700 8.06028200 -2.01227900
0.24597900 7.55188800 -2.18623200
-0.04969400 7.77529500 -2.13716500
-1.27539000 7.30274500 -2.17213100
-1.04714000 7.60301500 -2.15604000
0.10932700 10.09445200 -2.20443000
-0.14554700 9.83749700 -2.28205000
-0.11977100 8.29546300 -2.05978400
-0.91072500 10.14487500 -2.34356100
-0.63950300 9.87784300 -2.31539400
-0.88421800 9.64214600 -2.28813100
-0.62433000 9.35423100 -2.24515300
-0.85747500 9.07920900 -2.20761800
-0.61228200 8.79883300 -2.15113100
-0.84666600 8.49465300 -2.12507500
-0.60934800 8.23159900 -2.06718400
-0.83611000 7.91225100 -2.09005800
-0.55076300 7.69200800 -2.16718900
-0.74351800 7.39033700 -2.29781600
-0.38001000 9.07413800 -2.20514500
-0.38987500 9.60231300 -2.28585100
-0.37372700 8.53983800 -2.11462500
-0.24357700 7.48610800 -2.30945200
-0.34644600 7.99360100 -2.06267000
-0.38912600 10.09804800 -2.34116400
1.21528300 7.52222900 -0.89003000
1.27000100 7.14877600 -0.89858700
1.14156400 7.36437000 -1.27576100
1.14933900 7.59792100 -0.51835100
1.21081800 7.62238500 -0.89003000
1.07843300 7.59792100 -1.25345900
1.14101000 7.59421600 -1.27666300
0.91482500 7.52654800 -1.69230100
1.00308500 7.14973600 -1.78057000
0.63349000 7.38726600 -2.06144900
0.90529000 7.62238700 -1.69320300
0.55139700 7.59135200 -2.02247900
0.60414300 7.58647000 -2.05507400
0.31968800 7.49950100 -2.28945700
0.34733400 7.14975200 -2.40793700
0.04923300 7.32450400 -2.48948900
0.31124100 7.59140300 -2.27596300
0.02016700 7.54231500 -2.33775300
0.03739500 7.53179900 -2.40448400
-0.21732100 7.43035000 -2.51153300
-0.18655700 7.06163900 -2.68141100
-0.44322900 7.23347800 -2.63092200
-0.22317600 7.52763800 -2.46732500
-0.48423200 7.46492200 -2.40265100
-0.47418200 7.46161300 -2.51368000
-0.71693700 7.34394200 -2.56134300
-0.66569800 6.98322100 -2.72930600
-0.96640100 7.14844100 -2.58453400
-0.72570400 7.44177900 -2.50255800
-0.99588100 7.36550300 -2.36138900
-0.98998900 7.36017700 -2.48405600
-1.28113000 7.24060600 -2.40262500
-1.25755600 6.89054100 -2.51216800
-1.58801000 7.05281600 -2.17005900
-1.28343000 7.33420600 -2.36116400
-1.56701500 7.27098300 -2.06213300
-1.58538200 7.24973200 -2.15654400
-1.87780300 7.13072500 -1.76932000
-1.91374100 6.87235200 -1.72472200
-2.09949900 6.97791200 -1.32222600
-1.87320600 7.21798500 -1.75283000
-2.04131300 7.17754300 -1.26677800
-2.08981700 7.14201200 -1.30955000
-2.17111300 7.06875300 -0.91167400
-2.18605100 6.83529100 -0.92025300
-2.16622500 7.14935400 -0.90693800
-0.91788400 6.70725600 -2.75438200
-0.39853300 6.76555500 -2.80677900
-1.57508900 6.50780500 -2.52230400
0.06042200 6.82148900 -2.69829000
0.62137400 6.83164200 -2.49793000
0.96343700 6.82806900 -2.32296200
1.45112900 6.79651800 -1.80417500
1.50052500 6.88222300 -1.30581300
1.43401800 6.90951300 -0.61982800
1.73901900 6.70241800 -0.95465800
2.06342100 6.52109900 -1.38993900
1.78487500 6.59984900 -1.75060200
-1.42642600 4.74576900 -0.08102700
-1.99291800 5.07080400 -2.55130900
-1.60536300 4.60517400 -2.29342800
-1.23292000 4.10442500 -1.93815500
-1.32213300 4.01708700 -1.20340400
-1.20608000 4.06735400 -1.32724600
-1.86246200 5.89744500 -2.65477600
-1.77928300 5.47611200 -2.69575900
-1.92918100 6.60907300 -2.06340400
-2.03277400 6.18739500 -2.39151700
-2.26399100 6.36740200 -1.96739200
-2.39716700 6.41276700 -0.85380800
-2.21836000 6.60215400 -0.88919300
-2.24610000 6.53059000 -1.24779400
-2.14006100 6.72268200 -1.27049500
-2.12445400 5.40270200 -2.42199300
-2.41014500 5.65309400 -2.29102600
-2.51953000 5.87571200 -1.97751900
-2.71669800 5.99871700 -1.76872300
-1.66634400 5.03880400 -2.59097900
-2.91798500 6.19630400 -1.13734400
-2.83393900 6.14890800 -0.82848600
-2.76090000 6.09554300 -1.42358600
-2.52227500 6.31765700 -1.19891200
-2.66170700 6.21402400 -0.84580400
-2.74205400 6.14458800 -1.15432500
-2.60250100 6.20866200 -1.54055000
-2.60132600 6.06630500 -1.77016100
-2.23569300 5.70709200 -2.30702600
-2.32105600 5.98266600 -2.22141600
-2.25712400 6.47607300 -1.63035800
-1.96829700 6.70522100 -1.68937000
1.15041800 4.05687400 -2.46549400
1.55330000 4.05879900 -2.02174900
1.90307700 4.07600800 -2.03354100
2.32091100 4.47373400 -0.28160300
2.24633100 4.21268800 -0.46415800
2.22984900 4.16987400 -1.11148600
2.08460800 4.10499000 -1.60375500
2.00532800 4.15526200 -0.45981100
2.11484200 4.16095400 -0.68648100
2.60328300 4.37022800 -0.25887500
1.15041800 5.08574600 -2.78583200
1.15041800 4.57131000 -2.45764000
-0.37243300 4.30177000 -2.56958900
-0.37243200 4.19756500 -2.36991000
0.63098400 5.11272200 -2.97641800
0.89701300 5.10074100 -2.72886300
0.06075100 5.11849500 -3.07048600
0.33970700 5.11867300 -2.88841200
-0.37243200 5.10256700 -3.00384700
-0.16831300 5.11208900 -2.89615000
-0.84268500 4.22711900 -1.97326900
-0.60755800 4.31699700 -2.17767800
-0.37243200 4.70359300 -2.61626000
-1.49360800 11.99264000 -0.95949200
-1.40108500 12.34687500 -0.79529600
-1.44603500 12.15712200 -1.19510400
-5.31096300 12.36589700 -1.77796900
-5.16540800 12.99636700 -1.77796900
-5.17320200 12.71539200 -1.82687900
-4.90459300 12.20001600 -1.78117100
-5.07901900 12.32384500 -1.84585200
-4.07129000 15.18499700 -1.95211200
-3.74626200 14.81293700 -1.92494800
-3.94071800 14.90358100 -2.12712500
-4.59227900 14.97144000 -1.95211100
-4.42543600 14.98825400 -2.19093300
-3.65499600 14.69215300 -1.71479000
-3.69292800 14.45056400 -1.93274000
-3.78057100 14.63255900 -2.12458000
-3.80369000 14.01380400 -1.94956800
-3.87113700 14.27955000 -2.12868300
-4.70702800 14.87169900 -1.71328900
-4.82932900 14.37259100 -1.79973700
-4.69216000 14.62690600 -2.01679100
-3.94968600 13.66548400 -1.92312200
-3.97923900 13.82896400 -2.12808700
-3.94222200 13.33814800 -1.68502300
-3.91877400 12.91723000 -1.73914900
-3.99425100 13.28527800 -1.98517800
-4.72507500 11.65144600 -1.93108500
-4.75910100 11.99596100 -2.00066100
-4.44919900 11.30676000 -1.92947300
-4.50688900 11.56083300 -2.14896600
-3.77234600 10.99187700 -1.76487600
-4.05080000 11.26588200 -2.08054200
-3.79271500 12.11156800 -1.60417600
-3.17771500 11.81635400 -1.28617300
-3.58031300 11.92834800 -1.64885900
-2.84704600 10.50135700 -0.99339500
-2.57183200 10.43449600 -1.25068500
-3.14509800 10.72048000 -1.54078800
-2.80122600 10.72623400 -1.78787400
-2.49488500 11.73227300 -1.02469000
-2.91484900 11.74246700 -1.40535800
-1.87695100 11.80921300 -0.91293700
-2.26250100 11.73036000 -1.26410600
-2.33949800 10.34865700 -1.66567500
-1.73001500 11.84959800 -1.24725900
-2.88663600 11.35211300 -1.99494200
-3.11805800 11.56133400 -1.93811400
-3.26653500 11.25894000 -2.09724400
-3.51114300 11.52369900 -2.13030600
-3.73786300 11.79077500 -2.08720300
-4.05968100 11.78635000 -2.24961500
-3.89406300 11.52770100 -2.22585200
-4.24568300 11.53943100 -2.24367400
-4.44761300 11.86460800 -2.25607500
-4.27532700 11.75273800 -2.29973700
-4.20700100 13.30244600 -2.19195000
-4.20162400 13.78093100 -2.17712800
-4.38358200 13.48621800 -2.16660500
-4.19530800 14.03183900 -2.15424700
-4.26536200 14.40585400 -2.16681000
