23.59307289 -82.04187012 -28.14276123
22.85977364 -84.47175598 -29.23641968
21.64261627 -85.02452850 -29.01215363
21.07800674 -87.92842865 -32.02297211
21.02992058 -86.78247070 -30.48467255
-37.07102966 -19.81970406 -97.08598328
-38.10734177 -20.72586823 -94.09065247
-38.84857178 -21.02733231 -93.05028534
-22.22954941 53.68707275 46.64154816
-21.35266113 52.37160110 46.40761566
-21.78140831 52.04988480 46.88831329
-24.76116180 45.96218491 46.35349274
-24.30629158 51.65414429 70.10591888
-24.43765640 52.48009491 68.10866547
-26.08078575 49.97407532 68.11515045
-18.38030434 58.89247894 70.45328522
-20.11378098 57.20440292 69.98381805
-18.33216667 58.34547424 71.76248932
13.68724632 64.20861053 -48.52159882
13.64526367 61.49941635 -47.52114868
8.47363377 -27.46949768 77.85242462
10.87868881 -25.69191742 74.44084930
10.94539261 -25.11379814 73.54788971
8.89170361 -25.61238670 73.36865997
-13.74880409 -93.21148682 -57.09300995
-15.40607357 -93.34880829 -59.24219513
-16.84335327 -93.88491058 -59.01406097
-17.88533974 -94.45052338 -58.48081970
-18.96997643 56.64663696 46.50409698
-18.32292175 58.24378204 46.60758209
-16.54449463 59.99658585 46.17882538
14.98683929 66.58528900 -49.00100708
14.27577686 69.02841187 -50.00177765
-11.78556824 -92.95423889 -85.32147217
-11.43721581 -91.81190491 -86.23375702
-12.37157536 -91.81987762 -84.82878113
-11.74108887 -90.27606201 -85.36864471
-11.43091202 -85.39615631 -84.20664978
-12.27078724 -87.97956085 -83.73063660
31.16564560 70.21686554 -4.02380419
30.00837708 75.14929962 -6.49046278
-6.15287399 78.15193939 13.80295563
-7.65951490 78.49259186 13.37566376
-8.96563244 79.27593994 14.30336761
-15.69371128 -117.37402344 65.21147919
-12.89745045 -117.51083374 66.88242340
-11.22592640 -117.29815674 62.20211029
48.65814209 -108.03038788 -21.65054321
49.77163696 -109.44235229 -21.50049591
45.83320618 -104.84873962 -20.74559021
-47.85670090 -16.34307289 -109.18336487
-49.55603027 -16.86466408 -107.27029419
-47.95310974 -15.95143986 -106.24241638
-49.34818649 -16.29067421 -101.52788544
-49.31914139 -16.39258385 -104.29766846
42.12501526 -116.49546051 55.74205780
42.49924088 -116.20761871 55.95490265
40.19212723 -116.37608337 60.14421844
46.98131561 -115.99028778 38.95885468
45.76833344 -116.17370605 39.22315216
49.04000854 -115.73701477 30.21968842
-35.66421509 28.93902397 5.30849504
-31.26325607 28.54437256 4.95734406
-18.26593208 -110.93134308 78.77182770
-15.81792641 -109.71222687 82.52487946
-17.17665482 -111.07640839 80.93360138
-15.19220448 -110.61737061 82.49542999
-13.93991661 -38.06023026 -56.70753479
-14.03473663 -35.88943863 -53.43230438
-13.35891914 -37.11366653 -55.53450775
-12.96412563 -38.13172150 -56.93862152
13.29206467 -112.14845276 89.99877167
15.21926975 -110.45678711 87.74588776
16.75494576 -109.41280365 85.94850922
20.53407478 -108.99466705 82.45623016
-38.51288223 41.46139145 -15.78620911
-38.91207123 40.53709793 -17.74682617
-36.50253677 42.44545746 -8.32489777
-36.22403336 40.65377045 -8.12435913
-11.21472263 64.31091309 71.59104156
-7.11055613 63.17403793 77.87136078
-8.77064800 64.48741913 74.20963287
49.09245682 -106.20716095 -3.46408796
48.62601852 -105.77208710 -5.90035200
47.06908035 -104.35923767 -2.98402405
51.30767441 -108.53083801 -4.58547211
50.10477066 -107.23414612 -5.86981201
41.20880127 -15.01205063 35.23432159
41.43864059 -14.89982319 33.93265533
42.20618820 -13.37288761 34.79387665
42.34981537 -13.99181366 38.64339447
41.47253418 -15.28723621 38.18227386
-8.89837456 99.52259064 18.35240936
-32.74163437 -7.06612396 -37.45382690
-32.59749603 -7.19625521 -42.31114960
-36.12512589 -5.62854099 -38.74259186
-33.72000885 -6.11754799 -38.13082123
-51.50879288 -21.49207306 -92.57579803
-51.99391174 -20.51675224 -91.51980591
-52.28119659 -21.47313881 -94.30300140
-50.25121307 -23.55049896 -98.35606384
-20.80321121 -13.85326004 33.61496735
-20.29980659 -12.77131367 36.13785553
-23.62306213 -11.37920761 29.89635468
1.68026602 -91.94609070 29.35936737
-0.37293300 -91.91626740 25.71529388
-4.07186222 -92.53618622 25.07288361
-9.12280464 100.19200897 20.04961395
-10.03974247 101.57109833 20.75069427
-10.38725758 101.06088257 18.94246674
-11.22646523 102.16436005 16.80860138
-19.50012398 -105.29837036 46.70168304
-19.74577141 -106.14235687 46.56269073
-20.11022568 -108.14485931 49.94751740
-18.73765755 -103.86203003 44.58504486
-19.55731010 -105.20719910 42.70452118
-19.68944359 -105.45985413 43.70307159
-49.72949982 -14.68320084 -89.17326355
-49.45988846 -16.07489395 -89.16014862
-6.22144222 -13.89325047 -85.40824890
-8.09484100 -15.19678307 -86.03210449
-9.31597233 -15.88914490 -82.55407715
-11.18701172 -16.89895821 -82.95766449
5.76795816 77.30187988 46.02065277
7.92610502 79.75872040 43.50717926
5.76255894 79.41861725 43.72560883
3.14529300 77.24748993 45.73682404
3.76351190 76.19174957 46.85768890
-18.23874664 67.38433838 -22.09426880
25.43452644 -89.26239014 -9.78589630
34.62954712 -89.19374084 -10.85012817
29.16052437 -86.93272400 -8.50757599
-16.77391815 -16.20854187 81.81781769
-16.90542412 -15.85304260 83.50164032
38.29775620 -65.52191925 -38.84455872
38.55023575 -63.69546127 -39.23927307
39.20391464 -69.65493011 -32.51129913
36.17234421 -58.21931839 -49.24070740
37.33505249 -59.98407364 -45.03391266
36.89834595 -61.36096954 -45.65300751
-24.56483650 -6.86387300 -110.58500671
-24.47171593 -8.36095619 -110.78214264
-21.00211716 -9.51477814 -107.78405762
-23.62544632 -10.11053467 -109.98809052
-23.78760529 -8.98564720 -110.32498932
-17.92264175 -98.43006134 -19.54404449
-19.37785530 -99.71242523 -20.77306366
-19.62578773 -99.53697205 -19.97730255
32.20629501 71.86873627 -35.41976166
31.41146278 71.27190399 -35.76488495
33.62989426 72.53593445 -29.75277710
32.97648239 72.08675385 -32.84381866
10.43846512 66.84493256 54.51085663
6.30555391 67.97467041 54.40090179
-39.04270172 39.84218979 -15.78102875
-39.90488815 39.07204056 -18.48431396
-40.24924088 38.69914627 -14.74379730
-39.94813919 36.78268814 -4.31869507
-40.03734589 37.69295883 -7.81529999
-40.53390503 36.96440506 -7.42613983
-35.56302261 -110.70729828 24.66269684
-35.60516357 -109.85564423 23.15839386
-35.35369110 22.72741890 61.93300629
-35.72737503 20.83863068 60.12433624
-35.45363235 20.48260307 61.43585968
-34.19329834 26.30708885 65.13921356
-21.96446419 -24.76336670 3.69676995
-20.24289131 -28.43503380 -3.88734388
-20.78553009 -26.03666878 4.47527313
-25.78195572 -17.65439796 12.00801754
-25.16575813 -19.23943138 10.31034088
-24.74691963 -18.90562439 13.37917328
-27.90862656 -21.42642403 -88.95223236
-24.67889214 -19.84876633 -92.81053162
-23.00752068 -17.95969963 -97.15683746
-22.62224770 -16.52145195 -100.23047638
-1.23074198 -40.94805145 -16.80368042
-2.76579094 -40.14593506 -15.46184540
-4.60523510 -40.53178406 -16.84683228
-5.33896303 -41.43972015 -18.84414673
-1.59820795 -27.79449654 46.31406403
-4.00894213 -26.90830994 45.37871552
0.24946900 -29.46470451 51.67327118
-0.14996500 -29.57762337 49.39582062
0.90194798 -28.65502548 48.21002960
3.82939196 -93.76173401 54.53209686
-0.51196700 -95.70043182 57.98334503
5.27968407 -95.30256653 58.13591766
6.70389795 -93.78953552 55.64228058
3.34932590 -95.33539581 58.28739166
14.17268276 66.01331329 53.99668121
13.66575813 66.09078217 54.58042145
26.34080887 -86.35224152 -8.24314117
24.40952682 -85.92288971 -8.28000641
25.95283508 -87.26277924 -8.90822601
25.93125725 -85.44551849 -7.54909515
27.75249481 -85.99040985 -7.68153381
-5.05983496 -108.56005859 -110.10724640
-7.13491488 -108.32493591 -111.04766846
-6.74005890 -107.49980927 -110.34014893
-2.36285806 -108.27702332 -108.35793304
-2.74300790 -107.35762787 -107.86691284
3.61525893 -94.24038696 55.83925629
8.65499210 -93.15303040 54.75457001
9.59367657 -92.30397797 53.06487274
3.28835797 -94.94709015 57.47687531
-2.70513511 -112.50334167 -26.86733246
-2.10593295 -112.72732544 -26.43194580
-2.97623610 -113.07840729 -25.70384216
18.51753426 -39.02492142 -41.36626434
35.88512421 -88.18473816 49.11850739
32.96546936 -80.78761292 52.62259674
-20.13258743 -44.29618835 65.84548187
-19.52677727 -42.23933029 67.49887848
-20.67493248 -42.95549774 65.86441803
-20.64649963 -39.43037415 67.32608795
-19.85611725 -38.04673004 68.60160065
25.16612244 -76.28849792 -16.60377502
22.15162277 -56.78675461 -57.00481415
22.99863434 -55.69280624 -61.67703247
22.22936821 -57.85218048 -55.92868805
20.97209549 -57.23962784 -50.46709442
-37.04665375 -111.88987732 -55.93836212
-37.88361740 -113.49351501 -56.20420837
-36.63088226 -114.01213074 -56.65458679
-36.82064056 -112.28739166 -56.10543823
-34.39957428 8.92432022 12.50101471
-33.72605515 12.48199081 13.48769379
-34.25173950 9.98233891 12.29677582
-34.53253555 6.61148882 11.74571991
0.50189698 23.83072472 -78.71425629
0.26472899 24.36145210 -79.33641052
1.71939099 24.60673714 -78.99566650
7.76118422 -90.42896271 28.29064178
6.78051186 -90.45784760 25.91173553
8.40514278 -90.04368591 26.54460907
8.07128811 -90.53973389 30.78224945
21.76246643 -48.41656494 80.20378876
23.82167816 -39.22610474 78.68715668
20.77503395 -40.34280396 82.48276520
-35.68639755 -114.55234528 -57.27735138
39.23857880 54.02990723 20.41481781
37.95627975 56.30121613 19.86212921
39.41842651 51.98497772 21.63143158
39.91301346 52.31224442 20.92845917
40.45902634 49.12503052 22.47316742
-16.23979950 -58.96664047 -48.80602264
-18.69255257 -62.15272141 -53.82025146
-8.55458832 -41.93118286 -59.98189545
-9.88744068 -40.66025543 -59.24540710
-8.63838100 -39.84077454 -57.76365662
-10.68358612 -39.25938797 -57.85379028
-11.70834446 -37.67967224 -56.18544769
-9.50233459 -38.53693008 -56.61148071
-12.66285133 -72.68101501 38.57930756
-11.93662262 -75.80722809 34.56723785
-12.67981815 -77.38743591 33.48973846
-32.52401733 7.00579500 13.99376678
-32.89304733 5.72207499 12.53665924
13.26196194 -90.64981842 2.43022895
10.26247311 -90.44179535 -0.43325001
13.41190910 -90.66807556 -0.05933400
-12.93531799 74.76383972 -37.97490692
-10.71144772 72.56000519 -35.20602417
-10.06285954 70.54457855 -32.16520691
-42.95445633 -17.34608078 -113.46381378
-42.56499100 -18.42787552 -112.99576569
-43.77967453 -18.88165283 -112.53810120
-41.99730682 -19.12642097 -112.59898376
-41.41352463 -19.86151314 -112.00342560
-43.39883041 -19.95152473 -111.80776978
30.32491875 59.40896988 10.88021088
29.39300537 59.56212616 7.28844500
27.05158615 58.68212891 9.89171600
28.31599808 58.79965210 11.34024811
25.32300186 57.74749756 11.36757660
6.31391096 52.37449265 90.04270172
7.22691584 52.25636673 88.79860687
5.28269386 56.98932648 93.13384247
5.50111580 55.93146133 91.03392792
5.34550714 57.30102921 90.68239594
-14.03429604 63.79699326 -25.21459198
-12.29843426 63.01230621 -25.01687622
-15.03026104 64.53190613 -24.67314911
-14.90298653 61.36197281 35.59680939
-14.58486938 60.28191757 35.58470917
-15.51750374 60.88240814 37.03241730
-13.16607285 61.32760620 33.45803070
-11.88219833 60.07304764 32.79947662
-13.48330402 60.17507935 34.19647980
-24.60750008 23.52068520 80.10805511
-25.55640411 24.97679520 79.46811676
-25.36887360 21.63143539 79.17687225
1.03316498 67.81001282 17.51889801
-0.60236800 70.75669861 15.82147980
-2.92544889 72.07742310 16.22579193
-31.83742905 -105.43280029 -13.94433594
-31.03243446 -105.45280457 -13.12669373
-31.82314682 -104.76699829 -13.95755005
-31.93955994 -103.18338776 -15.30679321
25.32310867 -48.26693344 -25.63971710
22.26129532 -45.64297867 -20.23653412
23.54538918 -46.02913284 -20.33706665
22.16330719 -44.34793854 -17.51510620
-30.92222595 12.77080727 24.41951752
-31.77384949 12.19877148 22.71233368
40.41578293 -102.00380707 -31.75137329
39.90777206 -98.85134888 -30.38821411
43.98725891 42.26620865 11.42421722
43.29949188 42.53109360 16.75406647
43.84358215 41.51417923 16.40888214
43.36182404 41.76052475 15.53971100
41.39779282 27.78171539 60.71988678
42.77859879 26.48472595 57.65937042
45.22446442 25.59339333 48.33037567
44.44715881 25.93834686 52.07346344
-32.81651306 -106.38845825 -14.29210663
-32.02624512 -103.25785065 -14.49955654
41.42541885 -94.91079712 -18.71489716
41.60660172 -94.33232880 -20.56259918
41.62405014 -93.00884247 -19.10052490
40.83350372 -98.60651398 -26.89821625
41.90203476 44.43093491 21.83669281
42.11474609 44.09211349 20.44036102
43.01950455 42.67461395 17.47071075
42.49784851 42.64170074 18.36740875
43.77502823 41.36326599 17.85254669
48.15897751 -115.30815887 14.00061798
47.93758011 -115.33490753 15.38921356
-36.41769791 51.23732376 -36.58061218
-37.49412155 50.97042847 -36.43366241
-36.83437729 51.87409592 -35.84842682
-37.89128494 51.32338333 -33.37000275
-27.48081017 -12.96576214 -42.31693268
-23.78378105 -15.12700272 -50.50009918
-24.24966621 -15.13965416 -52.28797150
-22.64801216 -15.77448368 -53.81693268
32.83977890 -40.86369705 -47.50885773
34.02973175 -39.96780777 -45.89965820
33.98402405 -42.34407425 -47.87431335
37.25780869 -42.06564331 -44.18241119
36.73223877 -41.95359802 -44.82342529
37.73332214 -39.11628342 -42.10746765
21.08327103 -40.99676895 -46.54516602
20.65283203 -42.83267212 -46.89033508
19.94386673 -41.26892853 -44.59854126
22.13721466 -43.65755081 -50.57627106
22.34535789 -49.22108078 -55.93563843
21.43386841 -45.48845673 -50.56148529
-2.62800789 7.29309988 -90.37710571
-2.77761507 6.32402802 -90.47394562
-2.23125505 10.88866234 -87.80300140
-0.60554898 10.82702827 -88.69281769
-1.97525203 9.62758732 -89.24744415
-13.39893627 21.95756721 -42.74604034
-15.76527023 18.56565094 -39.69542694
-15.24261284 20.45588684 -40.49488068
-15.31667519 18.38173485 -40.36715698
-7.43936777 -9.53517342 -96.04869843
-5.62509680 -7.15816879 -94.95314026
-6.34311485 -9.31849098 -94.95080566
-11.59084797 -10.48788643 -99.36028290
32.88374710 33.99987793 75.77796173
33.61054230 36.89203262 74.13582611
31.74725151 37.33047867 76.58666229
36.17409897 30.25373459 71.23294830
37.75997162 26.79865456 68.64502716
37.27167511 30.09784508 69.25107574
7.60266685 -53.50458527 71.37128448
-24.34146881 52.31040192 54.15090179
-25.81074715 49.31441879 52.78237152
-21.98129272 56.41830444 51.96240997
-21.19690704 56.52224731 51.30307770
-21.99076080 55.58742523 51.39647675
-34.23085022 45.98829269 -4.98828077
-32.64017868 45.68589401 -3.96564507
24.45093155 -64.61183167 60.90924835
21.94457054 -61.93233871 61.43321991
-11.55063820 83.42614746 2.81166792
-12.70916080 83.39294434 3.42725396
-10.82152271 84.48447418 3.46289802
-11.34393120 84.66111755 1.30649602
-12.24592113 86.08124542 -1.75931501
-12.28655434 84.09150696 1.45214105
36.75553131 -39.36169434 -43.30644226
39.10124588 -33.92758179 -38.40394592
38.28088760 -37.47987747 -40.69170380
38.09794617 -36.12630463 -40.33614349
-33.64570236 48.05430984 -2.84932709
-34.98484421 47.79091644 -3.68775892
-34.06093216 47.10735703 -3.59422302
-35.18853378 47.10026169 -4.05580902
-34.18089676 46.58598328 -4.38934278
37.92532349 -40.50601578 -42.42742157
38.19568253 -42.42208099 -42.62149048
37.19901276 -45.69054413 -45.72354889
37.51419830 -46.44582748 -45.22065735
-10.68392467 88.82947540 -5.22027588
-11.31114864 87.70381165 -3.44645691
-10.84263515 86.32196808 -1.94899702
-11.58425522 86.01436615 -1.30055201
19.24460030 109.04314423 -18.35919952
18.51424599 109.97919464 -18.53082275
19.19543076 109.20836639 -20.39595795
18.04009819 110.78781128 -21.72055817
29.77651024 -25.62148285 34.09555817
29.63445091 -26.31432724 32.14020538
27.46164322 -27.09964752 32.21123505
30.04893494 -27.60432625 28.67559052
34.55387115 -110.45722961 67.58875275
31.59404182 -109.25090790 70.65419769
32.67680359 -110.48749542 69.98246002
34.35088348 -107.11466980 65.43047333
34.29713821 -108.98571014 67.00969696
36.15406036 -108.14647675 63.71218109
-26.39429665 -72.14185333 -71.18685913
-25.83291054 -70.30391693 -70.05366516
-25.17679405 -67.56082153 -68.24934387
-24.18752289 -62.57661819 -65.63237000
-24.95532417 -66.55013275 -69.20226288
-29.68116188 38.44842529 9.26236725
-29.82048607 37.19594193 9.10597992
-27.75797272 38.35094452 12.27526093
40.04365921 -115.12417603 -55.18068695
43.07538986 -115.08155060 -49.00915527
42.12686920 -115.30468750 -49.78725433
42.08930206 -114.30757141 -51.90941620
42.99301529 -114.68878174 -49.70327759
40.77200699 -114.88946533 -54.30800629
-11.33728504 -7.52700710 88.38909149
-9.59092808 -6.68276882 89.39752960
-10.30043602 -7.36977911 88.07009125
-9.08085442 -6.76013803 88.73928070
-9.51985931 -7.37256908 87.72202301
-9.22715378 22.25373268 -76.96234131
-8.31219482 22.11481857 -76.21350861
21.48785973 -12.95021725 -57.40077209
15.95526695 -9.31094646 -64.28854370
25.08520699 -16.74476814 -51.42610931
22.09952545 -91.50608826 25.55574799
19.67996216 -90.40802765 25.98303986
19.39706612 -90.14846039 26.37871552
26.27319908 97.08185577 -12.86592865
27.45759583 95.52844238 -13.66333771
29.57742882 91.80411530 -13.13670254
29.86469078 91.44425964 -14.14449310
-16.92034149 -9.76029587 -43.72107697
-18.29670525 -8.76516247 -42.41845703
-17.24486923 -10.62477398 -45.29176331
-17.06853676 -12.33690262 -49.06533813
13.61931133 9.98389053 -81.63880920
10.41922092 6.58971691 -81.39698792
9.62575722 5.10500288 -82.56743622
25.92368126 58.87457275 64.95586395
31.15404510 53.65685654 63.18277740
-6.01299477 9.18179226 95.14693451
-5.56221819 9.94371891 94.33899689
-5.57877016 20.37122726 94.67404938
-5.99321795 14.20966244 95.40752411
-5.89553499 26.86866188 95.39517975
-8.86340237 114.77657318 14.80826569
-9.64643192 113.61054230 14.67208099
-9.81779575 113.95639038 15.11254120
-8.07545376 115.69946289 16.17351532
-7.20523977 116.24858856 16.08339691
-7.95448494 115.40888977 14.45859528
-12.89847565 76.77413177 0.17908500
-13.53709793 76.99402618 4.92549896
-14.31523800 77.57579041 5.19124603
-14.02740669 77.17076874 2.94184089
23.35017967 49.97901535 80.49951935
25.13639450 52.17821121 76.86864471
27.55593491 51.57103348 73.99839020
29.72997665 51.26391602 70.44821930
26.38242149 53.40343475 73.80236053
-5.88128614 88.64772034 -57.28867340
-4.41764879 89.02143097 -57.20135498
-1.89109898 86.25592804 -57.34922028
-8.67764187 87.79177094 -57.25698090
-10.06869888 87.45735931 -57.09020233
40.46251678 55.94800568 -20.14350891
39.96996689 57.08068085 -18.91767883
40.17740250 57.99746704 -19.05287170
39.96257782 57.85634995 -17.64792633
39.98412323 57.15649414 -19.44616699
2.57325506 -43.15026855 -22.19583893
-1.30587196 -44.77571487 -25.28965759
1.16083503 -43.75021744 -23.40806580
-4.91676998 87.92059326 28.21842194
-5.98954678 88.74437714 27.13291168
-5.54165220 87.54940796 27.29405975
-7.16072989 87.89956665 25.99219513
-6.06582212 87.48200989 26.47216034
42.33257294 52.05394745 -24.38391876
43.65364838 50.46408844 -24.46634674
42.47827530 50.50267792 -25.88841248
42.60719681 50.17097855 -27.58738708
42.18212891 50.45149612 -26.48567200
42.66593933 49.16979599 -27.24536133
14.75899982 -62.77852249 61.29792023
13.34433365 -59.75592041 62.62888336
16.89900208 -66.56831360 58.96817780
14.82991409 -64.50272369 61.08202362
-13.79598618 -22.37488937 42.11402130
-14.39513874 -23.29665184 42.76445770
-16.59515381 -21.30791283 42.20870209
-13.98775673 -20.98986053 41.09610748
-15.28841686 -21.27300262 41.78989410
-7.36467695 31.69375420 -43.40811920
-8.64455128 30.83534431 -43.46179962
-9.38364601 29.65600967 -41.94113159
-12.37499619 25.99180984 -39.85021973
-10.87857533 28.00664139 -41.15237427
-4.73919296 96.02743530 12.60431671
-5.40879583 95.92266846 14.19138336
-4.72450399 97.06083679 11.36672211
-3.40662289 97.77619171 9.61563873
-4.31646204 97.49009705 10.49768829
-1.04945004 -4.06127405 -86.56108093
-1.29509902 -5.13848019 -85.59545898
-1.12417305 -5.34933281 -86.90571594
-1.00802600 -2.86757493 -87.05094910
-1.41977704 -2.38373399 -87.84842682
-1.29032004 -2.06268811 -87.54800415
28.33561325 -19.10040283 71.01409149
27.70385742 -17.63871384 70.97608185
25.04652596 -19.31362534 71.55115509
24.58899689 -25.48677635 73.67728424
-19.90616226 12.87367153 -98.33212280
-21.09644318 11.75466347 -98.97400665
29.02980614 74.75643158 -45.60734558
26.89914131 76.25310516 -48.83406067
27.23643303 76.67348480 -48.57424927
23.56314278 80.64514923 -52.19127655
22.85121727 80.70929718 -52.59223175
21.18935394 83.26908875 -53.73036957
51.63768005 0.32469901 10.42871857
50.75532532 -2.84563494 13.70603180
51.36417770 -2.35383010 9.82273102
52.36183548 4.14163208 6.05072784
52.06667328 1.91969395 7.86068010
25.64860725 -16.96080017 71.21726227
23.16384697 -18.91189003 71.71930695
27.05194283 -14.12226772 71.18283844
-1.04041195 116.81019592 20.10651398
-2.07798409 116.76276398 21.51804352
-0.93836498 116.48916626 21.38689423
1.05893397 115.36515045 21.11696625
-7.48595381 42.59695816 -30.18619537
-4.13380909 44.06411743 -32.74559784
-7.51210213 42.16169357 -30.34668732
4.43980217 72.16172028 51.44287872
5.95114899 71.32100677 52.27846527
-0.40282199 72.73366547 49.68972015
51.78020096 9.51145267 11.85939789
52.01113892 10.12839890 8.98986053
51.13657379 16.02344894 13.37770844
51.19541931 18.28147697 10.41538239
50.75875092 20.17358780 12.18987274
26.48290825 83.72891235 -44.97854614
25.84386635 81.28195953 -48.26129150
24.81776237 84.68463135 -47.17664337
25.65488625 89.06977081 -42.64305878
9.83229637 67.12385559 54.23307037
6.72868299 68.27422333 54.07234955
-10.91803074 -84.74520874 1.06911504
-12.14931870 -85.39418793 -1.01064301
-14.52245617 -83.93508148 1.01691401
-15.58720207 -84.50975037 0.08914200
-21.67546654 -55.70995712 -66.71017456
-33.53013992 -98.66938019 -78.84510803
-34.12435532 -99.22972870 -79.76199341
-32.43828964 -98.13975525 -80.06954956
-31.84536362 -97.40196228 -79.32469177
16.23780251 -40.51096725 -15.13806152
8.44521904 -40.33418274 -15.94727325
15.71780205 -40.12500381 -12.32707977
50.47666931 10.81363773 19.30265045
50.92288971 12.82031345 16.67937469
51.36093140 13.46826744 13.43851471
51.55598068 14.14219856 11.33345795
33.04776764 72.41799927 -21.96489716
32.51163864 74.19662476 -19.94094086
33.91246033 70.55935669 -21.64102173
35.70293427 -116.84284973 66.04425812
34.88300323 -116.74723053 67.74173737
37.84257126 -116.51544952 63.74121857
39.41826630 -116.57082367 60.82849884
32.07395172 75.41505432 -18.36360168
31.34362602 76.95342255 -16.63674927
33.11874390 73.16636658 -17.69783783
33.18038940 72.79700470 -19.27607727
-22.78764153 8.51282978 -100.20275116
-22.65558243 9.54310989 -100.17587280
-22.08205414 9.11472893 -99.00405884
-22.00366974 7.99724722 -99.63831329
-31.82687759 -96.17124939 -76.16802979
-33.32302856 -97.37722778 -77.12072754
-48.06771088 -11.96525764 -106.81319427
-47.36789322 -11.85845757 -105.02450562
-45.30948257 -11.52515030 -109.98797607
-12.06780529 108.15513611 16.37967682
-12.44683266 108.76590729 14.18094635
-11.82084370 107.25891876 16.57621002
-13.08648300 109.00047302 12.11814117
-12.38428402 109.42575073 14.80371857
-41.03665161 34.29376984 -8.19341278
-41.48377609 34.22202301 -13.84300995
-41.77357483 34.80582047 -18.90171814
19.27089691 52.29255676 -44.48556519
18.72076797 51.46374893 -43.79980469
16.32495308 52.13446426 -44.15842438
-42.95525742 5.33586502 -110.17671204
-44.33460999 4.00546503 -110.86943817
-44.45397568 5.74560213 -109.64122772
-43.15196991 4.47596502 -110.71520233
-41.80820084 2.23735094 -112.03211975
-2.66060901 -94.22420502 -43.02246094
-12.44115067 -98.68686676 -43.18765259
-12.09980106 -98.71588135 -42.30373383
-15.23731899 -100.15223694 -42.83748627
-16.94298744 -100.72538757 -43.86552429
35.30710220 -66.46343231 -28.39158630
35.74962997 -59.67333221 -34.90213013
36.76452637 -64.05852509 -31.37299347
36.42684555 -59.93696213 -34.91691589
-41.02957153 -109.57014465 -69.87076569
-39.94708633 -109.72792053 -67.91381836
-21.80021477 83.26742554 -47.20003510
-22.48843575 84.92340851 -47.15275574
-22.39512634 85.48872375 -47.92756653
-20.81789780 82.00405884 -46.08575439
-26.88635635 -34.44714737 50.40978241
-26.41835403 -33.92856216 49.70345306
-25.27296448 -36.98431396 48.45079803
-24.98035049 -39.13902283 47.84522247
-25.58893204 -39.85115433 48.58480072
-4.61350918 -49.28478622 -42.30801392
-3.59484100 -48.28902817 -43.45407867
-22.71208954 115.31507111 -40.04930115
-22.92131805 114.66114807 -41.77774048
-24.03385162 115.84664917 -41.52828979
-23.51127434 117.01567078 -35.93641663
-24.16745567 117.22394562 -37.12490082
-24.32898521 117.56101990 -34.95832825
31.14448547 -90.25266266 38.72724152
30.94247246 -89.46132660 38.25621796
29.54185867 -92.23976135 35.34192657
27.83344269 -92.88468170 32.08470917
-20.57421303 5.53451490 -51.05590820
-20.24135208 5.28382206 -50.69727325
-20.61913490 4.55032396 -50.26814270
-27.91939926 14.19354916 -8.59367371
-28.32040787 14.83400154 -6.93376923
-25.95049477 17.72207260 -11.85311890
-31.22790527 9.96136284 -1.23100996
-31.00915337 9.33955097 -2.72453308
-49.57099533 95.78479004 -29.88034058
-49.59942627 96.93980408 -30.85344696
-49.23219299 99.44464111 -31.73500061
-12.27920341 -8.18535042 93.73560333
-12.85985088 -8.05606365 92.37792206
-13.71468925 -8.43289948 92.21082306
-14.08225536 -8.85083199 92.84207916
-9.28151417 -70.06041718 34.21080780
-9.27615833 -68.55183411 34.52739716
-9.41466236 -67.15473175 37.46521759
-9.57656574 -71.29040527 34.98285675
-30.61157417 39.59179306 52.16184235
-29.63858414 42.49178314 53.01740265
-31.93389702 35.18249130 51.19431305
8.04045963 -24.40395164 71.46573639
7.99472523 -25.18649673 72.21315765
9.87178802 -24.24735069 72.17397308
9.29012108 -22.68437195 71.10253143
-2.89301205 20.77689171 97.87277985
-3.50450706 21.22143745 97.89487457
-3.95242810 11.46947670 98.01418304
-3.51922297 42.59226990 98.56867218
-3.66338301 35.77499771 98.12168121
-2.54650497 35.13824463 98.19647980
-43.39746857 -114.59761810 -5.03620911
-41.86086273 -115.63209534 -2.67489600
-38.19203568 -115.71846771 0.15042099
-41.54267502 -115.41403198 -1.39019799
-44.74464035 102.23074341 -23.39509583
-45.17034912 102.97759247 -24.08348846
-45.88547516 100.43939209 -24.12093353
-45.15420151 103.34622955 -24.27480316
-43.95594025 106.09833527 -23.71395111
-44.85776520 106.39287567 -24.99046326
-24.61662102 -71.75659180 -67.01523590
-24.45298386 -69.80864716 -65.74076843
-25.89505005 -74.44953156 -70.01673889
-16.82910538 86.68715668 -54.62963104
-16.63011360 88.66934967 -55.68843079
-15.59549427 86.52677155 -55.23123169
-17.16479874 84.98161316 -53.27863312
-15.81835365 85.39601135 -54.47580719
-45.15777206 0.41492501 -75.64926910
-45.53905869 -1.90298700 -75.85720062
-46.78137207 -1.45987904 -76.74426270
-46.65351105 -2.56130290 -77.13320923
-26.20073128 6.50422907 39.43039703
-26.61394310 5.72210693 40.37703705
-26.71550751 11.47012520 39.13362885
-26.12218857 3.27078605 40.27143097
-35.57175827 7.95892096 6.47937822
-35.60396194 8.42106056 5.31017303
-35.75096130 7.30406189 4.96012115
-35.20665359 6.22397709 7.38735199
-35.39662552 5.64141178 6.54705000
-11.72288799 -18.66703224 69.23534393
-9.53299522 -17.72278214 69.14168549
-11.90452099 -18.02833366 69.73311615
-8.92349911 -20.41925621 68.32437897
-5.09346199 -89.44000244 -9.02159119
-4.08453321 -90.02731323 -8.04275513
-5.93417883 -89.38231659 -10.45824432
-20.99803162 50.86188126 44.87079620
-19.10168266 52.49242020 43.56923676
-19.19721222 50.60367966 41.91356659
-14.88463402 51.17392349 36.45754242
-32.52593994 43.26383591 -35.34240723
-32.94087219 43.98511505 -35.18867493
-31.22907066 44.74802399 -36.17166138
-33.82941437 43.84762573 -34.59763336
1.48807096 93.36239624 -7.66633606
-2.99491000 95.12354279 -9.19921112
5.81706285 96.05854797 -8.27954865
-36.69191742 6.57821703 -31.60620880
-35.13331604 5.74836493 -33.40354156
-36.00437927 5.63654518 -33.83716583
-34.09840012 4.69270802 -38.55149841
-34.79309845 4.96297979 -36.19528961
-49.16692734 -16.80789948 -85.29891968
-49.24040604 -17.58505440 -85.81382751
-50.07691956 -17.79886246 -87.66223145
20.39069176 34.16230011 -75.56741333
20.04891777 31.86644554 -78.48155212
19.59481239 31.73231316 -79.74132538
52.77956772 -115.30548859 -17.36550140
53.23731995 -115.47160339 -13.01055908
51.49514008 -115.51483917 -22.68034363
52.43955231 -115.13925171 -19.31952667
51.05178452 -114.98609161 -25.30775452
-21.50625229 -108.55417633 -25.46057892
-21.58576965 -108.81248474 -25.99897003
-29.24314880 -103.04947662 -62.96022034
-29.05712891 -101.65467834 -64.33015442
-28.63572884 -101.03072357 -66.00170898
-28.84011841 -102.40275574 -64.06787872
42.82864761 -102.68700409 -23.94805145
41.79501724 -100.55733490 -20.59127045
-42.89064789 -4.65947199 -72.92698669
-43.36523056 -5.40878582 -74.32244873
-42.93744278 -4.35549688 -73.13835907
-42.68569183 -3.80078602 -73.52575684
-43.35418320 -5.10682487 -74.85150146
20.63936424 59.50469971 72.81444550
18.69070244 61.44145966 71.98450470
17.79388237 60.47148514 74.70005035
22.81241035 60.35220337 67.96149445
-25.49458313 41.99356842 1.25110602
-27.03406906 42.69983292 0.83918798
-26.59119797 43.04489136 1.00380695
-28.55018616 43.69758224 -0.53412598
-20.43677521 -8.17176247 -41.51814270
-22.31366158 -7.84619379 -40.54051971
-21.51154137 -8.93249226 -41.67401123
-27.09408760 -8.71299553 -36.22286224
-25.06965446 -8.87204647 -38.58194733
-25.24536705 -7.88119221 -37.99186707
26.59829330 -62.84539795 -56.80040741
27.12378311 -62.00222015 -59.27007294
8.18655968 -90.64900970 33.88285065
7.53210783 -90.99320221 35.47945404
2.51946402 -93.30162811 38.84314728
2.40370703 -93.43346405 38.27771759
-1.78687000 -96.12753296 40.77547455
-15.60029697 -17.22305489 -37.58678436
-17.21927643 -16.20750809 -34.84136200
-16.50608826 -14.20651913 -36.18381500
-17.54916191 -13.92538738 -34.22789764
-18.35717010 -15.55233383 -32.84647369
-14.00875282 -37.95653534 -19.97810364
-14.08911991 -36.46361923 -15.71523285
-11.81251907 -34.98490143 -3.21335602
-22.66558838 -110.37126923 -24.03926086
-22.72196198 -112.25911713 -22.80705261
-31.94192886 40.51395035 62.13274384
-33.39567947 36.17439270 60.07978058
-32.74255371 38.10206223 59.34517670
-33.92099380 34.15622330 58.27539825
-10.95451736 -87.66953278 -7.54244184
-9.05793953 -89.25488281 -12.06053925
-9.96107388 -89.24944305 -11.80636597
-8.46071625 -89.60269165 -12.65685272
10.27750969 -2.16916490 75.07302094
6.97401619 -1.49421799 74.41213226
8.57380676 -4.13246012 73.66408539
6.72685099 -3.59223199 73.42484283
-17.58192825 55.97102356 -22.96292877
-17.21887970 56.90859222 -22.13426208
-19.87599182 55.30940247 -24.20631409
-19.04406357 54.84404755 -24.68477631
-21.84855080 53.69225311 -30.48046875
7.11195278 110.65036774 -29.76286316
5.96935415 111.13217926 -31.78799438
3.92347002 111.67846680 -32.01972961
6.81567097 109.45381927 -23.61824036
6.87638187 110.03116608 -26.62316132
5.46838999 110.63919067 -27.59243774
-19.56081581 71.99169922 -19.23178101
29.31322479 70.19654083 -1.93682897
24.18359947 73.04930878 1.22533405
21.55298996 74.95832062 1.23749495
24.31717873 72.03717041 2.65061212
22.64114952 74.25427246 1.23311603
-29.28190804 -9.06713581 -60.73908997
-29.99540710 -6.99516821 -61.36117554
-29.18608856 -11.33802319 -61.09805298
-30.50624466 -5.22298193 -59.36861420
-31.33186340 -4.78074121 -60.93363953
-30.27828979 -5.66807508 -60.92958832
-29.17871284 -20.50759125 -92.99325562
-25.82104874 -19.55554199 -94.39950562
24.62402916 -70.92105865 -33.97525787
23.88414192 -67.90264893 -37.53531647
22.92785645 -64.91950226 -41.89549255
24.01238060 -67.35450745 -39.76047516
-51.39094162 5.08345699 -97.65289307
-48.98234177 7.31645298 -99.05528259
-50.10609818 6.68929100 -98.75799561
9.63143539 -32.89068985 53.83892059
27.12427139 -45.37606430 70.93065643
25.58852386 -50.87315369 73.45969391
26.44149208 -47.76041794 71.81089020
25.75985146 -50.57674408 72.82866669
25.47167587 -53.07230377 72.66608429
25.71421051 -50.88545990 72.25106049
29.38741112 -33.69545746 49.62496185
-9.36711311 -5.69664001 -98.15060425
-10.46234798 -6.86163521 -99.29747772
-3.25424290 -1.73484194 -90.71112823
-3.20123792 -5.08126688 -92.14066315
-3.82608104 -3.60590100 -92.30615234
-32.46833420 33.43153763 21.51392365
-31.02253151 35.62719727 19.28491974
-31.55471992 35.18576431 20.33650970
-30.09477043 35.34849167 19.93071747
-9.61443901 -108.98716736 57.83870697
-7.68948507 -109.79945374 56.31082916
-7.75747681 -110.64057159 56.36450958
-11.72374725 -109.81928253 57.91062164
-10.32489109 -109.37566376 58.02892303
-9.01954079 -110.65913391 57.02883148
-18.06580544 44.46543884 83.59241486
-19.87810326 43.77947617 82.40503693
-17.58438110 48.48157501 82.25786591
-15.46912193 49.89725494 83.17218781
-17.05787277 50.58036804 81.43085480
16.35704231 92.80282593 11.30844879
18.55293846 91.29036713 15.20118046
19.38407516 89.82249451 16.45261383
18.25836754 90.83736420 14.34415436
-17.22446060 -112.20484924 44.28038788
-15.82296753 -111.85921478 45.36490631
-13.18458939 -112.89775085 44.13425446
-15.96152401 -113.41408539 43.02085114
-13.94928646 -114.06195068 43.00557709
20.10953712 88.96789551 18.95552826
19.33720016 90.54267120 19.10219574
-22.43268013 82.51207733 -40.08193970
-23.87873077 84.71190643 -42.35015106
-23.61497307 84.10228729 -43.01930237
-19.58404160 79.05725098 -37.85066223
-53.35087585 -6.95649385 -102.29343414
-52.72340393 -8.60818100 -102.91408539
-53.52317047 -7.94574785 -101.31024170
-53.96235275 -8.15405941 -100.66508484
-54.60010910 -7.92029810 -100.60036469
-53.67756653 -7.20406008 -101.69366455
49.15194321 9.31653309 -24.73966217
48.71606827 8.19570446 -27.08504486
48.20500183 11.22542095 -27.26323700
49.95468140 5.05374622 -22.91551208
49.67296219 1.48472905 -24.83393097
49.32952881 4.03782415 -26.03032684
35.95856094 49.45466232 44.62445831
38.30801010 45.88981247 41.76049042
37.15784454 47.52111435 40.15404510
33.48803711 53.79550934 50.44319916
34.34783554 53.75787354 49.75141144
33.76107788 54.73310089 49.88179779
-21.41427803 -24.56543732 44.67472076
-20.08674049 -28.16112328 44.82588959
-21.85604477 -28.61693954 45.69779205
-19.20168686 -28.11742401 44.46950531
-20.68058968 -30.63391876 45.39427948
-21.96635056 -106.01599121 -65.56941223
-23.84380531 -107.63602448 -62.62599182
-27.05441093 -108.71885681 -60.34188843
-27.72342873 -109.54296112 -59.46354675
-29.44149590 -110.39015198 -59.65223694
-8.73441792 -12.01874542 -95.32888794
-14.87070179 -13.41966915 -99.36662292
-14.06351185 -12.66336536 -99.76020813
-8.41981792 -10.61317062 -96.41350555
13.11397552 -43.58774185 -23.21179199
-19.73169518 46.61196899 39.47496796
-21.55250931 43.19436264 39.73879242
-23.17101669 43.70860291 42.09429169
-17.92438889 50.47737122 39.96321869
27.80888367 -82.37844849 -29.18799591
26.75288773 -83.71665955 -29.66663361
25.13055801 -83.87294769 -29.54695892
-37.18584061 -1.77132404 -47.79487610
-37.30230713 -1.48223495 -48.02795410
-38.33991623 -3.83784795 -50.33578491
-38.18058777 -3.17705703 -49.19306183
38.53167343 64.15145111 -5.90750885
37.45247650 65.27375793 -3.99457598
38.36965179 63.79904175 -3.75862098
39.66841125 61.45258331 -9.85417938
-32.79202652 -109.01457214 -21.89966583
-30.38624001 -108.84522247 -23.36518097
-29.82550812 -108.23410034 -23.08970642
-30.16905022 -8.54876137 48.47289276
-29.14262199 -12.70054531 48.08313751
-28.54717636 -20.70948601 49.55149078
-30.30029678 -16.23679733 51.69658661
-28.42272186 -28.77047920 52.22994232
-31.05324173 -14.17726040 53.02828217
-16.90528488 -30.81871414 70.50539398
5.63680601 108.25847626 16.48151398
5.44905615 106.88073730 18.38802338
5.52766609 109.09838104 13.28285980
43.55080414 -15.89562607 28.58457184
43.48977280 -18.38758850 24.83684540
45.44252014 -8.50600433 29.97545624
-7.62035179 -107.64702606 51.83335114
-7.28777981 -107.45327759 50.94501495
-6.78573704 -108.63636780 50.89948273
-8.55663013 -65.78736877 -71.64477539
-9.16220856 -69.92082214 -73.86872864
-9.83458042 -71.31813812 -76.72727966
-10.14242935 -66.89489746 -75.45373535
-9.75399876 -69.07585907 -75.70025635
-10.35517597 -71.62940216 -78.07917786
12.16732979 -2.09765196 -72.15661621
11.07718563 -2.88549399 -72.82722473
6.66266680 -2.22110510 -76.54632568
36.53149414 62.87560654 0.32455400
35.84885025 63.75991058 0.90560901
35.24810791 63.22325897 1.56536102
34.84149170 65.41635132 0.93518800
-23.14815521 48.62978363 -36.29815674
-22.42441750 49.49448776 -35.46676636
-20.66187286 48.34149933 -34.61249542
-24.28706360 49.90629196 -36.39643097
-19.39953613 67.42588806 -9.81087494
-19.28428841 67.95410156 -8.25440979
-19.88203812 68.80770111 -9.85522461
-18.64108467 72.88668823 -10.06691742
-19.72783661 71.64098358 -10.49279022
-19.07439232 71.01462555 -9.46621704
42.55525208 -15.17963886 46.55683136
-13.26981163 -113.81996155 -55.12221527
-14.89334774 -112.99173737 -53.94889069
-42.47270584 -20.86913872 -88.16107178
-41.24185181 -21.09582520 -89.86135864
-44.10932159 -19.65403366 -84.94036865
-46.42275620 -18.13449669 -84.57077026
-44.81006622 -19.42241287 -85.29859924
-22.08320045 18.81868935 -76.20464325
-21.00753975 19.28621864 -77.69270325
-19.73618317 19.41604614 -73.36383820
-19.58775902 19.65956497 -75.12678528
-21.88372612 18.74043655 -74.17720032
-18.35000992 65.84379578 -4.80054522
-18.46581650 64.46980286 -3.81567407
-18.34384537 65.17823792 -4.36671400
-18.83259964 65.10657501 -5.72251081
-10.93116760 -69.12972260 -78.05029297
-10.30042362 -64.19638062 -74.42852783
-12.00710201 -69.33881378 -79.85218811
-11.71732998 -65.97129822 -77.38740540
-34.22469330 52.39516449 -34.71681213
-31.39415169 53.41386032 -32.95628357
-32.76843643 53.35266495 -34.46308899
-15.99842262 14.60743237 -44.16092682
-16.12070847 13.65343571 -41.84648132
-14.29895782 19.02923203 -47.19902802
-48.13699341 94.79158020 -39.30002594
-47.76073456 95.97612000 -39.28266907
-47.10546112 95.34488678 -40.33960724
-47.09911728 93.10372925 -39.95180511
-46.48004150 94.51480865 -41.08559418
-26.00119400 -111.26129150 -29.62825775
-26.87538910 -111.01766205 -28.53455353
-30.40357780 -112.67153931 -21.68460083
-29.72087097 -112.03487396 -22.82492828
-28.17566681 -112.47713470 -22.87321472
-28.13761330 -92.17583466 0.86407501
-27.80226898 -93.20890045 -2.66018701
-27.60652542 -91.08835602 1.16336799
-27.14678001 -87.88270569 5.53945208
-26.68540764 -89.30497742 1.81011200
-49.05043030 98.50843048 -36.35090637
-48.37071991 97.82662201 -38.67414093
-47.94274902 97.42333221 -39.64415741
-47.14526749 95.87173462 -40.29428101
-47.80625153 96.59185028 -39.29187012
-2.39691901 65.54658508 3.75115204
-12.44203377 -101.69546509 -106.55747986
-9.20108318 -104.15409851 -107.94210052
-27.75909805 -111.23513794 -25.70910645
-27.10187340 -111.61172485 -25.49143982
-28.56159019 -111.75994110 -23.96488190
-36.88376617 30.27729797 -15.78091431
-37.44972992 30.26174927 -14.74323273
-39.32182693 31.64441872 -20.62503815
-35.67078781 29.82620621 -13.25698853
-36.74930191 29.93882561 -13.25214386
-0.31117299 -93.50215912 -66.21852875
19.57575417 -69.67374420 74.45383453
16.65107727 -65.22616577 77.85025787
19.99505424 -73.56291962 71.34346771
27.06184959 -81.89039612 65.05913544
27.51079559 -83.13486481 63.82517242
-42.93994522 -115.56661987 -16.41018677
-39.84466553 -115.59179688 -16.49467468
-41.83880615 -115.65718842 -15.11026764
-31.58426285 -114.85392761 -19.82875824
-30.91341972 -115.19637299 -19.32870483
-35.69581985 -115.33415985 -19.41233826
-10.20175457 95.37741089 -11.69453430
-9.08846664 96.56294250 -11.60308838
-10.51471996 96.68562317 -12.43972778
-11.13810539 99.43337250 -14.64192963
-10.48693275 101.45973206 -15.67117310
7.05086517 39.70269394 90.27962494
5.89356709 38.07889938 91.02341461
6.27801704 44.68429565 91.32559967
5.99047804 42.61817551 91.52329254
-23.92012215 -56.98464966 38.50006866
-23.37631607 -56.91724396 37.58051300
-22.60931587 -60.29461670 34.15395355
-23.55542183 -49.65024948 57.01862335
-23.61596680 -44.82073212 59.84679413
-26.13531303 -28.42913818 62.74806976
-27.11321831 -114.86522675 -20.33506012
-27.85053444 -113.79980469 -21.22229767
-27.25414276 -113.19926453 -22.12714386
-36.65792084 -21.13268852 -74.94038391
-36.11863708 -20.88296127 -73.36524963
-31.25193024 -19.54047966 -67.48384094
-31.41434097 -20.47839546 -69.03988647
-27.72739220 -13.36946774 13.75940704
-29.72709656 -12.42443466 3.91811395
-29.06366920 -13.14172077 7.33045197
-29.83885765 -11.38738155 7.40195513
21.67988205 -29.87660789 78.08019257
20.82929802 -30.87358475 79.62110138
22.06380844 -31.70048523 79.60234833
16.71104240 -27.99803352 77.78098297
15.41080761 -28.38789368 79.03907013
-2.44716692 -96.81582642 51.54157257
-1.66416299 -96.13301849 49.72834015
0.66599602 -94.84973145 49.11096954
0.18936200 -95.23586273 50.20941925
39.91257858 43.25960541 39.51619720
40.72425461 41.78923416 34.71225739
40.28365326 42.25054550 29.27030182
-43.93540573 7.10212183 -97.60327911
-40.56975555 7.97351408 -100.94365692
-42.15500259 8.38306046 -103.80780792
-38.65096283 7.85880804 -103.30635834
-41.11442947 8.19483852 -105.10594177
26.49202156 -93.00849915 4.86530304
25.98285294 -92.77727509 -2.22656298
24.27015686 -92.35286713 0.15696000
28.78652191 -93.81335449 9.48897552
30.80088615 -94.55654907 14.43985653
30.70621872 -94.51913452 7.15131378
-43.66279602 87.31524658 -22.58153534
-43.04513550 86.35312653 -22.90808105
33.73515701 -24.35970306 31.70380402
36.58502197 -24.52696609 26.62299347
35.32541656 -25.58001328 26.41826630
36.94332504 -25.98867226 22.42787933
-43.38721085 2.37255812 -75.63104248
-43.81090164 1.73434401 -74.23503113
-43.51125336 2.34100008 -76.40203094
-25.28124237 -78.32478333 -72.17228699
-27.65307236 -80.45794678 -74.65113831
-26.40593147 -80.36560059 -73.91481018
-28.31545639 -83.18887329 -76.29618835
-27.60832405 -84.35572815 -76.38099670
-14.66524315 106.85961914 -47.49456787
-13.71949863 106.67265320 -48.28999329
-16.46588135 104.41694641 -49.24255371
43.03541946 49.79588318 -3.40221405
44.35397339 46.77848053 -10.34259033
32.87597656 -80.06844330 -29.29295349
31.63550377 -79.49991608 -29.95555115
-23.81130791 -77.84526825 -71.33512878
-25.69041061 -80.59864044 -73.74528503
-24.71012306 -80.67032623 -73.51013947
-0.75654101 10.18474388 96.99214935
0.24407600 9.08638287 96.05971527
-0.57464600 17.98048782 97.25487518
-0.30154201 2.46049595 96.28487396
-0.88398302 -1.43997896 96.28949738
-0.37210000 -0.47863600 95.64746857
-33.57538986 23.52720642 7.96138811
-32.84152222 22.98495674 7.63202715
-32.48204803 19.55341148 7.16243696
-34.25578308 26.70259476 7.48232317
-35.00474930 27.43297768 7.57511091
-3.86394191 100.75675964 -52.71691132
-3.75445390 103.86260223 -50.68733215
-1.35322106 102.77053833 -50.83393097
1.66257703 100.06741333 -51.50751495
0.00162000 99.28856659 -52.48957825
46.39750290 22.36817169 -23.20765686
43.35401154 25.94013786 -26.95441437
27.80448151 55.40728378 -34.97962952
26.06537247 50.22663879 -36.04924774
-32.39064026 24.68260384 7.46962690
-29.15143776 24.34738731 7.55663300
-33.03814316 24.10323143 7.70363617
-34.18939972 25.75122261 7.95620012
-33.44381332 25.56745338 7.51728106
25.24181557 48.62261581 -36.58119965
24.96388626 48.95943069 -36.89253235
26.76471138 53.66086578 -35.51237488
22.69333458 45.13914490 -38.91862488
23.68353844 46.44552612 -37.73610687
-41.22743988 79.58294678 -34.84348297
-41.71058655 81.10676575 -37.49126434
-39.35642624 80.76725006 -38.65895844
-40.48622131 79.80989075 -36.20055389
-2.33079910 97.75244904 22.04338837
-2.38124490 98.19009399 21.88257599
-3.33768606 97.06146240 21.39022064
-44.04692841 96.67397308 -21.73204803
-44.45349121 91.04677582 -21.98140717
-44.15383911 93.73188782 -21.16577148
-44.69897461 92.35029602 -22.37309265
42.73410797 -107.09473419 -39.26715088
45.30444717 -107.54569244 -32.52642822
45.12314606 -108.56053162 -35.86038208
41.01733017 -107.34929657 -44.15671539
14.17811489 76.27797699 1.03643000
14.23818874 78.61997223 -0.11633300
11.15068913 77.81652832 0.10456100
16.24194527 76.43883514 1.13008904
16.28374481 74.44888306 2.18257904
-20.57627296 -110.50328827 56.35950470
-20.26751518 -109.88347626 54.43413544
-20.77694130 -110.63852692 55.59229279
-21.92963219 -111.69976044 56.66738129
-45.56261826 89.45208740 -38.46109009
-46.58646011 91.72756195 -39.19051361
-45.38035965 90.61209106 -40.21748352
-46.05892944 90.55574036 -38.37538910
-1.41096199 -28.54473305 60.85440826
-2.14914703 -29.43952370 60.37682343
-2.23742700 -30.71830559 57.34262848
-30.20246124 8.49536324 -54.92337799
-29.01968765 10.47105503 -58.61215973
-30.79798508 8.49130058 -56.05860138
-28.69788742 12.22111607 -62.39476776
-30.45258522 9.31243324 -57.72533417
-39.70157623 -110.35071564 -4.34674120
-38.24843216 -110.36014557 -5.61293793
-40.62848663 -111.49150848 -5.77691698
-41.94951630 -111.92380524 -4.08640289
-33.17725754 11.32671165 -98.22420502
-35.71292877 9.65008640 -98.87590027
-32.40046310 11.61448669 -98.28244019
-31.44357300 12.99574375 -97.21379852
-31.08309746 12.65845871 -97.57974243
16.82452202 19.56656837 -83.24916077
14.74890423 18.56845284 -84.44288635
18.42261505 20.19059563 -82.17624664
-28.43282318 56.45384216 -18.89308929
-25.52828979 57.13283157 -18.99012756
-24.28290367 57.90114212 -18.85576630
-24.17546272 57.47242737 -19.72961426
-28.26531982 -100.99951935 -68.23795319
-26.90711021 -103.41149139 -67.22418213
-25.36306572 -105.21949005 -66.98834229
-25.75198746 -104.79425049 -66.31221008
-26.32807732 -104.34312439 -67.31771851
40.60427856 -93.33280182 -15.01560211
39.90950012 -92.89456940 -14.24886322
39.08377075 -94.65943146 -14.18933868
41.37157440 -92.71465302 -16.80603790
-6.02791882 2.04956388 78.77530670
-6.34695721 5.88633823 80.23494720
-8.18358707 0.31509900 79.18589020
-10.41904926 0.90626198 80.25678253
-37.25822830 40.71689224 -30.81828308
-37.23209000 39.72885513 -31.33621979
-38.09347153 39.59438705 -30.11138153
-36.75819778 38.69072342 -31.74972534
-37.45808792 37.96724701 -30.63972473
-22.48494720 57.18288803 -21.34941101
-26.05081367 56.88369370 -19.85965729
-27.61795235 56.68886185 -19.26848602
-26.93987274 56.70874023 -18.77240753
-23.53076363 -105.72066498 -66.51782227
-22.10368919 -105.28070831 -67.42035675
-24.84536743 -105.68277740 -65.65841675
-25.76506615 -105.06156921 -65.46246338
-15.32219887 48.25425720 27.36615753
-17.28241158 44.86457062 33.92426300
-14.02745914 49.77373123 32.29975128
-17.35270309 44.90006638 31.81732941
-16.88034439 -14.83946037 91.06847382
-19.08427048 -13.80755711 90.48357391
-20.80582047 -13.56530285 89.77263641
15.40892124 -105.79429626 -84.32539368
8.08572674 -104.61085510 -91.43035889
15.84714890 -104.21237183 -80.27691650
20.50201416 -102.95722961 -70.56947327
1.39698398 109.18328857 7.81986189
-1.69266605 111.12049103 6.92452192
4.54089022 107.65207672 7.73415422
-20.83674431 -108.36101532 43.29718781
-21.87818909 -110.16834259 40.38416290
-13.39052391 27.76781845 -37.43560028
-10.93232059 30.87874413 -39.09134674
-11.61592865 29.31592751 -39.14981842
-12.55745220 30.15305328 -36.68000031
-16.10813904 46.81415558 30.96025848
-13.09853363 51.07165909 31.78191376
-14.44455147 49.32035065 29.06450653
-11.37271881 53.26340485 32.43944550
21.83791924 -106.21731567 -76.15089417
18.00489807 -105.86415100 -80.94104767
18.98126793 -104.27603149 -76.05045319
-39.14077759 90.53890991 -45.81232452
-37.02862549 86.60224915 -44.56916809
-37.38785172 84.83361816 -43.30063629
-38.07394791 85.84962463 -43.77610016
-30.32417679 -105.93996429 -7.67805481
-30.74563789 -104.62084961 -5.63164520
-31.59019470 -103.99671936 -4.35574293
-32.32240677 -102.02951813 -4.60373688
27.22683907 -27.69738007 31.02606964
27.48582077 -28.72136879 28.78784943
24.40300751 -33.16236877 20.07569122
-10.87482357 66.86389923 0.16946401
-16.51512527 -40.07202530 70.53911591
-17.54364395 -41.29500961 69.49178314
-16.70598412 -41.93165207 69.77301788
-15.16954708 -40.55473709 70.92153168
13.12996769 88.40551758 8.92577362
15.59911633 85.50765991 12.39179230
14.40737057 84.00878143 12.17713165
8.58153057 84.91609192 8.73075104
-27.91508484 -18.55366135 -64.48912048
-27.91217232 -18.06909943 -63.91903687
6.26068306 -30.64583015 -40.75326538
9.05180073 -31.26874733 -40.42534637
12.85098743 -32.31577682 -39.45736694
11.93113899 -33.86673355 -37.29853058
11.05544853 -31.86134911 -39.91552734
-15.11466694 -115.09612274 40.50766754
-13.55097294 -115.98334503 41.01692963
-4.73814678 -116.01424408 44.25876617
-10.28813076 -115.29968262 43.22988129
-7.56185293 -116.30906677 43.57102203
-8.11301327 -91.14450073 19.53978729
