23.16770000 -14.55520000 -8.00490000
23.17680000 -14.29480000 -7.89000000
7.78810000 -29.67960000 5.32700000
3.29530000 4.20600000 9.66990000
12.60740000 20.59860000 -3.08060000
22.96620000 -14.61020000 -8.05800000
22.80820000 -14.47910000 -7.99930000
28.24570000 -14.67180000 7.20180000
0.20180000 -20.00180000 9.33860000
11.29220000 22.17630000 -2.74060000
3.56770000 4.39010000 10.33330000
0.59010000 -19.06540000 9.22000000
3.89930000 -31.71850000 8.01440000
-2.67070000 -21.22830000 -10.07620000
-2.29200000 -21.22000000 -10.28610000
25.38830000 -16.67550000 -10.16950000
4.19280000 -31.66400000 7.39400000
-15.80220000 12.73760000 -6.75430000
5.69910000 -31.69610000 7.75030000
2.33040000 5.01290000 8.81040000
0.98270000 -19.39290000 8.99170000
5.69910000 -31.68290000 8.58830000
28.32350000 -13.74180000 6.48980000
-1.33940000 -21.44860000 -10.52220000
28.40420000 -13.65340000 5.86520000
26.23730000 -16.29980000 -9.70070000
-1.82600000 -21.19900000 -10.44120000
9.25020000 21.73770000 -4.31750000
8.26680000 22.03220000 -4.70860000
3.02640000 5.03930000 9.96420000
28.09880000 -13.85610000 7.06790000
2.01740000 5.53010000 8.87930000
0.14900000 -17.96240000 9.31970000
28.35650000 -13.23890000 5.85990000
27.31620000 -17.44890000 -9.01740000
28.27290000 -13.05010000 6.59790000
-2.99090000 -21.18410000 -9.74830000
3.53250000 4.99020000 10.71210000
26.77980000 -15.77920000 10.11910000
-12.18540000 13.35720000 -6.41250000
3.75970000 5.16040000 11.06680000
2.73310000 5.59490000 9.93310000
3.33210000 5.59940000 10.64490000
-3.03440000 -20.57240000 -9.41080000
4.58730000 -31.64000000 8.56790000
4.15960000 -31.33720000 8.79460000
27.44540000 -15.08760000 9.34060000
1.57990000 5.91030000 8.45120000
2.20280000 6.06930000 9.31030000
3.95300000 -30.95410000 8.86240000
8.79530000 22.59150000 -3.97970000
-2.59960000 -19.89010000 -9.95780000
-2.85820000 -19.51680000 -9.53120000
27.66770000 -14.43900000 8.49490000
-2.28770000 -20.10460000 -10.20320000
4.72680000 -31.48690000 8.77030000
-3.12610000 -16.96970000 5.88430000
-3.27130000 -17.97370000 5.86280000
2.95430000 6.03550000 10.24710000
-1.74700000 -20.22570000 -10.39210000
27.76800000 -14.24630000 7.92810000
-3.09210000 -16.69960000 6.25740000
2.36940000 6.39610000 9.34160000
5.36070000 -31.51320000 8.92840000
27.15200000 -16.30670000 -9.10190000
4.91170000 -31.22480000 8.94700000
5.50500000 -31.31050000 9.11880000
4.72990000 -30.73470000 8.86830000
-0.98470000 -16.90360000 6.11320000
-0.66860000 -18.17520000 6.50310000
-1.98870000 -18.18980000 6.04400000
26.46400000 -15.49100000 10.24410000
8.83050000 23.14190000 -3.37420000
5.38190000 -30.83790000 9.01930000
-2.14940000 -18.82240000 -10.27910000
-1.56170000 -19.31030000 -10.47230000
1.48590000 6.69940000 7.83950000
-0.52380000 -21.24770000 -10.28860000
25.96970000 -14.35480000 10.31320000
3.22210000 -29.72610000 8.07490000
3.59910000 -29.77140000 8.24550000
-2.86810000 -17.48290000 8.39070000
4.26600000 -30.03040000 8.61840000
27.37120000 -14.29550000 9.65270000
5.19220000 -30.18610000 8.70970000
4.19750000 -29.59200000 7.94550000
4.03170000 -29.75940000 8.37630000
5.02710000 -29.62320000 8.13330000
26.83080000 -14.53350000 10.17820000
4.59650000 -29.78720000 8.42840000
5.20480000 -29.80050000 8.42540000
26.92750000 -15.06870000 -9.10010000
1.07400000 7.06450000 7.20690000
-2.95710000 -17.11910000 8.03550000
-0.74810000 -20.02950000 -10.43080000
27.57620000 -16.63680000 -8.62440000
-0.19110000 -20.41710000 -10.19280000
26.30830000 -14.04170000 10.33950000
1.57420000 7.22820000 7.53710000
-2.84870000 -16.36160000 7.70680000
1.07170000 7.53060000 7.11810000
-2.84920000 -15.96190000 7.07070000
0.24850000 -20.42820000 -10.06330000
27.76020000 -16.20350000 -8.01980000
2.53460000 6.92080000 8.87280000
1.91970000 7.01560000 7.91920000
7.35900000 -31.72490000 7.39360000
27.43050000 -15.67330000 -8.70410000
2.56100000 7.45690000 7.85780000
1.97630000 7.43660000 7.54160000
1.67940000 7.92110000 7.16650000
1.39160000 7.74910000 7.22840000
27.18870000 -14.02630000 9.90620000
24.85400000 -13.68340000 -10.26750000
2.52150000 7.90820000 7.10580000
0.34090000 -18.45440000 6.78970000
-0.65050000 -19.44410000 6.72450000
-1.13510000 -20.28560000 -10.48760000
27.70630000 -13.34820000 8.86890000
6.28100000 -31.52970000 9.03080000
3.53060000 7.19860000 9.84560000
-11.45820000 13.26000000 -5.43530000
27.35080000 -12.80680000 9.64190000
-11.21620000 13.19460000 -6.62080000
6.12360000 -31.26260000 9.20120000
27.78700000 -12.19820000 8.79550000
-0.01430000 -18.74490000 -10.30900000
5.89850000 -30.95560000 9.16430000
6.65970000 -30.99940000 9.14390000
27.94390000 -13.72180000 7.37300000
3.31280000 7.80970000 8.23540000
27.97480000 -13.08000000 7.57340000
0.13690000 -16.28850000 6.26410000
0.48000000 -19.63370000 -9.94170000
25.74740000 -16.06390000 -7.19600000
3.52540000 8.43120000 6.99700000
13.72580000 19.98820000 -2.70850000
-1.09410000 -17.55820000 -10.61650000
-0.48160000 -17.72370000 -10.58200000
7.77330000 -31.07690000 9.05620000
26.20590000 -16.20260000 -6.87780000
7.42890000 -30.30620000 8.77880000
8.76100000 -30.71880000 8.92790000
6.19270000 -30.29180000 8.84340000
25.89670000 -15.22820000 -7.07840000
4.00420000 7.97320000 9.23870000
27.95120000 -12.52420000 8.17120000
5.81260000 -29.71470000 8.39680000
-3.13510000 -20.00400000 -8.81550000
26.36010000 -15.25580000 -6.72060000
6.36020000 -29.63300000 8.20030000
14.06620000 20.32690000 -2.12960000
-3.22000000 -19.95740000 -8.09690000
4.17190000 5.44540000 11.56110000
28.55560000 -11.55630000 6.81620000
28.31500000 -12.26730000 7.01680000
-9.92460000 2.85880000 -7.36930000
-1.97620000 -17.12840000 9.14810000
26.82010000 -15.73460000 -6.52490000
3.78620000 5.63110000 11.00780000
4.12730000 6.01280000 11.17770000
6.96480000 -29.81460000 8.45970000
7.65700000 -29.68330000 8.08280000
6.39140000 -29.57480000 7.71600000
3.19760000 6.52120000 10.22350000
27.51080000 -15.35300000 -6.34150000
7.40690000 -29.63900000 6.96410000
26.84020000 -15.14620000 -6.37650000
13.30330000 21.05000000 -2.23510000
-0.83440000 -16.81680000 9.40960000
3.47910000 6.12120000 10.63980000
-10.22980000 3.83080000 -7.63820000
3.47300000 -29.65450000 6.08780000
3.89480000 6.15950000 10.86200000
-9.02240000 3.65730000 -7.55100000
4.17080000 -29.60830000 6.87490000
-8.76050000 2.67330000 -7.44940000
-2.93840000 -18.66120000 -9.11000000
27.56060000 -15.13290000 -8.22530000
20.67450000 -12.76630000 5.85560000
3.83640000 6.95020000 10.38310000
22.02560000 -13.39010000 6.22470000
21.30790000 -13.14680000 6.01620000
4.32990000 6.72210000 10.82640000
-3.18520000 -20.10800000 -7.73180000
0.57490000 -16.39200000 9.24250000
27.68820000 -14.33230000 -7.17180000
-2.83940000 -20.12040000 -7.47840000
-3.03810000 -19.86900000 -7.49890000
5.73360000 -29.60940000 6.85850000
-2.36560000 -16.81770000 8.83140000
-2.53710000 -16.39970000 8.44640000
4.52080000 8.00960000 9.81560000
-1.86980000 -19.21700000 -7.58300000
-2.57340000 -19.60360000 -7.37490000
27.12820000 -14.28930000 -8.64510000
-3.11210000 -19.10690000 -7.41290000
-3.12430000 -18.63160000 -7.91810000
-1.40510000 -16.77810000 9.32110000
-2.88710000 -19.42260000 -7.30780000
-9.16570000 4.51880000 -7.71570000
27.79010000 -14.99870000 -6.52350000
-1.20830000 -19.42320000 -7.88340000
3.52750000 -29.60620000 7.70530000
3.05540000 -29.56060000 7.47900000
8.91570000 23.53950000 -2.73830000
21.32670000 -12.60850000 6.20060000
4.82520000 5.61500000 12.06530000
-0.81080000 -15.36710000 9.27710000
4.56920000 6.21280000 11.49670000
5.11560000 6.40320000 11.75550000
27.39910000 -13.71660000 -7.80450000
5.32220000 7.23340000 11.08050000
25.62330000 -13.74690000 -9.82980000
-2.12010000 -15.49050000 8.56220000
-1.73510000 -15.39970000 8.90510000
-1.29230000 -15.27240000 9.11620000
4.57970000 7.45510000 10.38940000
5.30300000 7.74320000 10.45660000
-7.01100000 3.76350000 -7.47240000
26.22380000 -13.37360000 -9.28480000
5.51020000 6.21450000 12.09040000
5.02710000 -29.53890000 7.60140000
25.06860000 -12.47430000 6.53070000
24.29290000 -12.59750000 6.73460000
7.46870000 24.46670000 -2.17190000
8.57670000 24.00080000 -2.05500000
22.66400000 -12.81510000 6.65890000
0.40430000 -20.19100000 -8.42610000
-0.27900000 -19.39520000 -8.12330000
21.89330000 -12.37490000 6.50390000
6.20060000 6.37270000 12.18550000
-0.18610000 -16.66650000 9.39010000
6.74270000 6.08180000 12.36650000
5.82890000 6.84710000 11.76390000
22.38710000 -11.97100000 6.74130000
6.91720000 6.78280000 11.96870000
-6.45630000 3.75590000 -7.46050000
6.81480000 -29.66850000 6.40570000
-5.50640000 4.35920000 -7.36270000
-5.17990000 4.13350000 -7.56140000
20.76160000 -12.08150000 6.10120000
7.24000000 -29.66900000 5.91830000
-0.26240000 -14.65560000 9.32090000
-7.97570000 4.41370000 -7.65260000
20.30120000 -11.54940000 6.02310000
20.86550000 -11.55720000 6.28360000
6.55370000 7.24050000 11.59560000
0.85570000 -19.30890000 -8.46280000
21.28550000 -11.94830000 6.37690000
6.07120000 7.48450000 11.22070000
21.21940000 -11.54920000 6.44470000
21.09790000 -11.16480000 6.45810000
-5.81450000 4.62880000 -7.30810000
10.48100000 22.94660000 -2.46470000
27.00500000 -12.89350000 -8.09340000
26.24490000 -12.29790000 -8.93520000
-7.20670000 4.70050000 -7.60960000
21.63890000 -11.53220000 6.60250000
9.36030000 5.78930000 10.84370000
22.09820000 -11.33010000 6.76910000
21.41680000 -11.06080000 6.59910000
21.21760000 -10.67260000 6.55720000
20.81920000 -10.73630000 6.38410000
21.73000000 -10.88400000 6.72140000
11.94110000 22.51800000 -1.79540000
9.49680000 6.97100000 10.60980000
8.70380000 7.21340000 11.07200000
26.80870000 -11.92970000 -8.01260000
-6.18170000 5.02900000 -7.40570000
-6.97800000 5.21290000 -7.66310000
7.59830000 6.40190000 12.02840000
26.39150000 -11.17680000 -8.51140000
22.61240000 -11.34790000 6.84880000
10.79910000 23.11140000 -1.86290000
-10.09480000 5.28780000 -7.99840000
-9.12530000 4.97660000 -7.90900000
0.43450000 -18.96010000 -8.21370000
-9.88070000 5.68460000 -8.23620000
0.35180000 -14.41310000 9.35140000
22.13880000 -10.94510000 6.81650000
10.75320000 23.35920000 -1.21270000
23.38880000 -12.45980000 6.81230000
7.73950000 7.16530000 11.53960000
7.29350000 7.49220000 11.38900000
-8.67520000 5.31030000 -8.07140000
0.94550000 -15.16190000 9.18230000
-0.03870000 -18.22830000 -7.86900000
0.36770000 -18.02550000 -7.86880000
21.27500000 -12.54590000 -11.03230000
-10.51340000 6.62280000 -8.46820000
-9.92630000 6.13200000 -8.43650000
-2.65690000 -18.35680000 -9.76710000
9.27290000 22.38620000 2.45130000
10.08570000 22.90830000 1.75960000
-10.13710000 6.76470000 -8.55000000
8.85110000 23.16110000 1.75000000
-2.94630000 -16.74600000 5.63550000
-2.97910000 -17.19900000 5.61510000
8.45310000 8.06190000 10.59450000
-9.41970000 6.00150000 -8.37470000
-2.71140000 -18.18380000 5.78030000
-2.67870000 -16.70850000 5.51850000
-2.26500000 -16.31030000 5.47780000
7.70740000 23.05900000 2.46560000
8.31280000 23.87040000 1.09020000
-8.62600000 5.87180000 -8.11340000
-9.37160000 6.50610000 -8.31840000
-8.19070000 5.41360000 -8.00510000
23.18470000 -11.40070000 6.87920000
23.87320000 -11.69800000 6.86500000
-9.90110000 7.16460000 -8.50850000
-1.81660000 -17.75100000 -10.42620000
5.19130000 8.30200000 9.89610000
-8.43050000 6.16700000 -7.89400000
-9.02700000 6.81960000 -7.91020000
-2.30740000 -17.61490000 -10.08450000
-2.82340000 -16.09370000 5.74730000
10.21710000 23.36870000 1.07570000
-9.59380000 7.21490000 -8.29210000
9.31370000 23.97560000 0.30360000
-2.78690000 -15.60890000 6.06630000
-9.15040000 7.30650000 -7.85890000
6.01360000 8.67660000 9.76180000
6.26880000 8.14440000 10.46430000
-1.53290000 -16.15010000 5.74190000
11.84370000 23.09410000 -0.45590000
10.77030000 23.55080000 -0.36870000
-1.66700000 -16.62860000 -10.41570000
12.23770000 22.97400000 0.13500000
5.19560000 9.00220000 8.78700000
4.68780000 9.01860000 7.70650000
-7.58480000 5.66040000 -7.79640000
23.27540000 -10.71580000 6.80990000
-1.95840000 -15.64130000 5.35050000
5.74180000 9.16670000 9.08150000
22.81280000 -10.87320000 6.86860000
-2.94440000 -17.60600000 -8.55830000
-2.50910000 -15.83370000 5.40690000
-2.74820000 -17.07550000 -9.05240000
-7.26890000 6.01080000 -7.55880000
-2.71200000 -15.44210000 5.65430000
-2.57930000 -15.35430000 5.36590000
-2.41540000 -16.46690000 -9.54460000
-8.25050000 6.45710000 -7.60580000
24.26780000 -11.11170000 6.67220000
25.58000000 -12.18860000 6.25790000
-2.32790000 -15.14890000 5.08920000
24.75200000 -10.93750000 6.38440000
-1.93390000 -15.73970000 -10.00860000
-2.63420000 -14.87540000 5.37090000
20.26400000 -10.46730000 -11.26120000
-1.40780000 -15.50420000 5.55860000
-6.08580000 5.66370000 -7.40970000
-6.61400000 6.16420000 -7.40850000
20.54910000 -11.05950000 6.22320000
-1.19970000 -14.83450000 5.34100000
11.62390000 22.85690000 1.37000000
10.72730000 23.45620000 0.62300000
-0.66480000 -15.38170000 5.79510000
12.04200000 22.90050000 0.90780000
-7.57420000 6.58310000 -7.41800000
-2.02230000 -14.91440000 4.96370000
6.83210000 7.94750000 10.91300000
20.84140000 -10.32720000 6.43200000
22.55380000 -14.48870000 -7.98140000
-8.43610000 6.87360000 -7.51380000
-8.84950000 7.57820000 -7.68470000
-9.54280000 7.79960000 -8.19180000
24.53250000 -9.80270000 5.76450000
24.39590000 -9.24670000 5.33200000
25.42240000 -9.96110000 5.07160000
-2.68940000 -15.10470000 6.55800000
8.04340000 8.58150000 10.11410000
9.16470000 8.91050000 9.43840000
24.94490000 -9.20610000 4.69400000
-7.00300000 6.75480000 -7.44990000
-6.55000000 6.50370000 -7.46150000
24.27980000 -8.61490000 4.95210000
7.13750000 8.91130000 9.61580000
7.19000000 8.52620000 10.20980000
-6.07710000 6.14210000 -7.38340000
23.60340000 -10.25850000 6.63310000
-6.01890000 6.48250000 -7.46310000
6.60740000 9.46180000 9.01030000
7.61220000 9.45450000 8.92670000
-8.27900000 7.09930000 -7.46420000
24.46160000 -10.22250000 6.17160000
25.12770000 -10.58370000 5.91990000
-7.93500000 7.24060000 -7.48660000
23.93380000 -9.68640000 6.22640000
-2.67630000 -14.66120000 5.73200000
8.25870000 8.86680000 9.60890000
24.08850000 -10.29580000 6.46040000
23.69120000 -9.87900000 6.49190000
-8.24020000 7.84640000 -7.75510000
8.79940000 9.25000000 9.10170000
-7.49400000 7.33350000 -7.59590000
10.86710000 23.51740000 0.19330000
-2.60420000 -15.14670000 7.34830000
-2.65520000 -14.53120000 6.52690000
8.14330000 9.18510000 9.18460000
-6.70160000 7.16530000 -7.64580000
22.19910000 -11.24850000 -11.17320000
23.94360000 -9.23880000 5.88860000
23.36270000 -9.09120000 6.23900000
-5.96930000 6.82250000 -7.49860000
-7.56280000 7.74490000 -7.78000000
-7.26440000 7.86710000 -7.76600000
9.49740000 24.05470000 -0.24560000
8.53000000 24.57080000 -0.33100000
8.55770000 24.38720000 0.07620000
7.53480000 8.12620000 10.74610000
-5.89270000 7.08040000 -7.43990000
9.36840000 24.03680000 -0.79750000
8.31830000 24.54730000 -0.83060000
-6.20290000 7.58380000 -7.36550000
23.69190000 -10.62110000 -10.63880000
26.57680000 -13.30410000 5.46740000
-5.70230000 7.67660000 -6.54050000
-7.24420000 8.43560000 -7.39410000
7.70290000 24.62840000 -1.42270000
-7.04370000 8.54140000 -6.92580000
-6.00550000 8.20990000 -5.70790000
-7.69810000 9.27500000 -6.21960000
27.24340000 -13.08750000 4.98140000
27.87530000 -13.52100000 4.89240000
25.96970000 -13.26730000 5.89460000
0.86950000 -15.53670000 6.17320000
0.78760000 7.77330000 6.71190000
9.62460000 -29.72150000 4.97670000
1.07490000 8.12120000 6.76720000
25.06020000 -11.84930000 -9.92160000
-2.95430000 -18.63780000 -7.01440000
-2.77920000 -18.69020000 -6.94860000
-2.49530000 -18.74890000 -7.02800000
-4.27870000 4.92930000 -7.37990000
1.36570000 8.33790000 6.80010000
7.23720000 24.32820000 1.19530000
7.58590000 24.70640000 0.50630000
-0.51070000 -14.21410000 5.37440000
-1.69930000 -18.23980000 -7.23550000
8.64300000 -29.61670000 6.43190000
9.21860000 -29.61500000 5.89360000
0.42240000 -14.70360000 5.77610000
1.41580000 9.06790000 6.08800000
7.37950000 25.24830000 -0.09640000
-3.07980000 -18.03360000 -7.16130000
-2.83590000 -17.97420000 -6.67550000
-2.58440000 -18.14100000 -6.67340000
-2.97920000 -17.89200000 -6.82190000
26.31820000 -12.13710000 5.57730000
-2.92240000 -16.52390000 -6.96840000
-2.65950000 -14.21840000 5.12770000
-2.52650000 -14.37800000 4.79070000
2.14070000 7.96790000 7.03900000
-4.69880000 4.99550000 -7.20650000
7.34690000 25.36910000 -0.40210000
-2.75810000 -13.58570000 4.72080000
-2.68910000 -13.61740000 4.23920000
-2.03580000 -14.04030000 4.27790000
-2.23020000 -13.08430000 3.49680000
-2.07220000 -13.43810000 3.81510000
-1.87680000 -13.58690000 4.12550000
27.18240000 -12.15060000 4.48590000
-2.15330000 -14.47310000 4.63180000
3.07920000 8.28660000 6.75790000
-1.82120000 -14.40930000 4.73830000
-4.77120000 5.46170000 -7.03100000
1.91530000 8.68070000 6.51060000
1.64590000 8.79420000 6.46760000
2.30750000 8.87560000 6.14520000
-2.07960000 -17.75290000 -6.71600000
26.53380000 -10.85810000 4.55000000
-1.16090000 -14.17240000 5.02070000
-5.18370000 5.60340000 -7.15110000
2.62020000 8.50460000 6.32400000
-2.35700000 -14.20780000 4.42320000
11.84780000 -29.85330000 4.58010000
13.08260000 -29.89500000 3.49980000
-1.40800000 -13.93070000 4.70000000
7.58360000 25.13770000 -0.62500000
-1.58010000 -13.62900000 4.40520000
-2.52320000 -17.01910000 -6.32400000
28.19220000 -13.82860000 4.99430000
-2.74880000 -16.81020000 -6.41300000
-2.89670000 -16.77290000 -6.65270000
28.36640000 -13.72190000 5.14010000
-2.99120000 -12.94550000 3.25350000
-2.62530000 -13.50360000 3.60120000
-2.33510000 -17.51740000 -6.49260000
-3.21680000 -12.28810000 4.66090000
28.38170000 -13.44090000 5.33390000
-4.24030000 5.66310000 -6.90770000
-2.46730000 -12.86050000 3.19130000
-3.72890000 5.94710000 -6.72330000
27.81940000 -12.83880000 4.48710000
28.13380000 -13.28700000 4.77850000
2.70840000 9.25580000 5.56880000
28.27890000 -13.29540000 4.94930000
28.33960000 -12.98970000 4.61310000
-1.89940000 -13.12600000 3.72070000
-1.67400000 -13.29860000 4.08500000
28.46270000 -12.97320000 4.94800000
2.09040000 10.12530000 5.40380000
-2.98300000 -12.72100000 2.76580000
28.17660000 -12.85700000 4.39650000
-2.15450000 -16.64470000 -6.24050000
1.85530000 9.98590000 5.52650000
3.13490000 8.82050000 5.90620000
3.03440000 9.27940000 5.41120000
28.51530000 -12.53840000 4.00160000
28.87590000 -12.31770000 3.83700000
-2.67700000 5.96760000 -6.98540000
29.01930000 -12.23180000 4.20570000
28.68140000 -12.34800000 5.56950000
-0.67780000 -18.12320000 -7.74290000
27.57410000 -10.68930000 3.26550000
28.44270000 -12.08980000 3.55320000
3.64280000 8.99300000 5.91990000
-0.98620000 -17.72720000 -7.46400000
-2.76640000 -13.77190000 6.10210000
-3.01950000 -12.81970000 5.53240000
11.08800000 -29.73130000 5.29720000
3.47570000 9.31030000 5.41000000
29.29570000 -11.83080000 3.44760000
10.48680000 -29.64680000 6.44460000
13.82000000 21.11130000 -1.38810000
28.47230000 -12.81960000 5.63180000
1.56000000 9.81590000 5.41000000
2.40360000 10.22540000 5.10590000
-5.41160000 5.99710000 -7.29310000
12.70750000 -29.81360000 5.19570000
-1.11500000 -13.44390000 4.56880000
12.91990000 21.87380000 -1.68650000
-1.11710000 -16.90860000 -6.90840000
-1.40030000 -13.30060000 4.30720000
13.20830000 22.01440000 -0.91570000
-1.45750000 -12.97470000 3.99820000
1.67180000 11.02750000 4.69690000
-5.49490000 6.47490000 -7.36940000
29.11670000 -11.90440000 4.64730000
-0.79150000 -13.70320000 4.90710000
29.03680000 -11.56560000 5.34700000
-0.77540000 -13.36680000 4.71660000
2.74660000 10.12350000 4.89600000
-2.84840000 -16.43570000 -7.77420000
-0.26200000 -13.56750000 5.11900000
3.42420000 9.76580000 4.99120000
-0.49440000 -13.29100000 4.83410000
0.16890000 -13.73720000 5.43720000
-4.43510000 6.04840000 -6.75010000
3.03510000 10.08150000 4.80020000
3.19060000 10.51940000 4.57220000
3.64080000 10.07840000 4.85560000
13.58160000 21.58040000 -0.69310000
-5.08980000 6.43630000 -7.15780000
-2.60550000 -15.79500000 -8.48410000
26.95040000 -10.17250000 3.52940000
26.61480000 -10.11260000 3.85980000
0.07820000 -13.37720000 5.19110000
13.29330000 22.06940000 -0.26400000
2.21220000 11.31860000 4.60980000
2.52270000 10.97310000 4.56150000
-2.24280000 -15.23470000 -9.24160000
-4.71720000 6.07100000 -6.90560000
-0.79080000 -13.02460000 4.50340000
-1.17920000 -13.10870000 4.31580000
1.88810000 11.43520000 4.60150000
-4.78580000 6.49870000 -6.87190000
-4.11520000 6.23470000 -6.48120000
25.88940000 -10.96770000 5.47050000
-1.13240000 -12.77950000 4.09860000
-5.22040000 6.86900000 -7.11080000
12.38210000 22.70570000 -0.85470000
2.85990000 10.99680000 4.41770000
-4.47230000 6.54800000 -6.46450000
3.62930000 10.55800000 4.69510000
-0.11020000 -13.18820000 4.97520000
-0.33200000 -12.93570000 4.71410000
-0.54260000 -12.68330000 4.43850000
8.38390000 -30.15860000 8.71060000
-5.15900000 7.04330000 -6.82880000
-0.83760000 -12.62490000 4.19090000
-0.65630000 -12.29290000 4.13140000
2.51740000 11.77780000 4.27640000
-1.68240000 -16.55900000 -6.43960000
3.26520000 11.29670000 4.44100000
-4.66010000 6.94410000 -6.22650000
2.89820000 11.82950000 4.25920000
-2.44240000 -15.32970000 7.94680000
26.07530000 -9.49070000 3.89370000
4.54880000 9.23870000 6.55580000
-2.51880000 -14.33590000 7.30610000
4.07690000 9.69760000 5.31670000
28.33230000 -11.15480000 2.92440000
25.75600000 -10.65940000 -9.18610000
5.09970000 9.77450000 6.15120000
25.06290000 -10.16110000 -9.75430000
-2.20510000 -14.67280000 8.11400000
13.03670000 22.26880000 0.47100000
12.79520000 22.59980000 -0.08460000
9.29430000 -30.19560000 8.67460000
10.35510000 -30.62240000 8.91910000
-2.68840000 -14.96900000 -7.29580000
9.90340000 -30.04140000 8.51190000
12.57860000 22.65650000 0.67910000
7.91490000 -29.89690000 8.51910000
0.48470000 -17.22890000 -7.43450000
-0.80510000 -17.39430000 -7.36520000
29.01600000 -11.79900000 3.15380000
8.46110000 -29.60010000 7.45800000
7.98260000 -29.65440000 6.99480000
-4.19410000 6.94990000 -5.81830000
-4.31560000 7.53700000 -5.08010000
-4.71160000 7.34350000 -5.60790000
-2.47970000 -13.38300000 7.54010000
-2.75020000 -13.28590000 6.85300000
-3.53400000 6.93190000 -5.80640000
8.82530000 -29.85120000 8.47330000
29.40780000 -11.38250000 2.97900000
-2.19690000 -13.85900000 8.01940000
5.57930000 9.81080000 6.69010000
28.77090000 -11.42450000 2.89550000
9.31830000 -29.68470000 8.10950000
9.14390000 -29.60140000 7.53070000
29.21250000 -11.08780000 2.68190000
-1.17050000 -16.10750000 -6.49330000
-1.84590000 -14.43280000 8.56400000
-0.39710000 -16.96340000 -7.12860000
29.74890000 -10.85990000 2.87980000
-1.42190000 -13.81190000 8.84130000
29.64850000 -10.68700000 2.56620000
-3.54440000 7.86550000 -4.63920000
29.44970000 -11.59410000 3.77300000
-1.46150000 -15.35990000 -10.36010000
-1.83110000 -13.54420000 8.49120000
10.12130000 -29.85350000 8.19900000
29.77430000 -10.70840000 3.28530000
-0.86460000 -14.15770000 9.11800000
9.97760000 -29.64020000 7.41430000
28.02390000 -9.68790000 2.35220000
28.73130000 -10.54650000 2.40100000
10.34500000 -29.76060000 7.89990000
-1.10150000 -15.78200000 -10.59890000
23.03410000 -18.27870000 6.64450000
-0.30340000 -15.59320000 -10.71460000
-0.32020000 -14.31240000 -10.73290000
6.10940000 9.79720000 7.86440000
5.72260000 9.73380000 7.26290000
23.29590000 -17.97310000 6.44830000
-2.22280000 -12.87270000 8.08070000
-1.73890000 -12.72720000 8.58540000
29.32880000 -10.28890000 2.14130000
25.25510000 -18.28010000 5.97010000
25.92280000 -18.93760000 5.89440000
11.25340000 -29.75220000 7.32060000
6.33120000 10.28050000 6.55170000
29.46220000 -10.61020000 4.39320000
11.77270000 -29.69900000 6.29980000
12.67370000 -29.77260000 6.91100000
1.66660000 29.92110000 -2.62690000
28.62500000 -10.93420000 6.63150000
11.48340000 -30.42750000 8.78780000
7.01600000 10.42240000 6.83600000
-2.89910000 7.64300000 -5.09720000
1.53560000 21.28690000 3.75000000
2.25670000 21.35940000 4.24830000
6.85980000 10.61960000 6.48770000
11.13370000 -29.96340000 8.24290000
29.73490000 -9.08980000 3.28710000
29.25950000 -9.17620000 4.13420000
29.22120000 -10.04050000 4.82860000
0.95990000 21.30190000 3.24800000
-0.87800000 -14.36130000 -10.61430000
-1.30710000 -14.40090000 -10.40060000
0.69310000 22.11540000 3.80310000
6.74240000 9.94180000 8.24870000
7.73700000 10.56300000 7.29930000
0.18140000 21.89270000 3.06350000
12.50580000 -30.44380000 8.91390000
-3.05180000 -12.54010000 6.25210000
25.57300000 -11.65350000 6.10810000
11.78220000 -30.09800000 8.45940000
-2.67710000 -12.65180000 7.40540000
12.52080000 -29.93530000 8.11780000
12.40060000 -30.15150000 8.61150000
-3.06170000 -11.94910000 6.98260000
-10.76100000 7.46930000 -8.56410000
-10.25990000 7.63800000 -8.58420000
4.69080000 9.87870000 5.65530000
4.33660000 10.18860000 5.17150000
-3.44320000 -11.44090000 6.17570000
-1.77490000 -14.42500000 -9.95390000
-10.71540000 8.16950000 -8.52370000
1.52810000 21.96660000 4.36070000
4.22050000 10.70090000 5.02420000
4.85930000 10.61540000 5.43550000
-2.16340000 -14.28830000 -9.25970000
5.34760000 10.30880000 5.87850000
-9.71830000 8.33260000 -8.37850000
-10.03850000 8.53180000 -8.43670000
-1.99190000 -13.50830000 -9.74450000
2.06020000 21.92140000 4.61600000
-2.55390000 -11.89480000 7.96340000
-2.50990000 -14.28010000 -8.10870000
-9.34500000 8.18650000 -8.13890000
5.69800000 10.84040000 5.83120000
5.56170000 11.16450000 5.71170000
2.53020000 22.13050000 4.86440000
0.86610000 23.36550000 4.58730000
1.96470000 22.60160000 4.89720000
-8.87530000 8.15950000 -7.94300000
3.95280000 11.36320000 4.94750000
26.91560000 -18.29810000 5.56560000
-9.00650000 8.52550000 -8.11670000
-3.80220000 -10.23140000 6.92200000
-8.38970000 8.30090000 -7.94430000
-8.73630000 8.70610000 -8.03700000
1.34720000 23.40290000 4.88730000
4.72030000 11.35010000 5.43300000
-10.44730000 8.82800000 -8.33880000
2.21750000 23.22990000 5.09330000
-2.34660000 -13.44820000 -8.98650000
-2.34950000 -12.71910000 -9.38690000
-2.61130000 -13.45130000 -8.00680000
-10.78900000 9.45210000 -8.09630000
-10.49200000 9.30440000 -8.06360000
1.53840000 23.98530000 5.16350000
-9.55100000 8.96520000 -8.22540000
5.33310000 11.68340000 5.71430000
27.93880000 -10.99230000 8.20360000
28.53960000 -10.36490000 6.55430000
6.27100000 10.74080000 6.19610000
7.41810000 19.57790000 4.75980000
28.04420000 -19.46820000 5.31990000
0.01040000 -12.90540000 4.87030000
7.11460000 20.10810000 4.50590000
-9.88550000 9.29990000 -8.05700000
-9.34810000 9.29530000 -7.94190000
27.91600000 -18.57590000 5.18050000
28.31190000 -18.74290000 5.13150000
-8.37130000 8.97950000 -7.69950000
9.22580000 -29.56340000 6.80560000
27.87940000 -10.42050000 7.89380000
28.71640000 -9.71720000 5.62640000
-1.19310000 -13.17510000 -10.50660000
28.28790000 -9.65790000 6.27370000
-10.05050000 9.67210000 -7.73830000
-0.66310000 -12.55950000 -10.74130000
-10.78370000 10.03640000 -8.27320000
-10.36560000 9.72060000 -7.88000000
-9.97850000 10.08610000 -7.47780000
7.54280000 20.61190000 4.34670000
7.18370000 21.00750000 4.22970000
6.01060000 11.88810000 5.91600000
-1.62570000 -13.10820000 -10.22170000
-10.23710000 10.26900000 -7.84230000
3.03540000 21.05540000 3.99680000
-9.64240000 9.66150000 -7.60460000
27.75980000 -17.36080000 5.19500000
-1.18690000 -11.95460000 9.03450000
-1.87700000 -11.85370000 8.63790000
3.80580000 21.05790000 3.72400000
-9.09850000 9.55950000 -7.45040000
-0.63780000 -13.13980000 9.17810000
3.40030000 21.56040000 4.37840000
3.96050000 21.70650000 4.11790000
0.23260000 -12.70180000 9.44630000
-8.72280000 9.78150000 -6.65030000
-8.24730000 9.23310000 -7.20140000
-9.42600000 10.06040000 -6.97600000
-9.92500000 10.47780000 -7.38000000
-2.66980000 -11.26030000 -9.60690000
-1.96750000 -12.22150000 -10.03940000
7.08270000 11.04900000 6.26720000
26.45180000 -16.94910000 5.62360000
-2.87220000 -11.50820000 -9.15020000
4.53340000 21.52320000 3.57500000
4.98690000 21.54110000 3.20580000
6.41800000 11.39070000 5.98720000
25.56100000 -8.88030000 3.78190000
5.09380000 22.13820000 3.19250000
7.20360000 11.54120000 6.04490000
-7.74000000 8.39900000 -7.75880000
7.77520000 10.84130000 6.51160000
4.27980000 22.14670000 4.05400000
8.13460000 11.23000000 6.10970000
8.64980000 11.13700000 6.22220000
27.09740000 -8.60510000 5.87730000
27.32550000 -9.06570000 6.42460000
27.51170000 -8.76040000 5.49130000
2.95980000 21.73980000 4.67350000
7.94730000 11.61190000 5.93040000
-0.36710000 -11.57610000 9.38980000
8.40520000 10.83090000 6.93910000
3.48310000 21.99540000 4.65680000
2.91390000 22.36300000 4.94360000
28.69860000 -18.79380000 5.25490000
6.82850000 11.95410000 5.98000000
28.91350000 -18.19630000 5.38240000
28.81970000 -17.87000000 5.15960000
28.62270000 -18.19360000 5.07190000
3.53110000 22.32290000 4.73270000
28.90920000 -18.50770000 5.77450000
3.68460000 23.05000000 4.59940000
3.02650000 22.92640000 4.94180000
0.31090000 -10.00680000 9.76530000
28.15380000 -9.07860000 5.43630000
28.42370000 -8.59200000 4.37680000
27.94860000 -8.41370000 4.39030000
28.34610000 -17.89400000 5.02690000
7.58700000 12.04750000 5.91450000
4.12230000 22.73110000 4.28700000
4.79970000 22.98320000 3.54790000
8.53220000 11.94000000 5.67790000
28.87580000 -8.87800000 4.34720000
8.52130000 12.43290000 5.65700000
28.37530000 -16.71340000 5.05260000
4.33570000 23.89170000 3.98300000
28.72740000 -17.12400000 5.07870000
-10.71230000 10.52040000 -8.49270000
6.67450000 20.87430000 3.81050000
-2.66860000 -10.46420000 8.40550000
-3.51540000 -9.93140000 7.69520000
-10.40730000 10.42350000 -8.17630000
6.89020000 21.22210000 3.97810000
-10.24640000 10.85810000 -8.24290000
27.67280000 -9.51650000 6.89150000
-10.90140000 10.96280000 -8.69800000
6.30920000 21.71010000 3.21390000
-2.43690000 -10.58020000 -10.03970000
29.05730000 -17.36610000 5.93960000
-2.15060000 -10.14740000 8.87520000
26.85310000 -9.48210000 7.66300000
7.28160000 21.73570000 3.82580000
-10.75680000 11.72770000 -8.56270000
-10.26590000 11.47880000 -8.31290000
-9.90590000 10.98400000 -7.49060000
6.94620000 21.96810000 3.69970000
29.09240000 -17.09130000 5.50630000
-9.99970000 11.17670000 -7.99700000
29.03830000 -16.72050000 5.29900000
28.93170000 -16.37490000 5.16440000
5.45740000 22.40680000 2.86790000
6.06660000 22.58480000 2.73740000
5.73840000 22.45890000 2.74800000
8.04580000 9.87420000 8.44540000
7.28680000 10.06310000 8.26350000
-1.74590000 -9.37410000 9.24920000
-4.08780000 -21.94920000 6.19230000
6.51900000 22.39570000 3.17830000
5.82180000 -29.92590000 8.62140000
-4.36830000 -22.22990000 6.52620000
21.48820000 -13.19790000 9.85160000
7.09220000 22.71650000 3.14210000
-4.19160000 -21.84410000 6.31550000
6.75650000 22.67200000 3.18740000
-7.42740000 9.44840000 -4.99310000
-5.82780000 8.42650000 -4.86120000
21.83640000 -12.61110000 10.24890000
-4.02410000 -21.35890000 6.51390000
2.17700000 23.99020000 5.13670000
8.16410000 10.42980000 7.73490000
22.53880000 -12.85820000 10.28250000
2.73290000 23.99080000 4.92240000
3.79390000 24.11250000 4.36410000
23.77400000 -12.86020000 10.29500000
9.09280000 10.01780000 8.03010000
8.92540000 10.71330000 7.11620000
7.85570000 19.09110000 4.86080000
2.04940000 -23.19010000 7.65980000
28.73010000 -15.89010000 5.04810000
-3.74290000 -21.32230000 6.19250000
-3.49360000 -21.05480000 6.18260000
-6.84480000 9.47440000 -4.20430000
-6.47920000 9.58520000 -3.93730000
-6.17550000 9.16110000 -4.26380000
-2.87550000 -20.12530000 6.17450000
-7.74020000 10.05120000 -4.24010000
-3.80070000 -20.81440000 7.00830000
21.13940000 -12.22150000 10.11530000
-3.82970000 -21.10860000 6.29520000
-0.92160000 -9.09270000 9.61750000
-7.37140000 10.25930000 -3.45470000
-8.20320000 10.85680000 -3.51340000
-7.76010000 10.79200000 -3.11350000
8.29920000 20.78610000 3.92430000
-3.72150000 -20.43740000 6.48910000
-6.81160000 9.94130000 -3.52530000
-6.34850000 9.88320000 -3.53110000
-3.61130000 -20.49340000 6.25980000
-7.02380000 10.23340000 -2.96710000
-6.57360000 10.03930000 -3.11880000
11.81870000 4.63740000 8.28500000
-6.02630000 9.95820000 -3.17240000
-3.35890000 -19.69970000 6.11860000
-3.21230000 -19.99780000 6.11250000
-6.48080000 10.05730000 -2.65020000
20.25590000 -14.43910000 -6.98220000
21.28920000 -11.21760000 10.42750000
20.58140000 -14.20030000 -7.10900000
21.05130000 -14.35330000 -7.35000000
21.60100000 -14.07520000 -7.51260000
21.03860000 -13.92550000 -7.27480000
22.50850000 -12.15300000 10.46180000
-5.77800000 9.45410000 -1.20090000
7.82100000 21.84460000 3.47410000
22.18070000 -10.84050000 10.55560000
22.08300000 -14.21110000 -7.73730000
13.93200000 4.71930000 7.47490000
14.87330000 4.34450000 7.78550000
23.25340000 -11.55420000 10.51660000
-6.97630000 10.27820000 -2.35740000
22.33550000 -14.07880000 -7.74750000
22.29330000 -13.86530000 -7.63800000
22.03550000 -13.99470000 -7.64260000
9.00540000 21.54170000 3.18140000
-7.45080000 10.64220000 -2.27280000
-7.78290000 11.01750000 -2.69040000
12.27900000 5.47850000 7.74470000
11.00820000 4.90300000 8.63340000
12.83950000 5.32070000 7.47660000
-7.35400000 10.53230000 -2.74460000
12.08630000 6.24160000 7.73440000
-3.56800000 -19.72960000 6.82150000
10.19290000 21.63090000 3.00050000
22.52150000 -14.29560000 -7.87960000
8.49130000 22.46960000 2.62970000
13.36940000 5.36810000 7.12000000
-3.47110000 -19.41710000 6.18140000
13.97820000 5.57020000 6.59440000
-3.49830000 -19.08220000 6.33600000
-0.56900000 -7.59480000 9.89310000
-3.26700000 -18.92470000 5.95040000
22.75680000 -14.07370000 -7.78390000
13.12580000 6.14840000 6.90200000
12.75990000 6.14330000 7.28090000
22.88810000 -14.32530000 -7.93130000
-3.09760000 -18.09490000 5.73820000
-5.65390000 8.66960000 -4.47900000
-4.97550000 8.05040000 -4.67390000
15.74810000 -31.77450000 6.21210000
13.93250000 6.52610000 5.79720000
13.51050000 6.52010000 6.22350000
25.28800000 -13.05810000 10.26230000
26.20760000 -14.21280000 -6.60380000
25.47750000 -14.39020000 -7.20640000
25.76040000 -13.52660000 -6.64930000
-4.56650000 8.29820000 -4.17350000
24.43740000 -12.01440000 10.37120000
26.52380000 -14.31430000 -6.33040000
25.39260000 -12.15110000 10.23710000
26.94660000 -14.41200000 -5.97960000
13.30650000 7.43190000 6.16440000
27.21560000 -14.88040000 -6.06030000
-4.08480000 8.65000000 -3.53220000
12.98690000 6.86230000 6.92020000
12.69940000 7.22350000 7.18380000
-10.39050000 -6.59620000 -0.31450000
-10.16690000 -8.00710000 -1.12470000
-9.52420000 -8.02580000 -0.64410000
26.92950000 -13.24870000 -5.54840000
-10.88690000 -7.03280000 -1.22540000
-5.13850000 8.65310000 -4.22030000
-5.44700000 9.19380000 -4.20200000
26.67150000 -13.29110000 -5.97300000
23.73150000 -10.94000000 10.48890000
26.37470000 -12.91040000 -6.06730000
12.96010000 7.70170000 6.72520000
-1.34930000 -20.83850000 6.79850000
27.10940000 -13.37420000 -5.28930000
-0.32290000 22.43090000 3.07370000
-4.81780000 8.84760000 -3.79540000
-0.81630000 22.94920000 2.84650000
-1.12910000 23.01040000 2.32960000
-4.51740000 8.86100000 -3.46240000
-1.84500000 -20.01340000 6.50840000
27.49460000 -14.21760000 -5.74100000
24.56780000 -10.80010000 10.29010000
-4.54740000 9.14210000 -3.00040000
-5.16070000 9.09950000 -4.04600000
-5.01380000 9.26590000 -3.78100000
-4.82980000 9.22130000 -3.36760000
-0.27040000 22.94760000 3.48930000
-5.77270000 9.10160000 -4.28310000
-1.45480000 23.85740000 2.52530000
-1.68310000 23.74000000 1.92430000
-0.63480000 -20.71440000 6.92120000
-5.86460000 9.52910000 -4.08030000
-6.08940000 9.75100000 -3.83410000
26.48720000 -13.04220000 10.24910000
-5.24560000 9.50070000 -3.94170000
27.58240000 -13.40760000 -5.40100000
27.68660000 -13.46870000 -5.79370000
-5.49660000 9.68800000 -3.98730000
26.94400000 -13.32200000 10.06730000
-5.75090000 9.79730000 -3.90050000
-0.74160000 23.60680000 3.26920000
27.60830000 -12.86850000 -5.99640000
-9.95250000 -5.85610000 0.55410000
-9.02750000 -7.53920000 0.10360000
26.02820000 -12.95510000 10.31180000
-0.18700000 23.62270000 3.80610000
-2.88460000 8.33100000 -4.14260000
27.20610000 -12.80980000 -5.17040000
-1.16800000 24.10790000 3.04720000
26.15760000 -12.02340000 10.13960000
15.44660000 4.96350000 7.02240000
14.61000000 -29.86100000 4.81270000
-0.74100000 24.18470000 3.59360000
-3.55250000 8.69590000 -3.45290000
-0.46160000 24.42010000 3.96440000
0.29710000 -20.04570000 7.02700000
14.69260000 5.54840000 6.34610000
-3.01080000 8.85690000 -3.43890000
-1.64030000 24.58810000 2.87160000
16.94010000 4.96000000 6.97450000
26.87430000 -12.05410000 9.90890000
27.26570000 -12.18610000 -7.23870000
0.29450000 23.47550000 4.20580000
1.60000000 -20.87980000 7.73420000
17.24050000 5.35270000 6.46410000
16.18710000 5.79700000 5.90740000
15.99750000 5.46700000 6.24510000
-2.42980000 9.41740000 -3.23360000
1.34440000 -20.05010000 7.30090000
16.58850000 5.91460000 5.91220000
27.47220000 -11.68380000 9.25470000
17.25380000 5.92080000 6.12440000
17.59630000 4.56060000 7.59270000
0.16280000 24.32370000 4.36750000
-3.78460000 9.50920000 -1.62450000
-4.45170000 9.44570000 -1.92200000
-9.53880000 -5.18690000 1.34510000
27.34150000 -11.50950000 -6.68180000
27.17200000 -10.97880000 9.28930000
17.98720000 5.47630000 6.39760000
25.77650000 -11.44700000 10.01710000
13.94540000 -29.80670000 5.77040000
27.51750000 -11.74790000 -5.65810000
17.70680000 6.22900000 5.94700000
18.20430000 6.19450000 5.86520000
25.59400000 -10.99580000 9.86680000
26.86260000 -10.91090000 -7.70930000
26.05900000 -10.84740000 9.58020000
26.42530000 -10.99990000 9.66800000
26.62010000 -11.39110000 9.84050000
-2.83450000 9.48790000 -1.19570000
-3.05780000 9.77790000 -1.59030000
-2.41260000 9.31180000 -1.11030000
-4.82850000 -10.18810000 2.67970000
-4.17290000 -11.43540000 2.00680000
-3.81890000 -11.75280000 2.58520000
-1.94540000 9.35280000 -1.37270000
-1.70210000 9.19830000 -1.14620000
26.90050000 -11.57670000 -5.25850000
21.52730000 -10.35220000 6.72100000
21.86280000 -10.49780000 6.79080000
21.99730000 -10.70170000 6.80480000
15.96480000 -29.90400000 4.32600000
-4.56360000 -11.31300000 1.59400000
-4.06660000 -11.96310000 1.30220000
-4.92360000 -10.46170000 2.10720000
-5.47260000 -10.06140000 1.68090000
-5.25900000 -11.07870000 1.02200000
27.55320000 -12.25490000 -4.97280000
-1.65550000 25.14380000 3.43880000
-2.47580000 9.72610000 -1.53530000
-2.27160000 25.79250000 3.22630000
27.23190000 -11.56740000 -4.64410000
14.50350000 6.21040000 5.74330000
-6.18620000 -9.78790000 1.10130000
17.55350000 -29.86380000 4.11170000
-4.27980000 9.31760000 -2.44770000
-3.07320000 -19.06870000 5.94110000
15.33120000 6.00790000 5.70470000
0.08590000 25.07030000 4.52070000
-0.58180000 25.18670000 4.25680000
-5.11020000 9.58110000 -3.59260000
-4.91960000 9.45480000 -2.84110000
-5.14340000 9.65150000 -3.17260000
27.04220000 -10.66550000 -4.39210000
27.51220000 -10.93130000 -3.90910000
-4.73210000 9.42860000 -2.46540000
-1.28810000 25.32610000 3.91940000
-3.77810000 9.40300000 -2.49060000
27.67030000 -11.24710000 -4.79760000
-6.11690000 -8.72090000 2.11770000
14.96440000 6.65650000 5.34830000
-5.14310000 9.61160000 -2.45980000
27.58480000 -10.91960000 -5.55540000
-5.85930000 9.92130000 -3.59310000
27.58870000 -11.37130000 -4.30650000
15.88710000 6.78840000 5.16150000
14.26390000 6.98880000 5.27070000
-5.44900000 9.85210000 -3.71500000
-5.48250000 9.88270000 -3.35440000
27.96080000 -9.28110000 -5.03230000
27.47860000 -10.35990000 -6.22500000
13.71390000 7.45700000 5.40680000
25.10370000 -10.32030000 9.94430000
24.00390000 -8.70110000 10.10700000
14.86340000 7.09760000 5.14780000
14.89670000 7.61910000 4.80140000
14.52780000 7.89110000 4.61620000
-5.86270000 9.82690000 -2.57700000
0.59690000 24.47760000 4.88330000
1.00290000 24.37600000 5.11850000
15.36400000 7.29090000 4.92090000
27.85350000 -8.63520000 -5.79870000
21.15320000 -10.12020000 6.65220000
21.44990000 -9.83460000 6.81470000
15.33040000 -29.77010000 5.53310000
14.13860000 -29.79520000 6.50230000
21.82060000 -10.04070000 6.87120000
2.17700000 24.98510000 4.97380000
27.78670000 -10.58310000 -3.69940000
16.58120000 -29.86540000 5.04940000
27.99500000 -9.61010000 -3.94930000
16.71230000 6.33570000 5.76020000
22.28260000 -10.49470000 6.85180000
16.32390000 6.89050000 5.22680000
17.04290000 6.61150000 5.71560000
16.14070000 -29.69450000 5.96150000
0.44600000 24.96230000 4.80480000
22.73950000 -10.47440000 6.85730000
-3.98280000 9.51660000 -2.03810000
-3.50230000 9.79420000 -2.14440000
1.09670000 24.77020000 5.22020000
0.68630000 25.17720000 5.03650000
28.36070000 -7.93360000 -4.14980000
22.09170000 -9.94970000 6.88890000
17.59620000 -29.88620000 6.02330000
1.58380000 24.74450000 5.22390000
22.31890000 -9.98210000 6.87760000
17.57720000 7.11820000 5.24440000
-3.11760000 9.28680000 -2.95260000
16.59260000 7.07600000 5.26020000
-4.08620000 -10.37960000 4.99970000
-4.51880000 -9.25500000 5.88190000
-5.11750000 -8.36070000 4.81720000
1.06340000 25.27030000 5.13580000
-3.21910000 9.69710000 -2.59380000
22.53750000 -10.15810000 6.86730000
16.46050000 7.96370000 4.55720000
-3.47670000 9.72650000 -2.35930000
-0.22220000 25.84640000 4.72740000
-2.90930000 9.95400000 -2.75380000
-9.49530000 -9.48690000 -1.84940000
-9.78610000 -9.25250000 -2.17580000
-8.73460000 -10.35990000 -2.04030000
-9.06880000 -9.93930000 -2.48410000
-10.25120000 -8.46470000 -2.62590000
-4.12020000 -10.97050000 3.27400000
-5.50370000 -8.53660000 3.42770000
-2.29740000 9.81540000 -3.17850000
0.82140000 25.89410000 5.00370000
-9.75510000 -8.94390000 -1.50900000
-10.39990000 -8.39400000 -1.79160000
0.34870000 25.79030000 4.91710000
1.45860000 25.49240000 5.00260000
-4.62280000 -9.62460000 4.08500000
13.73320000 -29.81930000 7.41930000
-2.46610000 10.23630000 -3.15220000
2.03590000 26.18570000 4.62280000
-2.97800000 10.35430000 -2.73390000
16.75380000 8.74700000 3.87440000
2.16490000 25.74940000 4.69310000
-9.17740000 -9.48250000 -2.86620000
1.56450000 26.65510000 4.76480000
1.12320000 26.81080000 4.91580000
-9.91450000 -8.26050000 -3.06840000
-2.79530000 10.73750000 -3.19660000
13.03950000 8.49700000 6.06300000
13.42240000 8.26360000 5.41400000
22.53740000 -9.74640000 6.79130000
22.82700000 -10.18850000 6.82750000
13.22530000 -30.41770000 8.79410000
-2.76830000 11.28140000 -3.66450000
13.15530000 9.05140000 5.28470000
-1.75580000 26.08870000 3.93790000
-10.89510000 -7.88890000 -2.33580000
13.93000000 -30.28890000 8.60550000
-11.37320000 -7.15030000 -2.71960000
-2.43230000 26.46320000 3.29470000
-3.47220000 9.75200000 -1.83520000
13.18730000 -30.11990000 8.44040000
-11.22720000 -6.99500000 -3.01710000
12.81220000 10.04080000 5.16710000
13.38510000 9.28040000 4.86150000
13.86320000 9.41520000 4.53370000
-3.15200000 10.09670000 -2.38190000
-3.07600000 10.43970000 -2.48430000
-3.08910000 10.16310000 -2.15640000
-3.00150000 10.07570000 -1.94070000
13.45200000 -29.95530000 8.05760000
-0.99890000 25.77880000 4.36580000
13.94650000 -30.05480000 8.32530000
-2.98180000 10.60140000 -2.23890000
-2.70760000 10.44250000 -1.96070000
-5.77440000 -7.52020000 3.97110000
17.57190000 9.34280000 2.86430000
-5.73230000 -6.75040000 4.89290000
-9.13950000 -8.45630000 -3.50430000
-2.51840000 10.05180000 -1.74830000
26.39100000 -9.83930000 -8.39990000
17.39040000 10.30610000 2.12450000
14.63570000 -30.07640000 8.51250000
-2.27180000 10.29550000 -1.79240000
14.40290000 -29.88000000 8.09710000
-10.68250000 -7.09040000 -3.28290000
23.07310000 -9.93410000 6.71530000
23.37720000 -9.78540000 6.57980000
-10.69050000 -5.86700000 -3.86020000
-2.26730000 27.21480000 3.52760000
14.07520000 7.69630000 4.85230000
-3.47960000 -12.25670000 2.22610000
-1.09870000 26.38220000 4.52690000
-1.56280000 26.79460000 4.25430000
-11.24420000 -7.33350000 -2.09780000
-3.35300000 -12.19020000 3.75830000
-3.16050000 10.83090000 -2.73250000
13.82600000 8.36500000 4.72340000
14.32640000 8.32570000 4.41780000
-3.08130000 10.89260000 -2.34700000
14.76410000 8.56240000 4.18100000
23.48590000 -9.54680000 6.43270000
-3.41410000 11.68120000 -3.27320000
25.93930000 -8.99360000 -8.97930000
-3.45300000 11.46260000 -2.86380000
-2.79660000 10.82210000 -2.05920000
15.70470000 8.05240000 4.39080000
-0.35790000 26.50160000 4.88990000
22.70190000 -8.96210000 6.46180000
23.07590000 -9.43800000 6.53020000
15.26360000 8.74430000 3.93060000
15.17640000 -29.70750000 6.66480000
15.00640000 -29.73640000 7.76320000
-0.93620000 26.88500000 4.68000000
14.16670000 8.82530000 4.37600000
-0.08860000 26.86230000 4.96210000
14.68960000 9.04930000 4.01130000
-0.81080000 27.40530000 4.63330000
-11.90060000 -6.59650000 -2.55550000
26.95250000 -8.15170000 -7.81660000
-9.62090000 10.49770000 -6.87350000
15.67820000 9.24740000 3.46990000
15.12650000 9.34790000 3.52600000
14.79840000 9.63420000 3.51030000
27.02080000 -9.84690000 -7.39620000
-9.79890000 10.94600000 -7.03190000
14.51400000 9.96350000 3.58570000
14.48010000 9.47210000 4.01710000
-8.87040000 10.25130000 -6.04900000
-1.82640000 27.53060000 3.94320000
-2.45720000 27.90980000 3.16770000
-9.48240000 11.01950000 -5.97030000
15.90330000 -29.70650000 7.26150000
16.26730000 -29.66440000 6.62710000
-9.67990000 11.07630000 -6.47410000
-1.27610000 27.46150000 4.39100000
-9.27640000 11.04650000 -5.17050000
-2.52020000 -15.68770000 -5.97370000
-2.13770000 -15.25400000 -5.66740000
17.37160000 -29.80980000 6.64840000
-1.62530000 28.03490000 3.94830000
-1.81830000 -15.68850000 -5.95440000
16.95730000 -29.78480000 7.01260000
-9.94190000 11.72200000 -6.10860000
0.21070000 26.36040000 5.01420000
-2.75350000 -15.70930000 -6.31720000
13.62480000 10.26870000 4.63040000
0.71080000 26.91520000 4.98850000
13.45450000 10.01230000 4.79680000
-10.07160000 11.94260000 -5.45930000
-2.70040000 -14.36930000 -5.71850000
-2.49420000 -14.24490000 -5.42640000
22.63280000 -9.24910000 10.52250000
21.42880000 -8.21910000 10.54070000
-2.76640000 -14.95730000 -6.45090000
25.50490000 -8.22050000 -9.43540000
15.25070000 -30.15740000 8.67400000
-2.75720000 -13.86410000 -6.75200000
-8.36490000 10.03820000 -5.45760000
-2.24890000 -14.55250000 -5.42100000
15.94790000 -30.01730000 8.44900000
15.15830000 -29.89500000 8.43300000
15.46820000 -29.80200000 8.23690000
-1.24030000 -15.12870000 -6.07490000
-1.70610000 -14.72760000 -5.56200000
16.79730000 -30.00180000 8.11400000
15.97000000 -29.76410000 7.87220000
17.31000000 8.88580000 3.58470000
17.36970000 -30.35270000 8.42180000
16.75670000 -30.23250000 8.37990000
4.80560000 24.58230000 3.29360000
16.97410000 -29.87810000 7.67070000
-8.67520000 10.78870000 -4.19620000
-2.83440000 -13.63870000 -6.01180000
16.71520000 9.57120000 3.07810000
5.23340000 23.32410000 2.94940000
-1.87200000 -14.11400000 -5.25320000
5.55370000 23.31650000 2.59220000
-2.91720000 -13.03200000 -5.77010000
26.62620000 -7.43510000 -8.38590000
5.86750000 23.31310000 2.42790000
-9.86500000 11.52680000 -6.95840000
-0.90970000 -15.74230000 -6.46810000
6.26970000 23.38390000 2.43610000
-9.88340000 11.64110000 -7.70420000
-10.00350000 11.95230000 -7.99070000
6.71150000 23.28740000 2.66210000
-0.77910000 -15.19550000 -6.27730000
23.01950000 -8.22490000 10.34790000
14.16350000 10.83290000 3.10880000
14.09170000 10.54310000 3.72010000
-9.89950000 12.11250000 -7.31840000
-9.98660000 12.06580000 -6.77350000
15.11230000 10.04840000 3.00670000
6.58420000 23.97610000 1.88240000
7.11530000 23.62790000 2.17240000
5.57660000 24.16680000 2.11060000
5.21850000 24.46900000 2.53590000
-8.57920000 -9.17990000 -0.75500000
-8.23440000 -8.65740000 0.08270000
15.87120000 9.80100000 3.06660000
6.05680000 24.26320000 1.66800000
14.53840000 10.53060000 2.96120000
5.85600000 24.80110000 1.39880000
-10.31530000 12.72140000 -7.92690000
-8.97700000 -8.73770000 -0.80080000
15.78350000 10.66560000 2.72840000
15.05380000 10.82590000 2.68610000
-10.28390000 12.28910000 -8.16870000
-10.08160000 12.37720000 -7.94230000
-9.00870000 -6.71380000 0.80480000
-9.98370000 12.41730000 -7.68010000
-10.01190000 12.57400000 -7.38880000
-10.19850000 12.85130000 -7.43940000
27.41560000 -8.66810000 -6.83960000
-8.12720000 -7.14850000 1.32720000
-7.37860000 -9.63900000 0.13210000
-7.00460000 -8.96960000 0.90530000
-7.41390000 -7.13040000 1.84710000
14.01550000 10.23670000 4.20750000
-10.25930000 12.38730000 -6.04930000
-10.09120000 12.56480000 -6.88080000
24.83300000 -8.22810000 9.54960000
-10.43310000 12.76730000 -6.18020000
0.31570000 -14.37190000 -6.34590000
0.16040000 -13.83330000 -6.06310000
12.95850000 11.22560000 4.89200000
-1.20060000 -14.48620000 -5.71170000
