-528.33250000 -1671.13510000 -148.36480000
-208.01990000 -1548.45130000 -677.68370000
-223.64660000 -1545.14820000 -644.02970000
-210.56160000 -1539.40310000 -650.68020000
-294.62950000 -1550.01970000 -618.42520000
-282.84260000 -1545.43510000 -610.07590000
527.98610000 -1043.09280000 -172.82460000
-518.15310000 -1608.51600000 -252.81230000
-539.18550000 -1575.51200000 -153.59990000
-530.93250000 -1600.91780000 -174.51540000
-233.09050000 -1502.26350000 -623.81650000
-249.18930000 -1524.47940000 -619.15410000
-383.57480000 -781.00390000 18.92710000
-550.95750000 -1556.17680000 -239.60080000
-556.08010000 -1551.51840000 -175.39650000
-177.84170000 -1565.81990000 -726.76420000
-161.48030000 -1557.74120000 -731.55200000
-548.00560000 -1530.24150000 -172.22630000
-543.76280000 -1541.38500000 -236.80070000
-549.87370000 -1485.41770000 -206.04140000
-542.15590000 -1504.41300000 -244.16630000
-146.54860000 -1549.49910000 -720.88700000
-192.92070000 -1541.67810000 -694.41710000
-544.50750000 -1618.40170000 -158.11030000
-189.24740000 -1518.79250000 -701.37440000
541.70120000 -1002.70640000 -104.41410000
-532.79960000 -1584.55050000 -109.84420000
548.71780000 -984.89890000 -128.70560000
-113.92680000 -1507.35310000 -728.18900000
-77.43860000 -1495.55660000 -744.18650000
-202.48000000 -1094.15170000 -631.81370000
-228.52930000 -856.23380000 -574.57640000
-142.92210000 -1515.38540000 -716.36070000
-146.72110000 -1480.74100000 -699.77840000
-120.63170000 -1487.84060000 -713.70580000
461.76300000 -1031.50500000 -405.27830000
-109.78180000 -1476.82740000 -733.32970000
-538.22270000 -1564.74950000 -56.59710000
-213.63150000 -1516.20320000 -687.25430000
-546.76590000 -1545.98490000 -67.10120000
-553.82820000 -1552.95210000 -112.76540000
348.26050000 -1001.73330000 -539.88170000
369.01670000 -972.08150000 -494.20960000
-533.94590000 -1648.79830000 -260.54510000
-220.12430000 -1520.33830000 -657.06840000
-229.26620000 -1506.87740000 -669.07310000
402.94890000 -1017.67770000 -474.32680000
-183.47620000 -1486.47880000 -696.78770000
-111.72420000 -917.08750000 -583.11610000
-119.02320000 -834.54360000 -578.44780000
-542.26850000 -1663.43740000 -243.22580000
-224.99870000 -1507.15150000 -636.81790000
-237.87890000 -1451.58780000 -665.63280000
368.63080000 -956.44480000 -465.04710000
-136.20500000 -906.88890000 -596.27420000
-134.47270000 -876.60860000 -573.02120000
-536.91270000 -1649.59960000 -199.40740000
-517.98960000 -1520.45000000 -117.30910000
-539.83970000 -1534.57250000 -125.36710000
-526.92300000 -1531.16220000 -93.62370000
-532.19150000 -1522.02380000 -140.22710000
-519.32310000 -1514.17320000 -100.24690000
-176.26450000 -1378.25600000 -650.67050000
-130.04540000 -1455.06650000 -707.41240000
-166.47690000 -1410.58460000 -660.90050000
-161.77570000 -871.83110000 -592.76860000
-537.73080000 -1631.21620000 -207.68550000
-553.60880000 -1544.38700000 -119.80580000
-543.61770000 -1534.94150000 -91.73320000
-541.72250000 -1524.18900000 -63.28190000
-549.27440000 -1493.11800000 -178.04120000
-540.79680000 -1483.93070000 -165.27110000
-497.14670000 -1616.92760000 -353.52670000
356.84530000 -821.05390000 -495.87460000
-535.23660000 -1486.51840000 -143.78490000
-533.14120000 -1503.28980000 -90.35500000
-526.48180000 -1481.61780000 -123.69470000
341.37420000 -935.79690000 -528.14340000
-552.79090000 -1491.72550000 -56.04200000
-545.54500000 -1467.94890000 -100.19950000
-552.91520000 -1458.73550000 -81.54070000
-543.84250000 -1416.09020000 -104.64790000
426.44080000 -961.41910000 -440.82350000
-409.58580000 -1701.13830000 -516.16640000
-518.09120000 -1477.31580000 -354.15520000
-486.47820000 -1472.04640000 -417.59820000
-518.23790000 -1517.24350000 -332.07790000
-429.74300000 -1693.11400000 -518.01050000
487.21990000 -993.26210000 -358.55790000
-450.17350000 -1671.79920000 -505.40450000
-422.82030000 -1680.02360000 -545.58140000
-439.24500000 -1698.25040000 -457.10530000
-452.93280000 -1683.65920000 -443.43670000
-99.09330000 -683.38990000 -582.26230000
-44.31270000 -753.59970000 -608.21560000
-499.27700000 -1439.73010000 -400.60950000
-447.50260000 -1654.47160000 -510.49070000
-470.89470000 -1660.62880000 -445.64400000
-523.28340000 -1412.05480000 -335.48820000
458.36460000 -961.33450000 -402.11020000
-448.00230000 -1631.35400000 -483.07120000
-419.24450000 -1614.94600000 -516.76390000
-385.86400000 -1632.00320000 -552.24740000
-15.85660000 -1520.93790000 -742.66130000
-473.72160000 -1427.36670000 -440.73730000
-476.32150000 -1471.49710000 -447.49110000
-477.16490000 -1649.64380000 -454.01140000
394.94090000 -929.15750000 -447.76760000
-434.69510000 -1440.23600000 -464.41070000
-462.00870000 -1412.07240000 -444.76380000
-443.05070000 -1405.50700000 -443.26160000
-178.41060000 -767.61410000 -565.55510000
416.10480000 -915.97440000 -423.78280000
-272.47780000 -850.70000000 -553.46140000
-259.70330000 -1059.77340000 -596.24910000
463.84570000 -929.13010000 -372.36940000
504.41180000 -959.09860000 -303.73550000
-511.41800000 -1358.25230000 -355.85550000
435.67640000 -911.90300000 -392.90780000
-491.35280000 -1378.24220000 -406.30760000
-480.90520000 -1355.48190000 -400.99610000
-18.25190000 -1478.24300000 -756.83860000
-438.98360000 -1378.93130000 -420.74730000
52.43420000 -1474.95250000 -761.82960000
-529.43410000 -1561.98380000 -326.84560000
-41.86720000 -1401.04980000 -741.92080000
69.50520000 -1425.15730000 -754.51170000
-510.88110000 -1540.92490000 -350.72690000
-143.36530000 -809.28750000 -556.14090000
15.06700000 -1349.62410000 -737.43680000
-534.33220000 -1478.71850000 -296.98690000
-481.55530000 -1653.84850000 -387.10060000
531.46760000 -981.10770000 -226.41990000
-162.23600000 -772.42900000 -550.90880000
504.41760000 -936.70610000 -282.78140000
484.61780000 -915.31010000 -86.74280000
492.87840000 -923.61100000 -284.52750000
409.05240000 -900.80430000 -376.23460000
108.83730000 -1361.88700000 -729.35290000
144.08190000 -1368.26460000 -692.28050000
-539.92030000 -1440.40340000 -267.37260000
-543.57490000 -1419.67260000 -232.45890000
-15.30240000 -750.60220000 -623.60380000
-404.30080000 -1594.19870000 -552.85520000
542.54800000 -988.45060000 -172.32030000
54.02860000 -1329.97180000 -731.92790000
-443.64130000 -1594.61580000 -493.23500000
-396.47530000 -1572.98580000 -572.22560000
-429.94440000 -1564.83010000 -499.88810000
537.29860000 -953.09530000 -176.44590000
-388.58790000 -1556.46020000 -568.35880000
-332.08890000 -1569.11660000 -640.04910000
-326.75190000 -1553.03050000 -627.79420000
-380.77310000 -1544.68640000 -554.27880000
529.48140000 -931.68910000 -129.57370000
-542.76290000 -1433.46280000 -170.03800000
-113.89720000 -1426.54920000 -727.05460000
-364.06380000 -1540.45780000 -565.33030000
-365.03680000 -1509.42180000 -554.95090000
-382.86130000 -1509.78220000 -524.69150000
-533.93300000 -1431.52340000 -139.58630000
105.10300000 -664.48370000 -621.49930000
-492.01020000 -1635.48050000 -404.46050000
-484.27940000 -1624.55270000 -430.61170000
149.55170000 -744.56760000 -615.53960000
-492.09050000 -1619.60360000 -397.20630000
-466.17490000 -1599.99000000 -446.71260000
-160.33760000 -1396.80650000 -697.77970000
321.67170000 -908.96450000 -529.80700000
-487.62740000 -1336.86630000 -376.74350000
-496.38730000 -1328.89420000 -346.78190000
-470.85190000 -1318.89040000 -351.73860000
369.06410000 -858.53330000 -478.75180000
365.70740000 -916.90080000 -464.16840000
-127.34720000 -1334.56570000 -707.87460000
-456.00050000 -1579.54690000 -449.40700000
329.04870000 -854.15380000 -525.51090000
-459.08860000 -1556.85470000 -461.65280000
-480.76180000 -1583.73290000 -394.65230000
-495.18800000 -1556.88540000 -398.42210000
374.28390000 -735.81820000 -440.22420000
-543.34820000 -1404.92900000 -198.09270000
195.98510000 -671.83610000 -597.67140000
-525.96770000 -1375.31350000 -172.76750000
-537.29460000 -1389.54980000 -141.73560000
309.61990000 -847.90570000 -532.33440000
220.81210000 -639.87700000 -573.30930000
250.34810000 -617.21170000 -559.01060000
-498.06010000 -1359.19780000 -123.63130000
-476.41640000 -1530.26440000 -439.63630000
-526.12350000 -1350.19380000 -140.27310000
-530.01720000 -1374.46890000 -199.29050000
381.43630000 -901.55290000 -433.55750000
360.65770000 -892.31200000 -448.97600000
346.01900000 -886.41030000 -424.19480000
-530.62900000 -1355.20010000 -255.52980000
176.65730000 -634.40200000 -601.12050000
-430.96810000 -1549.37220000 -487.07240000
196.84700000 -649.01410000 -588.05690000
-408.64350000 -1538.82140000 -496.41250000
-429.52640000 -1538.11990000 -471.32590000
-454.50570000 -1523.35340000 -467.76740000
337.13230000 -872.84310000 -427.49590000
237.44290000 -536.78890000 -556.44950000
-501.94640000 -1328.72070000 -141.91060000
345.09880000 -881.47720000 -384.03400000
-415.25130000 -1492.00730000 -472.78930000
365.08980000 -766.21030000 -431.17030000
-428.89800000 -1483.44620000 -468.06190000
147.94270000 -596.66020000 -602.69060000
318.13100000 -867.05180000 -406.00580000
333.33560000 -865.05140000 -384.85510000
383.45410000 -884.21770000 -333.74970000
-402.55310000 -1498.79980000 -497.60400000
322.30030000 -846.48280000 -412.56250000
-371.54080000 -1494.71800000 -520.17490000
341.46100000 -817.22720000 -421.57540000
-378.59530000 -1472.09250000 -491.23330000
-528.97530000 -1369.96620000 -301.68740000
478.31970000 -1650.36290000 -91.44140000
-515.58620000 -1333.04610000 -301.17840000
-398.55010000 -1466.50600000 -488.10890000
392.33940000 -867.06980000 -334.28940000
-470.33940000 -1510.10830000 -453.27220000
453.17400000 -1695.56840000 130.80710000
376.05410000 -794.10690000 -375.29460000
404.40410000 -829.83940000 -347.04860000
-8.07290000 -690.94920000 -626.55210000
-453.53540000 -1472.95520000 -468.62380000
472.78870000 -1639.13340000 9.54350000
479.19660000 -1656.59350000 47.18040000
-501.22530000 -1313.07590000 -266.54590000
-518.74920000 -1342.18250000 -236.36820000
-112.58110000 -617.97380000 -591.25980000
456.73260000 -1631.39620000 90.46890000
481.56860000 -1632.16480000 -26.19370000
-489.65310000 -1319.60460000 -310.45580000
-416.30910000 -1429.61770000 -459.57140000
349.63500000 -699.49220000 -483.14010000
-462.51620000 -1301.04850000 -351.85950000
-486.01460000 -1309.70390000 -299.45150000
-86.05680000 -587.85710000 -604.01390000
-292.29050000 -1500.92610000 -594.11210000
-334.39270000 -1521.83610000 -577.31040000
-55.85850000 -573.44350000 -609.40990000
477.30020000 -1612.04600000 31.95260000
56.28510000 -618.66100000 -620.56370000
-468.98730000 -1254.84400000 -337.92920000
-515.27560000 -1321.13320000 -213.21170000
-487.04030000 -1255.35180000 -258.33160000
322.72850000 -815.31160000 -401.76170000
333.87270000 -773.20220000 -394.49570000
-295.49720000 -1437.34310000 -575.18440000
-323.67750000 -1490.13330000 -564.09580000
-477.15190000 -1299.14060000 -154.50650000
-320.24300000 -1460.34050000 -567.87120000
99.44810000 -598.28860000 -606.12820000
312.76710000 -766.53460000 -522.07920000
130.30760000 -589.75100000 -587.97250000
104.03810000 -583.19660000 -580.14110000
84.02060000 -593.06390000 -590.76060000
-325.04330000 -1441.36930000 -540.98020000
-496.22800000 -1276.23800000 -202.06470000
-345.11720000 -1476.53480000 -549.12700000
-501.39030000 -1297.77890000 -169.00380000
-332.65340000 -1440.73160000 -526.61330000
157.81880000 -572.64010000 -585.69730000
69.10960000 -548.94770000 -589.81810000
-32.28640000 -545.49550000 -603.54940000
43.32070000 -588.30730000 -605.54350000
-259.12420000 -1440.42260000 -649.26500000
-272.24560000 -1426.31180000 -617.70310000
-476.01740000 -1247.02690000 -220.10140000
-469.15280000 -1256.41380000 -182.57190000
45.46290000 -577.55200000 -580.57950000
23.64710000 -555.17710000 -578.19640000
313.10710000 -534.44510000 -511.00070000
-260.16360000 -1435.65040000 -595.43080000
330.45630000 -618.44130000 -495.66830000
-207.49520000 -1413.71070000 -656.12660000
444.40700000 -1580.96940000 -388.61520000
-238.22370000 -769.18850000 -549.08580000
-259.99980000 -717.41030000 -537.15540000
-533.00960000 -1637.14180000 86.71590000
336.41930000 -662.36770000 -485.43140000
-544.62540000 -1618.87170000 48.88780000
-297.13140000 -1360.21850000 -600.03610000
-540.82730000 -1596.61600000 5.05840000
-227.44270000 -706.67470000 -544.98990000
338.69950000 -748.26450000 -405.03610000
450.55110000 -1562.74020000 -379.57970000
-299.46770000 -763.93640000 -516.36870000
-290.64510000 -1293.23800000 -594.45950000
-221.25550000 -1319.23740000 -616.20120000
-530.63450000 -1594.11340000 102.52170000
-274.13600000 -1411.38130000 -574.01050000
-543.93400000 -1571.27920000 64.72270000
-538.86510000 -1558.28050000 25.15980000
355.85020000 -704.03500000 -385.45980000
464.45820000 -1548.97170000 -323.12220000
-537.15310000 -1576.92360000 130.12140000
-314.64720000 -713.85160000 -461.25470000
-539.42250000 -1547.31120000 146.59910000
-529.17850000 -1534.20720000 86.84130000
442.19670000 -1544.17070000 -390.43090000
370.75160000 -687.08240000 -449.94110000
-365.48330000 -1470.12810000 -534.18380000
-365.90260000 -1413.37080000 -497.29770000
-368.16300000 -1433.96630000 -469.74000000
-204.93510000 -740.50130000 -558.42500000
411.53370000 -714.83140000 -361.58430000
383.70450000 -624.82280000 -368.54220000
486.80830000 -1529.65200000 -329.25640000
-185.27520000 -664.57140000 -535.91970000
-357.02310000 -1387.29760000 -495.77800000
475.97930000 -1516.09660000 -379.83040000
-375.68500000 -1409.10190000 -447.16190000
-182.06180000 -585.62640000 -542.29690000
-365.57450000 -1417.12450000 -474.23340000
-165.72370000 -691.71280000 -542.29190000
-321.69680000 -1349.45840000 -533.25620000
358.06590000 -619.89730000 -384.37930000
380.22750000 -472.48360000 -376.63860000
479.92250000 -1491.99220000 -357.39240000
-339.83600000 -1300.45480000 -503.40330000
-340.12920000 -1367.06200000 -487.55210000
467.19840000 -1470.11580000 -383.81400000
-328.98930000 -1362.24020000 -500.08710000
441.43420000 -903.98270000 -243.34680000
436.76860000 -889.35050000 -259.83150000
457.38680000 -888.71750000 -201.14320000
-411.53340000 -1389.93520000 -442.78860000
476.37480000 -1538.14500000 -317.00050000
-202.59320000 -643.13770000 -538.93040000
407.66330000 -895.93540000 -315.70500000
-222.01360000 -630.55690000 -540.74350000
441.54620000 -852.99230000 -287.70590000
-328.96050000 -1376.07290000 -495.15680000
480.62510000 -838.63120000 -222.30020000
-366.32500000 -1355.22500000 -424.05180000
-538.98720000 -1544.60600000 -22.54720000
-362.08550000 -1296.92750000 -429.53130000
-341.89930000 -1267.46670000 -475.59720000
-334.81610000 -1313.23020000 -468.42110000
-542.34690000 -1518.30160000 -29.48890000
-305.64710000 -669.71910000 -474.35660000
465.61150000 -908.91600000 -137.53680000
-387.89220000 -707.47170000 -435.32680000
-304.07890000 -1330.78020000 -569.13780000
-295.73060000 -1326.27920000 -547.23790000
468.38650000 -895.60060000 -113.11380000
-528.09180000 -1533.55620000 29.94090000
-528.59860000 -1508.59510000 97.22850000
-397.92310000 -663.77740000 -416.15240000
-314.69530000 -1271.04750000 -518.50810000
-339.49960000 -645.43770000 -443.90110000
-361.43590000 -656.30360000 -432.04370000
-323.12200000 -1244.95080000 -562.19200000
-544.92090000 -1496.22770000 34.48500000
-380.63760000 -669.15280000 -418.84990000
-360.10070000 -639.84230000 -420.20090000
474.70040000 -905.63460000 0.81890000
-311.08120000 -643.03020000 -449.08240000
502.25780000 -856.08280000 -99.03360000
-268.10320000 -635.38140000 -504.24760000
518.46560000 -815.97760000 -107.28320000
518.00340000 -770.08030000 -161.18630000
-338.46150000 -1259.63700000 -457.28500000
446.23170000 -796.17300000 -318.33690000
417.82840000 -779.76060000 -353.41480000
-543.71350000 -1481.26720000 42.57250000
-324.59950000 -1218.52390000 -513.33620000
-535.11380000 -1466.92540000 58.33360000
480.10330000 -799.74730000 -257.68700000
-246.49920000 -616.91760000 -519.61620000
-249.61830000 -588.07810000 -529.55810000
476.43620000 -733.25270000 -282.20580000
-239.37280000 -544.86970000 -529.27920000
-188.22580000 -1357.73720000 -666.26710000
-279.93730000 -610.45270000 -485.39130000
-274.62120000 -597.04900000 -501.35890000
-337.72190000 -570.30330000 -471.32910000
-319.24820000 -587.10210000 -462.09060000
-291.03100000 -576.32890000 -509.72670000
-288.55690000 -507.20430000 -508.39510000
-200.78430000 -1281.20510000 -666.56620000
440.40980000 -693.02780000 -335.12370000
-305.22040000 -601.57780000 -453.83270000
-318.77780000 -614.66660000 -438.40000000
510.35880000 -719.29740000 -212.79730000
-217.06920000 -1301.29390000 -650.70350000
-210.62310000 -1313.89970000 -627.39940000
-121.15650000 -1209.33780000 -683.50040000
-171.19200000 -508.59250000 -565.25510000
409.27440000 -547.74190000 -347.15730000
474.24240000 -601.68090000 -287.31890000
0.68210000 -554.97620000 -588.71370000
-42.34790000 -496.30870000 -577.77580000
2.83030000 -501.99370000 -593.21510000
64.29700000 -514.16130000 -599.91240000
-13.36130000 -412.25520000 -589.06540000
-78.31910000 -471.62420000 -581.17820000
-435.66380000 -1350.06460000 -403.74870000
-379.76380000 -1350.78940000 -415.89170000
-414.38620000 -1343.40890000 -419.27870000
-239.70380000 -1246.36840000 -587.86840000
-243.19280000 -1216.74580000 -584.50210000
-254.97960000 -1188.04260000 -597.09900000
-44.79310000 -432.31740000 -585.56640000
-359.06930000 -1318.00680000 -463.22830000
-212.59590000 -541.98280000 -521.59860000
-253.21470000 -1181.94600000 -614.81980000
-198.65820000 -494.16050000 -532.20750000
-177.99730000 -417.76640000 -556.77280000
-286.22340000 -1160.43530000 -552.35300000
-219.25810000 -424.11700000 -529.52600000
-366.57290000 -1323.21240000 -403.05120000
-373.88540000 -1312.85850000 -393.98440000
-129.99970000 -392.98300000 -564.63430000
-406.49920000 -1307.68230000 -394.27740000
-364.92330000 -1289.39280000 -403.82990000
-360.86370000 -1290.85400000 -450.00640000
-103.28850000 -385.61200000 -557.03440000
-75.73700000 -449.51340000 -564.92980000
-458.77950000 -1328.12160000 -376.30770000
-437.08740000 -1315.55640000 -391.77110000
-94.45850000 -360.57760000 -567.15550000
-437.90380000 -1294.46370000 -385.12600000
-446.67600000 -1275.45090000 -382.08600000
-419.58420000 -1266.10750000 -406.54310000
-394.08510000 -1291.38670000 -399.41660000
-392.39830000 -1261.57250000 -417.64390000
-350.84240000 -1257.74300000 -441.78400000
229.47190000 -615.84430000 -552.65830000
495.63020000 -1276.54940000 -71.62410000
-361.69710000 -1243.38550000 -427.36540000
247.03160000 -571.20150000 -537.14000000
-344.73790000 -1228.04980000 -436.19330000
501.36390000 -1248.07580000 -37.62500000
-346.10590000 -1198.02010000 -439.33830000
-388.07850000 -1227.43800000 -431.06850000
-359.96030000 -1175.58970000 -438.86530000
-350.85620000 -1164.22610000 -452.77160000
-474.27840000 -1280.50890000 -339.49400000
-424.93340000 -1186.19800000 -371.98180000
-457.65780000 -1226.28450000 -332.36910000
-445.89840000 -1215.47340000 -323.62880000
-468.22840000 -1229.44600000 -278.25410000
-415.99440000 -1145.80480000 -362.36450000
-409.00240000 -1156.39040000 -368.84590000
344.06680000 -1518.12280000 411.35360000
367.99800000 -1521.32410000 380.78680000
346.34140000 -1512.36990000 386.74910000
364.86010000 -1527.90190000 408.09280000
389.43300000 -1495.61440000 354.22410000
375.55390000 -1481.89490000 371.77880000
338.97550000 -1501.42990000 410.99270000
349.72240000 -1468.48560000 391.49310000
329.39840000 -1546.10220000 472.82730000
381.07290000 -1565.26040000 417.79380000
383.12620000 -1542.75220000 400.81890000
-297.68420000 -1602.28810000 581.47190000
-364.34800000 -1593.53440000 524.98690000
-320.98130000 -1624.10830000 567.00540000
525.71120000 -1089.87380000 197.79810000
525.07700000 -1049.42020000 166.01750000
543.04720000 -981.04580000 152.33190000
132.82900000 -1670.88770000 641.10800000
29.93770000 -1675.80960000 679.39210000
138.00600000 -1693.08760000 624.49130000
76.18060000 -1655.57260000 672.26700000
23.84510000 -1696.01370000 658.99830000
-352.16850000 -1576.39770000 562.63010000
-296.49090000 -1586.53370000 600.66420000
328.03130000 -1528.70650000 464.98100000
-288.48040000 -1575.55130000 609.69560000
-336.61690000 -1556.69310000 584.38760000
333.86000000 -1515.84070000 438.63440000
317.63630000 -1519.64530000 459.41450000
415.02720000 -1703.62930000 237.04320000
378.42010000 -1705.18030000 312.73990000
315.12550000 -1705.38020000 340.30570000
100.47770000 -1634.40280000 648.36840000
538.83510000 -946.13480000 141.40370000
530.10250000 -1000.36920000 215.56960000
426.33210000 -1511.03760000 292.05010000
413.71880000 -1504.07100000 323.26110000
394.82270000 -1524.69780000 346.56850000
-367.41880000 -1549.28330000 555.89670000
371.79200000 -1697.97960000 349.59830000
555.83920000 -983.83090000 -61.85270000
547.57900000 -948.35180000 -81.52720000
426.86880000 -1691.53600000 255.49690000
405.74820000 -1685.51990000 306.97720000
420.58950000 -1473.75600000 303.12140000
-160.25710000 -762.17790000 700.04250000
-98.90230000 -923.04630000 696.15640000
-74.69670000 -986.43790000 718.98880000
390.33020000 -1661.25120000 323.78070000
425.25640000 -1671.19870000 265.66930000
-109.33410000 -881.94840000 734.82020000
168.59690000 -1657.12380000 601.33540000
152.74880000 -1638.57730000 612.90750000
-337.49850000 -1516.88980000 569.90660000
-294.40370000 -1545.02780000 600.24840000
162.23800000 -1615.51180000 621.41990000
173.95090000 -1626.60000000 611.83730000
529.22110000 -928.47580000 92.98320000
413.91530000 -1454.60270000 334.38950000
404.73770000 -1430.75890000 367.28300000
-90.53530000 -861.58440000 750.44700000
-28.58170000 -890.45160000 759.63600000
-103.55700000 -730.37120000 756.32900000
35.99870000 -1643.19590000 686.92380000
55.75550000 -1619.47300000 668.92900000
353.00690000 -1441.59160000 406.54980000
-287.95130000 -1524.18760000 610.37320000
-232.68150000 -1553.17440000 641.06960000
319.37880000 -1492.89990000 456.70810000
345.34570000 -1462.11540000 440.45110000
545.46420000 -940.89980000 32.03180000
-238.81670000 -1521.53960000 642.71750000
-246.90070000 -1512.42420000 619.22060000
-262.29850000 -1519.35800000 611.97170000
-276.00840000 -1522.73100000 616.00510000
122.13440000 -1605.71570000 637.09560000
70.52240000 -1601.00840000 665.25230000
-258.04360000 -1478.01340000 606.91690000
325.67190000 -1401.41630000 459.25510000
-283.81940000 -1506.91860000 608.76540000
-297.68940000 -1468.65470000 611.73550000
-278.47700000 -1438.94320000 612.58230000
-246.99710000 -1448.67040000 612.56320000
130.83830000 -1584.56450000 641.35170000
373.79150000 -1360.08980000 397.30930000
68.25570000 -1577.16740000 684.92580000
-82.46480000 -644.18380000 759.48060000
-379.86380000 -1520.31240000 523.97340000
362.21620000 -1414.34590000 423.50130000
479.47160000 -896.54000000 36.71360000
-394.72710000 -1483.42930000 509.31080000
-19.75510000 -666.00990000 756.38540000
31.97960000 -830.41610000 752.83900000
40.54210000 -793.27450000 734.65840000
-339.21430000 -1469.17590000 574.18990000
-155.25550000 -673.91910000 740.77150000
-395.19420000 -1432.63650000 521.61070000
-194.56900000 -655.83730000 717.97890000
435.41790000 -1434.98110000 303.82800000
-338.59360000 -1432.11490000 584.50600000
481.91020000 -908.06530000 128.76100000
439.35630000 -1401.71640000 320.51060000
-321.77630000 -1414.56400000 599.58370000
493.12530000 -913.29590000 203.02540000
-27.22340000 -720.64220000 761.82960000
-297.42280000 -1403.74010000 612.27420000
455.61610000 -1401.80470000 266.62430000
-257.94850000 -1394.48780000 597.93810000
483.18900000 -894.33680000 135.60070000
-282.72600000 -1390.22600000 605.40160000
101.17020000 -792.21690000 730.31300000
150.84790000 -934.28230000 710.81650000
149.24050000 -876.25920000 711.49220000
451.32830000 -1370.77200000 286.21580000
-294.90840000 -1329.77940000 563.04900000
142.23790000 -833.10680000 705.31460000
-255.12530000 -1368.43360000 588.96810000
-262.86580000 -1364.24500000 577.91090000
444.22090000 -1347.62040000 326.03650000
-435.68380000 -1446.30510000 469.93180000
68.01460000 -715.65490000 733.29980000
105.41080000 -758.69420000 719.38980000
504.09370000 -870.89450000 68.15790000
418.66820000 -1359.95320000 371.94450000
370.15970000 -1353.17930000 409.90160000
502.31820000 -853.82480000 184.68890000
83.74600000 -808.82100000 729.26540000
24.32160000 -668.83580000 738.82980000
43.39030000 -765.83910000 729.21620000
397.93630000 -1321.61250000 392.37030000
177.30170000 -811.04970000 703.35690000
121.86980000 -708.23450000 730.44240000
522.94630000 -838.97730000 39.55830000
509.83080000 -965.08830000 285.59170000
488.71150000 -1058.43650000 309.77910000
506.10420000 -1070.22360000 279.01810000
212.00340000 -722.96490000 700.34200000
156.70210000 -682.43510000 727.28960000
418.12310000 -1313.40940000 375.26430000
421.34960000 -1304.31640000 352.32730000
-448.81600000 -1396.53890000 459.03180000
300.16510000 -1422.96850000 475.77110000
276.15210000 -1482.52820000 487.87590000
-412.65570000 -1351.46350000 507.33980000
302.12900000 -1428.39330000 504.77770000
273.09090000 -1463.77200000 497.58550000
303.90910000 -1701.70040000 430.68110000
330.12670000 -1357.24260000 463.50820000
44.29300000 -653.47330000 734.77200000
372.92440000 -1299.74990000 423.94290000
240.47480000 -652.84550000 636.61770000
252.26860000 -622.93480000 624.17900000
214.29850000 -657.37040000 658.24190000
352.05080000 -1308.32260000 443.20710000
479.53360000 -921.48030000 334.18900000
511.60210000 -928.13310000 249.31150000
199.50370000 -689.18540000 704.78810000
258.52020000 -687.50900000 670.50100000
357.46030000 -1691.24680000 376.19780000
474.69480000 -911.90370000 327.20940000
304.43700000 -1379.53700000 546.05710000
264.49840000 -1466.79040000 560.46060000
300.82040000 -1434.59580000 530.30540000
426.83410000 -888.44160000 322.33650000
464.74720000 -897.18240000 230.53270000
363.24770000 -1663.39170000 372.97160000
320.25280000 -1381.90800000 516.43800000
331.70380000 -1370.33440000 487.16700000
234.83650000 -679.30060000 671.53330000
269.15210000 -659.70620000 648.80550000
459.50000000 -1014.53490000 345.73160000
467.76100000 -1032.35680000 335.65460000
338.09330000 -1311.52650000 516.31190000
352.89850000 -1312.09290000 499.82680000
185.54320000 -668.71850000 693.76930000
485.04360000 -948.84800000 338.54710000
-384.82410000 -1377.15580000 540.61510000
365.48410000 -1303.48660000 480.16140000
204.12510000 -642.21020000 683.98110000
178.49010000 -652.32910000 697.59000000
246.52820000 -623.54760000 643.79540000
229.53090000 -626.91520000 679.49940000
226.06780000 -1703.95890000 525.45300000
448.53790000 -1029.77100000 367.71150000
161.65370000 -662.64140000 721.05400000
451.77870000 -978.64290000 376.60930000
266.84400000 -1329.06270000 594.43740000
229.36940000 -1400.90190000 607.22560000
287.81690000 -1679.84950000 478.74660000
321.19340000 -1693.18100000 426.34070000
324.79490000 -1672.94340000 452.98260000
450.57150000 -927.30220000 382.18800000
295.08000000 -1300.07010000 567.70790000
255.34870000 -1696.95890000 511.59680000
301.26990000 -1278.59690000 547.62930000
163.63890000 -622.63620000 723.19320000
196.52220000 -627.07250000 704.42080000
198.30440000 -1694.15860000 580.82070000
-326.40340000 -1334.52440000 576.92070000
241.99480000 -1670.43260000 528.11570000
240.33140000 -1686.68920000 534.34560000
244.84890000 -599.39820000 679.42920000
204.68180000 -598.96510000 701.56930000
332.30020000 -1205.07590000 549.21290000
-359.89220000 -1323.52530000 557.79050000
161.44320000 -592.40880000 721.74580000
223.04400000 -1648.90040000 560.87570000
256.68440000 -1640.71340000 552.64970000
159.74540000 -573.75180000 704.77560000
196.84760000 -575.69960000 700.89760000
375.38610000 -1638.84790000 387.76390000
350.87610000 -1665.04540000 412.59710000
327.30460000 -1646.21030000 482.85710000
285.40270000 -1630.40480000 539.25650000
-275.14900000 -1335.06680000 564.19780000
2.51010000 -676.24040000 736.84230000
-275.14930000 -1309.88720000 592.52700000
-297.84050000 -1306.36230000 559.93650000
-249.44000000 -1355.39510000 611.31210000
352.34360000 -1649.64260000 446.70270000
461.96080000 -888.27450000 235.64170000
351.95320000 -1633.12920000 448.97740000
-294.29720000 -1281.36070000 588.82900000
385.22680000 -1264.73060000 402.49690000
248.66930000 -1617.97560000 573.81520000
305.85200000 -1615.94710000 514.25160000
321.98410000 -1580.75760000 496.59870000
-31.34710000 -596.95980000 736.87040000
327.86180000 -1611.49900000 474.42770000
-32.68590000 -560.71880000 732.97310000
388.53820000 -1271.87260000 362.11950000
378.71950000 -1249.12590000 373.75120000
387.31780000 -1620.45790000 356.32970000
535.86680000 -768.63640000 121.97040000
364.10720000 -1612.79060000 403.46630000
389.87240000 -1219.27250000 398.77710000
-390.33830000 -1293.40120000 518.20020000
72.18260000 -615.50490000 746.27920000
368.48550000 -1599.85880000 398.82430000
-358.73230000 -1294.86580000 548.63820000
443.81630000 -881.87150000 284.34640000
-351.82430000 -1283.12560000 541.80800000
371.58480000 -1260.10890000 438.27190000
-388.50050000 -1279.83330000 495.43810000
237.41950000 -1600.56490000 574.85340000
389.49700000 -1222.24120000 439.12510000
-334.29230000 -1277.72450000 551.94130000
433.75090000 -852.79880000 329.21910000
482.75660000 -845.97590000 266.43180000
-341.02150000 -1255.86730000 554.12330000
207.75490000 -1591.26140000 584.06300000
289.31890000 -1568.06750000 515.64390000
213.95520000 -1579.42410000 576.83580000
431.49520000 -984.64910000 402.45690000
-12.34560000 -539.58620000 744.64760000
127.10970000 -611.24220000 738.16050000
430.95540000 -902.08180000 399.54380000
419.69450000 -891.02330000 379.04260000
410.26990000 -883.28930000 402.78150000
339.10130000 -1586.49410000 478.29670000
397.57640000 -1196.26700000 462.04170000
-226.48970000 -1538.75480000 656.50510000
-237.37140000 -1461.48110000 637.80360000
-226.38830000 -1482.59690000 659.52150000
-200.23000000 -1515.70010000 671.81650000
-196.65550000 -1473.28150000 679.25560000
388.18180000 -1580.08190000 391.62810000
437.18410000 -923.73430000 414.43200000
393.83080000 -1117.99270000 489.94620000
139.95340000 -571.28000000 715.45540000
99.92740000 -548.67080000 735.35050000
362.84590000 -1181.44250000 524.41940000
-158.05610000 -1492.99010000 690.18590000
431.87470000 -867.81300000 422.11950000
116.58330000 -494.14160000 727.04880000
433.09660000 -770.00960000 442.69370000
434.07640000 -913.94430000 443.11310000
74.13200000 -486.11800000 724.76650000
-220.15880000 -1433.85360000 659.42690000
452.82080000 -1354.34510000 109.27600000
485.64180000 -1399.31380000 79.31480000
448.33090000 -1328.58900000 96.43670000
447.24080000 -1318.49720000 77.22950000
477.40090000 -1318.18200000 65.29930000
44.85700000 -504.82310000 747.66870000
281.39900000 -1556.66610000 525.32680000
290.47630000 -1536.93150000 531.49730000
293.69900000 -1528.73280000 517.50320000
-162.01120000 -1452.17590000 683.58470000
398.60970000 -872.75620000 352.94880000
-183.56680000 -1410.68370000 667.72750000
291.42760000 -1511.34380000 478.54590000
-133.98600000 -1430.05070000 669.87600000
-141.74300000 -1378.87660000 665.06730000
421.96920000 -1281.88440000 85.63610000
290.86720000 -1521.09990000 497.20500000
422.47970000 -1288.71040000 134.71880000
391.47420000 -877.61190000 383.80190000
383.58220000 -867.01430000 392.98830000
402.90060000 -1313.90230000 154.66820000
449.57560000 -1366.28980000 116.21520000
270.79930000 -1508.85210000 516.34240000
94.18230000 -535.05990000 718.33030000
71.97400000 -502.52500000 720.66520000
387.37580000 -861.17350000 369.69090000
412.37640000 -1261.03760000 105.18700000
394.32250000 -835.33110000 401.89610000
384.51840000 -848.75900000 391.80280000
396.87400000 -837.99350000 384.44080000
419.73000000 -641.68270000 490.31880000
417.45030000 -990.64470000 468.59450000
264.53170000 -1544.58090000 560.67220000
223.63830000 -1564.24600000 582.59780000
443.40380000 -1380.92420000 190.35780000
482.34030000 -1411.81590000 142.53190000
446.70180000 -1349.19140000 178.96840000
-107.68090000 -1344.98990000 644.46170000
410.03420000 -804.72870000 415.50050000
402.95230000 -783.68550000 406.44370000
431.65900000 -812.15970000 370.53500000
456.40210000 -1667.95800000 173.15250000
244.59940000 -1535.95260000 582.96000000
259.86320000 -1525.09480000 560.60830000
422.43210000 -775.48900000 392.73600000
426.13380000 -535.02820000 469.67140000
-120.73820000 -1309.61110000 651.07510000
467.49770000 -1388.16940000 210.82540000
469.04440000 -1374.32460000 242.50820000
472.90790000 -1421.67290000 210.63530000
-232.57590000 -1374.60330000 637.55690000
443.51040000 -1591.23890000 137.93280000
439.75850000 -1628.30750000 168.08530000
458.05010000 -1337.19380000 251.44470000
438.56010000 -1341.78830000 228.76390000
444.45830000 -1378.98210000 201.50830000
454.81940000 -1342.70530000 275.86930000
419.24290000 -702.02690000 410.79390000
411.21640000 -724.56480000 420.53580000
425.35600000 -753.30140000 432.26220000
452.69460000 -737.72330000 378.50620000
-173.78310000 -1314.22740000 647.46080000
403.02610000 -1313.45310000 175.18470000
435.58410000 -1353.26810000 138.34410000
453.43450000 -1352.59300000 159.27610000
196.68520000 -1548.07710000 625.60640000
451.53680000 -1645.83680000 168.73460000
405.97830000 -1297.01760000 213.25190000
418.85770000 -1650.71640000 256.65680000
398.55250000 -1287.99560000 195.63070000
420.66460000 -1625.49240000 245.85360000
408.60740000 -1308.70920000 232.49630000
187.76870000 -1514.46250000 596.59030000
179.30470000 -1523.65450000 623.92720000
203.69530000 -1530.11150000 616.97530000
426.60900000 -1288.75990000 259.54820000
494.19170000 -769.67870000 297.09950000
516.23750000 -769.33000000 231.28320000
-253.06920000 -1303.03980000 622.00900000
470.89420000 -802.98560000 327.74350000
137.91820000 -1554.76750000 663.67110000
140.05380000 -1536.74220000 661.96080000
402.68590000 -1283.52690000 156.11930000
414.48830000 -616.30650000 433.64250000
61.73320000 -1552.52600000 696.23450000
-224.10910000 -1291.06070000 628.40220000
140.29390000 -1512.76340000 642.29640000
414.81630000 -602.17470000 425.12880000
451.67930000 -604.43370000 397.79250000
455.92610000 -1607.53560000 104.61250000
166.69050000 -1518.01930000 616.86820000
482.90760000 -674.00370000 349.06770000
182.15070000 -1487.79960000 598.05260000
218.74740000 -1514.92470000 583.75730000
161.81330000 -1497.24510000 616.30040000
439.15610000 -1586.43050000 183.72010000
153.68850000 -1483.44970000 638.74630000
-287.12240000 -1249.80550000 591.01840000
488.27670000 -1244.45480000 46.14980000
500.21800000 -1307.17030000 48.23670000
172.50990000 -1412.82970000 619.79820000
168.08710000 -1424.38600000 631.33620000
516.62270000 -1266.91100000 -28.83350000
271.63810000 -1481.07690000 511.50560000
-114.02150000 -1405.94090000 669.71670000
515.96450000 -1308.42710000 0.35700000
519.18730000 -1329.65830000 -16.43430000
-88.57180000 -1352.30250000 661.27090000
500.31890000 -1232.76050000 -15.09900000
504.09670000 -1311.18810000 21.51810000
498.15720000 -1245.32700000 18.60760000
244.76860000 -1511.86360000 562.19090000
-95.47360000 -1278.58980000 631.98170000
-75.58130000 -1250.34570000 639.60630000
-144.72890000 -1260.06240000 646.81960000
265.68670000 -1489.57780000 542.69130000
482.31440000 -1555.71680000 134.50990000
495.61470000 -1547.39290000 67.92990000
427.57180000 -1234.08790000 76.63680000
469.89680000 -1530.48950000 133.15370000
524.66990000 -617.47440000 261.06560000
416.88980000 -1632.89940000 272.43680000
456.89000000 -1217.26680000 61.52670000
-100.91240000 -1224.53560000 637.25090000
403.03210000 -1624.69920000 303.35670000
506.80580000 -552.79470000 314.26400000
-85.37650000 -1221.79390000 628.66110000
478.36240000 -1204.58200000 19.90080000
-107.59620000 -1159.23470000 641.81140000
204.70630000 -1311.83330000 636.02170000
397.54940000 -1603.90140000 320.06450000
416.33420000 -1601.13050000 251.65900000
442.17360000 -1578.75740000 247.04120000
-70.14940000 -1420.65480000 683.07070000
-60.60590000 -1325.04020000 657.21950000
182.01120000 -1364.23900000 625.99910000
-59.38900000 -1267.49020000 673.53590000
-59.88860000 -1393.04870000 683.33240000
-53.95360000 -1340.19210000 698.32730000
459.49580000 -536.80330000 390.52030000
449.14650000 -1234.96130000 193.85140000
493.82370000 -1189.79610000 171.49770000
474.87790000 -1226.53000000 225.98260000
504.06400000 -1187.82210000 214.48260000
506.18350000 -1177.85710000 189.00030000
387.95390000 -1288.94760000 176.29570000
401.57780000 -1289.54380000 235.99880000
409.16060000 -1275.63500000 221.13400000
419.20070000 -1259.87920000 263.09140000
-60.13950000 -1230.39770000 647.37210000
405.78180000 -1260.10230000 155.18630000
407.80220000 -1261.89700000 182.77780000
417.04800000 -1561.85890000 336.74150000
411.11980000 -1238.61830000 118.85400000
451.00660000 -1560.68210000 243.11340000
-31.18160000 -1408.05850000 713.28820000
-23.34160000 -1300.95500000 700.83500000
437.59190000 -1539.32730000 251.16250000
424.27220000 -1263.16830000 237.65540000
471.98930000 -1224.29190000 246.15980000
411.35800000 -1229.76260000 87.80280000
-53.81140000 -1168.97950000 691.35750000
436.73010000 -1523.40420000 233.99330000
539.05270000 -765.06040000 -36.14180000
432.28270000 -1200.30490000 79.28600000
460.18560000 -1193.65100000 110.52730000
-65.15370000 -1165.85390000 673.42050000
447.99180000 -1189.09330000 55.98910000
466.73280000 -1169.51010000 89.26100000
480.03390000 -1512.17300000 93.44090000
550.81080000 -497.85040000 69.23450000
548.85170000 -580.44890000 156.37110000
554.99650000 -622.92760000 75.09650000
474.75440000 -1186.62830000 14.08530000
452.47130000 -1156.52500000 60.09740000
451.93950000 -1157.03490000 72.61810000
459.31110000 -1511.74050000 185.83220000
483.17890000 -1498.29960000 109.92750000
456.55750000 -1495.07280000 227.51810000
482.98290000 -1475.09330000 88.75120000
-40.23740000 -1074.32120000 708.06400000
12.08290000 -1248.30930000 704.32240000
-12.11080000 -1142.52190000 727.80770000
24.69450000 -1257.95740000 719.84750000
532.25860000 -503.08540000 233.85550000
543.15770000 -471.77120000 155.60860000
2.99430000 -1271.61580000 693.30880000
-54.75100000 -1078.56020000 690.64820000
466.10740000 -1505.73360000 191.17470000
455.03800000 -1474.41590000 203.82460000
507.60600000 -1157.46550000 115.06760000
511.79450000 -1158.05050000 144.75000000
509.35330000 -467.04900000 292.76130000
6.74550000 -1244.59680000 694.34800000
-35.35000000 -1094.33390000 694.95730000
511.05970000 -1129.57290000 176.20520000
512.12770000 -1114.18910000 161.01290000
437.18400000 -1470.85580000 259.44400000
-226.07080000 -1238.60500000 625.90260000
-239.67170000 -1255.19170000 604.63980000
-242.50870000 -1238.05590000 607.99800000
471.92480000 -1442.90720000 174.67220000
438.56670000 -1321.69320000 304.21230000
432.92780000 -1296.67720000 291.19780000
450.40210000 -1441.50090000 253.10000000
433.12160000 -1287.56090000 276.13170000
482.20300000 -481.55630000 351.03050000
-216.44410000 -1194.30180000 624.23450000
410.22200000 -1297.66590000 311.45920000
388.29190000 -1277.64730000 328.44470000
540.86620000 -678.58860000 -114.32410000
406.14140000 -1276.95840000 309.45010000
409.16620000 -1258.53480000 297.01350000
551.11130000 -686.57120000 -1.79900000
-293.03870000 -1229.53740000 571.18190000
516.09340000 -429.42940000 247.90710000
378.92030000 -1246.23820000 328.30240000
399.15410000 -1230.60120000 319.60130000
425.36660000 -1232.17990000 288.41790000
-279.33720000 -1217.91530000 567.81920000
-286.52160000 -1198.32260000 574.68100000
-295.37480000 -1185.70530000 582.28380000
-289.27190000 -1168.47340000 591.40940000
455.16020000 -1220.29040000 275.13060000
-240.56750000 -1626.15230000 627.50150000
519.67000000 -599.56930000 -196.69470000
447.79780000 -1170.41170000 308.68560000
-194.44730000 -1189.58190000 631.07290000
542.79620000 -606.02070000 -112.06830000
483.46880000 -417.46370000 319.84740000
-208.74910000 -1608.85060000 644.40670000
454.46610000 -1184.29050000 286.93430000
-200.28940000 -1584.23570000 642.05640000
370.26690000 -1247.02340000 341.11350000
-229.71890000 -1162.61630000 618.57290000
389.53380000 -1162.52220000 346.17820000
378.49300000 -1202.02150000 350.86220000
-190.89150000 -1150.60330000 615.14050000
-170.51620000 -1134.70250000 631.02340000
-207.15740000 -1088.16890000 621.98720000
497.06140000 -380.07230000 242.40350000
476.65150000 -387.71050000 301.97640000
-129.85550000 -1092.54080000 638.65310000
447.63600000 -422.95020000 369.94280000
443.77930000 -392.19070000 350.96430000
-174.79080000 -1129.66990000 621.38340000
-187.40280000 -1690.90800000 633.31030000
-99.51860000 -1695.85220000 662.49000000
-115.48110000 -1681.83970000 671.42650000
477.73620000 -358.12240000 298.26250000
389.61820000 -1188.90410000 382.68480000
-173.72110000 -1085.64690000 616.96690000
-254.12160000 -1695.76000000 578.00350000
5.79400000 -1700.60830000 636.78970000
-48.49310000 -1690.69340000 679.85440000
421.22500000 -1188.35780000 322.58230000
-155.68350000 -1074.11320000 633.01170000
497.00240000 -1444.29630000 87.46550000
485.62520000 -1449.41520000 128.65530000
434.24570000 -368.87930000 368.48980000
-87.66140000 -1165.37480000 631.66780000
-73.52670000 -1154.70240000 631.86470000
-53.22970000 -1669.67900000 691.74540000
-97.33430000 -1661.14040000 679.68290000
415.89030000 -338.23610000 381.90420000
-56.62230000 -1647.36270000 683.66390000
472.34130000 -332.73450000 297.44360000
-68.38290000 -1127.19450000 643.50440000
433.30740000 -1107.75420000 337.00420000
515.89120000 -1422.52750000 27.13220000
465.00960000 -309.82560000 281.63760000
399.05100000 -323.07320000 390.83270000
462.74510000 -293.63330000 289.69230000
540.35310000 -696.92720000 168.17600000
392.54930000 -307.52010000 395.22310000
389.92610000 -1183.46800000 415.13560000
454.29880000 -266.50050000 334.29360000
-75.71710000 -1628.43790000 669.39400000
-11.75810000 -1617.22470000 675.56850000
505.23270000 -1403.00090000 66.00810000
514.50490000 -1396.89790000 37.98520000
386.12720000 -1177.74840000 399.80640000
496.26330000 -1423.85410000 101.81100000
-164.24310000 -1673.84990000 651.84970000
416.23190000 -1130.84950000 433.66310000
482.95920000 -1403.40700000 94.67060000
-82.47630000 -1078.66060000 641.24050000
-204.05780000 -1657.53150000 635.58290000
-128.43050000 -1649.48470000 659.66600000
-162.37870000 -1639.42470000 653.41090000
490.32490000 -1400.93480000 114.74520000
493.10660000 -1179.61080000 257.23680000
485.41180000 -1150.10110000 279.82390000
398.53400000 -800.85280000 501.69490000
407.05950000 -915.98430000 491.28020000
468.30720000 -1432.48600000 162.37460000
-81.57370000 -1032.53660000 676.01280000
-131.05580000 -1611.28030000 664.99080000
-79.27460000 -1600.52320000 676.19020000
-38.79600000 -1602.14230000 683.77550000
511.41560000 -1123.08030000 248.29730000
-157.43170000 -1579.03980000 661.28800000
-98.68800000 -1577.35730000 692.81080000
-18.81310000 -1654.43380000 694.46860000
11.53550000 -1627.67440000 683.70200000
477.22460000 -1124.18030000 291.59100000
523.88510000 -1381.14860000 -17.36360000
-38.41710000 -1575.39540000 708.73730000
-93.92770000 -1561.11760000 709.47230000
-41.51010000 -1557.29740000 714.85530000
404.56090000 -619.50090000 511.08340000
388.53440000 -747.39750000 509.86480000
30.49750000 -1604.57320000 675.27720000
465.13200000 -1104.45250000 324.36610000
10.95010000 -1582.43790000 698.99230000
424.36260000 -574.60620000 451.61960000
-440.50090000 -1315.86720000 442.45900000
26.77970000 -1516.79580000 691.94450000
74.07820000 -1531.45590000 683.74300000
99.80250000 -1511.74170000 664.84450000
-421.96550000 -1301.83860000 480.26920000
-22.92490000 -1544.96410000 711.07100000
241.91980000 -1228.18870000 633.69100000
-424.11750000 -1247.68710000 444.14850000
-247.14230000 -1683.36760000 600.66890000
-55.86600000 -1529.45500000 702.46030000
-29.58890000 -1520.90280000 696.54030000
-7.17890000 -1521.58910000 699.46720000
67.57050000 -1473.93820000 692.59950000
22.27200000 -1483.80860000 706.32240000
-9.73000000 -1485.35600000 710.64530000
-392.12730000 -1261.52720000 492.65230000
-398.28820000 -1229.35440000 479.88470000
-365.86070000 -1238.66050000 528.60830000
-183.88100000 -1627.86120000 655.07020000
363.63580000 -652.12530000 573.89390000
379.44760000 -920.17460000 528.89650000
385.09520000 -746.86980000 526.14380000
-243.25630000 -1653.81090000 626.17250000
259.61090000 -1161.95240000 623.05690000
320.20100000 -629.45740000 621.55050000
283.45780000 -756.93860000 646.56140000
353.32490000 -962.51250000 564.62990000
-404.93520000 -1220.78690000 440.33230000
277.34730000 -1134.85420000 595.66760000
-407.29120000 -1212.36350000 409.20350000
-390.70910000 -1209.82970000 449.78200000
304.50710000 -615.09470000 625.79270000
-370.43710000 -1218.12980000 504.03560000
-337.70560000 -1690.62460000 547.15870000
-166.47540000 -1549.25100000 686.23070000
-364.90130000 -1678.65970000 538.89840000
-114.86720000 -1538.93530000 707.02550000
-363.15550000 -1207.98020000 496.65080000
-398.22880000 -1661.88200000 507.95790000
-375.16170000 -1657.05160000 524.88430000
-323.15950000 -1673.71810000 558.93410000
368.13000000 -316.07760000 573.12380000
-370.07030000 -1175.07810000 514.61180000
259.61980000 -1135.23430000 607.20350000
393.11700000 -606.96170000 520.09170000
-346.23840000 -1639.09390000 536.92970000
-406.96090000 -1117.21510000 446.71410000
398.94030000 -461.87950000 533.01510000
-150.13250000 -1523.94090000 692.02820000
-98.30810000 -1524.01760000 701.76290000
-290.56660000 -1665.72890000 583.51670000
382.61410000 -1165.49020000 359.78700000
-395.67580000 -1147.30260000 484.08150000
413.83770000 -1099.20960000 358.71440000
382.94370000 -1156.20700000 397.57840000
401.80120000 -1133.55220000 377.11970000
405.59980000 -1112.16460000 387.16330000
-87.73080000 -985.53020000 656.13930000
-105.49800000 -1496.26350000 700.09780000
-123.85380000 -1476.39920000 699.07460000
402.69040000 -510.73400000 433.85460000
407.56800000 -524.53090000 443.51320000
421.57170000 -1080.52000000 345.83830000
-341.23240000 -1220.91720000 540.04090000
-325.83470000 -1207.98220000 530.83480000
418.16000000 -1084.70910000 416.76060000
-289.46000000 -1645.37170000 597.74100000
-50.19750000 -1516.62150000 688.54360000
-51.71890000 -1492.62730000 692.49770000
-77.84270000 -1502.81600000 694.33620000
-380.79920000 -876.60260000 329.01130000
-326.81240000 -1192.84950000 539.71440000
-377.58810000 -895.92320000 338.34750000
-393.39910000 -938.15990000 350.08110000
-37.85010000 -1478.19750000 708.85180000
-393.78930000 -848.07150000 357.42010000
-399.28160000 -1004.57990000 373.61300000
-64.97810000 -1467.10030000 695.40540000
-51.22960000 -1429.10100000 708.88340000
399.43290000 -1109.31380000 407.67160000
18.53030000 -1427.69800000 710.09060000
-3.54620000 -1443.39590000 708.31050000
400.64380000 -1097.79920000 397.39210000
-95.19740000 -1450.60750000 695.18800000
-352.76140000 -1144.37770000 545.99270000
-157.79650000 -1015.89740000 634.45000000
-106.92400000 -945.48110000 653.12170000
-379.13380000 -1090.04140000 513.30420000
-360.79840000 -1048.82450000 545.97060000
-100.71500000 -928.88080000 681.09170000
418.76160000 -514.67090000 420.98940000
-330.89220000 -1067.09180000 570.99190000
429.76230000 -1030.82870000 435.66200000
121.85610000 -1445.17960000 673.43480000
407.86170000 -1033.69920000 473.05960000
409.28580000 -444.06990000 455.30830000
-136.41640000 -886.13750000 659.46670000
-166.04140000 -845.46020000 657.75770000
164.11580000 -1413.44070000 651.85230000
383.08560000 -459.70210000 432.69710000
386.61910000 -456.28790000 442.97720000
-171.07800000 -942.19500000 635.35610000
-395.71160000 -1037.28640000 470.98000000
445.79750000 -468.44860000 393.89470000
62.95290000 -1329.54050000 715.38930000
99.58240000 -1320.03200000 704.33700000
401.45030000 -441.19850000 412.70400000
-124.35840000 -855.27480000 668.48710000
-402.74740000 -961.37900000 414.79060000
417.79470000 -1048.07080000 398.57650000
271.53160000 -635.86930000 626.67360000
268.13770000 -615.03480000 611.27780000
291.71300000 -579.25030000 606.48490000
-401.66680000 -1005.37450000 438.52100000
282.20260000 -565.85940000 604.46330000
