11.39070034 34.04891968 5.84001017
12.22179031 34.87517929 5.81948996
11.77332020 34.89575958 5.53383017
11.96994019 34.56317902 5.62326002
21.67766953 -43.11663055 3.97059011
21.82700920 -44.70153046 4.03869009
21.76931953 -44.18519974 3.71906996
11.84267998 34.26911926 5.65239000
11.85231018 33.78995895 6.25218010
12.28011036 34.57020187 6.32775021
21.11315918 13.11005974 2.60727000
21.78162003 11.88578987 2.93198991
12.13617039 34.17065811 5.86524010
12.12168026 33.42716980 6.50207996
3.67719007 12.42284966 3.75267005
4.08513021 13.04094028 2.82081008
3.32705998 11.94266987 3.42276001
3.61145997 11.56272030 2.62652993
8.90373039 18.82044029 6.90197992
11.44676971 -49.85271072 -0.61635000
12.30230999 -49.81679916 -0.61443001
12.68208027 -54.47669983 -0.48930001
8.00043011 25.55595016 3.93405008
7.90392017 24.73446083 3.79052997
7.86113977 25.63932037 3.00744009
7.65608978 24.14045906 3.04907990
9.99549007 35.97431946 -0.67464000
10.26099014 36.59571075 -0.90831000
11.38716030 36.98339844 0.02811000
10.34562016 36.41616058 -0.37529999
6.83541012 -50.68925858 0.77591997
6.35577011 -44.34101868 0.77349001
6.63528013 -47.38703918 0.78128999
20.77416039 -56.68019867 6.13779020
8.55521965 22.60725021 1.75832999
8.75024986 21.77139091 1.82432997
8.50269032 21.78656960 1.93785000
13.83576012 17.75543976 1.95510006
6.84473991 14.85309029 4.28147984
5.34213018 14.38346958 2.51340008
20.11796951 -56.87765884 4.21409988
20.47425079 -56.74335098 4.98194981
20.02548027 -56.68310928 5.11604977
19.31631088 -56.83190918 6.05225992
18.23460007 -56.85504150 5.61663008
6.22263002 15.06989956 2.46948004
6.25304985 15.09167957 2.48724008
6.91313982 15.46452045 2.47448993
6.84824991 15.27062988 1.84487998
6.21714020 15.06297016 2.48829007
21.65663910 -3.17280006 5.87397003
22.08206940 -24.00173950 6.31362009
21.68009949 -33.51440811 6.54108000
22.35783005 -33.33015060 6.05094004
21.15003014 -56.73822021 5.71835995
20.27450943 -56.98260117 5.61113977
19.95896912 -56.91474152 6.10310984
19.65171051 -57.07743073 5.85372019
13.44458961 23.51073074 -0.30960000
8.98583984 32.09255981 3.00209999
8.73192024 30.80124092 3.44964004
8.12250042 29.85123062 2.60187006
8.09844017 29.69771957 2.61896992
8.15682030 29.58879089 2.78615999
8.40056992 29.73719978 3.22245002
7.88513994 15.86316013 1.71758997
7.51079988 15.18657017 1.26260996
7.62458992 15.90791988 2.14206004
10.79652023 16.20434952 6.33111000
9.80628014 25.50135040 7.70609999
21.00791931 4.35129023 5.28873014
21.16316986 3.89889002 5.31126022
2.69936991 -48.53115082 9.12236977
2.43743992 -49.52922058 9.30053997
0.17493001 -31.73010063 6.91644001
-0.19242001 -33.79539108 6.58697987
22.33938026 7.08629990 4.34391022
21.94376945 6.87320995 4.61576986
21.80348969 7.16199017 4.53356981
21.44915962 6.18839979 4.71354008
21.70998001 6.10952997 4.77728987
0.97311002 -30.61898994 7.69425011
0.55094999 -30.29405975 7.28031015
7.92210007 24.01794052 4.52466011
8.37942028 26.22188950 5.09639978
8.21420956 25.51613998 4.73381996
22.02680969 10.01264954 3.71829009
21.89300919 8.74287033 4.19831991
21.41588974 8.39321995 4.60296011
21.45653915 7.15928984 4.56176996
19.68062973 -56.80854034 5.19401979
20.53079987 -56.83380127 5.49525023
19.90269089 -57.06386948 5.39105988
19.26873016 -56.82923889 4.97940016
19.31340027 -56.94644928 5.66390991
8.42735958 25.05776978 5.80443001
8.09354973 24.84918022 4.93919992
7.83852005 24.49500084 4.49802017
7.83723021 25.55289078 4.30914021
9.70005035 34.84830093 -1.39289999
9.88265991 35.55966187 -1.33229995
9.33522034 34.89426041 -0.87774003
13.51346970 9.72704983 7.74594021
18.19347000 -39.05981827 8.40077972
18.11424065 -38.57769012 8.88440990
18.18147087 -37.33713150 9.25835991
17.01350975 -39.53702927 9.37728024
12.82763958 -30.00687027 -0.87594002
11.94281960 -31.64841080 -1.08429003
12.68519974 -31.84662056 -0.89796001
13.96004963 -33.72761917 -0.63795000
7.81857014 25.07453918 4.87100983
11.12759972 36.84075165 -1.52028000
11.43537045 37.28382111 -1.55049002
11.54442024 37.13082123 -0.86556000
14.33738995 -32.41073990 -0.43715999
8.17125034 26.51103020 1.44069004
8.12666988 25.10445023 1.45632005
8.33010006 24.30117035 1.11557996
8.88284969 22.09608078 1.39986002
12.48326969 37.55297852 -0.30017999
12.78254986 37.69874954 -0.38418001
12.51356983 37.69145966 -1.35461998
4.83314991 0.70305002 6.76703978
15.86592007 15.35157013 4.53824997
15.86225986 15.86415005 4.45079994
0.72035998 -40.32704926 3.02291989
0.67698002 -39.80540848 3.01064992
1.08530998 -38.78771973 2.70851994
1.65996003 -35.73585129 2.26664996
1.62461996 -37.44561005 2.31740999
10.37796021 -25.29509926 12.23645973
18.39924049 -56.78681946 2.48786998
18.91028976 -56.79500961 2.38391995
19.55924988 -56.78858948 3.14802003
1.26692998 -37.58858871 2.60720992
1.04058003 -37.52565002 3.11876988
1.03155005 -37.50951004 3.12215996
1.03608000 -37.52442169 3.12896991
10.98192024 -56.04893875 8.78081989
10.68554974 -56.13899994 8.92607975
10.58670044 -56.27331161 8.05760956
18.66053963 26.29323006 4.60562992
18.56048965 26.01324081 5.01555014
18.66065979 25.94514084 4.29330015
4.03847980 -39.45251846 1.30146003
2.97380996 -39.04758072 1.70090997
2.66303992 -38.91936111 1.85084999
12.79353046 -11.82785988 12.06017971
18.12071991 -56.39672852 1.65734994
18.11231995 -54.05820084 1.35255003
17.87048912 -55.82699966 1.38522005
19.24205971 29.09892082 2.58593988
19.60499954 30.94914055 2.21811008
19.44939041 30.87101936 2.44335008
19.40501976 30.69984055 2.47676992
15.65816975 33.06837082 6.57453012
14.88383961 32.88827896 6.95111990
8.28612041 30.16037941 2.56029010
8.27285957 30.20945930 2.48345995
7.98609018 29.90718079 2.29743004
8.32653046 30.65982056 2.46807003
8.16209984 30.74852943 1.90401006
15.51698971 -32.00490189 10.63842010
15.45635986 -34.23234177 10.56122971
15.76158047 -26.49294090 10.54638004
9.85844994 -26.58782959 -0.69389999
16.66349983 -12.15993023 -0.17769000
16.85040092 -5.11668015 -0.26291999
14.73375034 23.29631996 9.52820969
17.64525032 15.07793999 1.13616002
18.24801064 14.20001984 0.86856002
22.17119980 -18.43674088 6.17424011
15.19340992 3.02589011 -0.87690002
16.40468979 4.83645010 -0.59823000
7.69688988 23.74637985 2.57469010
7.77573013 22.63196945 3.13898993
9.27729034 14.71823978 0.34731001
10.46582985 15.47640038 0.51213002
0.71880001 -9.59372997 3.62546992
0.66903001 -9.83679008 3.63737988
0.23739000 -10.19198990 3.65480995
0.50970000 -10.50158978 3.67002010
22.84329033 2.73912001 2.47566009
23.35086060 1.07117999 3.01661992
15.44130039 -37.33023071 10.54092026
15.00086975 -39.37236023 10.15106964
23.12931061 4.02983999 2.95145988
7.04801989 2.78684998 0.11538000
7.57488012 4.08819008 0.02415000
21.04472923 -26.53338051 2.24565005
21.47180939 -28.18742943 2.53077006
21.15023994 -29.08506012 2.31906009
20.81489944 -29.55755997 2.24058008
10.75010967 31.24958992 6.66660023
10.77758980 32.21730042 5.99702978
13.36182022 -41.75825882 -0.78714001
12.63924026 -45.20742035 -0.76734000
13.59603024 -39.02846909 -0.63015002
13.41711044 -41.11368179 -0.75006002
12.88877964 -41.14152145 -0.82073998
11.35632038 -39.14355087 -0.92964000
16.14287949 15.97529984 4.32411003
16.19426918 16.17609024 4.09164000
16.18062019 16.74126053 3.64442992
17.15843964 15.67803001 3.83684993
18.29657936 13.92222023 4.49982023
17.07884979 2.24801993 -0.40599000
16.88661003 -0.93836999 -0.34931999
14.27225971 -0.40845001 -0.99146998
17.89842033 1.49531996 -0.04035000
8.24711990 12.87339020 0.18765000
7.91190004 10.83848953 0.05907000
10.70096970 -42.07611084 -0.78065997
10.16537952 -40.97481155 -0.65750998
9.41849995 -40.85754013 -0.44826001
7.65200996 -39.21977997 0.02811000
10.36371040 -37.60395050 -0.75959998
0.85530001 -2.24927998 3.83267999
1.13196003 0.46625999 3.69233990
22.35968971 -2.37530994 5.75295019
22.08791924 -3.77394009 5.68905020
7.74930000 8.12922001 0.10044000
10.48322964 -56.50997925 3.91337991
10.08909035 -56.55245972 4.03587008
9.80387974 -56.56946945 4.03709984
8.51430035 -56.50553894 3.14816999
7.26771021 -56.42948914 1.41927004
8.31449986 -56.54648972 2.56935000
21.56154060 -55.33158112 7.20986986
21.19584084 -55.57094955 6.79064989
13.92302990 -56.76219177 5.33456993
10.42533016 -56.50682831 4.03253984
10.62992954 -56.53364944 4.03449011
11.30972958 -56.64353943 4.59567022
17.41020012 30.87575912 5.89487982
17.74721909 28.73210907 6.04556990
19.68378067 -46.06245041 7.69008017
8.07798004 1.94264996 9.02301025
6.89426994 0.99608999 8.83158016
18.03288078 30.34929085 5.46420002
18.12125969 28.87958908 5.63775015
8.06939983 21.43310928 3.01910996
8.40153027 21.34464073 2.46426010
8.66930962 20.66699982 2.44407010
9.10437012 20.27915955 2.10753012
8.88873005 20.22315025 2.43374991
12.76206017 0.66242999 11.99390984
16.81455040 -3.65687990 10.36653042
23.31738091 -26.10885048 3.56189990
23.40270042 -29.34597015 3.83679008
6.65361023 -55.98294067 9.23754025
6.85398006 -56.15285873 8.71998024
8.16329956 -56.22438049 8.61386967
15.60237026 -7.77606010 10.62215996
12.66899967 34.82495880 6.06324005
5.40857983 -37.74150085 10.51368046
22.02462006 -21.91688919 2.51837993
22.31180954 -25.01313019 2.97972012
21.29070091 -21.22241974 2.19384003
11.24370003 36.90557861 0.07296000
17.84436035 33.87324142 4.30725002
17.18721008 35.12474823 4.55235004
13.79786968 14.79636002 0.12609001
15.28985977 15.45417023 0.56115001
15.09195042 14.91156006 0.43353000
4.73417997 -44.10404968 9.35340023
4.35602999 -29.69721031 9.73311043
-0.53258997 -45.99185944 5.39544010
-0.48170999 -45.12078094 4.74038982
-1.07378995 -47.26700974 4.39628983
22.45755005 -18.85379982 2.89239001
22.95656967 -17.52495003 3.03908992
23.01482964 -23.49968910 3.25925994
23.46582031 -24.70853996 3.63461995
6.34461021 0.69068998 8.40275955
4.81865978 -0.77151000 8.00333977
11.77182007 -41.12979126 -0.90644997
11.56620026 -41.03157043 -0.90644997
11.35367966 -41.10401917 -0.86708999
10.34475040 -40.99863052 -0.70344001
10.77062988 -39.94832993 -0.82916999
22.68465042 -55.50542831 6.47685003
22.45548058 -56.18568039 5.94059992
22.16519928 -56.14011002 6.65927982
22.09107018 -56.25384140 6.19862986
20.23998070 -22.44842911 1.72268999
20.06144905 -26.01807022 1.72527003
19.89962959 -24.04229927 1.51626003
20.71685982 -25.84790993 2.11163998
12.76970959 32.02848053 -2.16210008
11.58917999 29.65587044 -1.92920995
23.50103951 -0.77991003 3.24191999
23.30888939 2.26226997 3.29796004
15.39968967 14.08049965 5.58875990
15.37707043 13.46963978 5.91464996
17.96895027 20.40063095 3.53706002
17.96147919 20.01066017 4.18014002
17.49128914 30.72488976 -1.12373996
16.58040047 31.03185081 -1.87293005
17.05514908 31.54350090 -1.36076999
16.44491959 30.60078049 -1.73019004
23.07671928 4.02440977 4.00091982
17.77607918 35.26580811 3.88062000
18.01808929 34.69950104 4.07586002
17.66777992 34.54380035 4.16691017
10.39583969 29.17143059 -1.35069001
6.89613008 14.36186981 4.71521997
22.85547066 -56.05778885 5.66114998
22.74128914 -55.65636063 5.99124002
14.74275017 32.59869003 7.03632021
22.63505936 -55.94255829 6.36975002
21.04418945 -39.45666122 3.00462008
21.05249977 -39.67583847 3.00780010
21.24426079 -40.92636108 3.03419995
8.15880013 32.37207031 -0.16377001
8.36067009 32.77667999 -0.32007000
8.38827038 30.81101990 -0.28718999
8.33699989 28.50381088 0.12882000
8.68206024 26.11355972 0.30417001
1.02500999 -37.55463028 3.11264992
0.84290999 -38.05176163 2.84456992
0.85806000 -38.10272980 3.02333999
0.86849999 -38.06568146 3.02430010
0.83712000 -38.06753922 2.83608007
22.37252998 -21.58131027 2.84897995
18.14805031 22.32747078 2.50299001
10.96148968 -36.64097977 12.33500957
12.36657047 -56.40554810 -0.28338000
12.09831047 -56.60874176 -0.04284000
12.27581978 -56.57081985 1.62410998
14.21564960 32.98458099 6.85023022
21.86891937 -17.62272072 2.30960989
9.36798000 27.35622025 6.83196020
8.88731956 27.40979958 5.59079981
12.24687004 -24.36680984 12.29475021
12.94206047 -56.65797043 0.30180001
13.04642963 -56.53356171 -0.43941000
13.98005962 -56.71809006 1.11986995
14.82345009 -56.49557877 8.61870003
22.14308929 -4.33077002 5.84708977
22.47197914 -4.64393997 5.67219019
22.21005058 -5.34912014 5.89001989
7.24985981 -2.88545990 10.62390041
15.72887993 -56.50941086 8.14875031
15.73073959 -56.57841110 7.48334980
14.76585007 -56.67150116 1.49558997
13.02287960 36.53022003 -2.21427011
12.34943962 36.24435043 -2.03066993
1.95986998 -45.80109024 2.38350010
0.65208000 -21.60239983 3.01346993
1.29153001 -18.60951042 2.68698001
1.36986005 -25.13909912 2.68448997
14.44283962 -54.22473145 9.23274040
13.24761009 -56.02598953 8.94303036
2.11734009 5.19528008 4.55786991
6.00774002 -32.25635910 10.70205021
6.03237009 -35.17478943 10.68093014
6.29811001 -37.01810837 10.47644997
1.94318998 -49.55670166 8.77602005
2.22231007 -48.29013062 8.76342010
11.08010960 -55.89147186 9.00677967
6.38496017 -27.41436005 10.63949966
7.54572010 -2.86472988 10.75568962
7.42152023 -3.42879009 10.38401985
11.11287022 3.72474003 9.12975025
2.00258994 -51.28200150 9.16044044
1.85417998 -50.79632950 8.86334991
15.74160004 17.75316048 2.62019992
15.92660999 17.23391914 2.75163007
15.77388000 17.40303040 2.50728011
15.72764969 17.48855972 2.68083000
15.99942017 17.19429016 3.16311002
21.97389030 -34.18503189 6.35942984
21.53834915 -35.71892929 6.56519985
13.07048988 -18.46253967 12.03293991
12.86534977 23.46894073 10.05525017
12.59477997 -56.52230835 2.69172001
21.89715004 -22.87260056 6.54855013
21.46179008 -33.50133133 6.80918980
21.29447937 -35.83905029 6.85094976
5.55284977 -5.80952978 9.46739960
6.62331009 -56.35829926 2.55801010
4.88601017 -56.18360901 3.01838994
5.52236986 -56.17134094 1.99802995
12.58137035 16.24748993 0.65748000
13.98324013 15.35550022 0.38481000
2.16902995 -46.53480148 8.52954006
1.88936996 -47.83443069 8.59778976
6.97568989 -56.12382126 7.73712015
6.22181988 -56.09975815 8.49810028
6.39435005 -55.91136169 7.66421986
7.11713982 -56.05694962 7.10237980
15.94184971 37.87350082 -2.05254006
16.50659943 36.76103973 -1.99313998
11.92026043 9.43268967 7.96524000
10.11705017 -56.53757858 1.40489995
9.27587986 -56.50563049 0.49353001
8.82236958 -56.43222046 1.04820001
7.28330994 -56.41938019 0.95769000
8.60046005 -56.37326813 0.42653999
21.00720024 -37.53189087 6.54590988
20.11071014 -38.42855835 6.51188993
23.44961929 -32.42784119 4.87086010
11.17860031 -56.24736023 8.04963017
11.09741974 -56.33879852 7.37315989
10.80887985 -56.29203033 6.69384003
19.05509949 5.95850992 0.28617001
18.34547997 5.02284002 0.12957001
16.21730995 -50.09088135 9.68373013
15.66222000 -50.58275986 9.79607964
1.86210001 -55.37615967 9.22233009
2.47248006 -55.34352112 9.56151009
9.39536953 27.90468025 -0.76209003
0.86451000 -8.51358032 5.47667980
14.31138039 23.44805908 9.15894032
14.03948975 23.24913025 9.79802990
13.61211014 -2.03325009 -1.03050005
2.36079001 5.40758991 2.90088010
2.69462991 7.28838015 2.81441998
2.46467996 5.97585011 2.87456989
12.82835960 14.65056038 0.07602000
12.31455040 13.64132977 -0.28494000
19.80287933 -33.06612015 8.18517017
15.99510002 36.01446152 -1.96095002
15.78417015 18.14324951 7.64324999
9.56138992 -20.04726028 11.84547043
9.15270042 -19.31102943 11.50926018
9.50207996 -17.91338921 11.57538033
15.17325020 -50.40570068 9.98855972
19.23426056 -3.00075006 8.55932999
19.43193054 -3.08763003 8.20670986
19.51412964 10.47980976 5.55860996
19.63397980 8.82693005 5.83586979
2.39646006 -55.71968842 9.35478020
10.24787998 -21.48860931 12.04034996
10.04222965 -17.77938080 11.81225967
9.68978977 -18.32118034 11.79141045
13.56663036 36.05009842 5.76602983
18.75305939 26.27082062 1.48724997
12.24590969 37.45706940 -1.35588002
11.77904987 37.46345901 -1.44306004
12.11882973 37.28651810 -1.74861002
19.35578918 -56.96163177 4.67084980
19.03170013 -56.67615128 3.07139993
-0.58433998 -28.42688942 5.98793983
7.49393988 10.51745987 0.09330000
19.20642090 -39.45204163 6.47310019
19.19861984 -39.45632935 6.48059988
19.10754013 -40.25165939 6.75744009
20.17794037 -42.65267944 6.49325991
9.40898991 16.82345963 3.59336996
9.17669964 16.40234947 3.82326007
9.23661041 16.20734978 4.05489016
9.72132015 16.17182922 4.45122004
8.81058025 16.63265991 3.20906997
9.33627033 16.99634933 3.03321004
18.87302971 -1.91103005 8.21030998
18.71124077 28.82777977 0.10698000
3.90077996 -25.95681000 1.35573006
11.27616024 20.65925980 9.17409039
0.51059997 -7.86860991 4.58795977
0.08472000 -7.81707001 4.57698011
20.32028961 -44.67140961 6.93756008
21.13538933 -48.57918167 7.07982016
10.78365040 -48.86183929 -0.64701003
6.49400997 -25.43984985 0.40566000
6.60206985 -20.10305977 0.27785999
18.75753021 -11.97924042 9.15890980
10.16886044 14.34255028 0.11832000
6.87236977 -56.26781845 1.08972001
7.17315006 -56.27405930 0.77898002
14.17860031 -39.40182114 -0.60702002
13.59020996 -41.09931183 -0.73676997
12.29459953 4.77662992 -1.10909998
13.80498028 36.67644119 4.27017021
15.82347012 -53.61471176 9.47712040
11.61056995 -37.17908859 -0.94976997
11.64822006 -34.34165955 -1.04286003
1.60871994 -0.16716000 3.16511989
1.18989003 -4.74842978 3.17418003
1.61238003 -0.13917001 3.16380000
17.73402023 -42.08510971 0.92957997
16.62038994 -43.98981094 0.49274999
15.78534031 -43.84059143 0.16890000
19.04693985 -44.34468079 1.73723996
17.98712921 -44.74790955 1.08990002
14.59893036 9.36662960 7.35963011
1.61262000 -0.12906000 3.16329002
2.39433002 0.38538000 2.55206990
1.88999999 1.80167997 3.07070994
1.61690998 -0.09039000 3.16142988
16.10318947 23.31660080 0.38523000
16.30142975 24.63165092 -0.24132000
16.10639954 23.96442032 0.07227000
14.87808037 -26.33984947 11.10243034
14.96636963 -28.55036926 10.97432995
7.42536020 -18.18810081 10.52315998
6.59432983 -40.24187851 0.61926001
6.69650984 -40.26834106 0.59601003
6.71450996 -38.17679977 0.54158998
9.46137047 -40.75703812 10.55231953
9.42374992 -40.85844040 10.54928970
9.13280964 -40.80680847 10.51290035
15.65534973 -18.09552002 10.35737991
15.35636997 -21.44891930 10.70565033
15.80438995 -22.21092033 10.47237015
15.26556015 -25.09353065 10.81877995
12.56768990 -22.64966965 12.24621010
22.21278000 10.72787952 2.66201997
22.12560081 11.03334045 2.64891005
22.06137085 11.29347038 2.81427002
21.87273026 11.67702007 2.62167001
22.01177979 11.25695992 2.63946009
-1.00212002 -47.51667023 4.88949013
7.20746994 -38.47983170 10.98651028
7.86086988 -35.63373184 11.23248005
15.44439030 -16.43502045 10.24796963
16.49399948 -56.79558182 2.11070991
17.52029991 -56.44083023 1.43747997
12.86445045 37.70096970 -0.08874000
13.17998981 37.76136017 -0.32111999
12.93350983 37.75598907 -0.41813999
4.57269001 -51.04344177 1.36970997
4.08386993 -54.31755066 1.68818998
4.96268988 -55.50680923 1.39778996
4.65459013 -56.04573059 1.55280006
21.92358017 5.52708006 4.84701014
12.69032955 -50.16312027 10.21121979
16.20113945 15.89223003 4.31621981
21.94058990 -55.19382095 3.93702006
21.96393013 -55.07249832 3.92820001
21.96429062 -55.67919159 4.01373005
4.74821997 -54.80820084 1.44303000
4.94115019 -54.88388824 1.11951005
0.97902000 -11.11824036 2.96550012
1.85976005 -11.60748005 2.51022005
5.07417011 -54.19145966 1.38824999
5.63369989 -54.13032150 0.93729001
5.32469988 -54.41807938 0.88134003
5.53872013 -54.58800125 1.07991004
8.31575966 30.89562035 1.42497003
8.13059998 31.47374916 1.06631994
8.27919006 20.96976089 5.88279009
22.70013046 -49.94334030 4.98086977
22.41551971 -50.30619049 5.74490976
22.89407921 -51.74198914 5.62595987
6.04484987 -54.36468124 0.91172999
2.06658006 -1.49837995 6.03801012
9.75767994 -56.59569168 3.23273993
15.99765015 -56.82125854 5.23484993
10.71582031 7.07042980 -0.97658998
10.56245995 0.20838000 -0.88020003
10.68785954 9.62121010 -0.87114000
18.66303062 -47.29079819 8.80556965
23.58456039 -20.70746994 3.88575006
23.48657990 -19.64130020 4.11006021
23.46833992 -20.51021957 4.14972019
23.39118004 -26.25015068 4.31337023
23.38578033 -26.18898010 4.43130016
18.78774071 35.40644836 2.38644004
6.78099012 -38.07020950 10.73513985
6.63390017 -35.10824966 10.39235973
6.53609991 -37.62197876 10.46850014
18.69326973 -25.76609993 1.17636001
18.47900963 -25.15644073 1.00382996
22.31295013 9.00524998 3.79641008
22.55577087 7.74542999 3.88659000
0.89190000 -37.76660919 4.69619989
1.14848995 -38.21633911 5.07332993
1.11050999 -38.19686890 5.15535021
0.67641002 -37.63470078 5.09888983
1.03253996 -38.15472031 4.17473984
1.01382005 -38.14455032 4.45194006
16.56605911 -40.63425064 8.53929043
16.47351074 -40.66122055 8.59809017
17.76095963 -42.08813858 8.07804012
21.02729988 -37.15554047 3.19661999
22.05839920 7.83344984 4.35446978
21.62865067 8.91866970 4.40720987
11.04695988 -33.45545959 12.46745968
2.97357011 -2.95427990 7.02695990
19.21607971 13.39490986 0.94272000
13.26393032 11.45802021 -0.72452998
0.77358001 -3.92154002 4.36779022
4.99659014 4.76714993 5.86715984
4.70246983 7.05542994 5.69499016
9.02727032 -12.10260010 11.23421955
8.52842999 -11.77554035 10.95860958
4.49462986 -4.71258020 8.79030037
14.13603020 12.63996029 -0.44262001
15.06005955 13.41998959 -0.17094000
-1.58933997 -33.93486023 4.86285019
-1.54754996 -34.02648163 4.75929022
8.78219986 -9.59265041 11.02188015
21.93437958 -10.27962017 6.22029018
21.99362946 -18.22191048 6.42288017
19.35062981 35.25585175 0.93599999
19.46468925 34.45463943 0.63207000
19.00808907 35.75661087 1.40834999
15.55706978 22.61138916 0.34718999
12.53055000 25.52285957 -1.18580997
13.16619015 28.55912971 -1.66980004
8.34500980 -8.59449005 10.75809002
18.86735916 26.68310928 2.72327995
18.83715057 25.74902916 2.68502998
18.76584053 25.99625969 2.69739008
19.04891968 25.60053062 3.08205009
22.40283012 -35.02845001 5.71826982
9.98945999 20.36183929 1.31289005
10.29302979 19.21248055 1.45274997
2.54079008 -38.54336929 7.66542006
1.82450998 -38.54811096 2.29538989
1.76493001 -38.52017975 2.30934000
0.85131001 -38.05635071 2.82672000
13.41654015 -36.32981873 11.86157990
7.88297987 28.49375916 2.09684992
-2.23010993 -51.38888931 4.54301977
15.74925041 21.97097969 0.80307001
0.09618000 -36.52574921 3.43845010
-0.81392998 -36.01575089 4.19979000
11.94120026 33.53376007 6.24503994
-1.11065996 -47.75630951 4.11237001
4.58043003 12.95376015 4.46499014
-0.74583000 -45.95294952 4.33058977
-0.80751002 -46.40142059 3.91386008
4.47726011 8.34762001 5.51055002
3.59420991 -56.08523941 2.37530994
4.58745003 -53.71614075 1.46088004
14.76459026 32.44853973 -2.08008003
10.22889042 2.42075992 10.36662006
4.07391024 -55.99874878 5.55906010
-0.36258000 -20.64893913 3.70155001
-0.76337999 -20.98667908 4.17117023
-0.72288001 -21.41387939 4.19046021
7.64840984 -32.61146927 -0.05463000
11.83985996 3.39891005 10.69517994
11.22651005 3.30309010 10.58040047
-0.46941000 -55.09421921 3.88247991
0.03006000 -54.60623932 3.59039998
0.61452001 -55.46286011 3.49430990
-0.25746000 -55.49066925 3.80735993
6.68727016 -56.22101974 5.73128986
6.31086016 -56.12022018 6.63603020
1.59083998 -24.44181061 2.53599000
-0.23124000 -24.04520988 3.41483998
-0.43202999 -22.31529045 3.59958005
9.69906044 35.80730820 0.65985000
9.52344036 35.63117981 0.74804997
11.63282967 36.66323853 1.69106996
10.61810970 15.13770008 5.50130987
10.58808041 14.69081974 5.72523022
10.29870033 14.93879986 5.46371984
15.46535969 24.80787086 -0.51327002
16.40751076 25.83975029 -0.63255000
16.59531021 37.62813187 -0.34347001
17.29121971 37.22328186 -0.11013000
18.26268005 36.74982071 0.01854000
15.22964954 38.16242981 -0.66365999
15.43838978 38.11286926 -0.63371998
0.33006001 -30.40271950 6.89558983
0.56462997 -29.27280045 6.97106981
0.48795000 -29.97579002 6.88337994
2.87448001 1.19072998 6.08649015
3.31113005 3.06588006 5.95814991
2.80725002 2.71973991 5.73642015
3.16350007 2.15949011 6.11457014
23.41707039 -30.83226013 4.22258997
23.32346916 -30.52943993 3.72095990
19.08702087 24.74612999 3.50424004
17.76236916 -11.28563976 0.24330001
18.06962967 -12.81015015 0.38703001
17.36993980 -14.85023975 0.09861000
0.31538999 -55.59693146 3.69540000
0.33873001 -55.64435959 3.96981001
-0.01662000 -55.56684113 3.96416998
-0.31121999 -55.54862976 3.96285009
15.59148026 -56.52111053 0.86316001
3.74742007 2.02284002 6.33701992
3.74775004 2.78420997 6.11333990
13.51107025 36.78060150 3.75984001
15.61415958 -9.70613956 10.53518963
15.36419964 -8.61188984 10.71636009
15.29669952 -7.17426014 10.93019962
18.31811905 36.65159988 0.21120000
18.21342087 36.71453857 0.17709000
18.73526955 35.91239929 1.66052997
18.11337090 36.74966812 0.15804000
17.47863007 36.74885941 0.75102001
7.20732021 -56.03567886 5.76300001
7.09370995 -56.24100113 6.18297005
15.82365036 -54.45170975 9.27021027
12.03783035 37.09061813 0.99057001
10.67706013 36.53208160 0.27597001
7.82067013 -56.25344849 6.12861013
15.94223976 -1.74210000 10.80965996
15.84342003 -2.59764004 10.92978001
6.20448017 15.05772018 2.48850012
5.70825005 14.72490025 3.00854993
13.88492966 37.35176849 2.58312011
14.03477955 37.37150955 2.17178988
11.64050961 36.74652100 1.25021994
8.28567028 29.36613083 -0.09747000
8.00393963 30.78191948 0.48063001
8.11178970 31.03569031 0.01353000
18.52038002 -11.98785019 0.62961000
12.96395969 -47.65050125 10.58349037
10.94964027 -56.63927841 3.58833003
19.36413002 32.63433075 2.51432991
19.40090942 30.84668922 2.51352000
16.94906998 0.40974000 8.32997990
15.35340023 10.19727039 7.29098988
15.75650978 6.60375023 7.79262018
15.72321033 8.56758022 7.50324011
15.24192047 36.99266815 2.55647993
19.54928970 32.62028885 1.41053998
16.56534004 4.07192993 7.90622997
15.76268959 4.45076990 8.09648991
16.61823082 3.16055989 7.95854998
22.44824982 -31.86986923 3.22071004
4.39424992 12.28719044 4.83383989
4.47939014 11.80593014 5.12177992
17.06741905 36.56211090 -1.82240999
17.17299080 37.41579056 -1.31490004
17.43231010 37.04568100 -1.29189003
1.12167001 -39.02117920 5.24420977
22.17761993 -50.14292908 5.95509005
13.31375980 -43.57254028 10.54895973
8.81706047 34.02962875 1.48673999
8.82188988 34.04175186 1.49283004
8.85861015 34.99308014 1.06137002
11.77532959 36.25130844 2.99106002
9.71094036 35.20331955 1.93781996
13.97739029 16.03463936 6.69147015
14.06136036 16.47221947 6.99329996
11.62679958 -56.63571167 4.04190016
10.80918026 -56.52843094 4.03413010
12.61227036 -56.63051987 4.70193005
11.43780041 26.45910072 8.29613972
18.89121056 -56.83013916 7.11437988
18.99123001 -54.14727020 9.18609047
18.58707047 -55.41048050 9.20837975
18.51125908 -56.16104889 8.91893959
10.03131008 35.98514938 0.57081002
9.12858009 35.55482864 0.35562000
5.38449001 -2.89788008 0.92868000
5.51006985 -7.68137980 0.70697999
12.40077019 5.69576979 -1.07732999
13.34780979 4.13976002 -1.05147004
20.93627930 9.40011024 4.89900017
4.82556009 2.84828997 1.28433001
5.29287004 3.91647005 1.08402002
5.54400015 2.51178002 0.98433000
23.35419083 -34.55939865 4.74014997
23.42325020 -32.86526871 4.76418018
13.69725037 0.90867001 -1.09985995
13.19132996 -0.82946998 -0.94476002
14.78526020 -55.48112869 -0.04458000
20.99505043 -54.62778091 3.24144006
9.13199997 34.79064178 1.62510002
8.68377018 32.27349091 2.36825991
13.16549969 2.59754992 10.84391975
13.62563992 27.67617035 -1.54356003
8.12549973 27.65480995 1.15998006
8.15007019 26.70984077 1.71177006
9.13307953 34.76354980 2.04035997
22.12808990 -11.39597988 5.97890997
9.59475040 -56.48226166 0.07035000
7.85381985 26.08868980 1.69734001
18.63165092 -38.61458969 8.51988029
10.78748989 -51.16716003 -0.56058002
18.85763931 -38.66051865 7.99380016
11.41860008 18.94022942 1.26674998
7.81896019 -5.54381990 -0.22395000
7.34769011 -7.00028992 -0.06360000
-0.89907002 -22.72847939 4.25178003
-0.87845999 -22.47296906 4.23951006
6.68724012 -15.50745010 10.33607960
6.61079979 -19.48880959 10.52163029
16.50452995 19.62327003 2.20661998
16.92597008 19.88102913 2.42652011
16.23240089 18.75576019 2.41644001
16.07612991 18.56204987 2.38413000
15.69231033 19.05308914 2.01603007
-0.10257000 -19.06224060 3.37560010
0.07659000 -21.22236061 3.31707001
20.54492950 -11.70296955 1.60469997
19.52259064 -56.87282944 4.05906010
19.18667984 -56.84001160 4.05669022
19.27716064 -56.71739960 3.70205998
19.84712982 -56.81613159 3.82247996
18.36083984 -56.81903839 3.13344002
14.85725975 -56.39654922 -0.07848000
15.43766975 -56.19282150 0.29718000
2.78786993 -9.02511024 2.12682009
2.67818999 -11.24195957 2.12151003
18.83687973 -56.91252136 4.06191015
18.48081017 -56.86997986 3.67158008
10.10966969 -0.08583000 11.57612991
22.71939087 -50.27748108 4.29656982
22.66424942 -49.99092102 4.60362005
6.35942984 -23.53350067 10.58685017
19.80393028 -45.31970978 2.18229008
22.62618065 -49.67895126 4.15629005
6.90962982 -2.67326999 10.11590958
5.69441986 -55.91955185 1.18956006
10.07495975 -36.46643829 -0.62487000
7.59312010 -35.79425812 -0.03162000
22.14410973 8.10039043 1.88789999
6.54183006 -38.70746994 10.34735966
19.91073036 -26.11095047 8.16722965
13.63790989 1.70144999 10.96002007
14.08788013 0.00231000 11.19141006
13.97321987 17.73945045 1.98134995
14.45625019 17.70018005 2.04527998
14.47146034 17.69733047 2.04990005
15.83969975 17.28125954 2.26026011
12.86163044 14.10225010 -0.15993001
7.68110991 -33.72177124 11.04222012
7.76426983 -30.14963913 11.04213047
16.33028984 -28.47887993 0.08133000
11.84327984 26.26511955 8.63982010
-0.15000001 -10.13234997 3.65190005
-0.08790000 -10.44375038 3.66717005
8.43933010 33.93302917 0.05478000
14.32310963 -16.60860062 -0.73425001
9.84722996 17.45327950 2.42483997
9.71024990 17.30154037 2.65539002
9.93813038 19.51497078 1.63977003
10.13978958 18.72639084 1.91123998
9.77025032 18.83307076 1.98749995
19.41723061 -56.54526138 3.46245003
20.40605927 -56.70140839 3.79697990
21.32732964 -56.30268097 3.80343008
20.46044922 -56.79660034 4.04066992
0.11181000 -55.64813995 7.94700003
-0.29396999 -55.72026062 7.56828022
1.15868998 -55.86989975 8.34846020
14.98281002 9.58572006 -1.01594996
12.35247040 -55.94052124 -0.44534999
5.78426981 -55.95143890 7.57688999
7.22033978 -30.44075966 10.75757980
22.40916061 -16.87295914 2.72417998
5.43444014 -21.28838921 9.85571957
5.88398981 -20.06364059 10.14435005
-0.79149002 -55.60652924 7.30292988
7.89756012 -31.85913086 11.10138035
8.89733982 -32.37189102 11.69793034
18.08246994 4.78820992 -0.12774000
17.45985031 34.16421127 4.50065994
17.29560089 34.51847839 4.59185982
19.66974068 -3.91916990 8.25582027
18.38336945 2.05275011 0.18155999
16.17581940 35.35391998 5.21394014
3.27552009 9.89223003 2.69819999
3.51221991 11.13813019 2.64446998
20.87961006 -22.15925980 2.00837994
20.35176086 -26.38061905 2.01344991
20.65167046 -26.78087997 2.10780001
14.61633015 26.99427032 8.73221970
20.43416977 -56.80281067 4.05398989
20.46413994 -56.79230881 4.05323982
20.66264915 -56.56283951 4.72679996
20.22816086 -56.81018829 4.05453014
3.64386010 -41.14950180 1.47092998
4.72794008 -40.93653107 1.03749001
-1.55792999 -33.85131073 4.76277018
10.54950047 24.01287079 -0.40178999
11.02437019 24.75978088 -0.71921998
18.22958946 -56.46762085 8.13840008
18.40196991 -56.74374008 6.94458008
6.97349977 -40.33908081 0.45122999
6.73478985 -40.27827072 0.58091998
6.97629023 -40.33977127 0.45111001
7.15494013 -45.23651886 0.59390998
22.97666931 -54.84440994 5.23409986
2.15900993 8.32421970 4.03460979
2.25857997 8.41244984 3.52689004
14.55284977 -56.48313141 1.19300997
20.95529938 -56.76324081 5.17472982
20.84177971 -56.69559097 4.34376001
18.07080078 2.07522011 -0.06138000
20.31419945 13.86960030 2.53298998
21.06744003 13.16327953 2.56077003
19.48823929 14.65478992 2.45619011
17.62800026 28.03758049 -0.65574002
21.56727028 12.35892010 2.59341002
21.13925934 13.08146954 2.56410003
21.33917999 12.86240959 2.23307991
17.85687065 15.81641960 2.46305990
18.44993973 15.40913963 2.47628999
18.46434021 15.40793991 2.44194007
19.45562935 14.32530022 2.89322996
8.47745991 25.06734085 0.73815000
8.77151966 25.11725998 0.41690999
9.59669971 17.58012009 5.72702980
7.11180019 -0.07878000 9.75387001
6.39356995 -40.18806076 0.70412999
6.27872992 -40.15703964 0.75161999
6.01269007 -40.08290863 0.72885001
4.24911022 -56.06312943 1.84059000
4.66506004 -56.16630173 2.39361000
11.53715992 15.59574032 6.40353012
12.75516033 24.61607933 9.88572025
2.22659993 -38.73141098 6.61416006
3.37539005 -39.20661163 7.53804016
4.34708977 -39.56079102 8.33267975
4.76255989 -39.64323044 8.69081974
5.33499002 2.46167994 6.15807009
5.50434017 3.53789997 6.15125990
5.04255009 2.81865001 5.94131994
19.22327995 28.88912964 2.69222999
18.89676094 27.18642044 2.50755000
13.03170013 32.32923126 7.35045004
21.77190018 -56.14743042 6.78198004
19.58489990 33.32918930 1.76471996
19.62875938 32.98077011 1.88357997
12.36003017 26.90166092 8.69943047
20.17164040 -56.88722992 6.42062998
21.49542046 7.70354986 1.39431000
21.77823067 6.26639986 1.62032998
22.36833000 6.53366995 1.96695006
17.84859085 -56.37471008 8.78859043
18.09534073 -56.11698151 8.94554996
0.68972999 -15.39978027 6.20874023
1.08905995 -15.12701988 6.48324013
2.25119996 -12.52820969 7.21815014
9.28581047 -35.15660858 -0.44466001
10.43982029 -35.04198074 -0.80676001
20.17028999 -0.81138003 6.28161001
12.06303024 -16.16361046 12.00636005
23.00318909 -52.25606918 5.29572010
8.83712959 -56.53688812 1.49846995
7.66650009 -56.52447128 1.18842006
3.87171006 -16.93794060 8.94099045
-0.89142001 -23.98292923 4.31367016
-0.99668998 -23.99744987 4.61606979
-0.92241001 -22.48847961 4.30250978
-0.77055001 -21.80355072 5.13998985
-0.92717999 -22.01738930 4.75208998
6.05973005 -25.82666969 0.51204002
-0.87717003 -22.30121994 4.23128986
10.28256035 9.73289967 -0.69375002
9.66833973 8.86707020 -0.69104999
21.34388924 -44.18033981 3.14075994
21.36651039 -45.86996841 3.29571009
1.84247994 -1.18703997 5.40158987
9.30461979 9.71453953 -0.54575998
9.49934959 -39.47066879 11.73425961
7.83507013 22.59612083 3.70496988
10.31760025 32.87144852 4.41024017
20.85300064 -37.48746109 3.12681007
20.91048050 -38.38925934 3.47847009
20.88014984 -38.40969086 3.68657994
21.43461037 2.20794010 5.69109011
21.87101936 0.59274000 5.78015995
8.80764008 25.11545944 6.85145998
9.95013046 32.50428009 4.89323997
8.22974968 21.66027069 2.47202992
8.12399960 22.52084923 2.42856002
20.79660034 -38.46524811 2.68097997
20.77220917 -38.48144913 2.61860991
5.39846992 7.39971018 6.33111000
8.28314972 23.80611038 1.55474997
17.40749931 -35.33757019 9.79386044
17.64053917 -36.59489822 9.69114017
6.80127001 -46.70885849 10.43367004
13.16370010 34.58253098 6.54117012
8.23806000 25.20554924 5.28857994
19.97249985 -39.93870163 2.12085009
15.71232033 26.16933060 -0.84147000
16.06302071 26.22159004 -0.72522002
17.73278999 -37.24317169 0.84849000
14.82497978 -40.88891983 -0.32297999
7.20087004 0.04356000 0.08148000
8.11314011 16.18206024 2.19789004
8.35212040 15.72447014 1.20438004
8.63906956 16.60737038 2.44187999
20.77404022 -12.40184975 7.44014978
20.56221008 -9.52472973 7.66205978
19.93457985 -11.22192001 8.27871037
17.16131973 -45.44340134 0.73593003
15.96848965 -49.28076172 0.34904999
-1.57193995 -32.99388123 5.00195980
8.16924000 14.97233963 0.83003998
15.91104031 -50.91558075 0.38093999
19.12935066 35.41691971 2.00801992
16.26083946 15.90668964 1.10846996
11.62158012 -56.44710159 6.06212997
11.10276031 -56.56032181 5.32259989
23.48576927 -19.57818031 4.10715008
23.58654022 -22.99370956 3.71147990
21.53336906 3.55511999 1.49343002
20.98068047 3.79152012 1.33086002
7.20402002 14.98880959 4.31229019
8.06628036 22.53290939 2.51240993
2.89475989 -5.66360998 7.24560022
17.23356056 -50.91593933 0.89385003
10.61843967 33.80838013 5.14205980
10.45895958 30.49655914 6.64955997
10.24545002 30.64011002 6.37949991
18.31257057 -30.28314018 0.96569997
8.08059025 29.48526001 0.52116001
21.79862976 -48.20333862 5.96795988
11.88776970 -56.68560028 0.40728000
11.36102962 -56.57432938 0.40524000
13.84974003 -32.78459930 -0.55997998
7.47093010 13.00469971 0.43044001
1.85225999 -44.64662933 7.85256004
1.97723997 -45.53121185 7.98839998
2.31206989 -43.81686020 7.94043016
7.14287996 10.75535965 0.33776999
1.65515995 -46.56053925 7.92413998
23.16293907 -13.24394989 2.97735000
22.65266991 -11.96609974 2.71230006
10.68288040 34.14456177 4.40096998
17.31216049 37.43891907 -0.93216002
8.85293961 -11.21078968 11.29413033
22.78305054 -24.66938972 5.58353996
19.34828949 33.64559937 0.18705000
17.24835014 23.69540977 0.80795997
20.47727966 -56.31060028 3.67460990
21.89723969 -55.70885849 3.97448993
21.86112022 -55.78013992 3.97968006
8.09990978 28.07637024 0.75672001
1.97709000 -46.25144958 8.18852997
18.96467972 27.18168068 2.04906011
9.56363964 -24.78096008 -0.62532002
15.80648994 37.94684982 -0.30684000
11.67117023 -56.24457169 8.77206039
11.56632042 -56.27111816 8.31194973
12.44207954 -56.32239151 8.10371971
11.73834038 -56.34677887 7.51472998
12.45246029 -19.15896034 -0.89135998
9.56070042 17.11484909 2.56244993
16.90502930 35.89521027 -1.86894000
0.33159000 -40.66640854 3.26630998
0.46983001 -41.80833054 3.17088008
6.01496983 -3.16470003 0.47229001
8.69159985 -5.03918982 10.83549023
11.23715973 -47.80455017 -0.70836002
-0.32523000 -18.16551018 5.27436018
-0.63161999 -19.82132912 4.11830997
-0.56355000 -19.27617073 5.11151981
18.33560944 29.82983971 5.16021013
18.52119064 28.32270050 4.98719978
22.68222046 -36.04362106 4.87728024
8.48591995 28.86002922 -0.06528000
18.23657990 34.74222183 3.83786988
18.71768951 33.02354813 3.84422994
11.82087040 14.52089977 5.90244007
11.00094032 14.66427040 5.79225016
15.52068043 33.88623047 6.17399979
16.76321983 32.16783142 6.11198997
4.62041998 -39.65357971 1.07105994
5.83791018 -40.03253937 0.73904997
5.32499981 -39.87947845 0.82301998
5.36421013 -38.43632889 0.78479999
20.60747910 -56.07975006 3.08423996
11.85729027 14.34603024 6.08337021
11.14505959 14.43350983 5.99310017
8.17817974 -1.00523996 10.62710953
19.03685951 24.94551086 3.93822002
9.21833992 -35.10483170 11.97657013
17.90496063 21.75248909 2.47878003
18.07571983 22.14152908 2.49444008
-0.17067000 -14.35754967 4.70738983
0.25944000 -10.04547024 4.45115995
12.36573029 -27.80241013 12.33666039
12.29780960 -32.03337097 12.28046989
13.91145039 0.00996000 11.44025993
14.24147987 -1.43324995 11.32190990
14.14692020 -2.45954990 11.57919025
14.34138012 -41.02400970 -0.54335999
14.49573040 -42.56190109 -0.48300001
14.80838966 -40.97306824 -0.33105001
14.47259998 -41.01015091 -0.51156002
-0.05004000 -11.37425995 3.79728007
-0.05670000 -11.72957993 3.73023009
7.66539001 24.60786057 2.62377000
22.10028076 -36.37118912 4.45197010
0.83811003 -55.64625168 3.96995997
1.33527005 -55.69316864 4.23098993
0.94472998 -55.54476166 4.66181993
0.86592001 -55.84563065 5.09780979
8.57559013 -38.31809998 11.74919987
17.24951935 19.44078064 6.73740005
5.14722013 -39.82445908 8.85365963
5.10074997 -39.80981827 8.81690979
4.86404991 -40.92290878 8.88117027
4.74138021 -39.69369125 8.67278957
9.13718987 0.86177999 10.34375954
8.16849041 -38.15985107 11.44898987
10.56317997 2.51271009 10.72902012
8.10449982 29.37960052 2.65445995
7.96754980 27.60239983 2.73477006
8.00135994 28.46994019 2.71553993
10.62261009 34.92705154 3.99234009
9.92601013 34.87686157 3.11072993
10.54298973 18.33740997 1.71326995
12.89165974 22.81167030 -0.28808999
-0.87483001 -36.43452072 5.36720991
0.14838000 -37.18560028 5.39397001
21.79644012 -52.81095123 3.74432993
21.98073006 -54.78723145 3.90740991
-0.04776000 -36.71553040 6.53862000
15.03594017 -5.88072014 11.04257965
18.62535095 1.28957999 0.32271001
23.36544037 -30.39356995 4.67076015
23.32512093 -27.53730011 4.39535999
9.75312042 -56.56790924 4.03698015
7.93256998 -56.49047852 3.24159002
4.94883013 -56.17491150 4.00838995
4.46408987 -56.14001846 4.00586987
5.54231977 -56.22018051 3.82190990
21.26040077 -52.83671951 3.28088999
15.74055004 -56.32395172 8.64618015
21.27219009 -41.98892975 3.08535004
21.26096916 -41.91413879 3.08187008
12.91131020 3.98016000 8.71409988
13.10820007 14.24787045 6.18431997
12.20139027 14.45436001 5.95361996
7.70291996 2.81072998 7.62707996
7.69937992 3.33432007 7.76301003
6.99870014 2.97521996 7.55238008
14.53637981 1.92695999 9.51881981
7.93329000 4.93263006 7.72106981
19.74971962 -42.47402954 6.84636021
1.26620996 -54.96519089 2.97513008
1.64880002 -55.42517853 2.82624006
5.54549980 -10.19931030 0.78270000
6.01878023 -10.53120041 0.49781999
5.51576996 -11.26418972 0.73473001
11.15589046 -56.50122070 3.18881989
-0.66491997 -21.42258072 3.89712000
5.69082022 3.25476003 6.50751019
13.34136009 -56.60313034 3.99864006
13.36917019 -56.61204147 4.04019022
12.78693008 -56.72978973 4.04870987
12.58833027 -56.72972870 3.93546009
12.59183979 -56.71520996 4.04762983
13.73801994 -56.73003006 4.59096003
21.28239059 -42.11930847 3.09137988
21.46071053 -43.41770935 3.35339999
21.25971031 -41.95418930 3.05804992
21.26960945 -43.53464890 3.16122007
20.32877922 -18.29952049 7.98482990
17.78738976 -0.41016001 8.34381008
16.89665985 16.52532005 2.44353008
16.76030922 16.58871078 2.14622998
16.06908035 16.67616081 1.58729994
15.33623981 0.91017002 -0.78680998
5.94009018 -40.06206131 0.71520001
6.17355013 -42.80826187 0.82971001
-0.55580997 -50.59838867 7.24469995
-0.95477998 -51.28649902 6.84899998
-1.37649000 -53.86745834 6.93383980
9.72552013 27.43922997 7.21790981
17.20836067 16.29755974 2.44812012
17.64356995 16.04162979 2.45573997
0.97065002 -38.12112045 4.62554979
1.03119004 -38.39373016 4.57124996
0.81663001 -39.75714111 5.11994982
15.64661980 32.88872910 -1.99451995
-1.47876000 -52.47570038 6.65471983
-0.71303999 -51.15338898 3.89897990
-0.23778000 -50.46030045 3.59825993
0.07017000 -47.79597092 3.41784000
-1.51767004 -53.36148071 6.49808979
1.01853001 -4.63002014 4.94352007
1.14075005 -2.68986011 4.87755013
0.88071001 -20.18013000 6.65112019
22.24667931 -50.12139130 4.04768991
15.54411030 -10.97031021 10.56735039
15.50417995 -13.43663979 10.55583000
10.60247993 17.86010933 1.77951002
10.47951031 17.80017090 1.88048995
10.13348961 17.67411041 2.08769989
10.03011036 17.65583992 2.11701012
0.80091000 -54.51362991 3.44844007
7.95135021 3.62175012 7.94700003
13.65441036 -56.66466141 4.04400015
14.42901039 -56.70090103 4.04660988
15.56612968 -56.79074860 4.37610006
13.61898041 -56.63694000 3.81188989
22.99943924 -55.20642090 5.80319977
7.14461994 -56.04515839 8.86536026
0.05727000 -10.81490993 4.07412004
0.24921000 -10.19583035 4.06490993
5.32704020 4.68599987 6.13046980
7.50869989 -41.07024002 0.13653000
7.55448008 -40.47906113 0.10188000
10.13327980 -41.52021027 -0.64098001
7.51827002 -40.47071838 0.11742000
7.33526993 -40.42758179 0.33678001
18.95723915 -10.80480003 0.69738001
18.83349037 -13.85165977 0.80565000
7.58141994 -42.52949905 0.12480000
10.46160030 -44.48054886 -0.68339998
0.13569000 -9.16007996 3.60417008
0.01857000 -8.57796001 3.57557988
5.19794989 13.27058983 1.68174005
18.35561943 -13.41798019 0.55457997
8.67887974 27.35835075 4.87794018
17.86442947 -16.39767075 0.10488000
18.03372002 -16.74732018 0.22317000
13.75317001 32.70386887 7.21956015
22.42155075 -3.54708004 5.60699987
21.98451042 -36.38373184 3.54824996
13.42043972 -31.45859909 -0.62232000
8.53647041 10.07732964 -0.26646000
8.97704983 9.62106037 -0.33033001
0.76392001 -37.03950119 3.22104001
21.38730049 -44.35721970 3.20652008
6.31703997 -55.90140152 8.96288967
5.70710993 -55.82831955 8.97885036
5.93763018 -55.89725876 9.35486984
5.17419004 -56.04671860 9.11196041
12.09749985 -11.29277992 12.24164963
11.07042027 35.20775986 3.81711006
17.82806969 -37.60401154 9.50619030
-1.25366998 -27.84980965 4.52607012
0.90498000 -38.90447998 4.80746984
0.84354001 -38.14653015 3.02217007
21.85440063 -4.43102980 6.33051014
17.61269951 -15.96953964 0.27846000
23.61120033 -15.30774021 3.57680988
23.50370979 -15.49592972 3.91358995
23.62742996 -17.51483917 3.73266006
23.50610924 -11.40900040 3.14298010
23.56524086 -12.42537022 3.29958010
23.61165047 -11.43803978 3.63834000
23.37165070 -26.85198021 4.46864986
20.30438995 -36.70185089 7.49100018
19.69659042 -38.09846878 7.56126022
18.63849068 28.78083038 4.65114021
21.15891075 -33.23904037 2.59569001
8.77787971 33.87030029 1.54995000
8.63022041 33.27188873 1.78662002
8.60525990 33.19778824 1.77401996
8.65767002 32.76042175 1.95693004
21.65154076 -22.05530930 6.76521015
1.63881004 -14.99330997 2.53979993
2.80787992 7.95278978 2.78432989
2.94177008 8.58971977 2.75573993
3.54224992 8.13920975 2.16141009
3.01277995 7.13048983 2.48729992
3.60588002 6.55580997 2.03835011
19.93143082 -42.10815048 2.15918994
9.54611969 35.95946884 -0.24156000
23.57699966 -3.81437993 3.34214997
2.37540007 9.36437988 3.75762010
2.82242990 9.21912003 3.01625991
2.58189011 8.85972023 3.11192989
3.05243993 8.87403011 2.74310994
19.80164909 -39.10388947 2.00409007
7.18592978 15.21566963 1.37225997
7.05710983 14.65797043 1.22376001
22.46138954 -56.20074081 5.06850004
19.74378014 -39.13940811 6.02715015
19.72307968 -39.15203857 6.05970001
19.87826920 -39.05691147 5.63576984
19.89566994 -39.04623032 5.60397005
0.70886999 -10.08821964 3.64973998
0.50013000 -9.91355991 3.89070010
0.21252000 -9.68099976 3.91004992
5.27157021 -55.91376114 8.60435963
8.54592037 -27.44103050 11.41959000
7.98858023 30.23801994 2.29830003
2.52216005 10.00572014 3.98804998
22.40847015 0.23367000 5.57742023
11.18352032 -17.92629051 -0.74952000
7.80038977 -21.45042038 10.87823963
17.66727066 -56.83061981 2.16272998
3.74073005 -2.30276990 1.63941002
13.78433990 38.28269958 -1.36574996
5.55315018 14.54559040 2.50725007
3.76830006 -10.21646976 1.54958999
15.79092026 37.16973114 1.57383001
8.08862972 8.00699997 -0.11028000
13.10276985 15.22731018 0.32280001
3.33671999 -7.06424999 1.74096000
3.55170012 -6.33825016 1.68462002
4.02012014 -9.79689026 1.50908995
15.18531036 15.18467999 5.20082998
0.60009003 -10.43556023 3.66677999
15.23808002 14.43645000 0.23409000
6.01935005 -56.08446121 7.20831013
6.41415024 -56.01755905 7.12266016
-1.62347996 -52.60548019 6.44286013
8.95985985 -50.11157990 10.29549026
14.16341972 -42.10749054 10.06110001
14.58446980 30.92201996 -1.87460995
16.33716011 -56.85779953 4.05795002
16.47533989 -56.86314011 4.05837011
18.60696030 -56.70249176 4.79138994
18.87977982 -56.93402863 5.11886978
19.10918999 -56.94506836 4.36041021
9.45858002 29.11251068 -1.05768001
20.18832016 -38.86251068 5.14172983
20.06459999 -38.94065857 5.42949009
9.92529011 28.87715912 -1.19130003
5.59875011 -53.83229828 1.09829998
2.78760004 -55.51523972 9.42416954
17.69261932 -56.86952972 5.48502016
18.25719070 -56.86016846 4.55268002
8.69874001 -6.50378990 -0.50379002
22.27989006 -50.72027969 4.13792992
22.14924049 -51.47798920 3.89787006
21.78120041 -52.34553146 3.73125005
22.07876968 -50.48664093 3.82008004
12.63782978 -26.82015038 12.24600029
8.02622986 -30.15605927 11.25080967
20.39694023 -46.45653152 7.25909996
18.03137970 -40.06287003 1.10900998
17.99847031 -40.07823181 1.09028995
18.10161018 -33.75450134 0.95657998
14.45244026 17.70033073 2.04503989
5.15435982 5.83512020 5.92674017
10.84086037 8.34267044 7.88444996
1.07732999 -55.61069870 3.96735001
8.07717037 21.13902092 3.61355996
15.80762959 23.69790077 0.18456000
2.84784007 -55.82540894 6.83423996
2.19074988 -55.92633057 6.74255991
3.05337000 -55.92768097 7.49943018
2.68683004 -56.00342941 8.07767963
9.96345043 -56.43936157 0.64262998
15.76974010 -56.65991974 5.46525002
11.89445972 -56.53697968 0.91589999
11.79059982 -56.51115036 1.84634995
10.87281036 -56.64416885 0.51819003
22.01514053 1.14927006 5.71956015
18.80864906 26.49633026 4.32680988
20.96289062 -5.22704983 7.08974981
9.08448029 -15.21479988 11.10614967
18.86129951 -4.87152004 0.62646002
19.48460960 14.61839962 2.50448990
8.70314980 19.36706924 5.14062023
8.65382957 19.12364960 5.84097004
12.33932972 -56.53635025 0.50940001
13.28474998 -56.62776184 0.79286999
0.07494000 -51.90716934 7.84685993
2.72357988 -38.18088150 8.24223042
9.48729038 15.82032013 4.59017992
5.52264023 -12.18140984 0.70398003
22.38828087 7.49370003 2.22810006
15.28256989 27.04364967 8.55125999
23.10503960 -15.23165989 3.02543998
22.29693031 -12.88241959 2.50715995
11.26803017 -2.36148000 -0.99360001
10.69056034 -5.21361017 -0.93362999
2.31791997 1.11336005 5.54594994
9.91178989 -56.54232025 4.79190016
2.38199997 0.48881999 5.79426003
1.60788000 -55.88360977 5.81234980
16.20653915 27.83847046 7.58358002
8.19672012 -56.45676041 4.02891016
21.46437073 -56.28879166 4.01669979
21.12405014 -56.46717072 4.02966022
17.61828041 32.29251099 5.38511992
