0.19318100 -1.13841000 -5.71904000
0.39159300 -1.50345000 -5.81931000
0.09299890 -1.24770000 -5.69254000
-0.25120000 -1.11626000 -5.83674000
-0.07578920 -1.29418000 -5.98606000
-3.01789000 -5.34710000 -2.99787000
-2.73837000 -5.26475000 -3.34575000
-2.93756000 -5.38369000 -2.99434000
-2.94642000 -5.60250000 -2.40501000
-3.09317000 -5.64508000 -2.19843000
2.85307000 3.62926000 -1.59722000
3.36389000 2.96073000 -1.70147000
3.05400000 3.21327000 -1.81406000
3.06257000 3.34683000 -1.62710000
-3.12008000 4.45507000 -2.52530000
-2.97842000 4.40904000 -2.62580000
-3.24161000 4.28822000 -2.31602000
-2.25137000 5.29244000 -2.83291000
-2.31749000 4.97707000 -3.06491000
-2.44324000 5.10383000 -2.86438000
-0.37886400 0.00933392 -5.86974000
-0.13777400 -0.41509200 -5.88801000
-0.29597200 -0.45826800 -5.88825000
-0.22103500 -0.82754000 -5.74439000
-0.40191100 -0.78164600 -5.71120000
-0.45898500 -0.75156200 -5.93501000
0.21452400 4.63961000 2.31956000
0.25091900 4.61355000 2.43616000
0.05714380 4.89381000 2.32343000
-0.63346300 4.97148000 2.45782000
-0.24313300 4.84604000 2.44568000
-0.32739700 5.05670000 2.55159000
4.49883000 -0.04998350 -1.01900000
4.31854000 -0.03312370 -1.03745000
4.30964000 -0.03856260 -0.94561700
4.49330000 0.24944100 -1.06144000
4.07506000 -2.82581000 0.31519000
3.94832000 -2.74727000 0.63380800
3.92124000 -2.96368000 0.42190900
2.51020000 -2.80925000 0.98359200
2.73058000 -2.89345000 1.03739000
1.98752000 -4.57543000 1.27288000
1.82653000 -4.74992000 0.95141100
1.80076000 -4.61965000 0.97280500
1.85528000 -4.88761000 0.91538600
1.82653000 -4.74992000 0.95141100
1.93060000 -4.75581000 1.11942000
3.22107000 2.04763000 -3.23677000
2.70068000 2.53926000 -3.51885000
2.35001000 2.83942000 -3.68730000
1.00127000 0.36241500 -5.77018000
0.69351700 0.40984600 -5.80181000
0.85798800 0.82543400 -5.73747000
1.40291000 -0.67220300 -5.64846000
1.78097000 -1.03372000 -5.47492000
1.17924000 -0.56252600 -5.68914000
1.50629000 -4.92740000 1.31814000
1.56348000 -4.94512000 1.11919000
1.46254000 -4.90586000 1.08477000
1.62855000 -4.94255000 1.03571000
3.65895000 -2.01942000 1.29322000
3.61501000 -1.63798000 1.33627000
3.44682000 -2.05411000 1.44349000
3.46293000 -2.79686000 1.10713000
3.57109000 -2.56770000 1.18703000
3.37804000 -2.60566000 1.29147000
-2.48967000 8.90512000 3.58976000
-2.39677000 8.93076000 3.54364000
-2.95621000 7.46150000 2.53531000
-3.06976000 7.17374000 2.38821000
-2.63669000 2.96256000 0.26672100
-2.78099000 3.39375000 0.35492500
-2.53178000 2.80931000 0.32162800
1.69277000 4.25872000 0.88328800
1.66246000 4.09217000 0.72799800
1.72639000 4.33255000 0.67472100
1.65006000 4.12269000 1.09765000
1.61451000 3.94182000 0.86360200
3.71814000 -6.55366000 -2.47285000
3.59481000 -6.45904000 -2.24255000
3.69730000 -6.68977000 -2.31703000
3.34220000 -6.89425000 -1.77779000
2.94730000 -0.60629200 -4.82352000
2.79594000 -0.26172500 -4.94523000
3.00443000 -0.29920200 -4.73310000
2.29779000 -0.63967900 -5.30030000
2.09626000 -0.72732700 -5.39895000
-3.47483000 1.25840000 -1.30920000
-3.44193000 1.29201000 -1.44394000
-3.67286000 1.37629000 -1.27452000
-3.46665000 1.42921000 -1.18777000
-3.45902000 1.57543000 -1.37468000
-3.40113000 1.39582000 -1.42254000
-3.77824000 0.85097700 -1.12579000
-3.63078000 0.85053500 -1.11548000
-3.83780000 0.95807100 -1.06743000
-3.73107000 1.26194000 -1.75857000
-3.59322000 1.19615000 -1.81617000
-3.75974000 1.10001000 -1.89356000
-4.03367000 0.99312700 -1.64926000
-3.94155000 0.80621200 -1.74932000
-4.04988000 0.88292900 -1.47942000
-3.87232000 0.55155700 -2.13862000
-3.96210000 0.64462400 -1.75830000
-3.84853000 0.69934800 -1.87243000
0.27274300 -2.67772000 1.73302000
0.79706000 -3.13986000 2.12618000
0.59454500 -3.27439000 2.18536000
0.81549800 -3.28452000 2.20362000
-2.53333000 -5.56277000 0.18543300
-2.94973000 -5.17255000 0.16269700
-3.11889000 -5.07389000 0.03405560
-3.18671000 -5.23026000 -0.20535100
2.84597000 -4.24556000 0.36082400
2.64140000 -4.20281000 0.27974600
2.72859000 -3.41287000 0.42763500
2.53992000 -3.10939000 0.48601000
2.44917000 -3.17433000 0.52789600
1.22923000 -4.75423000 1.65013000
1.25400000 -5.14802000 1.75669000
1.32447000 -4.98469000 1.63756000
1.20549000 -5.01870000 1.72586000
-0.37165900 0.88291100 -5.66480000
-1.32358000 1.69414000 -5.48104000
-1.19872000 1.99056000 -5.41048000
-1.18687000 1.77978000 -5.48327000
-0.20104300 5.57025000 2.56846000
0.05820880 5.37734000 2.58748000
-0.13803500 5.65864000 2.49458000
-0.46790400 5.37742000 2.56847000
-0.42932400 5.21317000 2.57240000
-0.17404900 5.26338000 2.62324000
2.11587000 -0.52874800 0.63686400
2.31276000 -0.31953900 0.54518200
-2.85002000 9.81847000 3.60193000
-2.87830000 9.82014000 3.39200000
-3.43996000 9.56439000 3.52948000
-3.55209000 9.05708000 3.04304000
-3.61409000 8.99822000 3.09959000
1.90481000 -2.38660000 1.74030000
2.24386000 -2.35288000 1.60033000
0.47081600 4.29494000 2.20539000
0.62861600 4.18296000 2.11929000
0.64313000 4.24406000 2.16593000
0.53328400 4.55649000 2.43386000
2.80878000 -3.36395000 0.25176100
2.99517000 -3.61061000 0.06511550
3.80691000 -4.14011000 -0.00452814
-4.06768000 4.30849000 -0.25784000
-4.22923000 4.19456000 -0.64706200
-4.15672000 4.11862000 -0.59067900
-4.31723000 3.91813000 -1.09768000
-4.26674000 4.24333000 -0.87966000
-4.29250000 4.20220000 -1.05791000
0.74483400 4.18485000 2.13801000
0.88272500 4.19100000 2.17888000
0.71343500 4.21592000 2.26418000
1.28033000 3.75581000 1.47409000
1.28540000 3.98031000 1.72175000
1.03399000 3.50230000 1.34549000
-1.13670000 -1.50404000 0.94216000
-1.26240000 -1.39923000 1.03690000
-1.34961000 -1.35802000 1.20372000
-2.75329000 2.21438000 -2.98649000
-2.83664000 2.53061000 -3.23287000
-3.02355000 2.31121000 -3.19805000
-3.44324000 1.66566000 -3.84385000
-3.42229000 1.30615000 -3.91129000
-1.33380000 -6.63531000 -4.50351000
-1.34221000 -6.45136000 -4.40620000
-1.34010000 -6.69635000 -4.30733000
-1.49806000 -7.32141000 -4.71997000
3.55089000 -7.36619000 -1.66030000
3.50016000 -7.16978000 -1.59197000
3.61599000 -6.73439000 -2.14107000
3.56461000 -6.75974000 -1.99855000
3.71625000 -7.13193000 -2.09069000
-3.31143000 3.90763000 -1.93028000
-3.15163000 3.93324000 -1.79171000
-3.44186000 3.69266000 -1.71566000
-3.16302000 3.77073000 -2.14012000
-2.93251000 3.84451000 -1.96537000
-0.19785800 2.65860000 -5.19411000
-0.16720200 2.44150000 -5.30614000
0.64005400 2.30206000 -5.39031000
1.02955000 1.98143000 -5.40824000
0.76550900 1.96077000 -5.50559000
1.17812000 -3.45574000 -5.37012000
1.16884000 -3.15347000 -5.37879000
1.36299000 -3.36467000 -5.29236000
1.06021000 -3.22662000 -5.40559000
-3.07508000 2.54170000 -4.16675000
-2.95881000 2.50228000 -4.37091000
-3.20174000 2.33433000 -4.21216000
-3.42033000 1.97275000 -3.88271000
-3.39758000 1.96012000 -3.60984000
-3.37071000 2.18496000 -3.74760000
-4.04365000 4.47618000 -1.20079000
-4.20377000 4.38895000 -0.99478000
-3.89819000 6.06963000 0.16334400
-3.89880000 5.76305000 0.13541600
2.61437000 -3.81217000 -4.37429000
2.60366000 -3.60071000 -4.38841000
2.65235000 -3.26313000 -4.31056000
2.29544000 -4.28051000 -4.79407000
1.97708000 -4.19708000 -4.94283000
2.35344000 -4.19190000 -4.70535000
2.88587000 0.36415000 0.13266100
2.60863000 1.11485000 0.33827700
2.41642000 0.88925500 0.54835700
1.69367000 1.94023000 0.84570900
1.89420000 1.92758000 0.82623800
1.96337000 2.17609000 0.71484300
-2.92077000 3.26786000 -2.16410000
-2.85832000 3.27209000 -2.35397000
-2.88291000 3.77666000 -2.16604000
-3.07450000 3.74695000 -2.21258000
-2.92333000 3.64527000 -2.54658000
3.38155000 -5.77665000 -2.49157000
3.51423000 -5.86780000 -2.44088000
3.52872000 -5.54602000 -2.53908000
3.17874000 -6.35882000 -2.26058000
3.36055000 -6.60423000 -2.04404000
3.37978000 -6.32681000 -2.23151000
-3.29195000 9.45627000 3.21505000
-3.21744000 9.73816000 3.41045000
-3.02726000 9.75258000 3.29291000
-2.94165000 9.49881000 3.16759000
-4.25898000 -1.34026000 -1.79019000
-4.19658000 -1.03840000 -1.50938000
-4.33227000 -0.88916300 -1.64421000
-4.34841000 -0.87604800 -1.76565000
-4.29540000 -0.68025500 -1.55687000
-4.14784000 -0.69797500 -1.61807000
0.22040500 -5.14229000 1.78114000
0.03655900 -5.12108000 1.78821000
0.31786400 -5.25141000 1.70499000
-0.23943300 -4.33503000 2.02575000
-0.41726600 -4.13585000 1.99593000
-0.41232800 -4.29489000 1.99347000
3.29086000 -3.36260000 -0.07569640
3.65691000 -3.44828000 -0.24965100
3.31726000 -3.31237000 -0.14807900
3.06875000 -3.27085000 0.27013200
3.40132000 -3.27912000 0.21194500
3.10010000 -3.24139000 0.44010700
-1.61029000 -5.11451000 -0.37536700
-1.94286000 -5.11056000 -0.75609900
-1.13122000 -5.42124000 0.42211700
-1.47127000 -5.55315000 0.20345200
-1.47992000 -5.36917000 0.19440700
-0.24062500 4.26676000 2.40901000
-0.31690300 4.09561000 2.36468000
-0.11489300 4.06677000 2.41500000
0.18867900 3.45745000 1.83858000
-4.16032000 -3.55355000 -1.27163000
-4.05069000 -4.15682000 -1.28690000
-3.95963000 -4.18673000 -1.02342000
-3.71215000 -5.05823000 -1.10857000
-3.36513000 -5.37879000 -0.71133100
-3.48316000 -5.18362000 -0.70510500
4.00294000 -1.58147000 -1.62639000
3.90644000 -1.59979000 -1.67364000
3.88164000 -1.53451000 -1.64956000
4.22675000 -1.58363000 -1.40856000
4.04589000 -1.54803000 -1.37020000
4.26729000 -1.55177000 -1.10653000
-0.77671300 -1.46692000 0.12105600
-1.63385000 -0.28739600 -0.35101800
2.47631000 -3.44867000 -4.43766000
2.25906000 -3.69843000 -4.60366000
2.33265000 -2.87463000 -4.41566000
2.34825000 -2.95056000 -4.33429000
-2.54793000 8.99954000 3.99838000
-2.64314000 9.00769000 3.76077000
-2.50237000 9.12164000 4.01269000
-2.50127000 9.07675000 4.06676000
-2.51440000 9.15585000 4.19970000
2.56867000 -0.33947600 0.72630400
2.93779000 -0.49451700 0.95884700
2.90048000 -0.15070400 0.42926900
2.48970000 0.27710900 0.47022600
-2.18031000 4.36151000 0.62884800
-2.06147000 4.24414000 0.61090600
-2.31826000 5.89040000 1.22781000
-2.43731000 5.76581000 1.12092000
-2.21959000 5.58840000 1.22338000
-3.48297000 -4.34234000 -3.56173000
-3.46858000 -4.28524000 -3.41957000
-3.24431000 -4.58360000 -4.36114000
-3.19531000 -4.69839000 -4.40030000
4.37953000 -2.25870000 -2.30287000
4.42142000 -2.19028000 -2.44397000
4.37609000 -2.01271000 -2.39622000
4.21948000 -2.31483000 -2.82315000
4.32561000 -2.04182000 -2.74929000
4.22941000 -2.87796000 -0.49844900
4.02735000 -3.05361000 -0.32466900
4.05797000 -3.01918000 -0.45349900
4.32717000 -2.74657000 -0.59438600
4.32217000 -2.70070000 -0.76661500
4.41269000 -2.55134000 -0.73397900
-3.65500000 -3.29888000 -4.14033000
-3.59325000 -3.11465000 -4.21084000
-3.57703000 -3.34839000 -4.23990000
-3.59733000 -4.21691000 -3.83755000
-3.66560000 -4.08816000 -3.85184000
-3.56682000 -4.17749000 -4.00506000
4.08229000 2.36853000 -0.67725800
3.83649000 2.38773000 -0.70248500
3.98516000 2.31697000 -0.60456400
3.61350000 2.70453000 -1.78228000
3.28815000 3.00927000 -1.78304000
1.32927000 7.15661000 0.60884700
1.21749000 7.21766000 0.33501300
1.05830000 7.34740000 0.51919900
1.73347000 6.58079000 -0.24972400
1.48750000 6.90411000 -0.08757820
1.65744000 6.81066000 0.22586900
-1.58726000 -5.62156000 -4.30802000
-1.44752000 -5.62861000 -4.31373000
-1.48334000 -5.41750000 -4.26928000
-1.71358000 -5.16818000 -3.96670000
4.23045000 0.83418000 -1.72394000
4.13383000 0.97251400 -1.73288000
4.15943000 0.83220000 -1.47154000
3.99610000 0.41064900 -2.35374000
3.97966000 0.13457000 -2.17507000
3.97211000 0.26061400 -2.42822000
-3.87776000 3.74900000 -0.81471200
-3.90974000 3.81172000 -0.96246500
-3.70436000 3.96423000 -1.09111000
-4.02423000 3.68934000 -0.71700100
-3.98149000 3.83655000 -0.65815200
-4.10755000 3.77246000 -0.80095200
-3.03600000 -3.91107000 -4.74527000
-3.07111000 -3.55485000 -4.83342000
-2.85307000 -3.87480000 -4.88892000
-2.57809000 -3.19871000 -5.08905000
-2.71517000 -2.97936000 -5.02854000
-2.53649000 -2.97801000 -5.04288000
-1.24913000 9.38242000 1.46398000
-1.18958000 9.33360000 1.33857000
4.18896000 -2.64593000 -2.12073000
4.10965000 -2.70846000 -2.18088000
4.19221000 -2.65405000 -2.17165000
4.18989000 -2.64418000 -2.11296000
4.00472000 -2.70564000 -2.14009000
3.53941000 3.01241000 -1.44936000
3.46325000 2.96756000 -1.54803000
3.91255000 2.57206000 -0.70365800
3.83864000 2.36528000 -0.54730200
2.39807000 -1.88764000 1.75087000
2.38573000 -1.80751000 1.77815000
2.28384000 -1.84155000 1.85623000
2.36697000 -1.79632000 1.66286000
1.57546000 1.75436000 -5.23634000
1.46018000 2.31727000 -4.94083000
0.83664600 2.46591000 -5.22230000
2.25258000 -5.09601000 -2.71545000
2.07537000 -5.07823000 -2.90049000
2.20881000 -5.08382000 -2.97167000
3.08422000 -5.10905000 -2.43202000
2.87407000 -5.13132000 -2.33381000
-3.81894000 7.80165000 2.31950000
-3.52336000 8.91216000 3.90547000
-3.59846000 9.00442000 3.63030000
-3.53858000 8.86981000 3.71541000
2.70952000 1.69875000 0.35727700
1.07392000 -3.24135000 2.04246000
0.98410400 -3.33738000 2.16759000
1.09602000 -3.41177000 2.06469000
1.06926000 -3.95449000 2.06266000
1.05343000 -3.72564000 2.10316000
3.34889000 -1.97031000 -2.92343000
3.17197000 -2.07519000 -2.95374000
3.19098000 -1.98460000 -3.38358000
3.11254000 -2.26039000 -2.68777000
2.86538000 3.74193000 1.54200000
2.68937000 3.65976000 1.54555000
2.94933000 3.65007000 1.62741000
2.61650000 3.13092000 1.85624000
2.55616000 3.03720000 1.83597000
2.79561000 3.02075000 1.87165000
3.03413000 -0.83114300 1.28254000
2.80786000 -0.87800400 1.32482000
3.75551000 -0.92369000 0.91408400
3.69264000 -1.06411000 1.09500000
3.84081000 -1.14866000 0.96826700
3.49222000 -0.78303900 1.05615000
3.49128000 -0.58113100 0.78142500
3.30679000 -0.67650900 1.06649000
3.28614000 -0.45507400 0.76043900
4.35874000 1.73675000 -0.18828300
4.25180000 1.70052000 -0.10763400
4.36479000 1.50922000 -0.18910900
3.96644000 2.26554000 -0.15098900
4.05713000 2.12023000 -0.06441200
4.13727000 2.15032000 -0.12808900
3.00098000 -2.12510000 -3.07849000
3.02551000 -2.06431000 -3.30508000
2.41695000 3.76270000 -0.22841400
2.50473000 3.74018000 -0.38703300
2.34310000 3.90793000 -0.24856200
1.98611000 3.68680000 0.26696000
1.95810000 3.47095000 0.41035300
2.12678000 3.62229000 0.20937200
4.09656000 -0.26873600 -2.47083000
4.02226000 -0.08278030 -2.26778000
4.19836000 -0.28132100 -2.32999000
4.32526000 0.01528770 -1.72315000
4.45043000 0.39449700 -1.72867000
4.24413000 0.16640300 -1.55874000
4.15324000 -0.18154600 -2.26422000
4.08185000 -0.03285780 -2.12952000
4.21466000 0.04121970 -2.08169000
4.11622000 0.40108400 -1.22916000
4.35090000 0.40997800 -1.22968000
4.26333000 0.46529900 -1.42836000
-1.72276000 9.38092000 1.43951000
-1.59546000 9.28501000 1.47840000
-1.79815000 9.18921000 1.39381000
-1.30103000 9.27452000 2.06493000
-3.40055000 3.77027000 -1.16586000
-2.92787000 4.23036000 -0.51023700
-1.11385000 -2.23280000 1.22080000
-1.04756000 -2.26173000 0.92572200
-1.06462000 -1.19302000 -0.25697400
-1.25870000 -1.44669000 -0.31148000
-0.83389500 -1.71752000 -0.09466710
-1.49703000 -4.93498000 -5.52251000
-1.55400000 -4.75339000 -5.48650000
-1.37634000 -4.89234000 -5.38818000
-1.82281000 -5.01025000 -5.48008000
-1.81399000 -5.56924000 -5.38532000
-1.98565000 -5.03336000 -5.35045000
-2.74303000 -2.74278000 0.80511700
-3.08661000 -2.73926000 0.51489700
-2.81203000 -2.98115000 0.77887100
-3.06170000 -4.26481000 0.41658100
-3.03100000 -3.91337000 0.39103700
-3.02298000 -4.16685000 0.33794800
1.27936000 -3.17501000 1.44379000
1.16062000 -3.01093000 1.54027000
1.24146000 -3.17376000 1.60248000
4.30477000 -0.61415900 -0.78138000
4.01396000 -0.55234900 -0.78628400
4.43816000 -0.48801700 -0.85308700
3.94112000 -0.60926600 -0.87047000
4.02026000 -0.70382000 -0.89042100
3.97933000 -0.94228400 -1.03996000
-2.66644000 2.21119000 0.09156770
-2.66090000 1.99656000 0.29201700
-2.51903000 2.20151000 0.34398300
-2.72287000 2.35658000 -0.35669200
-2.63289000 2.53992000 -0.32243500
-2.63924000 2.61783000 -0.44449400
2.13508000 2.84173000 0.47775800
2.19042000 3.27892000 0.20099800
1.93564000 2.86919000 0.52024800
2.10088000 2.63152000 0.56546800
1.84998000 2.29171000 0.81079400
1.86857000 2.23539000 0.72748700
-2.60005000 2.21963000 0.22734100
-2.47254000 2.23819000 0.46896300
-2.68172000 2.22266000 0.38700200
-2.90542000 2.31381000 0.05184770
-2.85081000 2.47825000 -0.16872000
-2.69134000 2.26354000 0.03024950
2.80088000 -5.61053000 -0.24708200
2.67081000 -5.60763000 -0.16254700
2.64661000 -5.64849000 -0.37174200
2.30148000 -5.40618000 0.47429000
2.43197000 -5.36693000 0.42906600
2.35569000 -5.08747000 0.57457100
-1.53809000 -1.59305000 -5.55216000
-1.42026000 -1.65259000 -5.61096000
-1.45932000 -1.58880000 -5.39816000
-1.58658000 -1.15607000 -5.49006000
-1.50294000 -1.38601000 -5.54989000
-1.59809000 -1.43583000 -5.53725000
-2.25544000 9.56005000 3.95866000
-2.28438000 9.59206000 3.92442000
-3.84424000 -4.81153000 -2.32709000
-3.82597000 -4.95231000 -2.10513000
-3.53379000 -5.36835000 -2.15042000
-3.60873000 -5.23650000 -2.27908000
-3.46456000 -5.37593000 -2.35043000
-1.57782000 -1.00126000 -5.69206000
-1.55862000 -1.12563000 -5.61945000
-1.67899000 -1.18514000 -5.61944000
-1.93777000 -1.01684000 -5.35598000
-1.93120000 -0.98650100 -5.47715000
-1.77727000 -0.87493800 -5.38156000
-1.30168000 2.82365000 -4.71776000
-1.28259000 2.76123000 -4.87592000
-1.41331000 2.76760000 -4.87659000
-1.19623000 2.32357000 -5.24268000
-1.13561000 1.88923000 -5.41887000
-1.48183000 -1.67272000 -5.32909000
-1.62736000 -1.78788000 -5.41387000
-1.52485000 -1.55466000 -5.36394000
-1.51979000 -2.07930000 -5.48033000
-1.59801000 -2.21152000 -5.59194000
-1.65257000 -2.07143000 -5.50796000
1.94010000 6.50306000 0.63414100
1.93039000 6.47529000 0.92616100
2.05755000 5.88306000 1.38334000
1.92184000 6.02580000 1.58004000
2.00495000 5.76226000 1.52385000
-0.10403100 -5.41305000 0.88080900
0.19894300 -5.19013000 0.85765700
0.25094200 -5.21975000 0.88000800
0.16815700 -5.34927000 0.90235500
-3.80583000 0.74235700 -2.47592000
-3.83521000 0.84316000 -2.31530000
-3.73545000 0.92558200 -2.48696000
-3.36134000 0.04744100 -3.15017000
-3.89689000 6.76135000 0.73281300
-3.91284000 6.58335000 0.75951300
-3.99625000 6.72412000 1.00621000
-3.91698000 6.41522000 1.00414000
-4.00881000 6.64041000 1.13471000
-3.89429000 6.41738000 0.80360400
4.28181000 -0.46152500 -0.23406400
4.52961000 -0.61728200 -0.65125200
4.58655000 -0.45305400 -0.78982400
4.55149000 -0.31230000 -0.78621900
4.30283000 -0.40391700 -0.82348800
4.13508000 0.33906200 -0.17637000
4.01253000 0.58486100 0.07549390
3.99467000 0.28132100 -0.08125990
4.29240000 0.02853170 -0.84553800
4.28479000 -0.01024200 -0.93533000
4.32713000 0.00900192 -1.09985000
-1.00547000 2.38888000 0.79754700
-0.97647300 2.28884000 0.78042500
-0.90806200 2.20459000 0.75594900
4.02038000 0.36581800 0.02729240
4.02973000 0.58336700 0.12216800
4.16279000 0.61148600 0.18028400
4.14048000 -0.00245847 -0.26091400
4.23037000 -0.01214450 -0.16917600
4.29302000 -0.11118700 -0.36755300
-4.00136000 3.87307000 -0.59051000
-4.15538000 3.78694000 -0.68409700
-3.85762000 4.86451000 0.39043500
-3.89521000 4.79440000 0.29447100
-3.78608000 4.49441000 0.23212200
-1.69436000 -3.99464000 -4.80519000
-1.90602000 -3.85590000 -5.00206000
-1.79491000 -3.75349000 -4.97449000
-1.49032000 -3.83593000 -4.85808000
-1.57510000 -3.72442000 -4.76585000
-1.55356000 -3.59988000 -4.77569000
3.43408000 -3.12629000 0.70186000
3.43190000 -3.19446000 0.54548400
3.67181000 -3.14406000 0.42134800
2.97378000 -3.05524000 0.93222500
3.22443000 -3.02254000 0.96341400
3.18569000 -2.92608000 1.09539000
-2.84195000 -1.88988000 -4.59909000
-2.48138000 -1.89890000 -4.90291000
-2.84939000 -2.01196000 -4.84124000
-2.32964000 -1.76304000 -4.62388000
-2.34194000 -1.78776000 -4.73051000
-2.81877000 -1.81479000 -4.43202000
4.01837000 2.42586000 -1.38534000
3.96127000 2.46200000 -1.21337000
4.20764000 2.39911000 -0.89534100
4.46360000 1.49468000 -0.67824800
4.42871000 1.78740000 -1.04305000
2.80309000 -5.54552000 -0.09836100
2.65178000 -5.40697000 0.05919980
3.03352000 -4.79063000 -0.05881860
3.02181000 -5.07505000 -0.06452070
3.19199000 -4.79701000 -0.17643500
2.95381000 -3.93673000 -4.18271000
2.90728000 -4.33549000 -4.25014000
2.95618000 -3.77148000 -4.27566000
2.73524000 -4.29249000 -4.23320000
2.83523000 -4.28868000 -4.38297000
2.84880000 -4.33459000 -4.27717000
-2.10008000 0.11872400 0.96302200
-2.39658000 0.71628500 0.62905200
-2.23387000 0.67859900 0.74650700
-2.32561000 0.85219000 0.68459000
-3.38654000 1.57319000 -1.85797000
-3.36619000 1.58993000 -2.02893000
-3.04123000 1.65110000 -1.85161000
-2.79467000 1.61401000 -2.04534000
-3.29486000 1.61277000 -2.04844000
0.33936100 -5.13905000 -5.60180000
0.28808700 -5.20389000 -5.56211000
0.15022500 -5.06473000 -5.58666000
0.97475600 -5.22408000 -5.37656000
1.14384000 -5.31828000 -5.33237000
0.12801400 -1.17589000 -5.96241000
0.15326100 -1.14191000 -5.73230000
0.07940530 -1.22631000 -5.77630000
-0.35321900 0.15269200 -5.77145000
-0.58855700 0.74863100 -5.61861000
-0.29658400 0.09887210 -5.68713000
-3.01013000 4.17016000 0.56409500
-2.77674000 3.83953000 0.31628700
-2.88998000 3.69809000 0.40014900
-3.12228000 5.45025000 1.11531000
-3.22130000 5.13180000 1.12451000
-3.26981000 5.75737000 1.50722000
4.40662000 -2.03428000 -1.50560000
1.74443000 2.86192000 -4.30228000
1.40193000 2.95003000 -4.51911000
1.54680000 3.47558000 -3.97511000
1.63549000 3.72932000 -3.67056000
1.79082000 3.36399000 -3.84106000
-0.44080100 -2.56514000 -5.14377000
-0.30259800 -2.77879000 -5.31845000
-0.28498200 -3.03149000 -5.31174000
-0.04754240 -3.00615000 -5.58420000
0.13496500 -2.85117000 -5.34864000
0.01612460 -3.12088000 -5.38311000
2.10472000 5.77481000 -1.14764000
-4.02857000 4.79801000 -0.17447200
-4.04093000 5.07527000 -0.00419119
-3.85992000 4.87754000 -0.16138400
-4.08250000 4.63482000 -0.04289080
-2.40569000 -6.82995000 -3.85778000
-2.21247000 -6.65511000 -4.00541000
-2.38624000 -6.64822000 -4.07352000
-2.58895000 -6.98951000 -3.95291000
-2.58768000 -6.90402000 -3.91879000
3.30342000 -2.89451000 -3.90125000
3.22491000 -2.71229000 -3.71714000
3.29953000 -2.61016000 -3.65402000
3.30581000 -3.26264000 -4.07606000
3.25351000 -3.79900000 -4.13935000
3.15267000 -3.27891000 -3.98615000
-1.67217000 0.71792800 0.21570200
-1.72931000 0.80399900 0.38486500
-1.65399000 0.68776600 0.39189700
-2.41900000 0.93918000 0.36795000
-2.33105000 0.80361900 0.20480200
-2.39842000 0.81520800 0.30652200
3.10729000 -3.66284000 -4.03821000
3.08865000 -4.08266000 -4.09458000
3.23605000 -4.23270000 -4.07448000
3.00716000 -4.10877000 -3.85805000
3.15578000 -4.28061000 -4.08077000
3.80344000 -0.17422500 -2.64574000
3.88610000 -0.29186900 -2.39719000
4.11553000 -0.31930200 -2.43465000
4.14618000 -0.32775600 -2.32694000
-1.87455000 0.88260200 0.20103700
-1.94463000 0.93801400 0.17625300
-2.03221000 1.12620000 0.21053600
-2.66158000 -1.50314000 -1.89118000
-2.53943000 -0.64624300 -1.83998000
-2.65348000 -1.46220000 -2.28153000
-2.65348000 -1.46220000 -2.28153000
-2.43144000 -3.67308000 1.08057000
-2.75971000 -3.72414000 0.83117800
-2.54165000 -4.05513000 0.95654100
-2.95608000 -3.18937000 0.67121000
-3.11764000 -3.07248000 0.51323400
-2.95439000 -3.58721000 0.67152800
-3.70816000 -0.29181300 -1.03603000
-3.52434000 -0.16437600 -0.66286400
-3.39903000 -0.32571000 -0.92591500
-3.49147000 -3.50233000 0.02726080
-3.60575000 -2.96027000 -0.13660800
-3.79760000 -3.57062000 -0.47147000
-3.46009000 -2.15352000 -0.08189210
-3.89819000 6.06963000 0.16334400
-3.95095000 6.13691000 0.02936190
-3.98715000 5.85899000 0.00791543
-1.06562000 0.54143800 -5.55720000
-1.17981000 0.90396500 -5.62945000
-1.05509000 0.43370100 -5.72646000
-1.27528000 1.47747000 -5.35931000
-1.39168000 2.17651000 -5.24504000
-1.32346000 1.65854000 -5.45496000
3.35358000 -4.32724000 -0.47233600
3.22985000 -4.19325000 -0.42904200
3.13665000 -4.49541000 -0.22404900
-2.19259000 -6.86659000 -3.76037000
-2.49794000 -6.92843000 -3.75258000
-2.48005000 -7.04025000 -3.56547000
-1.71660000 -6.62667000 -4.03948000
-1.73836000 -6.77453000 -3.97930000
-1.59104000 -6.68455000 -4.09285000
-2.44078000 -5.85763000 -0.25940500
-1.89520000 -5.86105000 0.00707532
-1.91230000 -5.83179000 0.18437000
0.35663500 -2.97661000 -5.19240000
0.27969700 -2.79315000 -5.19118000
-1.91249000 7.33581000 -0.24178600
-1.95809000 7.22706000 -0.42766800
-2.86966000 6.51873000 -1.09089000
-2.67821000 6.33410000 -1.45120000
-3.12208000 6.51494000 -0.90626800
-3.25942000 -3.43080000 0.36080500
-3.18023000 -2.89113000 0.43521000
-3.31478000 -2.72110000 0.26151700
-3.08238000 -4.23644000 0.35718100
-3.13519000 -3.56249000 0.40832400
-3.17845000 -3.71610000 0.43208800
-2.55542000 -2.57783000 -4.97455000
-2.37219000 -2.59146000 -5.17186000
-2.65843000 -2.87641000 -4.99056000
-2.91562000 -2.87803000 -4.88103000
-2.76485000 -2.73109000 -4.93233000
-3.81184000 0.02315330 -1.58588000
-3.45117000 0.15258100 -1.28324000
-3.83524000 0.17750100 -1.33593000
-3.44712000 0.26975500 -0.98114400
-3.70843000 0.30360900 -0.88966200
-3.60452000 0.26326700 -1.04897000
-0.90795500 -2.03665000 -4.79198000
-1.25827000 -1.67717000 -4.80953000
-1.32489000 -1.66307000 -5.04875000
-1.22292000 -1.55156000 -4.87188000
2.90902000 -5.19476000 -2.18290000
3.04676000 -5.15815000 -2.24932000
3.15112000 -5.16926000 -2.16223000
-2.68521000 0.92482600 -0.65990300
-2.94794000 0.84981500 -0.51560300
-2.94913000 1.24152000 -1.01859000
-3.02138000 1.18080000 -1.10186000
-0.33012800 2.24254000 -5.42788000
-0.06934050 1.91278000 -5.58909000
-0.39888400 2.11229000 -5.50499000
0.43974200 2.26185000 -5.45322000
0.33039600 2.13905000 -5.48931000
0.06826220 2.30238000 -5.42908000
-3.84625000 4.95773000 -0.19125300
-3.94274000 4.84635000 -0.39305200
-3.84009000 4.60640000 -0.44663400
-3.87178000 4.65973000 -0.33930200
-3.09485000 0.14867200 -1.18477000
-3.35280000 0.00283076 -1.55866000
-2.85106000 -0.01210680 -1.46143000
-2.93974000 -0.12206100 -1.66025000
-3.39618000 -0.11912600 -1.75556000
-3.08973000 -0.19024200 -1.75686000
-1.21516000 6.50274000 1.81333000
-1.61318000 6.54362000 1.57072000
-1.66466000 6.49418000 1.52259000
-2.08733000 6.03161000 1.53046000
-1.98518000 5.85578000 1.58210000
-1.85901000 6.09504000 1.54893000
-4.12178000 4.24073000 -1.53239000
-4.10618000 4.12737000 -1.50802000
-4.19988000 4.36049000 -1.41468000
-4.20570000 4.45559000 -1.12543000
-3.14858000 0.60532500 -3.48696000
-3.05049000 0.38596000 -3.52453000
-2.99622000 0.55457300 -3.34752000
-2.87128000 -0.30079800 -3.95213000
-2.98962000 -0.09717510 -3.95478000
-2.91243000 -0.43732200 -4.28753000
4.09123000 -4.14137000 -0.38442500
4.01106000 -4.16308000 -0.47627400
4.01193000 -4.07544000 -0.44135800
4.09693000 -3.76210000 -0.62984800
3.69832000 -4.50077000 -3.76687000
3.80736000 -4.62791000 -3.66283000
3.63446000 -5.13308000 -3.71727000
3.64621000 -6.02209000 -3.53008000
3.58914000 -6.61369000 -3.48656000
3.53777000 -6.22507000 -3.57562000
0.05464100 5.06204000 -3.37684000
-0.06052270 5.17574000 -3.26481000
0.11873000 5.45958000 -2.92190000
0.68426700 5.40732000 -2.80082000
0.81792900 5.74357000 -2.35067000
0.79284400 5.59901000 -2.54638000
0.04373100 0.15437200 0.84845200
0.25955400 -0.00130920 0.91855800
0.08979840 0.35785100 0.93438300
0.31253400 -0.30202800 1.04735000
0.06224600 0.03192700 0.94927200
0.22143000 -0.41440200 1.12270000
3.46958000 2.45393000 -0.31135800
3.34102000 2.47121000 -0.20362600
3.68449000 2.47823000 -0.08943900
3.78571000 2.38212000 -0.39273600
3.88675000 2.37842000 -0.29538400
4.03069000 2.25488000 -0.25360300
1.21361000 -5.05705000 -3.71049000
0.69929200 -4.95931000 -3.61834000
0.66154300 -5.04460000 -3.85606000
1.58435000 -5.07870000 -3.80808000
1.28694000 -5.08493000 -3.81689000
1.42592000 -5.07805000 -3.94973000
-1.20143000 0.05316940 -5.53597000
-1.47612000 0.53745300 -5.48722000
-1.32147000 0.51664200 -5.47321000
-1.46964000 1.32253000 -5.38431000
-1.44962000 1.64588000 -5.33614000
-1.35055000 1.43283000 -5.35957000
-2.96324000 2.65230000 -1.27309000
-2.88388000 1.63236000 -1.79664000
-0.10015100 -5.14380000 -4.35220000
0.50310300 -5.11264000 -4.30355000
0.32494300 -5.13477000 -4.18770000
1.20868000 -5.08548000 -4.07720000
1.08743000 -5.10587000 -3.99020000
-3.80203000 7.28712000 0.61793800
-3.63300000 7.49826000 0.67681100
-3.66208000 7.39268000 0.51631500
-4.03069000 6.41975000 0.27249900
-4.06272000 6.19536000 0.29036300
-4.00215000 6.24017000 0.40445400
-4.05304000 4.48250000 -1.71823000
-4.08689000 4.52875000 -2.07517000
-4.13482000 4.47437000 -2.01059000
-3.80721000 4.17071000 -2.03419000
-2.81803000 1.65519000 -1.79343000
-2.89172000 2.05213000 -1.78297000
-2.83382000 1.84976000 -1.97242000
-2.71906000 2.07463000 -2.66308000
-2.77843000 1.79200000 -2.24822000
-2.85992000 2.26174000 -2.25594000
0.05145920 -6.93581000 1.32620000
0.07182650 -6.66281000 1.22413000
0.07739120 -7.08670000 1.23295000
0.26165900 -6.43136000 1.13949000
0.07975330 -6.57546000 1.21425000
0.15662900 -6.43756000 1.38079000
-2.93635000 -5.02221000 -4.32006000
-2.91540000 -4.93375000 -4.51028000
-2.82723000 -5.05601000 -4.38520000
-3.06247000 -4.93469000 -4.36698000
-3.20510000 -4.79460000 -4.28320000
-3.07972000 -4.80124000 -4.49113000
0.76669200 -1.70013000 -5.39060000
0.77197600 -1.91961000 -5.39471000
0.85638800 -1.90966000 -5.66928000
1.00285000 -2.72770000 -5.39472000
0.72292600 -2.13807000 -5.35607000
0.90239800 -2.16340000 -5.36574000
-1.30461000 -7.30823000 -4.50164000
-1.28789000 -6.98861000 -4.36761000
-1.30232000 -7.13156000 -4.49213000
-2.46446000 -5.11008000 -1.36005000
-2.62036000 -5.20638000 -1.42604000
-2.60308000 -5.09858000 -1.97224000
-2.51166000 -5.09271000 -2.14236000
1.45608000 -1.71793000 2.07077000
1.34637000 -1.64299000 1.93957000
1.27742000 -1.52179000 1.64150000
1.30928000 -1.49594000 1.23480000
-2.20004000 6.95061000 0.92400800
-2.28793000 6.95171000 0.87005200
-1.88610000 6.81013000 1.31473000
-1.99086000 6.41221000 1.22740000
2.33935000 -1.76206000 -4.86006000
2.12088000 -1.56290000 -4.99637000
2.56476000 -1.75275000 -4.73767000
-3.78383000 -1.24335000 -2.85821000
-3.66941000 -0.33476800 -2.04062000
-3.55941000 -0.53948200 -2.23428000
-3.30705000 -0.33176300 -2.00146000
3.88464000 2.42516000 0.50785900
4.11902000 1.53610000 0.43322100
-4.01908000 -0.24463000 -2.08639000
-4.03832000 -0.04311680 -1.98289000
-3.99890000 -0.21173000 -2.15839000
-3.99151000 -0.46970200 -2.30183000
-3.98685000 -0.28047300 -2.09531000
0.52542800 3.70000000 2.09755000
0.35249900 3.72668000 2.23523000
0.42520400 3.57932000 2.08101000
0.19012800 3.69144000 2.26552000
-0.00960809 3.75851000 2.30922000
0.15905000 3.59244000 2.16524000
-4.16745000 -3.92520000 -1.90074000
-4.05890000 -4.37731000 -2.02263000
-4.16745000 -3.92520000 -1.90074000
-4.18657000 -3.69534000 -2.16863000
-2.16740000 0.73832300 -5.25188000
-2.15570000 0.29794800 -5.38343000
-2.22540000 0.72362300 -5.29150000
-2.21789000 -0.67714700 -5.41829000
-2.28610000 -0.77539200 -5.38076000
-2.22278000 -0.55061000 -5.30658000
0.71011000 -4.07660000 -5.37601000
0.60906000 -4.03712000 -5.33623000
0.75942700 -3.96873000 -5.22361000
-0.17575000 -4.17873000 -5.50773000
0.08593630 -4.24344000 -5.53048000
-0.12263500 -4.32430000 -5.60471000
-2.15874000 -1.05134000 -5.35765000
-2.18868000 -0.80622000 -5.30208000
-2.05714000 -0.93565200 -5.40985000
-2.12910000 -0.74624100 -5.34780000
-2.19369000 -0.71742400 -5.43886000
0.15541000 -5.14009000 -5.55115000
0.05824550 -5.07732000 -5.51116000
0.08324250 -5.15100000 -5.47840000
0.05824550 -5.07732000 -5.51116000
0.15541000 -5.14009000 -5.55115000
1.55865000 -0.96016300 -5.45506000
2.57888000 -1.57636000 -4.87185000
2.05505000 -1.34320000 -5.14690000
2.28718000 -1.38677000 -5.14044000
0.02143730 -2.65084000 1.61878000
-0.20193700 -2.70524000 1.52103000
-0.21150400 -2.76746000 1.81689000
-0.32928200 -1.92521000 1.30144000
-1.55535000 -0.35776500 -0.40291800
-1.85684000 -0.41111700 -0.59500500
2.70396000 0.85836400 -4.65011000
3.14334000 0.67398300 -4.01408000
1.12893000 4.64181000 2.15599000
1.20014000 4.48767000 2.07994000
1.15793000 4.75683000 2.08607000
0.54673700 5.09629000 2.46868000
0.68517000 4.90570000 2.47172000
0.75099400 5.04579000 2.37642000
-0.50639400 -4.88633000 -3.00348000
-0.64092100 -4.92091000 -3.17638000
-0.25750200 -4.89544000 -3.18362000
-1.90796000 -4.99000000 -2.53249000
-2.10761000 -5.02487000 -2.27197000
-2.29289000 -5.08908000 -2.54463000
1.55276000 -5.41615000 -5.07940000
1.71885000 -5.30701000 -4.98272000
1.54203000 -5.47091000 -4.96470000
1.58568000 -4.76625000 -5.09242000
1.50390000 -4.83824000 -5.23841000
1.42835000 -4.69290000 -5.18769000
1.14598000 4.87169000 2.16524000
1.59301000 4.75819000 1.54736000
1.66042000 4.66970000 1.42362000
1.61234000 4.87711000 1.78245000
-1.57510000 -1.48380000 -5.36346000
-1.62054000 -1.53334000 -5.54654000
-1.60641000 -0.98049700 -5.61410000
-1.64845000 -0.84143800 -5.46656000
1.49319000 5.80869000 2.10848000
1.28798000 5.81100000 2.24120000
1.29231000 5.38375000 2.23879000
1.64889000 6.19540000 1.86451000
1.46167000 6.22821000 2.02786000
1.59760000 5.96746000 1.99561000
-3.73030000 -1.70526000 -2.98978000
-1.54634000 5.18661000 1.80083000
-2.05498000 6.06362000 1.33890000
-2.14627000 5.89876000 1.55202000
2.55481000 -4.67037000 -4.29664000
2.42557000 -4.76113000 -4.39184000
2.40910000 -4.52626000 -4.38281000
2.37691000 -4.34593000 -4.46906000
2.28576000 -4.29698000 -4.58085000
2.40536000 -4.34196000 -4.59132000
-0.22948800 -2.03757000 -5.49499000
-0.79108500 -2.05591000 -5.71773000
-0.95488300 -2.10207000 -5.68324000
3.10439000 0.10334600 0.19148200
3.37663000 0.04070990 0.37452000
3.18331000 0.22240400 0.40287900
3.34457000 0.24015500 0.60317100
3.52114000 0.05898040 0.52120200
3.65407000 0.01026350 0.45975600
-1.96849000 5.47222000 1.68420000
-1.72586000 5.92807000 1.64404000
-1.79910000 5.99909000 1.58753000
-1.81595000 5.42522000 1.44504000
-1.75451000 5.42834000 1.56286000
-1.90729000 5.40613000 1.58997000
3.20738000 0.28689900 -4.11525000
3.06490000 0.35803500 -4.37173000
2.59291000 0.66533900 -4.83233000
2.32477000 0.82314600 -5.01241000
2.66298000 0.78191300 -4.60681000
-0.00663992 -1.72147000 -5.32598000
0.14038200 -1.75173000 -5.30261000
-0.00964050 -1.85856000 -5.40031000
-0.00594432 -1.66925000 -5.54489000
-0.17734700 -1.51079000 -5.55312000
-0.11282500 -1.60815000 -5.74938000
-2.33786000 5.19855000 0.98141500
-2.19481000 4.86811000 0.93549400
-2.27106000 5.35945000 1.10325000
-2.14296000 5.50636000 1.58440000
-2.07712000 5.58522000 1.30109000
-2.01450000 5.49143000 1.32102000
3.66195000 0.43831500 0.59678100
3.41394000 0.55034800 0.44361800
3.60551000 0.44109500 0.31347500
3.40974000 0.30165000 0.54823400
3.56860000 0.41002900 0.32562100
0.59642000 -5.27401000 0.81182400
0.63463800 -5.36545000 0.93241500
0.51905700 -5.30230000 0.92636400
0.99882700 5.53588000 2.18846000
0.86993100 5.24078000 2.23304000
0.96566600 5.34826000 2.17181000
0.99043300 4.97684000 2.37265000
0.88009400 4.76863000 2.46720000
1.18666000 5.09789000 2.30115000
3.42018000 0.52308400 0.41439400
-3.52675000 3.74204000 -1.92497000
-3.82978000 4.14318000 -1.50887000
-4.06279000 4.08605000 -1.54194000
-0.57154500 -4.63191000 -5.45064000
-0.59641500 -4.41985000 -5.43178000
-0.50829300 -4.17770000 -5.38763000
-0.43740200 -4.37667000 -5.54374000
4.07735000 -3.32926000 -3.40537000
3.98710000 -3.17999000 -3.62944000
4.03186000 -2.77412000 -3.54079000
3.89916000 -2.72310000 -2.97459000
4.11863000 -2.76000000 -3.14255000
-3.72257000 3.98887000 -1.58950000
-3.77019000 3.85527000 -1.73995000
-3.72486000 3.83775000 -1.63098000
-3.94069000 3.96012000 -1.88127000
0.84937400 5.38149000 2.31028000
0.79528200 5.34065000 2.24076000
0.63913100 5.47025000 2.29544000
0.84594600 5.20430000 2.20519000
0.40762200 -0.63685800 -5.51340000
0.46334100 -0.37895100 -5.61461000
0.30886900 -0.22084700 -5.61694000
-3.38357000 -4.46754000 -3.48550000
-3.63399000 -4.54378000 -2.98281000
-3.51291000 -4.43872000 -3.22892000
-2.85841000 6.59366000 1.60398000
-2.78131000 6.50015000 1.58891000
-2.84406000 6.21140000 1.56037000
3.55881000 -5.11310000 -1.54880000
3.58741000 -5.14002000 -1.38409000
3.53260000 -5.20427000 -1.47978000
3.57252000 -4.93177000 -1.48944000
3.52607000 -4.79691000 -1.47489000
-3.21711000 8.25966000 3.76560000
-3.15893000 8.15605000 3.64121000
-3.11078000 8.66367000 4.11408000
-3.01640000 8.64704000 3.89564000
-3.05750000 8.62082000 3.98803000
-3.10129000 8.30025000 3.70052000
-1.95154000 2.87726000 -4.42690000
-1.89836000 2.91106000 -4.21735000
-1.57944000 2.79976000 -4.62135000
-1.11617000 3.40326000 -4.44623000
-0.83434200 3.12209000 -4.70481000
-1.14287000 2.98593000 -4.50256000
0.66054000 4.84184000 2.47370000
0.53041500 4.89470000 2.47721000
0.47383100 4.87831000 2.38028000
0.06661100 5.11460000 2.57498000
-0.04878160 4.89743000 2.45428000
0.06673580 4.95447000 2.45452000
3.64723000 -1.06818000 -3.34151000
3.48686000 -1.08964000 -3.85596000
3.66791000 -0.93586700 -3.37715000
3.42215000 -1.64009000 -3.49359000
3.57890000 -1.54768000 -3.41283000
3.64422000 -1.52306000 -3.12464000
1.96813000 4.58052000 0.31975500
2.14748000 4.84489000 0.33570500
2.05817000 4.70105000 0.45982700
2.12779000 4.49228000 0.23749300
-3.32125000 5.46604000 0.69941200
-3.31812000 5.65440000 0.58847300
-3.46706000 5.34646000 0.63407900
-3.68381000 4.90444000 0.37303000
-3.59141000 4.84921000 0.46383100
-2.52436000 -1.77989000 -2.21617000
-2.61958000 -1.59900000 -2.51516000
-2.82635000 -1.57405000 -2.61206000
-2.90417000 -1.63660000 -2.67486000
-0.22554700 -4.60145000 1.96236000
-0.08214730 -4.77022000 1.96608000
-0.00241010 -4.57974000 2.01493000
-0.27379500 -5.10037000 1.64761000
-0.35853700 -5.02763000 1.40705000
-2.22133000 -0.00675366 0.94631900
-2.66771000 0.26950600 0.43737100
-2.44853000 0.14335000 0.60150200
-2.53279000 0.18268200 0.67602100
4.15945000 0.67159300 -1.62052000
4.07718000 0.57811500 -1.35261000
4.05619000 0.61193700 -1.58815000
4.17961000 0.84254700 -1.91818000
4.08166000 0.77719900 -1.89527000
2.25141000 -0.76374000 1.28444000
1.59778000 -3.10269000 -4.83308000
1.64749000 -3.22132000 -5.03258000
1.44051000 -3.00936000 -4.97173000
1.17796000 -2.66577000 -5.14466000
1.21172000 -2.71202000 -5.29947000
1.04164000 -2.32133000 -5.35134000
4.33547000 0.98148100 -1.53025000
4.15858000 0.93877500 -1.64013000
4.33155000 1.16407000 -1.73325000
4.29339000 1.48128000 -1.86654000
4.34315000 1.69058000 -1.71654000
4.36399000 1.42988000 -1.72740000
1.31332000 -2.45785000 -5.19739000
1.18498000 -2.62884000 -5.12086000
0.97342600 -2.12641000 -5.25383000
1.67232000 -2.86109000 -4.96548000
1.69133000 -3.10750000 -4.77389000
1.40554000 -2.92892000 -4.97686000
-3.02799000 8.55283000 3.72734000
-3.06187000 8.41821000 3.70429000
-2.62976000 8.71991000 3.65018000
-2.85445000 8.59635000 3.67985000
-2.62968000 8.72233000 3.50352000
-3.50962000 0.14141800 -0.44722200
-3.52522000 0.21977200 -0.42336300
-3.82393000 0.63936300 -0.59633300
-3.91285000 0.74754700 -0.89913700
-3.97265000 0.68492400 -0.83887900
-3.97852000 0.53621000 -2.01221000
0.88916300 -5.60107000 0.85606400
0.70184900 -5.77641000 1.01588000
0.61516700 -5.69394000 1.13470000
0.47023200 -6.08376000 1.24663000
0.42794200 -6.05761000 1.41059000
-0.18288300 -0.25611600 1.01030000
-0.33443600 0.09265950 0.84121600
-0.18173100 -0.37352700 1.13465000
-0.08087560 -1.52559000 1.36299000
-0.24496700 -1.55556000 1.25971000
-0.06262160 -1.56327000 1.23367000
-3.39947000 7.83714000 1.28748000
-3.19076000 8.69106000 2.37863000
-3.24579000 7.92498000 1.41220000
-3.02273000 7.59237000 0.69010900
-2.99303000 7.66925000 0.99063100
-2.83189000 7.48718000 0.83045300
-1.78011000 -1.15372000 -0.03288800
-1.95467000 -1.11419000 0.60573500
-1.86926000 -1.64668000 1.19246000
3.97611000 -0.33252600 -1.28255000
4.42551000 0.00416488 -1.35144000
4.09724000 0.07467090 -1.34108000
4.51757000 0.17891000 -1.24458000
0.02611460 -1.25362000 -5.97499000
0.00774445 -1.27060000 -5.83341000
-0.06283660 -1.40654000 -5.96823000
0.15507000 -1.74477000 -5.90541000
0.17323600 -1.52454000 -5.79363000
0.36584600 -1.74029000 -5.87258000
0.13612900 -0.41108100 1.10410000
-0.09402940 0.06863100 0.90312800
-0.05054080 -0.12092400 0.90118400
0.22024800 -1.78098000 1.29433000
0.21795700 -1.93960000 1.32837000
0.41239100 -1.84799000 1.39537000
-0.46207500 7.77424000 1.28115000
-0.57444600 7.79200000 1.26470000
-0.60666100 7.73576000 1.30430000
0.22029800 7.41842000 1.71636000
0.45008300 7.30499000 1.79076000
-0.74031800 3.80457000 -4.56069000
-0.80022600 3.61879000 -4.66984000
-1.33687000 3.83527000 -4.41994000
-0.37352600 3.42301000 -4.85161000
-0.11808800 3.06199000 -5.08237000
-0.27035300 3.09572000 -5.04432000
0.18490400 -2.66453000 1.71758000
0.04751050 -2.71811000 1.87287000
-0.24263800 -3.23009000 2.06319000
-0.00742681 -3.06672000 2.12017000
-0.21000000 -3.05635000 2.06890000
-3.24119000 7.58205000 0.56635600
-3.45071000 7.59660000 0.63307500
-3.29409000 7.64845000 0.70421600
-3.51947000 7.42568000 0.44674000
2.76128000 2.49218000 0.02780330
2.86837000 2.59741000 -0.04211650
2.61170000 2.93551000 0.00500455
2.71965000 2.60928000 -0.03109410
2.81585000 2.72585000 -0.04904710
-2.55744000 1.43984000 -2.70502000
-2.68259000 1.53386000 -2.43620000
-2.61743000 1.78208000 -2.76822000
-2.79783000 1.87486000 -2.88756000
-3.05541000 1.78188000 -3.06323000
-2.87210000 1.46863000 -2.87892000
-3.70763000 1.37036000 -1.52004000
-3.52931000 1.33852000 -1.46281000
-4.10492000 1.15697000 -1.15850000
-4.11025000 1.00124000 -1.28819000
-4.05308000 1.13854000 -1.03887000
-3.13939000 6.90769000 -0.48658000
-3.21008000 7.10545000 -0.24088700
-3.51807000 6.62675000 -0.39564100
-3.50462000 6.78694000 -0.29661500
-3.32946000 6.79423000 -0.46896000
-1.15102000 -5.56082000 0.39253900
-1.60404000 -5.80946000 0.23089900
-1.67697000 0.10156800 0.89447900
-1.41127000 -0.11288500 1.07695000
-1.72764000 0.24745100 0.86296800
-1.20033000 0.51509500 0.70541600
-3.44502000 0.37420300 -0.44122700
-1.88241000 0.92687100 0.47342800
-2.03430000 0.99245900 0.34435200
-1.98940000 0.84366300 0.77121400
-2.19165000 0.94652200 0.69968700
-2.13606000 0.71860000 0.79745400
-3.81438000 5.74764000 -0.14205500
-3.95359000 5.70661000 -0.11946900
-3.79234000 6.23266000 -0.07946300
-3.79247000 4.60779000 -1.20839000
-3.94246000 4.57867000 -1.20194000
-3.96101000 4.67798000 -0.95143300
-3.79552000 4.89116000 -0.67818200
-3.93715000 5.03952000 -0.49245400
-3.78367000 5.19253000 -0.38492000
-3.79319000 5.77144000 -0.15696200
-3.78965000 6.18854000 -0.09525380
-3.86203000 6.02199000 -0.27713000
0.08909760 4.39690000 2.32410000
-0.04108710 4.49630000 2.32520000
-0.10120100 4.35496000 2.39875000
-0.03619830 4.84816000 2.19769000
-0.03631730 4.87023000 2.34654000
-0.12921300 4.77612000 2.28687000
3.40051000 2.83268000 1.36776000
3.35520000 2.67354000 1.30785000
3.42077000 2.85691000 1.11949000
0.00129483 4.55831000 2.23246000
0.34212500 4.33790000 2.10805000
0.45246600 4.34561000 2.27305000
0.30031300 4.45334000 2.27908000
-3.79985000 4.71813000 -1.58824000
-3.67817000 4.54893000 -1.64393000
-3.45311000 4.86858000 -2.02143000
-3.58072000 4.89594000 -1.79155000
-3.31714000 5.04803000 -2.04296000
0.99831800 -0.56643000 -5.59215000
0.69893000 -0.23672800 -5.65004000
0.96338200 -0.42003800 -5.67551000
0.23492600 0.73625800 -5.78386000
0.56810900 0.74417000 -5.77639000
-0.07299790 -1.26087000 1.40459000
-0.03868340 -1.50344000 1.42703000
0.15814700 -1.69694000 1.41641000
-0.32676100 -0.83642700 1.32332000
-0.20642800 -0.86095600 1.34925000
-0.32124900 -0.54663800 1.21718000
-2.33720000 -2.01666000 -5.10801000
-2.29319000 -2.24985000 -5.34991000
-2.42992000 -2.16380000 -5.24087000
-2.83157000 -2.26343000 -5.05231000
-2.58705000 -2.39393000 -5.19038000
-3.09759000 -2.32196000 -4.85414000
-3.86043000 4.80573000 -1.39215000
-3.75947000 4.58398000 -1.37782000
-3.90153000 5.36783000 -0.55747000
-3.78017000 5.07087000 -0.55824400
-3.79013000 5.36752000 -0.39522600
0.67564100 -2.72618000 1.83013000
0.74779900 -2.77845000 1.77347000
0.64822300 -2.67434000 1.49733000
0.84176200 -2.48472000 1.43110000
0.73754500 -2.60607000 1.35436000
0.75964800 -2.73859000 1.44983000
-1.39173000 -0.73824100 -5.56206000
-1.28855000 -0.44239100 -5.62268000
-1.29460000 -0.96725000 -5.68479000
-1.47595000 0.38194400 -5.49499000
-1.34851000 0.05201540 -5.57079000
-1.50237000 0.20939300 -5.45556000
3.08386000 -2.61552000 -3.74446000
3.10158000 -2.77545000 -3.73956000
3.05170000 -2.82082000 -3.96327000
2.98851000 -3.45736000 -4.13085000
3.02456000 -3.11162000 -4.13035000
-0.04916700 -1.01360000 1.18482000
0.15235500 -1.45844000 1.28415000
0.19014100 -1.12752000 1.31202000
-0.03461510 -1.21644000 1.35779000
0.01668660 -1.25722000 1.24133000
3.06643000 -2.47346000 -3.19743000
3.17358000 -2.54952000 -2.75197000
3.24961000 -2.53675000 -2.88485000
2.94147000 -2.89731000 -4.06710000
2.91828000 -2.73089000 -3.87905000
3.01573000 -2.65706000 -3.84003000
3.84452000 0.42820200 0.70220600
3.68895000 0.41368400 0.43891700
3.84847000 0.43520900 0.35759100
3.90727000 0.58783700 0.67027300
0.28858600 -6.59941000 1.60580000
0.47036800 -6.85087000 1.72678000
2.40653000 3.80080000 -2.59021000
2.49637000 3.74497000 -2.47638000
2.60859000 3.46234000 -2.68451000
2.40767000 3.95443000 -2.30483000
2.19791000 4.40780000 -1.60991000
2.41273000 3.96035000 -2.20923000
3.17313000 -3.60337000 0.15032500
3.01245000 -3.47730000 0.24457800
3.19479000 -3.96123000 -0.31820600
3.29008000 -3.91230000 -0.13760000
4.03987000 -0.96878700 -0.37878000
4.21323000 -1.33982000 -0.02779710
4.13284000 -1.28404000 -0.55755000
4.01302000 -0.63095800 -0.82488500
4.04357000 -0.64551100 -0.75653200
2.08841000 2.22027000 0.66911000
1.94333000 1.90310000 0.79599300
2.19769000 2.14887000 0.60935700
2.37668000 2.27737000 0.32174300
2.34228000 2.35798000 0.16861700
2.20888000 2.48318000 0.44031500
-3.77342000 1.03025000 -1.03803000
-3.56881000 0.93857100 -1.11724000
-3.64857000 1.16870000 -1.06637000
-3.61048000 0.83271700 -0.94649500
2.71006000 2.91180000 1.72145000
2.82208000 2.68133000 1.60807000
2.94495000 2.48477000 1.64830000
2.93806000 2.65918000 1.68308000
-1.44487000 2.03216000 0.44727000
-1.17911000 1.90559000 0.41655900
-1.43434000 2.12342000 0.38995800
-1.34012000 1.92391000 0.33119100
0.03306000 2.90367000 1.07308000
0.30641100 2.59729000 1.02204000
0.39129700 2.77049000 1.01394000
1.34588000 3.26315000 0.73526600
1.07195000 3.18870000 0.90207400
1.15830000 3.00349000 0.83979200
2.02804000 -4.99365000 0.81116900
2.09080000 -4.74867000 0.79174100
2.16725000 -4.78287000 0.76588900
2.09080000 -4.74867000 0.79174100
2.09291000 -4.99259000 0.76213100
-1.16308000 -1.82342000 -0.18848500
-0.97161600 -1.93371000 -0.07839170
-1.07937000 -1.73857000 -0.20689000
-3.10456000 4.90555000 -2.42945000
-2.51837000 5.29653000 -2.63329000
-2.98387000 4.86254000 -2.46615000
-3.18931000 4.82986000 -2.36455000
-3.08991000 4.58677000 -2.25466000
-2.01670000 -5.49433000 0.61026100
-1.63872000 -5.37849000 0.88665100
-2.01669000 -5.26595000 0.80542100
-1.47775000 -5.60953000 0.69589000
-1.12375000 -5.55174000 0.81957900
-1.14535000 -5.42522000 0.94586600
-1.62661000 -0.56971100 0.47406700
-1.49708000 -0.70874900 0.41604200
-1.58136000 -0.70967300 0.62565800
-2.35790000 0.05414170 0.80754800
-2.18305000 -0.07552260 0.80003200
-2.21925000 -0.07459920 0.94285400
-0.17933400 -2.31713000 1.59286000
-0.16132900 -2.29900000 1.47753000
-0.11748400 -2.14359000 1.57452000
-0.11049200 -2.65257000 1.53119000
-0.03900780 -2.64312000 1.58786000
-0.20357600 -2.48828000 1.60280000
2.33208000 -4.68048000 0.67936700
2.21213000 -4.54211000 0.73323600
2.27344000 -4.37985000 0.68693400
2.08200000 -4.34515000 0.70782900
0.20411900 -1.64041000 1.29159000
0.32984300 -1.43778000 1.33703000
0.54988500 -1.68482000 1.34147000
0.45885400 -1.39171000 1.22025000
0.40242600 -1.38885000 1.31417000
0.97251500 7.29930000 -1.85186000
0.40784200 6.95988000 -1.94496000
0.33583700 -2.29944000 1.48467000
0.09243510 -2.33880000 1.42471000
-0.14742400 -2.43967000 1.47631000
-0.14947300 -2.47025000 1.58911000
-0.03137950 -2.58919000 1.55975000
3.87118000 -1.43900000 -2.11081000
3.73488000 -1.59223000 -2.05498000
3.68565000 -1.74590000 -2.29042000
3.66076000 -1.76502000 -2.12760000
3.81791000 -1.78953000 -2.21279000
3.70067000 -1.77476000 -2.31103000
