15.81170000 -170.51500000 -22.18220000
-3.34981000 -82.38570000 67.27220000
-3.21187000 -77.32170000 67.84170000
-4.71241000 -82.66060000 66.68860000
2.38397000 -88.17750000 68.10460000
1.82738000 -90.46600000 67.73470000
48.50050000 -171.22900000 61.43200000
47.38100000 -173.95800000 62.41190000
52.50790000 -169.60800000 57.32100000
53.96870000 -170.39600000 55.72120000
28.64710000 157.56700000 -43.51700000
17.76570000 -162.05900000 -23.52280000
14.28480000 -164.61100000 -20.64870000
15.87640000 -160.08300000 -21.95390000
34.54540000 237.42800000 -28.57940000
33.86230000 238.75000000 -26.32780000
34.20350000 239.81500000 -21.52990000
34.53180000 238.69000000 -25.26060000
33.41180000 240.06100000 -21.86740000
63.00980000 -62.89230000 -7.50293000
61.43610000 -64.39360000 -10.50140000
28.25010000 38.14570000 -25.04470000
31.99310000 38.33490000 -23.58360000
76.25270000 -215.57200000 43.26930000
75.70800000 -217.70200000 43.99360000
76.56430000 -217.18000000 42.69320000
75.44100000 -218.23200000 42.96210000
74.97610000 -218.37500000 44.74630000
-7.31390000 234.54600000 16.64060000
-8.55431000 235.63900000 18.39360000
67.00730000 -187.71700000 -16.95670000
65.05830000 -188.89100000 -21.22240000
63.94700000 -184.52200000 -22.15600000
-13.09580000 -69.55000000 -24.99840000
-15.28780000 -69.45580000 -24.14710000
47.93680000 -65.74900000 -24.84550000
50.50950000 -69.12800000 -23.66870000
49.45990000 -65.10890000 -24.23210000
47.63990000 -64.35170000 -25.60570000
51.71800000 -66.68070000 69.51960000
51.54380000 -65.67770000 69.79720000
48.58950000 -66.12330000 71.63980000
48.62890000 -71.01470000 73.36180000
49.70960000 -70.15800000 72.17840000
40.55800000 80.74310000 -36.88420000
41.04910000 79.19160000 -36.09180000
43.74320000 81.99770000 -37.20880000
52.04560000 -66.30630000 -22.87650000
51.61310000 -69.23820000 -22.78120000
52.61470000 -171.03100000 -23.56810000
54.27670000 -166.60900000 -21.18040000
54.85510000 -170.40000000 -21.47170000
56.76110000 -171.54500000 -19.63170000
56.77730000 -168.85000000 -18.88570000
58.27110000 -170.81800000 -17.39190000
67.28220000 -38.55060000 50.79480000
66.42290000 -34.58630000 52.58970000
67.76730000 -37.83880000 49.82340000
68.01380000 -34.06400000 49.48370000
-46.12440000 -29.69800000 -15.25120000
-53.17280000 -28.46520000 -14.75970000
-52.33300000 -27.73460000 -15.55860000
-56.70300000 -28.04330000 -13.54950000
54.64170000 -68.26160000 69.96150000
54.62150000 -63.60730000 68.22340000
-17.34420000 -171.77100000 -26.94630000
-19.00430000 -171.30500000 -26.51670000
69.26880000 -11.55760000 47.32850000
68.04100000 -12.62010000 49.76990000
67.48570000 -13.58200000 50.07250000
-61.87400000 -35.21360000 32.77970000
-59.58420000 -36.33730000 33.65530000
-55.10480000 -35.88180000 36.28490000
-56.63650000 -36.36470000 35.13560000
37.85110000 -171.24900000 39.59210000
39.20770000 -173.28200000 38.33350000
-5.38149000 91.96760000 44.72730000
-2.84445000 97.01740000 43.85180000
-6.97913000 91.30730000 45.04470000
-56.34830000 -31.31080000 38.55570000
-53.98660000 -29.95780000 38.40780000
-55.39820000 -29.55700000 38.07880000
-54.75230000 -27.76570000 39.26340000
45.74080000 -186.19900000 68.74580000
42.30870000 -186.77100000 69.68910000
43.50270000 -98.70660000 71.91150000
65.57610000 -9.79660000 15.92550000
65.46430000 -10.13870000 15.06570000
62.43670000 4.07378000 14.92320000
66.58080000 -17.60120000 14.97220000
67.16160000 -23.54500000 14.41190000
65.71410000 -13.45460000 14.29650000
50.70230000 -67.76520000 71.30140000
49.66470000 -66.68580000 70.85400000
52.65860000 -67.30260000 70.06440000
53.81110000 -66.13010000 69.89650000
-28.45440000 -192.99400000 25.21080000
-29.76040000 -195.06200000 21.78450000
-27.99920000 -192.27900000 22.59180000
-27.51620000 -190.05500000 21.53440000
-29.17540000 -131.42200000 -14.44030000
-30.62000000 -130.04900000 -12.77420000
-29.78690000 -125.32200000 -12.83950000
-32.39170000 -123.38600000 -9.47418000
-31.75160000 -109.37800000 -7.10776000
-30.68220000 -112.42300000 -9.34431000
50.72460000 -121.95300000 66.20500000
52.98810000 -122.49600000 64.58730000
47.82930000 -120.34300000 68.17890000
49.29770000 -119.26900000 66.59120000
47.29410000 -118.99100000 67.52730000
36.10720000 138.82100000 -43.60000000
-21.96280000 237.67600000 2.38447000
-22.54530000 235.25000000 3.61450000
-21.38170000 233.92500000 5.86095000
-21.49280000 235.51000000 4.37748000
25.24910000 -116.30200000 71.92040000
23.29380000 -117.45800000 71.37340000
-13.71250000 208.00800000 8.80838000
-15.18360000 209.24700000 8.33748000
-16.32600000 208.07200000 7.58208000
-16.74060000 207.11100000 8.00229000
-17.22610000 207.70000000 7.13759000
6.94550000 -217.70600000 69.46680000
32.24810000 229.45200000 -5.00299000
30.95180000 228.68500000 -5.21700000
45.83040000 -179.05700000 34.48520000
46.97220000 -177.21700000 33.85080000
48.89380000 -175.19800000 32.45600000
48.64170000 -178.46900000 32.20560000
-14.98030000 209.71900000 7.93126000
-15.34930000 210.40700000 6.45498000
-17.87140000 210.52600000 6.38346000
-27.57520000 -190.64500000 25.20770000
-28.01570000 -191.83700000 26.76890000
-27.10580000 -190.47300000 28.08600000
-27.18910000 -191.44700000 29.87730000
59.42430000 83.48580000 52.09570000
60.37660000 83.54480000 50.72240000
41.22650000 -119.85300000 -23.06110000
72.12410000 -31.26360000 37.18920000
73.59320000 -32.58690000 31.10490000
72.92020000 -27.95080000 34.30640000
71.39200000 -26.94240000 39.82070000
72.40440000 -26.12290000 36.56800000
53.70360000 98.40830000 18.29660000
54.72920000 94.75670000 17.11150000
53.59380000 94.70580000 21.34720000
71.53450000 -16.43390000 38.98250000
71.75660000 -14.74410000 39.55350000
71.47650000 -16.42710000 37.53680000
53.29450000 97.80950000 20.07550000
52.56640000 97.03270000 22.88250000
51.97650000 95.24780000 25.61780000
4.73127000 -219.16000000 64.97120000
7.05973000 -219.24500000 65.10170000
3.13622000 -218.63500000 66.18140000
68.90600000 6.92969000 42.28590000
69.33130000 4.19165000 40.88770000
68.64330000 6.66138000 40.47430000
30.31370000 23.09410000 71.11470000
32.63310000 23.57400000 71.03480000
32.09230000 24.91800000 70.50710000
29.49990000 24.71400000 71.00980000
-60.41980000 -9.63736000 23.62060000
-61.60660000 -10.14860000 25.51510000
32.49000000 -101.04300000 72.58560000
26.59800000 -100.90000000 71.60370000
27.46160000 -101.52600000 72.24110000
29.54280000 -100.33200000 72.30040000
71.09800000 -14.42450000 38.23960000
70.87780000 -13.81480000 39.27130000
71.46730000 -13.93230000 40.04100000
7.43347000 -219.48400000 59.45580000
9.51175000 -219.08100000 57.20090000
6.93054000 -219.31900000 57.56000000
66.56230000 -13.74050000 50.13270000
67.42970000 -19.74830000 48.55100000
-21.95120000 -202.59700000 49.34070000
-19.55740000 -201.03800000 49.98730000
-17.84300000 -197.75800000 48.42720000
-36.65640000 -219.40300000 37.67870000
-37.26090000 -219.49000000 35.28040000
-36.23350000 -219.44000000 34.40680000
-35.48730000 -26.07320000 -15.60760000
68.03550000 64.01220000 -32.00440000
67.60360000 60.83560000 -31.61050000
65.69330000 61.08730000 -31.71650000
67.16500000 56.76270000 -29.54960000
58.24000000 90.76460000 31.52930000
61.38020000 88.82830000 33.19010000
60.50160000 89.33000000 30.83270000
-36.05900000 -165.76400000 32.00540000
-37.02410000 -166.33200000 27.55830000
56.06690000 44.43950000 56.20670000
57.80040000 49.42820000 53.67520000
49.11100000 -124.42900000 1.00832000
49.71100000 -123.59800000 3.66213000
48.77680000 -121.28600000 -0.32832700
-4.05245000 -130.65600000 -18.35400000
-4.94679000 -130.28600000 -17.85610000
-6.01874000 -120.65200000 -17.01150000
-41.24730000 86.81130000 22.62730000
-42.36390000 85.88400000 18.30950000
8.18672000 -174.24100000 39.24710000
-18.20080000 -124.35400000 -2.86220000
-17.16370000 -121.52300000 -3.89715000
-19.14280000 -124.85200000 -1.77232000
-21.82450000 -129.61500000 16.00860000
-21.39140000 -129.40700000 15.47310000
13.19310000 184.73400000 18.83150000
12.76580000 184.20500000 20.46890000
36.73530000 -186.32700000 -12.96120000
33.40080000 -185.52000000 -12.74390000
39.26800000 -186.05400000 -12.27100000
38.39240000 -183.12000000 -12.12740000
38.32050000 -186.84700000 -12.61550000
15.48280000 184.59300000 15.56640000
11.03800000 185.18500000 18.54820000
8.90785000 184.64900000 20.49140000
36.35110000 206.31000000 -2.99352000
35.65440000 208.41300000 -3.01617000
36.10790000 205.35000000 -2.69541000
63.51350000 -180.97100000 37.68830000
62.79550000 -181.48600000 41.24850000
66.16930000 -58.47270000 7.61815000
66.45640000 -57.55270000 10.96040000
67.05900000 -56.23930000 9.98401000
-36.33810000 -132.81700000 6.50144000
-37.09680000 -138.20800000 1.57390000
-36.38000000 -132.18400000 0.51776000
-36.96420000 -137.41000000 -1.35944000
-23.80640000 -153.31500000 18.39750000
-24.07010000 -150.57800000 18.87970000
-23.74900000 -152.92900000 19.38700000
-23.39360000 -149.25300000 16.45140000
-24.19500000 -149.30600000 17.87410000
-23.90920000 -151.23100000 17.45440000
-21.61490000 -190.78500000 -12.66840000
-21.00340000 -180.22100000 -10.47080000
-20.54520000 -183.84700000 -12.25500000
-56.51900000 37.35190000 -30.04080000
-54.37540000 33.79880000 -30.36410000
28.17000000 -205.38000000 -18.29170000
18.18640000 -208.84100000 -19.19030000
-1.63397000 -70.89720000 -24.73900000
-1.50486000 -72.55050000 -24.49480000
25.25430000 74.95450000 54.50790000
30.67600000 78.56210000 55.53750000
30.01610000 76.51900000 55.56800000
31.25710000 78.87320000 57.18040000
-63.77050000 -32.92890000 5.67469000
-61.40890000 -31.74560000 -0.41773300
-62.38030000 -33.03010000 1.42063000
80.27470000 58.17070000 12.20160000
50.11710000 -133.11500000 20.89920000
49.14890000 -134.09200000 22.05620000
50.01040000 -134.76300000 20.59840000
49.86800000 -137.58800000 20.73660000
41.34250000 133.78400000 9.59766000
82.22200000 61.17890000 12.62740000
81.77650000 58.32250000 11.56770000
62.06070000 15.20240000 17.24430000
65.21690000 -2.08763000 16.99590000
62.55350000 9.98801000 17.07820000
23.20080000 99.20270000 -48.35210000
21.34420000 102.93600000 -48.39030000
-37.79790000 182.76800000 -7.16098000
-37.52690000 184.88400000 -5.91276000
-38.58590000 185.57200000 -7.51619000
-39.28680000 181.25200000 -12.17900000
-38.33840000 183.49800000 -7.31576000
49.92380000 -144.17600000 33.29570000
49.44530000 -140.65700000 31.82010000
50.75710000 -144.11700000 37.03330000
50.47950000 -146.21800000 35.91030000
44.79840000 -171.61700000 -28.10550000
45.98980000 -169.09000000 -27.14160000
47.03410000 -172.24600000 -27.15820000
43.84580000 -170.51900000 -28.28390000
30.99060000 84.23180000 50.50900000
30.38900000 84.00900000 48.51880000
29.43700000 81.53720000 50.98460000
29.15720000 80.51730000 52.00830000
38.73010000 194.24500000 -3.69640000
38.80220000 195.74400000 -6.46470000
39.21640000 195.89000000 -7.76872000
-12.38700000 -105.13600000 57.24750000
-11.41250000 -107.53800000 56.96680000
-9.50560000 -105.76000000 57.28360000
39.19060000 -130.41800000 -4.57864000
35.24810000 -130.48900000 -4.60841000
42.00950000 -129.61600000 -4.66119000
39.99530000 -124.70700000 -6.69945000
-2.59626000 158.18700000 -53.73530000
2.95242000 161.03800000 -54.34430000
0.85011900 158.12100000 -54.20100000
-2.16831000 160.34000000 -54.08360000
-6.23119000 -75.18930000 -23.09540000
-6.14237000 -69.29750000 -24.98370000
-4.92952000 -68.45420000 -25.05380000
42.39790000 -131.94900000 -3.88793000
45.95060000 -132.68100000 -2.76103000
-24.04850000 -64.55000000 -19.00310000
-23.39630000 -66.24510000 -19.64750000
-26.32590000 -63.00680000 -18.46180000
-14.73350000 -30.85350000 66.27220000
-15.91930000 -39.14030000 66.54800000
-5.07577000 -118.66300000 -6.16365000
-0.88671400 -118.10900000 -4.88165000
-1.52206000 -114.88100000 -3.98171000
5.78935000 -117.65300000 -4.08214000
3.02342000 -115.57900000 -3.97607000
-6.36471000 157.63500000 -51.91070000
-6.15506000 157.89500000 -52.96510000
-48.01440000 -218.73600000 53.29810000
-49.19420000 -218.67500000 51.66890000
-46.87200000 -218.98800000 56.02670000
-2.92767000 -202.79500000 -35.48080000
-4.97882000 -202.34800000 -35.45150000
5.99929000 -202.17600000 -35.00970000
-10.69450000 -202.98900000 -35.69190000
-16.92080000 -202.23900000 -34.48450000
-48.96920000 -49.30540000 19.86110000
48.72250000 -167.16600000 -25.51330000
47.21900000 -165.46000000 -26.14640000
52.32930000 -165.52700000 -22.80900000
52.67400000 -166.79200000 -22.72560000
34.79990000 164.73700000 -7.92639000
35.75800000 163.90100000 -6.05151000
35.08530000 -119.76100000 -7.49352000
38.32080000 -119.86500000 -7.85550000
42.30930000 -124.62300000 -6.47606000
-70.68870000 72.13090000 -21.30890000
-72.31030000 62.37550000 -17.23790000
-71.00050000 61.14370000 -18.68800000
-72.12920000 61.52630000 -14.55850000
-24.80350000 -148.24400000 50.51790000
-22.88210000 -139.42700000 51.92060000
-29.71410000 -175.71400000 50.25690000
-30.69360000 -176.74000000 50.51890000
-33.23400000 -178.19100000 48.52370000
29.85950000 247.39500000 -27.81140000
-14.88050000 -147.73000000 53.49360000
-17.45110000 -144.66100000 53.22970000
-18.95990000 -150.97300000 52.92700000
-21.39850000 -148.77400000 52.26720000
-19.82420000 -146.86400000 52.70490000
28.30280000 131.52900000 20.01100000
29.88630000 129.91200000 21.14920000
34.58310000 129.44100000 19.59180000
35.14850000 128.81300000 18.68110000
-39.50430000 -114.31300000 13.10850000
-19.65570000 35.74000000 52.44400000
-20.00130000 38.82230000 50.41610000
-23.43050000 36.07620000 49.88470000
-23.33880000 32.79760000 51.64800000
-21.02720000 31.01010000 53.96030000
15.53210000 184.67400000 14.57670000
16.85210000 184.97800000 12.91320000
36.61020000 -56.07940000 -33.79710000
34.78310000 -55.86310000 -34.27150000
29.74060000 -57.52740000 -34.43380000
29.23500000 -52.61600000 -35.02870000
32.52830000 -55.63160000 -34.57200000
-31.47500000 -176.67500000 48.52440000
-32.19720000 -174.99200000 47.42170000
13.45280000 -90.86020000 -14.50370000
14.14610000 -89.58430000 -15.63680000
60.10240000 -89.43040000 57.99270000
59.82630000 -88.32850000 58.50730000
59.44720000 -91.43670000 58.56620000
-40.31880000 1.53061000 43.56730000
-38.57980000 -0.93854800 47.00840000
-42.90870000 3.90027000 38.30880000
-41.85320000 1.23625000 40.90410000
76.40100000 126.01200000 -15.03590000
77.11820000 121.89400000 -13.81400000
75.20600000 125.21000000 -11.32670000
76.72960000 119.39200000 -11.44360000
37.85820000 183.56900000 -1.38747000
38.51560000 181.87100000 -1.38092000
39.80410000 181.57500000 -1.79209000
39.53880000 182.88500000 -1.23754000
31.71860000 124.71200000 24.86180000
31.01910000 125.27900000 25.10090000
29.68780000 123.94000000 26.84690000
-55.29200000 -3.35522000 -20.69020000
-53.53190000 -7.97839000 -20.12060000
-8.23035000 172.53800000 22.89220000
-9.86355000 176.02800000 20.66250000
5.89495000 222.87700000 11.04290000
5.59421000 224.68900000 12.27410000
4.56413000 223.87900000 11.78850000
4.69785000 220.93900000 11.95860000
-21.54350000 -145.27100000 52.22480000
-19.81530000 -141.84500000 52.77980000
-23.43210000 -146.84700000 51.33180000
-3.30718000 206.25900000 -66.81260000
-6.51522000 204.91600000 -65.69370000
28.85020000 44.78430000 -24.11350000
29.04210000 39.12040000 -24.84320000
25.98200000 41.25840000 -25.11800000
27.93760000 41.73960000 -24.55350000
-35.45750000 159.75400000 -15.70250000
-35.03620000 161.42600000 -14.12580000
-41.48040000 -194.76400000 64.02710000
-41.91850000 -196.37400000 64.45470000
56.89600000 24.07550000 -1.77700000
51.67890000 -154.12800000 11.73110000
51.05220000 -160.81900000 14.21890000
51.33290000 -156.43100000 13.64480000
51.42550000 -161.58200000 13.20070000
-18.16200000 216.22700000 5.68736000
-18.27250000 217.11800000 8.08019000
-23.92740000 -126.56000000 51.80280000
-24.99950000 -128.83800000 50.96030000
-22.62640000 -129.26200000 52.29100000
-25.93560000 -123.85600000 50.71290000
-26.50350000 -126.63300000 49.95800000
-36.75080000 -184.58700000 52.80250000
-36.91120000 -186.25900000 50.09590000
-36.67570000 -186.38400000 54.03170000
-36.56920000 -187.54100000 55.90770000
-26.17790000 142.26700000 -43.06250000
-29.36660000 141.67600000 -41.26000000
-59.33850000 -25.35160000 -12.20390000
-58.05080000 -28.09510000 -12.03790000
-60.62830000 -25.20380000 -10.54530000
-27.96490000 -84.83690000 54.19910000
-26.09500000 -82.44190000 55.77470000
-23.68010000 -81.27010000 57.00960000
-23.10400000 -87.58020000 56.63050000
29.38230000 -149.74700000 51.41050000
-41.64710000 -129.53500000 17.12060000
-41.16820000 -135.57400000 16.45660000
1.67074000 188.64800000 17.96870000
-44.36440000 -54.87330000 -1.98380000
-44.78420000 -52.55050000 -1.54586000
-28.17020000 63.29480000 -23.22570000
29.17240000 -36.14040000 76.12550000
28.19910000 -32.72470000 76.45470000
27.21240000 -31.05620000 76.57050000
40.83020000 -47.94890000 75.71940000
39.96610000 -49.18400000 74.29860000
41.26730000 -50.17860000 73.93350000
39.39320000 -50.40570000 73.92640000
39.38500000 -52.49320000 73.73510000
-8.26462000 134.11900000 26.53400000
-18.57590000 62.57520000 -28.61690000
-22.35250000 64.30390000 -28.85990000
-19.99000000 64.84130000 -30.35150000
-22.10460000 61.48550000 -26.18070000
39.62630000 203.48600000 -23.81030000
39.38610000 204.71900000 -21.95370000
39.24840000 201.97500000 -22.99900000
39.29300000 199.40000000 -27.56750000
-31.76670000 -199.11800000 72.59960000
6.79327000 163.63800000 -54.41270000
10.20610000 186.10400000 18.02250000
11.81820000 186.39000000 17.44280000
12.64650000 185.04300000 17.56710000
2.43822000 -199.16300000 67.14330000
-25.35630000 150.33200000 9.56462000
-22.08090000 149.06700000 12.29710000
39.71480000 -82.55500000 73.77560000
38.46900000 -79.20120000 74.88310000
40.34730000 -78.71680000 74.58940000
24.60210000 -47.15400000 76.28600000
22.67540000 -44.67790000 76.15030000
20.80940000 -42.15770000 75.41580000
25.57370000 -42.00610000 76.90220000
14.96670000 184.95700000 15.34900000
12.89600000 185.94400000 17.24420000
9.84562000 205.96000000 17.19880000
8.98906000 206.32700000 17.83300000
43.39250000 -40.91730000 76.32540000
41.90240000 -38.67620000 76.35630000
41.21430000 -43.40310000 77.75960000
43.49050000 -39.51970000 75.82300000
47.29090000 44.52790000 -10.16730000
48.42600000 40.94390000 -8.45285000
23.30580000 136.23400000 16.34510000
23.76510000 136.39100000 15.92080000
22.75290000 136.65000000 16.43370000
27.28560000 -146.05700000 -5.61133000
26.55570000 -159.55900000 -6.77432000
-4.87404000 -114.36600000 56.49360000
-3.64168000 -127.56300000 55.55700000
8.65349000 -112.09500000 50.44950000
9.14356000 -107.63900000 46.39670000
8.46203000 -110.01600000 49.01370000
-7.90927000 -201.57800000 71.17010000
-3.68643000 -199.92400000 69.15600000
-8.55232000 -200.40000000 71.20360000
-15.19640000 -203.01600000 72.56250000
-10.39200000 -202.28500000 71.99620000
-22.42370000 -217.24600000 54.64930000
-49.81920000 -188.40300000 11.85570000
-49.67520000 -189.07600000 8.34001000
-50.41040000 -189.64400000 9.94935000
-51.31440000 -193.54800000 11.21900000
-50.91690000 -191.72600000 11.27540000
58.39460000 92.91470000 -40.84220000
56.92530000 94.12330000 -40.94150000
61.99070000 84.20670000 -38.49520000
65.41990000 79.53220000 -37.28770000
39.46840000 179.44000000 -23.19150000
39.25900000 178.89000000 -22.26660000
38.59310000 178.53300000 -25.74400000
37.83950000 178.01200000 -27.53550000
36.67430000 177.30800000 -29.74030000
35.93880000 177.71000000 -32.44920000
27.12630000 137.90900000 13.33350000
24.00300000 138.99100000 16.52640000
23.14530000 137.22100000 16.01370000
23.31000000 139.71500000 17.25660000
66.20300000 -179.25200000 20.19040000
55.12900000 -214.03300000 70.56830000
56.19310000 -214.88900000 69.67790000
57.68000000 -216.32200000 67.93010000
0.84203500 -61.98570000 -29.29300000
-13.26220000 9.10256000 -26.03200000
-5.70710000 8.71384000 -28.63360000
35.46570000 -213.23400000 71.35240000
35.46040000 -216.11300000 71.05030000
78.89860000 53.90140000 11.51790000
78.78080000 56.68300000 13.45680000
63.56920000 -157.72100000 9.20275000
63.94630000 -161.13900000 10.17290000
63.15860000 -155.90700000 2.13560000
63.07570000 -153.65200000 4.88650000
-42.44100000 -209.01600000 66.93610000
-40.00540000 -211.72100000 68.47340000
22.46740000 243.83700000 -49.37080000
24.50380000 143.30300000 -48.39600000
23.57140000 142.15800000 -49.03310000
38.15420000 225.12000000 -30.11460000
1.40128000 -199.33500000 -19.93080000
5.19646000 -200.85100000 -19.88960000
7.13496000 -203.48400000 -20.11550000
22.78010000 240.38100000 -50.83400000
21.66210000 237.86000000 -53.21760000
22.89610000 -147.32900000 65.21520000
23.41170000 -151.88500000 64.63690000
25.82060000 -148.18100000 65.41650000
19.82460000 -151.78700000 64.15610000
-30.75120000 -188.72600000 -26.43540000
-32.49320000 -188.51600000 -24.40410000
-34.46250000 -188.51300000 -22.01790000
-33.22640000 -187.84000000 -22.50060000
-57.06910000 -6.81847000 14.45510000
-59.71930000 -6.10303000 13.21170000
-58.98770000 -7.87877000 14.42660000
61.62470000 -152.96600000 -6.14082000
62.49190000 -155.38100000 -2.51625000
61.99720000 -157.65300000 -5.97318000
10.43900000 -140.57500000 1.57638000
9.84124000 -133.46900000 3.32671000
39.99280000 -219.22000000 -16.29580000
36.48540000 -220.21400000 -18.71600000
37.52120000 -220.16300000 -20.29930000
61.02570000 37.87540000 -1.72485000
-2.30246000 -112.52500000 -15.56030000
-1.74299000 -119.76100000 -16.10580000
-25.71190000 214.39300000 0.37307400
-26.78970000 213.49900000 0.41893000
-24.94770000 213.83400000 1.31747000
-25.33290000 215.91700000 0.03995300
26.67310000 -134.52700000 67.32670000
30.01670000 -131.52200000 67.68670000
21.52820000 -136.66500000 66.50470000
23.63570000 -139.29700000 66.29200000
-11.62290000 -176.34900000 -28.24450000
-30.26130000 7.34148000 -17.26960000
-30.49270000 2.71212000 -18.00660000
-32.87550000 4.22855000 -15.73130000
-24.51110000 10.89000000 -20.06290000
73.66010000 -218.19800000 -10.36640000
-11.98070000 109.16100000 39.68460000
-11.34460000 111.81700000 38.13690000
-12.82710000 111.97100000 37.92450000
-11.78700000 115.80500000 35.32270000
-9.05873000 210.10200000 -58.83400000
-8.33101000 208.44400000 -58.79850000
-26.07760000 217.75100000 0.28773500
-27.24290000 216.16500000 -0.42887600
-25.15160000 217.24400000 0.21048800
-27.89260000 214.18500000 -0.21399600
-32.02030000 153.68700000 -3.68914000
-32.72190000 153.00800000 -2.93395000
-38.60590000 -158.85100000 30.84210000
-38.87940000 -155.91100000 30.77010000
-38.08030000 -146.40000000 33.15000000
42.88520000 -212.91400000 -35.06280000
40.05490000 -214.30700000 -35.54370000
41.47660000 -210.60600000 -35.41320000
51.22800000 -140.46500000 15.18380000
51.63460000 -143.25100000 14.00820000
31.84780000 -184.32000000 68.93050000
29.82580000 -184.42500000 68.85800000
28.95860000 -183.30900000 66.33580000
28.03850000 -183.94200000 67.36660000
67.60670000 4.95680000 51.90180000
67.96390000 3.05357000 51.11710000
-8.63940000 -58.76970000 -29.97520000
-10.26290000 -51.24420000 -29.97420000
-11.69400000 -56.60260000 -29.72460000
39.06680000 -202.52500000 -35.12870000
41.61500000 -203.51300000 -35.07600000
36.09800000 -203.58200000 -35.72630000
41.30820000 -207.81800000 -35.65420000
38.73050000 -209.14500000 -35.85530000
36.31650000 -205.69200000 -36.24570000
52.82290000 -150.53800000 14.86750000
52.71190000 -152.67200000 14.74140000
52.66600000 -150.14300000 16.66280000
12.78010000 -197.95900000 64.93180000
12.39500000 -196.06200000 64.45660000
21.36520000 -198.72500000 66.95080000
14.47320000 -197.68900000 65.44600000
15.48790000 -198.41400000 65.78400000
-31.82750000 68.73230000 -25.21370000
59.59480000 -1.46227000 -9.45620000
59.66950000 2.58080000 -7.22207000
60.63410000 -1.46038000 -6.88160000
62.84540000 -8.65210000 -4.72433000
63.12010000 -12.34450000 -5.97520000
51.24100000 -114.33400000 -17.51490000
51.47610000 -118.90600000 -17.85820000
14.51130000 -192.61300000 63.75930000
14.00080000 -196.19100000 64.81870000
14.69060000 -194.33500000 64.80630000
43.02410000 -97.73160000 32.00770000
40.26000000 -97.31490000 28.61750000
40.96390000 -98.04460000 25.74830000
9.91959000 20.13770000 66.77960000
16.64520000 22.26430000 67.26560000
-14.29280000 118.91100000 33.04780000
-15.39730000 120.41600000 32.01420000
60.37260000 -98.71000000 59.51430000
59.52960000 -99.42490000 60.72350000
56.32690000 -97.74630000 63.27200000
-7.60919000 219.29200000 8.35367000
-8.06156000 220.72600000 10.51720000
40.18380000 32.85710000 -20.39620000
36.64890000 36.88310000 -20.75880000
-1.92764000 210.68800000 -63.65580000
-6.64610000 209.97300000 -61.31750000
-7.27742000 210.09700000 -59.84770000
28.25570000 -202.45800000 -35.35800000
-0.41275400 188.18100000 -62.16450000
0.72758700 190.09900000 -64.14060000
1.80311000 187.91100000 -61.75700000
60.49350000 -203.84300000 22.05460000
60.53370000 -203.61000000 19.51060000
61.03940000 -204.74200000 19.79870000
61.48450000 -184.89600000 57.77380000
51.75890000 -97.17730000 -14.79930000
-26.59370000 -185.42600000 -2.12425000
-26.04910000 -184.10000000 -2.13557000
-26.90890000 -184.22600000 -0.46438900
-5.33059000 210.35100000 -62.46690000
-3.74658000 210.33800000 -63.09690000
-5.30312000 208.13900000 -63.95740000
28.74670000 -209.80100000 -36.48550000
24.89510000 -208.58700000 -36.91900000
25.44170000 -206.43400000 -37.13960000
25.62200000 -204.35800000 -37.18100000
24.71110000 -204.52300000 -36.98160000
0.68121700 149.11200000 -51.41430000
3.20715000 147.24400000 -51.01640000
23.30750000 -206.48000000 -37.03610000
-9.16856000 249.27600000 1.02174000
40.54840000 182.80000000 -4.06031000
41.11840000 176.78300000 -2.77187000
40.86720000 175.76100000 -2.44706000
-36.92950000 34.65900000 -25.24110000
-35.70010000 38.00770000 -25.03460000
12.85890000 -192.56300000 -34.10630000
15.49720000 -194.22600000 -33.60830000
12.51760000 -195.55300000 -34.47110000
21.36230000 -191.92400000 -33.49700000
-30.71400000 229.26600000 -0.16345600
-28.90530000 230.07700000 2.58857000
-28.39510000 229.40700000 1.46961000
53.78520000 -109.31400000 63.88380000
55.86430000 -108.59000000 63.57970000
55.01250000 -108.89400000 64.78350000
70.17210000 28.29010000 20.58250000
69.61330000 26.89970000 20.35990000
70.89090000 20.93800000 22.76870000
70.76180000 23.23670000 21.43780000
70.87070000 23.54750000 23.65940000
19.16410000 -196.65000000 -32.82130000
15.99410000 -196.94100000 -33.79770000
17.86180000 -194.08800000 -32.63030000
20.23150000 -198.21000000 -33.06920000
13.27850000 -199.16900000 -34.62870000
43.30010000 208.73400000 -22.70060000
42.41380000 210.29700000 -21.87860000
41.25350000 207.34200000 -22.27380000
44.60960000 209.75100000 -23.55840000
-34.58000000 -90.80020000 10.74970000
-34.97050000 -92.31760000 11.52880000
19.45800000 -173.73000000 40.68900000
15.80880000 -177.02600000 39.65090000
17.05540000 -174.43300000 40.54310000
51.76280000 -120.72200000 24.69650000
51.79920000 -116.81000000 25.32590000
51.80600000 -115.25400000 25.81070000
63.38920000 68.92340000 40.90100000
63.35710000 67.81670000 41.53970000
61.22930000 -206.36500000 17.08180000
60.93010000 -204.22600000 17.82570000
61.17900000 -208.99600000 18.65130000
-32.11930000 -206.89700000 40.42610000
-33.61980000 -208.41800000 39.06870000
-33.46170000 -209.96000000 40.33810000
-35.01350000 -210.69900000 37.45220000
70.83690000 22.80240000 28.54980000
71.04620000 17.84270000 31.23220000
70.82870000 25.60690000 24.06580000
70.86390000 24.52290000 25.45140000
-27.50380000 229.42300000 1.58502000
-26.76900000 228.22300000 2.35981000
-26.65930000 226.66100000 2.59146000
-24.69090000 227.19200000 4.55106000
50.32780000 82.14380000 -32.40290000
51.61630000 83.87730000 -33.08260000
46.26490000 80.98110000 -35.02600000
45.36200000 83.90060000 -37.38630000
-12.69120000 -205.88400000 73.71580000
-13.11850000 -203.61000000 72.40740000
42.11220000 -124.20700000 68.72050000
41.37310000 -126.80000000 68.06900000
41.66290000 -129.13800000 67.63490000
43.74550000 -128.86100000 68.38940000
29.70220000 -197.87500000 -15.36480000
26.09990000 -197.02700000 -15.84310000
-35.38700000 -213.41100000 9.93027000
-58.75420000 -28.93030000 -6.30831000
-61.26760000 -26.96470000 -3.95532000
-62.60710000 -25.83640000 -1.80347000
6.87181000 -202.89300000 53.23440000
10.90560000 -202.57900000 53.08820000
4.06686000 -201.29200000 52.78190000
-27.81750000 94.96490000 38.85540000
-29.37230000 95.67480000 37.21370000
-30.16360000 94.39310000 36.63820000
-30.49170000 90.91410000 37.40240000
-19.94370000 -64.04500000 60.75110000
-13.31940000 -64.26110000 62.37900000
14.97180000 209.19000000 -55.24440000
13.85370000 211.29900000 -56.52320000
57.37580000 -190.85200000 4.63825000
57.01930000 -190.96100000 6.14678000
-66.51500000 52.65480000 -23.84020000
-64.95090000 58.78250000 -25.58060000
-66.14130000 50.41530000 -24.65060000
16.51560000 53.45290000 -27.00410000
20.96830000 54.33870000 -26.90790000
27.76790000 54.55640000 -25.32390000
23.71290000 54.03780000 -26.16950000
24.03210000 55.27090000 -26.85090000
-19.61200000 -200.50500000 -34.13610000
-19.77030000 -195.56000000 -34.16620000
-20.11670000 -197.10600000 -33.95090000
53.35760000 -104.06800000 35.27960000
55.29180000 -193.43200000 24.89130000
56.25730000 -195.37300000 24.97300000
55.74430000 -194.44000000 23.27330000
55.41780000 -193.69700000 21.70680000
-39.42260000 -195.46200000 66.05230000
-39.38900000 -194.23500000 66.11900000
73.77150000 -202.89100000 -8.50150000
72.44390000 -203.79900000 -12.72050000
53.72930000 -112.59000000 38.06000000
53.36540000 -116.18600000 37.90080000
53.44220000 -116.55400000 34.66290000
4.38889000 -60.90980000 70.87900000
-0.52000300 -62.56760000 69.96230000
-23.14460000 -156.49000000 18.99230000
-23.37450000 -152.14000000 21.71870000
-22.57850000 -153.60100000 25.20470000
-22.83150000 -154.63400000 21.40190000
50.97960000 -99.71500000 35.74740000
51.02040000 -100.92500000 33.22590000
34.31960000 131.99400000 -45.54120000
40.23640000 -132.54000000 67.42120000
39.63320000 -127.32100000 68.11250000
16.20200000 144.63000000 19.37570000
15.93610000 147.04700000 18.94650000
74.03810000 -196.31900000 42.77420000
74.51050000 -197.65600000 41.06090000
74.52230000 -196.10400000 39.02300000
-43.70620000 97.45260000 18.32710000
66.63070000 -19.71490000 13.56090000
67.27230000 -26.38110000 11.85540000
67.38240000 -28.55280000 9.97221000
59.60100000 148.26900000 -25.22120000
54.82870000 149.47400000 -25.39000000
57.75040000 148.91100000 -23.07250000
55.02990000 149.25500000 -21.65130000
73.75350000 -190.91200000 37.96680000
73.72500000 -190.17200000 35.06100000
74.15960000 -193.60500000 38.43670000
74.34960000 -194.56100000 37.93520000
-62.59650000 25.07430000 6.53607000
-59.27220000 25.66380000 8.75158000
-61.28010000 26.17450000 7.37161000
-61.19190000 22.29520000 8.00279000
-23.38410000 -153.82500000 19.12660000
-22.80820000 -155.07900000 18.56680000
-22.93950000 -154.60900000 19.68030000
16.11770000 206.60400000 -54.20350000
18.11460000 205.35500000 -52.75970000
16.46750000 210.30200000 -54.64400000
18.06220000 209.01800000 -53.17860000
-51.56470000 -197.16500000 -3.45147000
-52.18330000 -200.11400000 -2.73874000
-2.80553000 -119.23900000 62.74440000
-1.68614000 -121.23300000 62.93340000
-1.81267000 -116.78300000 63.52150000
-4.15165000 -106.11000000 63.06970000
18.22290000 156.05600000 -48.74050000
20.37370000 157.48100000 -47.34970000
-49.81120000 -189.22200000 16.77990000
-49.72240000 -188.86000000 14.19030000
-48.48770000 -54.17070000 17.18830000
-48.19590000 -54.78590000 15.03630000
-48.12970000 -54.66390000 18.81280000
-48.52230000 -53.88950000 18.97620000
-48.54030000 -54.21680000 22.63640000
-3.05151000 -126.82100000 57.63220000
-2.90791000 -126.56100000 58.95000000
-53.31480000 -204.18100000 35.01170000
-53.31540000 -205.01100000 38.53590000
-29.41560000 201.53500000 -43.72040000
-26.65620000 209.95300000 -47.60510000
-28.76120000 205.70300000 -45.59640000
-28.68620000 208.39300000 -45.31620000
-12.72990000 -198.32800000 -35.64190000
-17.26990000 -199.43600000 -34.75880000
-52.53010000 -203.04600000 26.50270000
-52.36120000 -200.59500000 23.00600000
51.51750000 -82.08610000 70.00020000
49.24230000 -79.83510000 71.49250000
50.49000000 -79.54220000 71.13420000
49.23010000 -77.63380000 71.33410000
-11.51480000 -175.11900000 32.40640000
-12.19160000 -177.61200000 32.45520000
-53.04480000 73.04790000 -32.21050000
-54.14400000 73.70040000 -33.80830000
-51.46650000 73.55280000 -32.07200000
-53.55410000 70.04280000 -31.67550000
-54.57010000 70.66450000 -31.62290000
55.72330000 -18.89540000 65.16340000
57.10330000 -17.35930000 63.56640000
57.87970000 -18.64390000 62.93950000
-45.66110000 -221.14800000 33.80200000
-44.40480000 -221.36200000 29.35660000
-52.50770000 -204.68400000 13.96380000
-53.72030000 -206.64400000 6.52435000
-53.83950000 -207.92800000 7.44031000
57.82950000 -119.51100000 60.46510000
57.20040000 -121.86000000 58.89450000
-12.57420000 119.33700000 -45.97410000
-11.91000000 116.98500000 -46.07540000
-5.55148000 117.77200000 -46.74030000
-6.26229000 120.27900000 -46.61230000
-0.21440600 116.69000000 -47.03630000
39.65450000 120.87000000 -46.20360000
42.17330000 120.69200000 -45.60510000
35.45280000 121.91100000 -46.82050000
-53.70040000 -207.79100000 28.99090000
-53.39420000 -206.52900000 16.96060000
-53.55080000 -206.47700000 13.54110000
-29.61270000 119.25500000 -41.68130000
-33.73500000 115.77500000 -40.49450000
14.97870000 118.00800000 -48.36960000
10.07390000 121.47500000 -47.86580000
7.94402000 118.91100000 -47.67530000
2.47191000 119.33300000 -47.24530000
2.99048000 123.59900000 -47.11000000
-34.78360000 -212.72100000 6.34423000
-35.22520000 -211.39600000 6.83249000
-35.14360000 -211.66400000 1.97867000
-71.20210000 63.79630000 -22.02310000
-71.82340000 62.50770000 -19.08120000
84.62480000 46.24200000 -6.17419000
10.48080000 132.12500000 -46.99540000
6.14658000 131.78000000 -47.34360000
6.34959000 131.05400000 -46.89960000
32.25770000 -215.18300000 -16.72440000
36.92320000 -216.57200000 -15.59520000
6.69012000 -148.11500000 49.01420000
-26.65200000 118.65400000 -42.74270000
-32.56170000 114.73200000 -41.09310000
56.09080000 26.26370000 60.24400000
66.95330000 28.36150000 50.90770000
-22.93760000 -59.70740000 -19.06240000
-26.80050000 -59.28640000 -19.87310000
-28.24700000 -59.44100000 -19.16260000
-25.76190000 216.30900000 -52.46480000
56.17830000 -105.85900000 -9.53991000
57.23270000 -107.82800000 -7.08122000
84.71150000 46.59140000 -2.87132000
84.39580000 45.62480000 -5.16676000
82.47740000 44.77530000 -3.45667000
46.19510000 -189.32200000 37.07020000
-11.07370000 229.09000000 -61.48320000
-12.26990000 227.94900000 -60.94250000
69.62150000 -120.15400000 39.09420000
70.05540000 -118.83300000 38.02170000
69.55390000 -114.76200000 41.00470000
-50.66800000 -187.62800000 32.42620000
-50.41550000 -187.89000000 28.67210000
-51.04640000 -188.97500000 29.32840000
-50.80650000 -191.25400000 24.52620000
-51.00990000 -190.95400000 26.47230000
39.50820000 -53.93670000 74.76870000
79.59000000 43.92880000 -1.70988000
79.86240000 43.13870000 -4.26687000
-16.40690000 -154.65000000 34.14230000
-15.27120000 -156.42700000 34.85740000
-19.36070000 -152.06600000 31.03700000
-17.60820000 -152.95900000 33.16920000
36.53480000 -150.22700000 65.87950000
35.71220000 -154.47300000 65.34880000
38.93450000 -152.36300000 65.66760000
37.63320000 -162.00800000 64.71330000
17.34030000 185.66000000 11.29260000
15.73480000 186.67000000 11.60030000
14.97210000 187.20100000 12.48820000
40.57320000 36.87420000 -17.69540000
42.67430000 38.65410000 -15.59250000
43.91930000 37.05290000 -14.39820000
44.70940000 37.89670000 -12.90150000
58.30880000 -153.33000000 -14.64850000
59.03110000 -155.92300000 -13.56000000
56.63670000 -152.04100000 -16.91960000
58.43160000 -149.35500000 -14.40710000
54.53750000 -179.06600000 18.24610000
-9.24915000 -132.82400000 49.61370000
-3.41945000 -135.60800000 50.67700000
30.04780000 -217.86900000 68.60840000
34.51730000 -218.51400000 69.43780000
33.81790000 -217.16400000 70.12120000
40.65740000 144.08200000 0.70764200
44.47280000 143.36900000 -0.48091300
58.20300000 -134.43900000 -11.20520000
57.84000000 -138.11600000 -12.67150000
56.13420000 -148.73100000 -17.26180000
-10.36420000 -130.21700000 49.88110000
-4.51509000 -125.17500000 50.46910000
-6.61869000 -130.82300000 50.45670000
77.53210000 -205.63500000 36.73860000
77.11570000 -210.79100000 37.14720000
64.91160000 -180.62400000 31.47740000
67.25740000 -181.29300000 31.93190000
-8.69381000 251.93700000 -52.04140000
-8.47170000 255.22400000 -47.81990000
-7.61541000 254.87100000 -48.71740000
-7.60180000 257.29700000 -44.68300000
-10.93800000 -84.81480000 59.82230000
-15.34160000 -89.62490000 58.88340000
-9.10815000 242.13300000 -58.05490000
-8.33481000 245.92000000 -56.61300000
-7.59834000 252.70000000 -51.45740000
-7.90052000 249.75800000 -54.22330000
-39.34760000 -184.95900000 37.22440000
-38.22390000 -184.82600000 38.37540000
-9.75074000 234.60200000 -60.97170000
-10.76230000 230.76000000 -61.34020000
-7.71066000 243.67800000 -58.11910000
26.79070000 -110.87600000 -0.35588200
28.48630000 -109.17800000 1.46690000
20.89100000 -111.17600000 -1.92931000
19.34350000 -109.08900000 -0.06085900
18.53980000 -182.18200000 61.57750000
19.95450000 -181.03200000 60.91080000
15.45090000 -183.02300000 62.40960000
-48.84160000 141.78400000 -26.78340000
-51.88200000 141.84900000 -24.63690000
-45.10430000 142.21000000 -28.12620000
61.80280000 -140.93000000 10.87000000
61.59340000 -138.55900000 6.92369000
61.29870000 -134.64500000 17.76560000
60.84680000 -135.25900000 16.66480000
60.75260000 -132.39600000 16.43890000
16.31330000 174.98800000 -52.66110000
13.32560000 176.50900000 -53.91710000
11.34100000 183.16000000 -55.15440000
9.33885000 180.12400000 -55.51480000
7.58863000 184.95700000 -56.41320000
21.24070000 -181.79200000 60.54500000
61.78160000 51.60290000 -26.71030000
61.40560000 53.49180000 -27.08770000
58.26210000 56.53250000 -27.34830000
55.89290000 61.22600000 -28.09640000
62.67020000 -150.34000000 3.65553000
62.75130000 -149.48700000 7.66484000
62.99240000 -151.44300000 10.70090000
62.68110000 -149.24100000 11.12880000
-1.79220000 73.64670000 48.59770000
-3.11891000 72.02210000 47.77270000
-1.39896000 72.56480000 48.89380000
40.88540000 154.21600000 -26.65670000
35.65680000 -56.93880000 -33.49380000
34.85670000 -57.67710000 -32.94200000
30.33640000 -172.36300000 -29.26900000
27.98420000 -171.91800000 -28.69570000
-49.57450000 -23.60000000 40.26060000
-50.25880000 -22.57000000 40.42810000
37.93720000 -59.28270000 -31.54870000
40.16840000 -59.92410000 -30.93830000
41.24660000 -61.89240000 -30.67000000
22.21810000 -110.01800000 -0.66798500
26.37610000 -113.40600000 -2.92169000
-46.72320000 -58.83240000 28.96990000
-47.76660000 -54.75100000 26.36290000
-47.04390000 -56.01050000 26.09720000
76.50410000 -217.82000000 41.10400000
76.78850000 -216.79400000 37.85450000
55.84280000 32.93620000 8.87773000
54.52740000 36.34400000 3.97526000
48.30900000 -138.54700000 26.13780000
32.04830000 -218.82000000 57.09730000
30.20690000 -219.40900000 58.96400000
28.92140000 -219.29500000 56.59060000
48.92800000 -151.47500000 38.04360000
49.36420000 -152.36200000 37.00980000
48.97610000 -153.21600000 37.77540000
47.86310000 -153.91300000 40.44890000
48.27560000 -153.20100000 39.58970000
48.15380000 -155.82200000 39.14840000
-6.36984000 193.75800000 -59.44940000
-8.20742000 192.75300000 -57.33350000
-38.67910000 -166.26600000 16.46720000
-38.37310000 -166.20000000 19.48900000
48.72870000 -152.48600000 38.32070000
48.78640000 -149.68400000 39.14430000
49.43540000 -150.06500000 37.58580000
51.73920000 90.33060000 -36.15960000
67.40770000 -209.58200000 -22.65960000
68.01050000 -211.67500000 -22.24280000
69.56480000 -209.90500000 -19.18910000
7.92183000 -73.43810000 70.67940000
8.63686000 -67.29950000 71.27760000
4.88748000 -72.86860000 70.07110000
13.06060000 -75.41720000 71.64300000
17.40700000 -72.15250000 72.92150000
14.01150000 -68.59820000 72.43100000
48.74270000 -37.77170000 73.30500000
47.75800000 -37.73810000 73.98930000
-50.82880000 -190.83800000 47.21180000
-49.97770000 -190.04100000 47.12170000
-50.49090000 -189.70100000 45.22990000
-48.47820000 -189.22800000 46.41500000
-71.54610000 23.02860000 -8.22249000
-71.35160000 25.15070000 -6.67885000
-71.50120000 24.16770000 -10.04920000
46.03330000 -34.43930000 73.80460000
46.02380000 -35.63260000 74.51360000
47.46390000 -33.15100000 73.67110000
47.81350000 -31.74000000 74.26340000
42.03870000 182.61500000 -21.19220000
42.80320000 184.88100000 -17.18510000
68.45350000 83.37270000 17.99810000
40.17270000 -172.08800000 38.52010000
39.33670000 -169.78000000 39.48560000
61.27860000 -114.76400000 57.67460000
-67.06760000 37.98850000 -21.84060000
-0.80291800 125.27100000 30.85010000
-2.32191000 123.68100000 31.28780000
-0.82872300 119.65600000 33.40140000
42.59860000 188.75000000 -11.08600000
42.63610000 188.27000000 -13.35640000
42.83780000 186.08000000 -12.61560000
18.19740000 -183.71700000 61.04890000
17.72250000 -184.91000000 61.33630000
16.30890000 -187.31200000 62.08200000
15.82030000 -190.32000000 63.01780000
17.41700000 -187.33100000 62.32230000
-18.55990000 -149.42600000 -22.97570000
-19.21550000 -157.64200000 -24.41000000
-18.00450000 -151.29900000 -23.46580000
62.20610000 134.25500000 -40.79700000
66.06130000 131.63300000 -39.72520000
-4.40329000 123.92600000 31.33990000
30.06900000 86.51780000 46.06240000
28.49980000 81.00370000 49.80400000
8.13140000 8.10048000 -32.10980000
10.28390000 19.09800000 -30.78740000
13.90420000 -1.59522000 -33.61520000
9.71641000 2.56254000 -32.81290000
62.99610000 134.97700000 -40.10270000
64.44000000 136.25500000 -38.78620000
68.07710000 133.86500000 -37.02150000
48.05700000 -145.06400000 42.39350000
48.56370000 -147.88100000 40.54520000
48.36210000 -151.10400000 39.19390000
-46.56710000 21.58780000 10.56680000
-46.44230000 24.74020000 10.81030000
3.13907000 -188.76100000 67.53750000
-3.39125000 -190.48200000 70.40330000
-1.74282000 -188.93000000 69.61680000
71.30060000 12.65120000 19.94200000
71.08890000 20.14230000 25.31530000
71.17100000 18.31710000 23.57750000
-22.60500000 -172.48100000 15.11230000
71.31560000 51.82070000 -26.05120000
38.06440000 163.89200000 -16.12730000
38.86120000 163.85000000 -14.44680000
39.11100000 163.20600000 -19.08210000
39.10870000 159.06700000 -13.59970000
38.86520000 161.35900000 -13.41320000
38.84830000 160.87700000 -12.15680000
-23.41300000 -175.32000000 15.02470000
30.90910000 86.56690000 45.88820000
31.67130000 88.44530000 44.40550000
-26.01040000 -24.95120000 -23.48610000
-23.49830000 -16.52750000 -24.25860000
-26.28430000 -166.65100000 10.86100000
-19.17890000 -173.64900000 -10.44540000
-20.61330000 -173.90000000 -9.43131000
-20.09260000 -175.79500000 -10.12910000
-19.99070000 -181.22000000 -11.72500000
60.43000000 -87.65780000 12.72330000
60.30280000 -83.52380000 9.65308000
60.78320000 -82.83500000 11.54610000
-28.60310000 -207.14100000 74.36490000
-26.30020000 -205.75700000 74.83510000
-27.80890000 -203.53200000 74.53690000
-28.02060000 -187.27200000 10.55960000
-28.11160000 -186.27700000 7.60134000
-28.03480000 -183.91400000 8.17487000
-27.20370000 -183.49300000 1.50474000
-27.93300000 -184.01100000 4.92114000
37.20760000 -104.61900000 49.14210000
57.40910000 -199.18600000 6.06537000
56.26220000 -206.32700000 -1.08136000
55.52700000 -203.62500000 -2.44576000
55.02420000 -206.40900000 -4.36795000
-8.59707000 -166.91700000 -26.06710000
61.72780000 -80.64210000 6.47935000
62.51470000 -77.92930000 4.17306000
63.35240000 -74.93230000 4.60779000
62.82280000 -77.08650000 6.03932000
-27.43440000 -186.67100000 17.45870000
-27.05140000 -185.40000000 18.86610000
-27.40260000 -184.49600000 14.89570000
53.00160000 -7.98968000 -21.24520000
48.70420000 2.50130000 -23.45630000
51.99460000 -169.00100000 12.75820000
53.30820000 -173.04200000 10.42770000
52.31860000 -170.07500000 14.37480000
52.47030000 -168.12000000 10.80070000
52.43690000 -169.93500000 11.15510000
-28.39830000 172.49700000 0.88208200
-27.97120000 174.66700000 1.73784000
-28.72990000 175.91200000 1.84231000
-28.75260000 184.70000000 1.73610000
-28.49760000 179.68000000 2.13034000
-51.51220000 -207.27800000 -10.38020000
-51.64700000 -203.90600000 -8.22204000
63.10140000 33.99100000 50.87400000
62.03800000 34.50680000 51.59230000
-32.09900000 -81.25720000 51.02960000
21.36780000 -140.37700000 54.43530000
26.43050000 -136.04200000 55.50970000
29.64340000 -128.83000000 56.01530000
28.62930000 -131.17900000 56.04970000
33.10260000 135.93500000 11.86580000
28.15530000 135.98100000 14.15970000
32.25350000 28.55890000 67.80010000
33.25150000 30.77510000 67.15130000
30.74360000 -126.83300000 55.73350000
-3.20484000 79.07990000 48.30600000
-45.76510000 -3.42977000 -20.57090000
-47.99010000 0.42026400 -21.84100000
-35.91110000 179.08400000 -33.85170000
29.17390000 154.64400000 6.11983000
27.02620000 154.49900000 8.08240000
26.30720000 151.63400000 9.10911000
59.79380000 24.81830000 16.23640000
60.28510000 22.86180000 16.45990000
59.11040000 24.14380000 15.58710000
59.99580000 21.99250000 16.42170000
7.14302000 -219.63800000 -35.15510000
-0.83829000 -34.78020000 71.02720000
-0.06470700 -39.95430000 71.26140000
34.03270000 152.95600000 1.27608000
28.58320000 152.22500000 7.27670000
11.19200000 -109.43000000 69.80370000
61.80270000 -188.10100000 -27.16880000
59.99430000 -188.31800000 -28.95550000
41.24340000 -188.75800000 69.81160000
41.32220000 -191.59000000 69.15540000
39.22370000 -189.29700000 69.42790000
50.91720000 -210.68600000 -9.76157000
41.00060000 183.45200000 -13.12760000
42.45160000 185.23400000 -11.69310000
41.08390000 184.82500000 -11.14340000
41.20120000 179.58400000 -10.48060000
12.14040000 168.75600000 -53.69270000
15.22000000 167.37600000 -52.38730000
10.44860000 170.56800000 -54.17930000
61.85030000 -218.69700000 -26.50250000
61.67770000 -217.90000000 -27.25260000
-2.15531000 -183.66100000 61.94460000
-2.96855000 -184.46600000 63.49640000
6.28557000 95.72220000 45.75340000
7.60754000 89.94570000 47.23710000
8.47594000 90.39180000 47.09220000
-61.91680000 67.87350000 -31.06460000
-61.53010000 66.60920000 -31.11300000
-62.83460000 67.67820000 -30.39340000
-54.46130000 75.07350000 -34.15480000
-57.82160000 71.93970000 -33.11540000
41.77500000 -46.27640000 76.97660000
42.60050000 -42.88860000 77.23050000
43.51260000 -44.31800000 76.79830000
-17.01200000 -155.48000000 53.02680000
-12.69620000 -152.29500000 53.24360000
82.69610000 78.43430000 -3.19808000
79.29230000 82.28540000 0.80766500
66.21470000 22.96830000 18.70850000
68.13050000 25.33690000 19.69120000
-40.60760000 63.91420000 9.17076000
-39.00130000 63.94060000 9.57404000
82.59320000 80.80280000 -5.52119000
84.05840000 77.49670000 -7.59987000
83.62670000 76.83480000 -4.49884000
54.10300000 -171.94600000 5.14914000
54.27000000 -175.09100000 3.84338000
-35.53210000 -201.52100000 -26.56510000
-31.97880000 -202.49800000 -28.93560000
-36.95860000 -203.58300000 -25.83980000
-30.46570000 -200.70500000 -29.72880000
-30.77880000 -199.19400000 -29.51850000
-28.80280000 -199.08000000 -30.55920000
-67.93540000 -22.30820000 18.04370000
-67.13240000 -19.54640000 14.66200000
82.45150000 68.78690000 -7.66491000
82.02130000 70.25680000 -7.29125000
81.88020000 71.45770000 -7.99162000
-8.56943000 -156.03300000 52.15400000
-7.07547000 -155.59400000 51.58880000
-7.85436000 -154.59500000 52.28560000
-8.65450000 -152.51400000 52.95450000
-17.14570000 229.80700000 8.84626000
-39.95760000 -151.42000000 19.70820000
-40.15490000 -149.31500000 18.98490000
-50.63560000 -221.53500000 -9.84932000
-48.06270000 -221.07100000 -15.93830000
-47.91480000 -221.78600000 -13.74640000
-48.97420000 -217.75400000 -17.02480000
-48.46990000 -219.85400000 -17.18740000
-49.66690000 -219.28600000 -15.58740000
53.88470000 -219.89500000 -24.71670000
51.06920000 -219.87000000 -26.18110000
50.86060000 -219.96300000 -28.48130000
66.58320000 -52.99310000 55.88000000
63.14820000 -52.26220000 60.30970000
-57.00290000 136.88500000 -26.39240000
-56.21460000 132.46500000 -29.91000000
-57.75070000 133.50500000 -28.19680000
60.47290000 -219.56600000 -26.05720000
