-2.46775000 -4.79163000 0.70469100
-2.52378000 -4.79108000 0.59508800
-0.92980400 2.88000000 0.84973700
-0.92106700 2.93688000 0.88019500
-1.05052000 2.85309000 0.81205900
-0.55753500 3.11432000 0.96775000
-0.55930100 3.18137000 1.00382000
-0.66925300 3.16184000 1.00038000
1.65590000 -7.26633000 -0.67746500
1.74368000 -7.28144000 -0.36720700
1.65154000 8.47445000 -0.24692600
1.62314000 8.47089000 -0.37058300
1.55606000 8.72816000 0.01561840
1.57900000 8.71865000 0.05793160
1.60906000 8.67624000 0.01784050
-0.98728900 4.79253000 -1.00097000
-0.67902100 4.69059000 -1.19508000
-0.74310200 4.66746000 -1.17172000
-0.78337100 4.78422000 -1.16290000
0.09585270 -7.14429000 -1.17935000
-0.62584500 -6.94999000 -1.12737000
-0.45352200 -7.11515000 -1.14075000
-0.43997100 -6.96402000 -1.13931000
1.90000000 9.78056000 -1.47908000
1.82681000 9.89263000 -1.42806000
1.83127000 9.85551000 -1.33649000
1.68384000 9.79045000 -1.11963000
1.69177000 9.91206000 -1.19158000
1.61245000 9.87531000 -1.11209000
2.18139000 -8.20666000 1.83567000
2.30489000 -8.26033000 1.74532000
2.14573000 -8.03242000 1.70768000
2.36227000 -8.73493000 1.93841000
2.45849000 -8.90450000 1.87059000
2.74764000 -9.50867000 -0.82780600
2.83334000 -9.91173000 -0.96221000
2.78607000 -9.94495000 -0.83352800
2.80827000 -9.93627000 -1.08287000
-1.84022000 6.11967000 -0.17788600
-1.78702000 6.05126000 -0.08296920
-1.82528000 5.98950000 -0.13240700
-1.74797000 5.97873000 -0.07333490
-1.15764000 -1.73508000 -1.24303000
-1.13022000 -2.12790000 -1.22106000
-1.11060000 -0.84972300 -1.19477000
-1.05513000 -0.66681900 -1.14301000
-1.06690000 -1.03134000 -1.17039000
-0.46430600 -6.92144000 -1.35038000
1.09398000 -6.98356000 -1.37501000
2.57383000 -9.39534000 -1.61090000
2.64640000 -9.32097000 -1.49033000
2.65556000 -9.69594000 -1.54529000
2.73154000 -9.54480000 -1.37346000
2.74654000 -9.75264000 -1.35277000
1.64937000 -7.22198000 -0.82606700
1.67482000 -7.25867000 -0.31447100
1.89398000 3.98900000 -0.18137900
1.81440000 4.32625000 -0.30527400
2.02524000 -9.34437000 -1.47645000
1.79255000 -9.34374000 -1.46175000
1.49359000 9.51559000 -0.94204600
1.40870000 9.33176000 -0.90863100
1.45323000 9.39215000 -0.88453100
1.56575000 9.62848000 -0.94194000
1.62630000 9.69746000 -0.97949000
-1.40258000 -7.14529000 -0.94774100
-1.36841000 -7.07943000 -0.93466300
-1.40520000 -7.06644000 -0.88023400
-0.57322800 7.26121000 -1.27712000
2.25802000 2.35192000 -1.08994000
2.43990000 2.42683000 -0.82020300
2.45283000 2.03512000 -0.82823300
2.43001000 2.11078000 -0.77977200
2.48528000 2.04270000 -0.78916700
1.28302000 9.30580000 -0.89498700
1.27394000 9.06527000 -0.90096900
1.28711000 1.40271000 1.96400000
1.22562000 1.25331000 1.84180000
1.45580000 1.63334000 1.88842000
1.29309000 1.56183000 1.92963000
1.42319000 1.82177000 1.80213000
-0.19390100 -7.56060000 -1.17028000
-0.26225600 -7.51222000 -1.18148000
0.50931000 4.54171000 0.63752900
0.52459400 4.46690000 0.74648700
0.31407800 4.43865000 0.72620100
0.39475800 4.40721000 0.81226800
-0.42033700 8.21267000 -1.47628000
-1.57437000 -9.50261000 2.34421000
-0.90413300 5.53345000 0.82517700
-0.52942300 5.62544000 1.09304000
-0.51561400 5.44415000 1.07183000
-0.27557100 5.49862000 1.20347000
0.91846900 4.59977000 0.45427600
0.81521400 4.56106000 0.56258200
0.56531500 4.52003000 0.64093000
-2.03414000 -8.11926000 0.69190100
-2.09297000 -8.11882000 0.28971200
-1.97997000 -8.03801000 0.68510800
-1.85379000 -7.58095000 1.75999000
-1.95266000 -7.56993000 1.52948000
-1.98810000 -7.79029000 1.65400000
-1.90211000 -7.66634000 1.80535000
2.19659000 0.30657300 0.22161800
2.18850000 0.36703000 0.21603600
2.21061000 0.35858300 0.27006400
-1.38050000 -5.75438000 0.53690500
-1.42507000 -5.59920000 0.61366800
-1.52856000 -6.43684000 0.56967700
-1.48694000 -6.44977000 0.50992600
-1.53942000 -6.51079000 0.51629200
0.25921800 -5.65781000 1.05145000
0.26809700 -5.76847000 1.06760000
0.13554400 -5.77497000 1.06731000
0.85878600 -5.71955000 0.83976700
0.78431100 -5.84997000 0.92267000
0.75939900 -5.56930000 0.89892300
-1.06186000 9.29134000 -1.97933000
-0.95805100 9.13723000 -1.95136000
-0.91988000 8.99195000 -1.84444000
-1.13078000 9.42139000 -2.00666000
-1.17537000 9.65626000 -1.97791000
-1.15047000 9.59594000 -2.01696000
1.05728000 8.88197000 0.92409100
1.22475000 8.83802000 0.84872400
1.20858000 8.89706000 0.80782100
1.23587000 8.78753000 0.86546900
1.30219000 8.74270000 0.81142500
1.32176000 8.80252000 0.77310000
2.34928000 3.37877000 -0.11881900
2.45064000 3.59814000 -0.43950200
2.34925000 3.88986000 -0.40293200
2.39627000 3.66124000 -0.29493300
1.15558000 7.92749000 -1.87744000
1.15423000 7.97144000 -1.92482000
1.11412000 7.82583000 -1.89343000
1.07347000 7.91288000 -1.78137000
1.99303000 1.80211000 1.75684000
1.46415000 1.79139000 1.81606000
1.48781000 1.72730000 1.81513000
1.54988000 1.81663000 1.75855000
-0.94606500 -8.30497000 1.77019000
-1.21199000 -8.22772000 1.75942000
-0.88305300 -8.22298000 1.75327000
-0.62595100 -8.37198000 1.80669000
-0.35459700 -8.33372000 1.80691000
-0.57083400 -8.40264000 1.87851000
-2.03915000 -3.06173000 0.10245600
-2.04136000 -3.02434000 0.22273000
-1.96496000 -2.73392000 0.14742000
-1.98768000 -2.41782000 0.13514500
-1.92629000 -2.33584000 0.16693100
-1.98816000 -2.22505000 0.16309900
1.54875000 -7.23925000 -1.29189000
1.29262000 -7.27759000 -1.34664000
0.76087100 -7.32261000 -1.38336000
0.76382700 -7.26911000 -1.43079000
0.88847500 -7.29032000 -1.39468000
2.31841000 3.71249000 -0.24978300
2.16218000 3.97415000 -0.37801000
2.23815000 3.63376000 -0.23274200
2.17374000 3.79598000 -0.27262800
2.12465000 3.86184000 -0.24567000
2.14767000 3.67248000 -0.16052500
-0.20776500 3.08337000 -1.35691000
-0.49543200 2.83463000 -1.30342000
-0.42334700 2.58427000 -1.28568000
0.25581200 2.51723000 -1.30734000
0.21804500 2.27499000 -1.33589000
-0.13930300 -7.41083000 -1.15583000
-0.04238720 -7.43778000 -1.16233000
-0.07780260 -7.39911000 -1.13268000
0.75614700 5.38682000 1.00918000
0.76141200 5.28582000 0.94510900
0.93289500 5.50774000 0.95916600
2.26608000 0.49445700 -0.02888450
1.55060000 8.37130000 0.57674700
1.59644000 8.41974000 0.57007600
1.63636000 8.12504000 0.44713500
-0.20129200 6.32887000 1.30269000
-0.36002200 6.28464000 1.25540000
-0.30816900 6.23506000 1.26568000
-0.17674500 5.64776000 1.24450000
-0.23430200 5.82741000 1.19461000
1.55672000 -6.66099000 0.05234500
1.55069000 -6.38084000 -0.26980300
1.57624000 -6.51843000 -0.32938500
1.50267000 -6.39384000 -0.32538800
0.56064500 -6.04778000 -1.07922000
1.44323000 -1.02510000 -0.99992600
1.44676000 -2.24587000 -1.02600000
1.25685000 -1.59096000 -1.15777000
1.39763000 -3.16951000 -1.12125000
-1.08311000 9.44590000 -1.44056000
-1.09194000 9.41472000 -1.48038000
-1.09033000 9.41288000 -1.45474000
-1.77062000 -0.76529600 0.79473900
-1.72541000 -0.77351200 0.73083200
-1.78413000 -0.95348000 0.78936100
-1.87302000 4.78192000 -0.13737900
-1.83075000 4.91306000 -0.16828700
-1.75167000 4.89214000 -0.24332200
-1.68407000 5.05255000 -0.25148200
-1.67222000 5.10081000 -0.22579500
-1.61376000 5.10206000 -0.22813400
-2.52808000 2.14765000 -0.05430110
-2.58541000 1.83366000 -0.07494210
-2.55328000 1.84947000 0.00795988
-2.45758000 2.12904000 0.07780820
2.09510000 4.15815000 -0.95525500
1.97639000 4.09992000 -1.19507000
1.74943000 4.28332000 -1.16543000
1.98492000 -0.74624400 -0.33627200
2.05384000 -0.48208700 -0.07503270
1.94212000 -0.89861200 -0.23325800
1.83412000 -0.77216400 -0.64489800
1.85561000 -1.02673000 -0.51583000
1.94754000 5.33767000 -0.08307380
1.93468000 5.41958000 -0.03812940
1.96818000 5.30554000 -0.01492610
1.90085000 5.41807000 0.07102300
1.90905000 5.33692000 0.11086200
1.77720000 0.15454100 -0.77776100
1.78722000 0.06273090 -0.72298500
1.78599000 0.09129410 -0.80459100
2.00782000 -0.32987800 -0.23028000
2.06880000 -0.20534900 -0.07638410
-1.40966000 -4.33119000 -1.31079000
-1.38235000 -4.11124000 -1.26607000
-1.64111000 -5.33586000 -1.49269000
1.46286000 6.07632000 0.14271500
1.51959000 6.33330000 0.26418800
1.38224000 5.88483000 0.46186900
1.49623000 6.21467000 0.12221600
1.53749000 6.40205000 0.01961140
0.96641200 -7.70410000 1.64502000
1.09115000 -7.70630000 1.60629000
1.85176000 -7.73145000 1.32461000
1.76908000 -7.76875000 1.41291000
1.77414000 -7.69420000 1.37369000
1.94667000 5.27859000 -0.09220730
1.95881000 5.24797000 -0.02140680
1.89411000 5.14020000 -0.05115390
1.82432000 5.16562000 -0.13775300
1.79219000 5.12875000 -0.09650570
1.15849000 9.66861000 -1.12024000
1.26158000 9.69128000 -1.13984000
-0.91292100 -0.07513670 1.31153000
1.78763000 -9.21297000 -1.46044000
1.12996000 -8.28883000 2.04369000
1.89147000 9.79692000 -1.57528000
1.88763000 9.47497000 -1.65419000
1.87744000 9.61936000 -1.70476000
-1.32224000 -3.48011000 -0.81202300
-1.29127000 -4.51747000 -0.36275300
-1.28178000 -4.58571000 -0.54836400
-1.31497000 -4.29311000 -0.60163600
-1.97103000 -0.46948600 0.46539400
-2.00686000 -0.40500700 0.39869400
-1.95198000 -0.91683800 0.37477000
-0.23109900 6.18185000 1.32745000
-0.21372500 6.26794000 1.30699000
0.07670680 6.18042000 1.37613000
0.20941400 6.27519000 1.36861000
0.03516330 6.29549000 1.38393000
-1.69795000 -7.74369000 -1.00231000
-1.57900000 -7.74550000 -1.05348000
-1.66331000 -7.69560000 -0.99482300
0.37948900 5.44509000 -1.16433000
0.61166700 5.42197000 -1.10130000
0.42532400 5.43091000 -1.17892000
0.22125900 5.47048000 -1.16318000
0.04794860 5.47409000 -1.17646000
-1.84976000 -7.21219000 -1.21524000
-1.74254000 2.73492000 0.41384800
-1.75850000 2.11945000 0.47233600
-1.71556000 2.40678000 0.47849000
-1.77934000 2.42569000 0.38646800
-1.77701000 3.03797000 0.31243000
-0.97413100 9.68608000 -1.15754000
0.65135400 4.82083000 -1.28615000
0.60009000 4.95741000 -1.23337000
1.55199000 8.60891000 -1.62207000
1.49510000 8.63984000 -1.69866000
1.48997000 8.69532000 -1.57365000
1.54187000 8.52313000 -1.65237000
1.45225000 8.45518000 -1.70477000
1.48663000 8.57122000 -1.74636000
2.06641000 -8.08967000 1.14036000
1.73820000 -8.06847000 1.62732000
1.89987000 -8.00447000 1.58570000
1.94287000 -8.13588000 1.61280000
2.63553000 -9.89215000 1.50586000
2.59089000 -9.86556000 1.42725000
2.62897000 -9.67650000 1.47841000
2.56104000 -9.78261000 1.28697000
2.54071000 -9.94347000 1.14488000
1.86119000 5.57900000 0.00977044
1.74572000 5.52386000 0.07121470
1.83706000 5.52157000 0.01025040
1.67552000 5.60203000 0.04025650
1.69148000 5.71882000 0.02643950
1.62178000 5.67348000 -0.03967190
-1.20001000 -1.32518000 1.29497000
-1.27811000 -1.96112000 1.27486000
-1.14841000 -2.05790000 1.28665000
-1.89521000 -3.89007000 1.18600000
-1.69954000 -3.62151000 1.26399000
-1.70846000 -3.44194000 1.21759000
-1.49432000 9.62028000 -1.78287000
-1.25046000 8.87420000 -1.69669000
-1.37653000 8.98853000 -1.77647000
-1.32269000 9.01605000 -1.78215000
-0.47940800 4.66881000 0.52747000
-0.51592600 4.83971000 0.47547700
-0.63554500 4.72587000 0.39412900
2.21733000 4.08111000 -0.69078900
2.23143000 4.10384000 -0.54098200
1.00966000 5.98945000 1.10943000
0.89109000 5.83730000 1.08711000
0.94812600 5.72051000 1.03027000
0.79165800 5.50281000 1.03277000
0.82646400 5.70811000 1.06380000
-1.18163000 -4.90173000 -0.95295600
-1.12586000 -4.75579000 -0.95055600
-1.18560000 -4.72423000 -0.92440300
-1.30590000 -5.21787000 -0.68974500
-1.31205000 -5.19011000 -0.79631800
-1.28555000 -5.05739000 -0.74444900
-0.64613200 4.64195000 0.49596000
-0.53529400 4.64498000 0.51691800
-0.66594700 4.71070000 0.38553100
-0.85064500 4.74396000 0.21600200
0.60271300 6.34122000 1.31508000
0.79132100 6.10219000 1.21243000
0.83604200 6.22050000 1.24762000
-1.38448000 -7.53538000 -1.08964000
-1.34430000 -7.43362000 -1.08852000
-1.41659000 -7.41176000 -1.03873000
-1.51238000 -7.35045000 -0.87957000
-1.46071000 -7.32028000 -0.90635800
-1.48564000 -7.31552000 -0.86967800
1.83309000 -9.89450000 -1.61811000
1.97835000 -9.92305000 -1.58436000
1.83078000 -9.91677000 -1.51204000
1.94259000 -9.88284000 -1.63934000
1.89637000 -9.89311000 -1.64215000
1.95505000 -9.83071000 -1.66661000
0.56507400 5.83353000 1.12074000
0.46837800 5.89228000 1.12872000
0.37858800 5.82736000 1.18942000
0.37736200 6.04435000 1.19998000
0.42364900 6.07538000 1.22711000
0.34270100 6.10490000 1.30820000
0.04299160 9.34436000 0.25577100
-0.01606390 9.30753000 0.31597300
0.04506850 9.29555000 0.31527100
0.26528500 9.33260000 0.18209200
0.37222600 9.31035000 0.10604900
0.18254200 9.34239000 0.12343900
0.06607940 5.82077000 1.28014000
-0.04997720 5.83041000 1.26567000
0.06127070 5.63945000 1.29680000
-0.07083140 6.02266000 1.34369000
-0.08919580 6.09578000 1.30149000
-0.15944700 6.08282000 1.27332000
1.65419000 -6.12763000 -1.46682000
1.76309000 -6.31804000 -1.42616000
1.66725000 -6.27141000 -1.44085000
1.59039000 -5.66478000 -1.47120000
1.84847000 -0.01022650 0.67422000
1.99065000 0.21760700 0.68248500
1.88416000 0.12647800 0.68139600
1.91469000 0.05163650 0.65598500
-1.42916000 -7.01357000 -0.51414300
-1.39636000 -6.86839000 -0.23790900
1.36602000 1.40042000 1.65608000
1.47402000 1.38005000 1.59595000
1.24008000 1.24794000 1.74309000
0.27114400 6.02399000 1.27284000
0.28992900 6.07483000 1.26768000
0.02715300 6.03737000 1.35843000
-0.03088500 5.95367000 1.35476000
0.10721200 5.94080000 1.36105000
2.17890000 -9.53644000 -1.75025000
2.09724000 -9.82094000 -1.71938000
2.06959000 -9.60639000 -1.73155000
1.99784000 -9.81844000 -1.68784000
2.03485000 -9.86984000 -1.69797000
1.98893000 -9.87319000 -1.65834000
1.98279000 -7.86645000 1.33196000
2.00368000 -8.01536000 1.31544000
1.97044000 -7.97795000 1.41350000
2.01344000 -8.07964000 1.54393000
1.94544000 -7.96643000 1.50827000
2.02090000 -8.05103000 1.33665000
2.63554000 -9.44259000 1.58636000
2.63987000 -9.34392000 1.79583000
2.58597000 -9.22215000 1.87085000
2.57527000 -9.50844000 1.98036000
-1.28280000 -0.69943100 1.35886000
-1.31363000 -1.04763000 1.33767000
-1.26507000 -0.15529700 1.39663000
-1.31807000 0.26160400 1.43503000
-1.30766000 -0.39083900 1.37775000
0.72393400 -1.62617000 1.42626000
0.67114700 -1.47122000 1.42539000
0.65983800 -0.48746200 1.39726000
0.73390600 9.10280000 -1.01082000
0.81981000 9.08487000 -0.97252300
-1.66919000 3.87793000 0.17181300
-1.65092000 3.90994000 0.19578800
-1.72712000 3.92770000 0.20740000
-1.62722000 3.97025000 0.19913400
-2.64240000 -4.56295000 -0.21671100
-2.66838000 -4.48384000 -0.18151900
-2.67146000 -4.46175000 -0.23987000
-1.96517000 -0.60177300 -0.54206500
-2.04623000 -0.42487600 -0.36443900
-2.01098000 -0.35560600 -0.43606400
-1.97778000 -0.47409800 -0.55344300
2.54791000 -9.07314000 -0.66321800
2.53386000 -8.99722000 -0.79722800
-1.01752000 6.33869000 1.05870000
-0.98047600 6.10704000 1.02344000
-0.87376900 6.31881000 1.15543000
-0.66291700 6.88481000 1.26930000
-0.84310200 6.85571000 1.20450000
-0.66068200 6.73418000 1.29215000
1.38128000 8.60956000 -1.17296000
1.43264000 8.67353000 -1.24157000
1.89673000 -0.70236900 -0.52745700
1.91377000 -0.52254900 -0.41836700
1.95788000 -0.53105000 -0.38121700
1.90678000 -0.86238100 -0.50256300
1.88138000 -1.05710000 -0.42973600
-2.54248000 -9.02326000 1.85358000
-2.60418000 -8.83730000 1.46702000
-2.59087000 -8.77323000 1.35075000
-1.23934000 -1.15640000 1.26613000
-1.35144000 -1.59928000 1.31318000
-1.31260000 -1.70407000 1.26077000
-1.62441000 -2.95148000 1.27399000
-1.47136000 -2.31820000 1.28643000
-1.67589000 -2.96642000 1.27596000
-0.41371800 1.04691000 -0.80431000
-1.84214000 -7.53127000 -0.54122000
-1.82357000 -7.49598000 -0.41537200
-1.89452000 -7.55765000 -0.47857500
-2.02511000 -7.82384000 -0.87141700
-1.02951000 -6.89109000 1.48097000
-1.22259000 -6.84072000 1.59295000
-2.03496000 -3.00139000 0.05349290
-2.05939000 -2.74720000 0.04841660
-2.10297000 -3.02451000 0.02170830
1.86198000 5.48009000 -0.13645600
1.91426000 5.42441000 -0.10113600
1.91279000 5.36376000 -0.14204600
2.52304000 -8.83172000 -0.78338800
2.47797000 -8.71330000 -0.81931000
2.49519000 -9.03816000 -0.93724300
2.47809000 -8.99035000 -1.07271000
1.00429000 0.89236900 -0.20055600
1.10084000 0.37577600 -0.13766000
-0.93231600 9.33016000 -1.84246000
-0.96834600 9.41555000 -1.91388000
-0.88381800 9.09843000 -1.78890000
-0.96154900 9.29520000 -1.91815000
-0.82960900 9.09900000 -1.74089000
-2.05058000 -4.63659000 1.08217000
-1.63232000 -4.11744000 1.15764000
-1.67315000 -4.06924000 1.21621000
-1.76154000 -4.19467000 1.17611000
-1.49520000 9.52060000 -1.83470000
-1.45394000 9.39136000 -1.85491000
-1.56606000 9.42753000 -1.86846000
-1.42595000 9.35678000 -1.87143000
1.57144000 -7.05878000 0.31477500
1.62977000 -7.08745000 0.32063500
1.67401000 -7.07782000 0.17090700
1.62021000 5.57123000 -0.04145420
1.25323000 8.10304000 -2.27065000
1.19535000 8.43378000 -1.94049000
1.24928000 8.23576000 -2.11692000
1.26407000 7.84878000 -2.34534000
-2.60078000 -8.70744000 -0.51987300
-2.49969000 -8.43979000 -0.43860100
-0.97007900 8.31462000 -2.02124000
-0.93066400 8.23752000 -2.06961000
-1.02335000 8.18184000 -2.16368000
1.48944000 -5.22806000 -0.16968000
1.51568000 -5.57986000 -0.17446300
1.42184000 -5.41926000 -0.28065500
1.46659000 -4.52400000 -0.68177300
1.53723000 -4.68636000 -0.25482900
1.43335000 -4.67109000 -0.33497000
1.13775000 7.68485000 -1.41148000
1.21225000 7.51221000 -1.56615000
1.47363000 -0.21640200 1.26809000
1.51546000 -0.54558100 1.22352000
1.54101000 0.06325740 1.30140000
0.87876100 0.17582400 0.67049500
0.75201500 0.91678300 0.58695900
-2.32926000 1.57081000 -0.75137400
-2.30760000 1.48244000 -0.79140700
-2.34402000 1.39776000 -0.76714600
1.05783000 0.43044200 -1.11461000
1.09229000 0.62930900 -1.11843000
1.14045000 0.52003300 -1.14410000
0.75327500 -4.49256000 1.17746000
0.83685300 -4.15495000 1.16356000
0.67810700 -4.26802000 1.22709000
1.03767000 -3.98974000 1.44861000
0.81180600 -3.75307000 1.31600000
2.41222000 -8.89867000 -0.91318300
2.48735000 -8.92889000 -0.89050900
2.47298000 -8.77651000 -0.87214300
2.46441000 -8.91408000 -1.18210000
2.47031000 -8.92856000 -1.09565000
2.45572000 -8.82588000 -1.11119000
1.17241000 8.60101000 -1.83608000
1.11786000 8.48790000 -1.83043000
1.09410000 8.45580000 -1.87714000
1.06007000 8.43605000 -1.84667000
-0.94953600 2.29011000 1.79077000
-1.08750000 2.37522000 1.71551000
-0.77668700 5.12198000 -0.19763500
-0.80791200 5.09418000 -0.30487000
-0.82363100 5.05919000 -0.18320200
-0.82744400 5.12659000 -0.44016700
-0.83899800 5.15920000 -0.53207300
-1.18479000 -6.76321000 0.69617900
-1.24901000 -6.61985000 0.55184100
-1.20077000 -6.25401000 0.62695700
-0.94587500 -6.41648000 0.94064700
-1.02128000 -6.55510000 0.88018700
-1.21522000 2.57844000 1.42442000
-1.25321000 2.51271000 1.38944000
-1.38319000 2.51471000 1.38703000
-1.54979000 2.38529000 1.36250000
0.03656530 9.07051000 -1.15853000
-0.02234030 9.12019000 -1.13002000
0.03262890 9.10959000 -1.11648000
-0.08151170 9.15701000 -1.09910000
-0.13597200 9.15074000 -1.04445000
-0.07911850 9.14931000 -1.03530000
1.33361000 -6.28982000 0.91761200
1.31273000 -5.99764000 0.91646900
-2.16729000 2.17653000 -0.99562400
-2.37380000 2.27299000 -0.86073400
-2.02784000 2.11309000 -0.98329300
-2.00739000 2.15827000 -1.09026000
-1.89512000 2.07824000 -1.01269000
2.41580000 -8.95302000 -0.96915500
2.47134000 -8.98316000 -1.03519000
2.49133000 -8.99709000 -0.93537600
2.42860000 -8.82685000 -1.07416000
2.40835000 -8.89014000 -1.05321000
-1.96985000 3.86061000 -1.21748000
-1.93737000 3.80978000 -1.18786000
-1.86994000 4.28007000 -1.19852000
-1.99140000 4.32151000 -0.89469800
-1.83378000 4.38641000 -1.05498000
0.90401800 0.96264600 0.31300000
0.97056900 0.24772200 0.54163100
0.82774800 0.88890000 0.52802000
0.87264700 0.88651000 0.45599600
-1.40423000 -5.39201000 0.63203700
-1.32326000 -4.79469000 0.42536500
-1.39526000 -4.88587000 0.15377600
-1.33653000 -4.94886000 0.35309900
0.29644000 9.11286000 0.98024200
0.36389500 9.09008000 1.03875000
0.36378000 9.11595000 0.97922700
0.14429900 8.89321000 1.19049000
0.25370800 9.00085000 1.13115000
-2.58638000 -4.16402000 -0.14990400
-2.54327000 -4.21253000 -0.10925800
-2.45219000 -3.99734000 -0.08362280
-2.67504000 -4.32583000 -0.18951500
-2.67808000 -4.37724000 -0.31132200
-2.68097000 -4.38644000 -0.21044800
0.97607100 0.06424880 1.52660000
0.97415000 -0.34875900 1.47355000
0.94218200 -0.06958850 1.49978000
0.94492400 0.09085370 1.51216000
-2.71672000 -9.20411000 -1.25453000
-2.13971000 -8.85967000 -1.49241000
-2.33334000 -9.07215000 -1.46703000
-2.34985000 -8.91864000 -1.43851000
-1.79066000 2.20264000 1.78504000
-1.72766000 2.27553000 1.73740000
0.53876600 9.10714000 -1.04775000
0.08437840 9.10287000 -1.16742000
-1.88588000 2.95265000 -1.15195000
-1.80939000 3.43854000 -1.23749000
-2.08292000 2.82906000 -1.14253000
-2.02972000 2.76151000 -1.10781000
-2.09260000 2.69303000 -1.14916000
2.43300000 -8.83423000 1.50350000
2.46475000 -8.99519000 1.38768000
2.38887000 -8.78373000 -0.96942500
2.45661000 -8.71150000 -0.90707800
2.42735000 -8.71128000 -1.02855000
2.42586000 -8.70747000 -1.06065000
2.43382000 -8.63228000 -0.91542600
-0.64182000 9.07659000 0.86069600
-0.71056300 9.02526000 0.88007400
-0.64765400 9.04181000 0.90730200
-0.11950000 9.01021000 1.12081000
-0.04997720 9.00738000 1.12381000
-0.02981590 9.06543000 1.07731000
1.71951000 -3.13574000 -0.78462000
1.76116000 -2.64216000 -0.64323200
1.90847000 -2.87573000 -0.32881700
1.62134000 9.58642000 -1.86780000
1.67753000 9.76595000 -1.72537000
-0.86294500 8.84708000 0.87040300
-0.83364200 8.94646000 0.85635700
-0.95081200 8.86691000 0.82563300
-1.13600000 8.95036000 0.60242400
-1.13160000 8.89319000 0.65353900
-1.07010000 8.86727000 0.71648500
0.25595800 -2.06584000 1.16670000
0.20297100 -2.66615000 1.18783000
0.43930200 -2.15153000 1.16394000
0.78844100 -3.98216000 1.19141000
0.68112900 -3.56844000 1.21274000
0.66832500 -3.80379000 1.21595000
1.73780000 9.60387000 -1.81547000
1.70128000 9.44671000 -1.83942000
1.66684000 9.50847000 -1.81293000
1.36988000 8.90220000 -1.71818000
1.50748000 9.16439000 -1.79351000
-2.71579000 -9.15710000 -1.19847000
-2.65755000 -9.09017000 -1.13273000
-2.66690000 -9.11324000 -1.28365000
-2.76128000 -9.24420000 -0.98017200
-2.76389000 -9.22767000 -1.07234000
-2.79975000 -9.34402000 -0.98927900
-0.44722800 8.98299000 1.03555000
-0.49071500 8.91711000 1.04593000
-0.32669800 8.92974000 1.08877000
-0.60662600 8.82253000 0.98149000
1.12576000 -1.57494000 0.58599400
1.06444000 -2.64089000 0.67262700
1.08351000 -0.74165900 0.61069300
1.05539000 -0.37427900 0.58021500
0.82741900 7.96348000 -1.46697000
-1.73446000 4.12512000 -1.28390000
-1.72858000 4.22642000 -1.27139000
-1.59610000 4.15257000 -1.32792000
-1.97658000 3.58998000 -1.15341000
-1.92928000 3.72394000 -1.17573000
-1.88780000 3.72679000 -1.21928000
1.31308000 2.69704000 1.66990000
1.10242000 2.69318000 1.75117000
1.37381000 2.66313000 1.74094000
1.42858000 2.44075000 1.80231000
2.69194000 0.97457400 -0.30382300
2.58591000 1.39102000 -0.31930400
2.59718000 1.17350000 -0.23948800
2.58288000 2.10206000 -0.11434200
2.52397000 2.05907000 -0.12288900
-2.05243000 2.53737000 -1.14162000
-1.97979000 2.67562000 -1.08995000
-1.98981000 2.50438000 -1.09896000
-2.01358000 2.35523000 -1.12818000
-1.93802000 2.38055000 -1.09311000
-1.94956000 2.21025000 -1.11018000
-0.84824700 -4.08558000 1.16711000
-1.04642000 -3.89433000 1.03123000
-1.06455000 -4.08939000 1.00884000
-0.76916600 -2.86597000 1.07137000
-0.64758700 -2.16567000 1.12403000
1.23890000 2.52077000 1.84291000
1.05879000 2.59784000 1.84093000
0.38308700 2.52973000 1.82529000
0.14751300 2.53533000 1.78419000
1.62551000 9.92101000 -1.16735000
1.67200000 9.94761000 -1.28874000
1.61364000 9.90683000 -1.24888000
1.43671000 9.72647000 -1.06023000
1.45845000 9.75455000 -1.01106000
1.50056000 9.81966000 -1.13645000
-1.10441000 0.76801300 -0.08152270
-1.22455000 0.36229100 -0.39440300
-1.10987000 0.94407600 -0.42182100
1.44363000 9.56439000 -1.69915000
-2.22918000 -9.80370000 -1.39799000
-2.23433000 -9.87177000 -1.42706000
2.38395000 -8.46717000 -0.47425300
1.47276000 9.50055000 -0.94814800
1.33751000 9.24747000 -0.92094100
1.46107000 9.68237000 -0.98614600
1.37092000 9.49665000 -0.90994700
-0.82571100 -3.61968000 1.12192000
-0.97497600 -3.66019000 1.06152000
-0.72601500 -3.90398000 1.11506000
2.48245000 -8.27115000 1.11266000
2.43365000 -8.21747000 1.04445000
-0.85327200 -5.33722000 1.24793000
-0.90412600 -4.81506000 1.19535000
-0.95901400 -5.22532000 1.15851000
-0.80655800 -3.87473000 1.15150000
-0.76305100 -4.16472000 1.13832000
-0.75171500 -3.78126000 1.11334000
2.76058000 0.71585000 -0.25782300
2.66162000 0.95408500 -0.24580800
2.73272000 0.72905000 -0.22735900
2.47646000 0.72417100 -0.36476800
2.46990000 0.66097600 -0.27470800
2.39342000 0.72565000 -0.33305800
-0.10796300 4.92233000 0.69936600
-0.04572490 4.97552000 0.86290600
-1.71287000 1.73789000 1.25513000
-1.72106000 1.78260000 1.20166000
-1.72094000 1.61917000 1.21292000
-1.73110000 1.55713000 1.29560000
0.87418500 -7.92275000 -1.29210000
1.03596000 -7.97702000 -1.31452000
1.17950000 -8.17139000 -1.35891000
1.14939000 -8.08183000 -1.33562000
-2.03728000 -8.48257000 -1.44520000
-1.80736000 -8.26060000 -1.44080000
2.41491000 -4.62470000 0.23931500
2.41430000 -4.61526000 0.31614000
2.42656000 -4.35541000 0.17036400
2.39417000 -4.46235000 0.05518020
2.32166000 -4.25514000 -0.07594800
-1.96858000 -6.97991000 -1.19914000
-1.83984000 -6.71967000 -1.16433000
-1.96515000 -6.68950000 -1.32084000
-1.84744000 -6.90181000 -1.12064000
-1.76112000 -6.79875000 -1.10320000
2.66531000 -8.90466000 -0.57964300
0.76561100 9.03335000 -1.03026000
0.35063100 9.21150000 -0.97756300
1.53257000 9.21071000 -1.01730000
1.43791000 9.06638000 -1.01063000
1.55533000 9.19616000 -1.07010000
2.75369000 -9.41453000 -1.06404000
2.79657000 -9.85372000 -0.86186600
2.81464000 -9.75203000 -0.92606600
2.75510000 -9.69115000 -0.84413300
-0.98068400 9.27051000 -1.69699000
1.18516000 -6.74210000 0.52301400
1.09168000 -6.95408000 0.70944100
1.04544000 -6.65084000 0.73935300
0.96096900 -4.73399000 0.74356200
0.89800700 -4.89183000 0.81274000
0.87799500 -4.57332000 0.83023700
-2.24210000 -9.14022000 2.03459000
-2.16013000 -9.00273000 2.01200000
-2.09588000 -9.10361000 2.05018000
-1.82183000 -9.01261000 2.05685000
-2.02933000 -9.09682000 2.04896000
2.65006000 -9.79233000 1.70755000
2.64517000 -9.53120000 1.80523000
2.61863000 -9.88830000 1.81026000
-0.37501900 -6.09890000 1.34671000
-0.49375300 -6.26630000 1.34034000
-0.38301500 -6.31684000 1.37473000
-0.47217200 -6.65417000 1.42060000
-0.46274400 -6.59956000 1.39378000
-2.42770000 -9.62055000 -1.59006000
-2.56407000 -9.71834000 -1.52424000
-2.58092000 -9.51083000 -1.50626000
-2.59577000 -9.31941000 -1.46715000
-2.55375000 -9.18162000 -1.44558000
-2.47642000 -9.21686000 -1.50540000
1.52673000 7.64064000 -2.22967000
1.44771000 7.58208000 -2.29730000
1.43909000 7.50894000 -2.25518000
1.75217000 1.60825000 1.22518000
1.74686000 1.60776000 1.11228000
1.74922000 1.64604000 1.15062000
-0.10011000 2.56721000 1.45824000
0.21581500 2.47432000 1.42331000
-0.10989300 2.41730000 1.42318000
-2.02125000 -7.34663000 -1.05198000
-2.12013000 -7.42323000 -0.91862500
-2.11607000 -7.55695000 -1.09125000
-2.16033000 -7.98611000 -1.21620000
-2.12995000 -7.45750000 -0.97558400
-2.23454000 0.40021900 0.05501200
-2.23233000 0.13405100 0.03379050
-0.80797600 9.69246000 -1.27948000
2.71714000 -9.33272000 -1.31976000
2.64573000 -9.24659000 -1.42006000
2.67401000 -9.25684000 -1.30894000
-1.19777000 1.27803000 -1.12635000
-1.07223000 1.58243000 -1.15613000
2.64560000 -9.33476000 1.71067000
2.61394000 -9.26749000 1.70684000
2.59704000 -9.21278000 1.79951000
2.56890000 -9.01975000 1.61493000
2.20189000 0.33646300 0.33270300
2.19267000 0.24732100 0.23408300
0.69228500 -6.75859000 1.57594000
0.66192200 -6.79937000 1.60067000
0.73775700 -6.83457000 1.58287000
-1.03795000 5.59380000 0.64307600
-0.88615400 5.40760000 0.73153500
2.45896000 -8.52210000 1.18206000
2.44781000 -8.58757000 1.10736000
2.45028000 -8.59326000 1.26051000
1.16960000 4.92929000 -0.72557600
1.04237000 4.97579000 -0.88250200
-2.57019000 -9.94932000 -1.25921000
-2.50288000 -9.86399000 -1.20263000
-2.31963000 -9.90847000 -1.40530000
-2.40128000 -9.93601000 -1.40052000
-1.42144000 5.49489000 -0.08399640
-1.44666000 5.53314000 -0.04797680
-1.44354000 5.45252000 -0.05989430
-0.40351900 -6.60259000 1.41782000
-0.28869700 -6.53983000 1.52098000
-0.33217000 -6.37688000 1.44072000
-0.04825230 -4.56307000 1.32234000
-0.05387500 -5.39175000 1.41970000
0.01629180 -5.63190000 1.42884000
1.68021000 5.47074000 -0.15943300
1.69330000 5.60990000 -0.23891800
1.75321000 5.54919000 -0.23321200
1.29035000 -7.11618000 -0.91709100
1.28416000 -6.99354000 -0.93070000
1.26790000 -7.03849000 -0.98494800
1.11656000 9.27448000 -0.99100800
-2.46977000 -8.35763000 -0.39504100
-2.47177000 -8.29630000 -0.34831100
-1.52445000 -8.03658000 -1.40213000
-1.57456000 -8.09805000 -1.38949000
-1.64371000 -8.00032000 -1.39738000
-0.64616000 9.10797000 0.80177000
-0.73368100 9.08796000 0.67554500
-0.77282800 9.05372000 0.81259300
-1.02181000 8.94200000 0.73147200
-1.04865000 8.95284000 0.61978600
1.45715000 2.45240000 1.43334000
1.42651000 2.54470000 1.47985000
1.59946000 2.44189000 1.47198000
1.43021000 2.42945000 1.41474000
1.55979000 2.41686000 1.42838000
1.56222000 2.38886000 1.35282000
-2.77613000 -9.55877000 -0.59317000
-2.78538000 -9.88877000 -0.69614200
-2.79810000 -9.89865000 -0.62857300
-2.77667000 -9.73847000 -0.73862200
-2.18890000 -9.59900000 -1.62225000
-2.41870000 -9.12051000 -1.42506000
-2.48525000 -9.14490000 -1.44460000
-2.58005000 -9.08680000 -1.31652000
-2.44974000 -9.11835000 -1.23627000
-2.52436000 -9.23778000 -1.23100000
-2.45667000 -9.26953000 -1.30038000
-2.55329000 -9.53285000 -1.18441000
-2.53799000 -9.63835000 -1.22761000
0.81012400 -0.75493500 0.84514100
0.65548200 -0.87031800 0.90490800
0.62761700 -0.30370100 0.85823700
0.11326900 -0.69522100 0.94977500
-0.21007500 -0.26933200 0.90360300
0.18104100 -0.24124200 0.90225000
0.90258000 -4.79743000 -1.01646000
0.70616500 -4.28433000 -0.99659400
0.68486400 -4.54906000 -1.04404000
0.84443200 -4.52199000 -1.00270000
-0.50662100 5.04644000 0.62519700
-0.67709300 5.12846000 0.51442600
-0.54168600 5.02815000 0.44306000
-0.44822900 4.99110000 0.51412600
-0.30107700 4.96915000 0.66471000
-0.80972200 9.13143000 -1.03838000
-0.88909500 9.28849000 -1.04704000
-1.40133000 4.67953000 0.05179830
-2.49961000 -8.76093000 1.76536000
-2.47371000 -8.47367000 1.53316000
-2.56568000 -8.58734000 1.39930000
-2.45857000 -8.30848000 1.23955000
-2.53598000 -8.46264000 1.32598000
-2.46672000 -8.36077000 1.35824000
-1.17765000 6.85993000 -0.68433200
-0.56679900 9.10199000 -1.25547000
-0.66780000 9.18738000 -1.26774000
-0.58230100 9.18922000 -1.22482000
-2.48766000 1.66611000 -0.66261600
-2.44108000 1.57546000 -0.69490900
-2.46176000 1.57668000 -0.65106000
0.53070600 -7.53080000 1.84322000
1.31327000 -7.40505000 1.72996000
1.28488000 -7.31814000 1.60601000
1.16911000 -7.34183000 1.64702000
-0.77307600 8.03682000 -1.92968000
-0.75043800 7.96512000 -1.93266000
-0.71997100 7.94980000 -2.03637000
-0.77138900 8.14505000 -2.11922000
-0.74936300 8.04675000 -2.11933000
-2.82030000 -9.65344000 -0.79927800
-2.78827000 -9.83011000 -0.75181700
-2.80235000 -9.55873000 -0.79693900
-2.74282000 -9.42601000 -0.79403200
-2.77837000 -9.37722000 -0.86416600
-0.26801900 -1.64331000 -1.30190000
-0.07805330 -0.76776200 -1.29223000
-1.37498000 -0.61514300 -0.58754400
-1.40286000 -1.11421000 -0.63047900
-1.36618000 -0.97878400 -0.79289400
-1.38136000 -0.77481600 -0.41327200
-1.35890000 -0.47928400 -0.49194000
-2.62382000 0.74115900 -0.11080700
-2.71089000 0.69155700 -0.21670400
-2.69448000 0.75621100 -0.19102300
-1.37228000 5.68088000 -0.17096200
-1.40194000 5.62260000 -0.08971250
-1.38061000 5.68372000 -0.11250600
-1.31399000 5.73222000 -0.14450200
0.20068200 1.00296000 1.56733000
0.06517150 1.07669000 1.50550000
0.18210900 1.05307000 1.46994000
-0.08146020 1.13685000 1.38301000
-1.50087000 9.37497000 -1.68048000
-1.48590000 9.23116000 -1.68176000
-1.43850000 9.31339000 -1.67413000
-1.55195000 9.36270000 -1.71122000
-0.08269830 -6.89997000 1.56282000
-0.15172100 -6.94023000 1.51380000
-0.08076380 -6.93807000 1.54289000
-0.05101480 -5.99085000 1.48527000
-0.06916410 -5.82632000 1.44429000
-0.16053100 -5.88951000 1.45039000
-1.47948000 -4.64852000 0.45404600
-1.61984000 -4.53172000 0.78947800
-0.22606600 8.59465000 -1.43555000
-0.12171800 8.69397000 -1.42150000
-0.02640560 8.65879000 -1.47162000
-2.51854000 -9.71068000 -1.23590000
-2.52616000 -9.77743000 -1.19838000
-2.40632000 -9.80082000 -1.33013000
-2.49833000 -9.89749000 -1.30535000
-2.46155000 -9.82584000 -1.26876000
-1.78802000 -9.79755000 -1.49954000
-0.66187200 5.40079000 0.97652100
-0.76545000 5.76591000 1.03013000
-0.85671900 5.95951000 1.04723000
-2.55489000 1.52417000 -0.52050800
-2.54713000 1.53475000 -0.56138000
-2.54792000 1.43172000 -0.56049700
-2.48292000 1.53522000 -0.56948200
-1.07539000 9.10656000 -1.93484000
-0.89513300 8.87202000 -1.76973000
-0.95988500 8.78754000 -1.72173000
-0.82243500 8.78543000 -1.74185000
-0.84435900 8.71045000 -1.83627000
-0.95607900 8.74945000 -1.75422000
2.57409000 -9.77101000 1.08072000
-1.60922000 -2.45952000 1.25895000
-1.56813000 -2.40639000 1.27408000
-2.00184000 -3.59434000 1.18211000
-2.31279000 -4.27084000 1.16801000
-2.01319000 -3.73750000 1.23727000
-0.00549284 -6.78336000 1.56182000
-0.08354060 -6.82312000 1.57471000
-0.00390003 -6.82604000 1.54783000
0.03242780 -4.73781000 1.36770000
0.07834610 -5.57007000 1.41748000
2.77876000 -9.95375000 -1.08175000
2.69711000 -9.94990000 -1.36301000
1.83432000 -9.24608000 2.04311000
1.80943000 -9.15335000 2.03457000
1.90459000 -9.11208000 2.04384000
1.49166000 -2.77149000 1.49919000
1.61711000 -3.24949000 1.49319000
1.56008000 -3.09059000 1.42296000
1.73800000 -4.18453000 1.60328000
1.81857000 -4.22254000 1.60365000
1.73595000 -3.97357000 1.60010000
1.80070000 6.97879000 -0.56292100
1.65834000 7.14097000 -0.52411600
1.64960000 6.79370000 -0.40114400
1.60036000 6.49401000 -0.22722400
1.75976000 6.36997000 -0.25745600
1.62813000 6.74784000 -0.37158700
1.47778000 8.82632000 -1.62716000
1.63303000 9.03473000 -1.70673000
1.62734000 8.97960000 -1.61959000
-0.99967400 9.43237000 -1.05509000
-1.15798000 9.73458000 -1.17217000
2.10272000 -8.21090000 -1.17814000
2.24881000 -8.32711000 -1.05760000
2.37564000 -8.50024000 -0.82516700
2.38392000 -8.52934000 -0.97727400
-2.56094000 1.59958000 -0.47737600
-2.55431000 1.64632000 -0.55678200
1.84612000 6.51132000 -0.40963400
1.86813000 6.35692000 -0.34524500
1.76459000 6.52420000 -0.34697100
-1.13318000 9.24139000 -1.99263000
-1.07608000 9.27037000 -1.96601000
-0.96823700 9.05866000 -1.87143000
-2.21238000 3.99384000 -0.23694300
-2.28437000 3.94657000 -0.27794100
-2.36970000 3.76437000 -0.39237200
-2.35772000 3.73638000 -0.23217800
2.06403000 -4.41517000 -0.47653400
2.18103000 -4.31566000 -0.33749500
1.90396000 -3.44751000 -0.57448400
2.09223000 -3.99943000 -0.42248600
2.29184000 -9.13957000 -1.45320000
2.41050000 -9.16413000 -1.42195000
2.32416000 -8.96073000 -1.40340000
-0.57645300 5.35107000 -0.91748200
-0.48774600 5.39706000 -0.99223200
-0.71439100 5.71043000 -0.92269700
-0.55502200 5.54702000 -0.96940800
1.19346000 -0.62451700 -0.82705900
-1.73897000 -1.21327000 0.68101300
-1.74681000 -1.04134000 0.72585800
-1.83963000 -1.92520000 0.63963500
-1.82252000 -1.75377000 0.66826800
-1.75988000 -1.63438000 0.63131500
0.17580100 -4.89457000 1.00360000
0.04279950 -4.91521000 0.99973800
0.21071600 -4.68250000 0.99247100
0.55110700 -2.44319000 0.94830800
0.55454000 -1.71073000 0.94972700
1.80041000 5.24747000 0.16862900
1.90041000 5.20985000 0.10091100
1.91223000 5.27854000 0.11348700
1.90118000 5.15663000 0.03656650
-1.23090000 9.80943000 -1.27227000
-1.44400000 9.80873000 -1.64909000
-1.43755000 9.83243000 -1.58765000
-1.02083000 9.27772000 -1.46803000
-0.96977000 9.21773000 -1.45957000
-1.04036000 9.29884000 -1.40614000
-2.37746000 -9.86749000 2.15321000
1.42600000 -3.57527000 1.56006000
1.30329000 -3.58767000 1.56771000
1.47227000 -4.04446000 1.53723000
1.64600000 -4.08588000 1.51237000
1.70696000 -3.97631000 1.58549000
1.59328000 -3.74311000 1.49341000
1.94115000 -1.91521000 0.24700100
1.93030000 -2.41217000 0.32057100
1.86986000 -2.36976000 0.34477100
1.98077000 -2.85204000 0.29943800
-0.95991400 9.12548000 0.19479500
-1.00723000 9.09732000 0.16382900
-1.01034000 9.06998000 0.21484400
-1.48467000 8.48650000 0.25123600
-1.48511000 8.56633000 0.27253600
-1.48571000 8.51982000 0.21918600
-1.29796000 8.86458000 0.23256600
-1.30038000 8.85585000 0.38047000
-1.25540000 8.90306000 0.26341200
-1.29070000 1.13100000 1.53899000
-1.18252000 1.16674000 1.53169000
-1.29215000 1.29023000 1.55953000
-1.03936000 1.01087000 1.40999000
-1.06959000 1.12039000 1.44907000
-1.17460000 1.07722000 1.43771000
1.78756000 9.49404000 -1.73151000
1.84026000 9.46074000 -1.74737000
1.67121000 9.19845000 -1.74037000
1.53278000 8.93218000 -1.68220000
1.39944000 2.15143000 0.91191700
1.27829000 2.20301000 0.89080700
1.25597000 2.18204000 0.92186700
1.39972000 9.51505000 -1.29788000
1.68964000 -8.30641000 1.76871000
2.51812000 2.33683000 0.11901000
2.47720000 2.37391000 0.02217030
2.41955000 2.41053000 0.12663600
2.61666000 2.13121000 -0.21976100
2.61879000 2.10372000 -0.34402200
2.55797000 2.17605000 -0.28216000
1.90151000 -1.22728000 -0.14604200
1.91623000 -1.39569000 0.20251900
0.80745000 2.26643000 1.08166000
-0.38474200 1.01418000 1.22031000
-0.38094600 0.96772600 1.18961000
-0.23900900 0.99845200 1.17910000
-0.32684600 1.07841000 1.27874000
-0.20806500 1.08638000 1.26008000
-1.56100000 5.02399000 0.08199420
0.83796500 -5.07697000 0.84316600
0.71296200 -4.95504000 0.91074000
0.80313100 -4.87730000 0.88641600
0.30427200 -4.56782000 1.00255000
0.25307000 -4.64074000 1.00286000
0.20130800 -4.48226000 1.02499000
-2.59943000 1.09840000 -0.07629620
-2.61407000 1.07372000 -0.04246460
-2.62034000 1.11359000 -0.00686858
0.59989700 -4.20915000 0.93890400
0.48642600 -4.29846000 0.99193100
0.47972400 -4.20460000 0.96365700
1.43405000 9.80366000 -1.55581000
1.46655000 9.85174000 -1.58802000
-1.43072000 -7.02588000 1.09798000
-1.47909000 -6.95245000 1.27161000
-1.23691000 9.42108000 -2.03606000
-1.25782000 9.38179000 -1.98178000
-1.29478000 9.61394000 -1.99123000
-1.13929000 9.10342000 -1.87556000
-1.11082000 9.09623000 -1.92403000
1.90863000 1.72908000 0.83805500
1.93449000 1.68001000 0.87291200
2.12186000 1.62493000 0.61131700
1.83965000 1.64778000 0.93427100
1.79734000 1.69833000 0.94060200
-1.40738000 9.68010000 -1.89183000
-1.33679000 9.59324000 -1.92876000
1.85547000 9.83948000 -1.56129000
1.83564000 9.69694000 -1.66664000
0.09529790 8.57092000 -1.47592000
0.15749100 8.61413000 -1.46279000
0.15295300 8.57240000 -1.49463000
2.58639000 -8.68749000 1.32010000
2.59909000 -8.64008000 1.26860000
2.59172000 -8.61615000 1.33969000
1.89758000 -7.30915000 -1.13223000
1.91195000 -7.18456000 -1.25110000
-2.57514000 1.68722000 -0.04877170
-2.59283000 1.56562000 -0.04211680
-1.77854000 -6.64956000 -1.37262000
-1.72671000 -7.07185000 -1.18717000
1.85083000 9.43225000 -1.73859000
1.75734000 9.22014000 -1.73266000
1.82235000 9.30756000 -1.69215000
1.71403000 9.10542000 -1.65255000
1.03399000 -7.31740000 1.66581000
1.06068000 -7.12861000 1.79972000
-2.24697000 -7.98303000 0.12018100
-2.22125000 -7.95012000 0.28925200
1.90229000 4.31071000 -0.54475200
1.87195000 4.25165000 -0.41619300
2.06729000 4.19504000 -0.47410500
1.84199000 4.22150000 -0.29811500
1.79439000 4.33898000 -0.44667700
-2.35965000 -8.15343000 0.65295900
-2.39618000 -8.19298000 0.19341000
-2.36017000 -8.18589000 0.50149200
2.12191000 -9.97235000 2.04182000
2.08877000 -9.88223000 1.99875000
2.15368000 -9.89570000 1.96843000
2.37451000 -9.85198000 1.65924000
-2.44544000 2.20962000 -0.73944500
-2.47231000 2.43085000 -0.88935100
-2.43516000 2.41526000 -0.92577100
-2.40935000 2.37184000 -0.89128300
1.99123000 4.61740000 0.18100500
1.96664000 4.48621000 0.24128300
1.96745000 4.61571000 0.25809300
0.59557000 0.60953600 1.75575000
0.48874600 0.58827300 1.73240000
0.46362400 0.41790800 1.81174000
-0.96908500 7.92509000 1.08316000
-1.10642000 8.20883000 0.92609500
-1.12325000 7.96308000 0.93721700
-1.29448000 7.67461000 0.71970100
-2.55345000 0.92292300 -0.61974500
-2.57533000 0.76808200 -0.60068000
-2.61717000 0.72441200 -0.56771400
-2.42101000 0.98523300 -0.68698200
1.46204000 -3.12757000 1.51588000
1.37464000 -2.91043000 1.49676000
1.43683000 -3.10847000 1.49005000
1.62569000 -4.17645000 1.50633000
1.59007000 -3.83509000 1.49526000
-1.36857000 -2.40811000 1.27301000
-1.54503000 -3.16116000 1.28317000
1.77677000 9.92214000 -1.30982000
1.76332000 -7.25648000 -1.28430000
1.76208000 -7.13227000 -1.33896000
1.82362000 -7.25284000 -1.29891000
1.70555000 -7.10395000 -1.29031000
1.68220000 -6.97256000 -1.30113000
1.75520000 -7.03798000 -1.38424000
-2.30205000 1.56668000 -0.79611400
1.85627000 5.16674000 -0.12725100
1.90235000 5.22244000 -0.10536100
1.87190000 5.08335000 -0.05525930
1.87941000 5.35449000 -0.16957900
1.83158000 5.36161000 -0.18838600
-1.65341000 5.53954000 -0.07275080
-1.59931000 5.58278000 -0.01965230
-1.70336000 5.59908000 -0.13171500
-1.68991000 5.56901000 -0.21266400
-1.67479000 5.45856000 -0.22532400
-1.69350000 5.47192000 -0.17613100
1.19142000 8.53352000 -1.81989000
1.05277000 8.52764000 -1.74625000
1.11705000 8.60584000 -1.81771000
0.93894700 8.53280000 -1.64331000
0.61521900 4.50054000 -1.38098000
-0.06374280 4.41019000 -1.44399000
0.09922090 4.62908000 -1.34034000
0.60789000 4.62635000 -1.28460000
1.58132000 4.69255000 -0.05723850
1.52038000 4.70484000 -0.05766160
1.55880000 4.73987000 -0.00734002
1.88359000 5.49930000 -0.07298330
1.90829000 5.61564000 -0.06689890
1.89391000 5.56585000 -0.03970420
-0.90366900 -1.14244000 0.81191700
-1.05838000 -1.24734000 0.69851100
-1.05391000 -0.87792900 0.68097700
-1.17979000 -0.68071500 0.47420300
1.76304000 7.87082000 -0.67786200
1.73723000 7.82880000 -0.70671400
1.82391000 7.75624000 -0.77820700
1.86449000 7.77655000 -0.70209700
1.85864000 7.74384000 -0.73768300
1.44607000 -3.27515000 1.49377000
1.21455000 -2.26943000 1.47615000
1.11132000 -2.21821000 1.49930000
1.72882000 3.68319000 0.28054600
1.86994000 3.81044000 0.08566740
1.80845000 3.92194000 0.07494500
-1.66622000 -9.54296000 2.17724000
-1.74889000 -9.50924000 2.17950000
1.51304000 -4.34502000 -0.91392100
1.46231000 -4.42864000 -0.84589700
1.48927000 -4.45798000 -0.95719500
1.59342000 -5.07333000 -1.06885000
1.52152000 -5.09171000 -1.03213000
-1.15411000 8.40153000 0.82644200
-1.21335000 8.19773000 0.80509900
-1.23062000 7.87099000 0.81901500
2.39129000 -9.94983000 -1.59666000
0.56196800 0.29751600 -0.94398800
0.90732800 8.65687000 -1.50884000
0.93280800 8.70300000 -1.38714000
0.96367000 8.69436000 -1.47146000
0.37346600 0.92577700 1.59621000
0.33190800 0.97120000 1.57903000
0.66688900 0.77865100 1.68674000
0.77885000 0.67821400 1.77766000
-2.42524000 0.77042700 -0.54208000
-0.92568400 2.09444000 1.01471000
-0.97664800 2.09308000 1.03881000
-0.83328500 2.13550000 1.07902000
-0.84587300 2.14600000 0.99277800
-1.55160000 -6.24112000 -1.19826000
-1.68305000 -6.72225000 -1.20112000
-1.63129000 -6.50595000 -1.20645000
-1.57573000 -6.56986000 -1.22856000
1.46057000 -0.79666400 1.17755000
1.47506000 -0.85447100 1.13230000
1.53490000 -0.74310400 1.20432000
1.46978000 -1.11245000 1.16367000
-0.80720300 2.33310000 -1.28716000
-0.32197600 2.14056000 -1.33796000
-1.00995000 2.14481000 -1.27970000
-0.02900020 3.42099000 1.02558000
-0.13046100 3.04735000 1.08919000
-0.07041850 2.60319000 1.12872000
1.72442000 4.74492000 0.34582100
1.65882000 4.46335000 0.35077500
1.61945000 4.48746000 0.31939600
-2.51412000 2.29114000 -0.66801200
-2.54423000 2.33349000 -0.71858000
-2.49237000 2.31884000 -0.75145100
-2.63399000 2.40005000 -0.48147500
-2.64456000 2.34242000 -0.47005100
-2.66296000 2.36012000 -0.36906000
-0.71228700 -2.49968000 0.91868300
-0.77074600 -1.62385000 0.89556200
-0.69136700 -4.43737000 0.92906700
-0.73029000 -4.58755000 0.87720500
-0.76927500 -4.29114000 0.92494800
-2.38938000 -8.55797000 -0.52992900
-2.39875000 -8.53358000 -0.64380700
-0.49508800 -4.23069000 0.98308500
-0.58094300 -4.28548000 0.97850100
-0.64359900 -4.19460000 0.97572700
-0.35036400 -4.38954000 1.01604000
-0.44210400 -4.39421000 0.99606900
-1.63656000 -9.49201000 2.17218000
-1.71919000 -9.42450000 2.17789000
-1.66575000 -9.41420000 2.08384000
-1.53074000 -9.47387000 2.12685000
-1.51884000 -9.39975000 2.09584000
0.24274800 6.70873000 -1.37357000
0.23803700 6.83080000 -1.39618000
0.24780800 6.46475000 -1.31216000
0.68690800 -2.56022000 -1.05603000
0.73389400 -1.52320000 -1.04936000
0.66080400 -0.20660800 -0.99048700
0.80717600 -0.82622200 -1.01875000
1.81698000 5.48784000 0.09602850
-1.41109000 9.76633000 -1.80088000
-1.46966000 9.65933000 -1.86217000
-1.38649000 9.82529000 -1.66496000
-1.92035000 -6.42659000 -1.54372000
-1.87207000 -6.50337000 -1.60547000
-1.94258000 -6.85531000 -1.51139000
-1.88106000 -6.69487000 -1.55294000
-1.90664000 -6.91374000 -1.46254000
1.60672000 -0.77310300 0.99999700
1.59085000 -0.46624400 1.04828000
1.55182000 -0.31573500 1.09521000
0.61563600 7.75555000 -1.38857000
0.60091600 7.90184000 -1.42768000
0.63455000 7.89529000 -1.38590000
0.41940800 8.29393000 -1.47192000
0.39750100 7.23207000 -1.41317000
-2.01258000 -7.34424000 -1.28239000
-1.95847000 -7.17596000 -1.34366000
-0.23492400 8.10713000 -1.44615000
-0.27048700 8.00697000 -1.46569000
0.38344100 7.57467000 -1.45333000
0.56608000 0.72215600 1.51127000
0.65366200 0.71869500 1.53556000
0.63190700 0.75108300 1.56267000
-1.12112000 4.00652000 0.30774400
-1.12947000 4.09925000 0.29085700
-1.25468000 4.10460000 0.36144600
-1.06119000 4.30366000 0.31695300
-1.07891000 4.23860000 0.29743400
-1.02716000 4.25498000 0.37625800
2.39879000 3.29661000 -0.10839500
2.38204000 3.18044000 -0.05673810
2.45402000 2.87995000 -0.07130580
2.47099000 2.53009000 0.11543500
2.44379000 2.45465000 0.10626500
-1.08127000 9.54518000 -1.68172000
-1.93770000 -9.11014000 2.05504000
-1.82502000 -9.10978000 2.03693000
-1.90721000 -9.24612000 2.07069000
-1.71097000 -9.50663000 2.18525000
-1.66198000 -4.81458000 -1.45518000
-1.57981000 -4.65766000 -1.46942000
-1.63635000 -5.05959000 -1.49308000
-1.67474000 -4.93737000 -1.31389000
-1.73005000 -5.12700000 -1.41865000
-1.74763000 -5.44568000 -1.34444000
1.49924000 9.08215000 -1.14960000
1.50624000 9.05548000 -1.20993000
2.04561000 1.69829000 0.63010800
2.17671000 1.52031000 0.48028500
2.14838000 1.59627000 0.58022400
2.20146000 1.45030000 0.59174100
1.06539000 -6.65056000 1.27204000
0.98108200 -6.56715000 1.27263000
0.94964000 -6.62996000 1.36418000
0.18623400 -4.15094000 -1.05030000
0.32554400 -4.08001000 -1.02946000
-0.55465800 -3.93900000 -1.06431000
-0.75851400 -4.13904000 -1.00959000
-0.55009100 -4.13482000 -1.02844000
-1.97262000 1.66109000 0.83858300
-1.99340000 1.52046000 0.82920900
1.91818000 2.84657000 -1.21293000
1.95500000 2.87736000 -1.25878000
1.96048000 2.65404000 -1.25146000
1.64225000 2.14053000 -1.22371000
1.61220000 2.34029000 -1.21072000
-1.90693000 -4.61104000 0.99617700
-1.90999000 -4.65178000 0.80148300
-2.06915000 -4.61373000 1.11803000
-1.95353000 -4.58732000 1.10749000
-1.96298000 -4.54958000 1.14147000
2.21535000 -9.96741000 1.99946000
2.30780000 -9.93335000 1.90002000
2.02893000 2.05539000 -1.09620000
1.77902000 1.98120000 -1.20987000
1.82488000 2.02960000 -1.20447000
1.77827000 2.02170000 -1.22488000
1.77265000 2.06657000 -1.22902000
-1.97389000 -9.38559000 2.14716000
-2.00425000 -9.32710000 2.08338000
-1.93935000 -9.33167000 2.11499000
-1.97907000 -9.62569000 2.15854000
-1.98752000 -9.74006000 2.12921000
-2.05707000 -9.63536000 2.11000000
-2.52084000 -9.16507000 -1.17643000
-2.43308000 -8.89904000 -1.18524000
2.32601000 1.96548000 0.33431700
2.32684000 2.21285000 0.26981000
2.28350000 2.01411000 0.30523200
2.38517000 1.97534000 0.24735600
-1.13692000 8.09985000 -1.75727000
-1.17745000 7.90368000 -1.92534000
-1.09366000 7.89507000 -1.82765000
-1.17539000 7.79460000 -1.97768000
-1.17368000 7.81249000 -2.00588000
-1.14803000 7.73917000 -2.00966000
-2.38775000 2.50832000 -0.97633500
