0.74656600 1.65360000 1.92853000
0.80055000 1.71003000 1.92065000
0.78409900 1.72615000 1.94783000
0.84850000 1.77237000 1.91435000
0.84850000 1.77237000 1.91435000
0.80055000 1.71003000 1.92065000
0.81200600 1.69896000 1.90235000
0.85715600 1.76573000 1.89559000
0.89497800 1.83736000 1.88664000
0.87075400 1.84826000 1.94258000
0.89497800 1.83736000 1.88664000
0.85715600 1.76573000 1.89559000
0.85161800 1.76855000 1.88277000
0.88979600 1.83794000 1.86748000
0.91659300 1.91977000 1.86002000
0.92582100 1.91871000 1.86657000
0.92582100 1.91871000 1.86657000
0.92582100 1.91871000 1.86657000
0.91659300 1.91977000 1.86002000
0.95148900 2.00958000 1.82549000
0.94801600 2.01327000 1.82994000
0.93970900 1.97350000 1.85828000
0.91659300 1.91977000 1.86002000
0.86704500 1.84929000 1.90646000
0.90415100 1.91527000 1.87414000
0.90415100 1.91527000 1.87414000
0.89217600 1.91766000 1.89648000
0.88446900 1.92475000 1.93624000
0.93537400 2.13259000 1.86572000
0.91327800 2.04889000 1.92950000
0.92087300 2.17061000 1.81130000
0.91302300 2.12572000 1.82005000
0.92215200 2.19806000 1.83573000
0.91851400 2.20099000 1.81988000
0.90921500 2.12032000 1.80415000
0.97722600 2.06467000 1.82076000
1.03690000 1.99988000 1.85698000
0.99893900 1.99250000 1.81581000
1.09731000 1.94685000 1.84756000
1.15941000 1.90131000 1.82428000
1.17241000 1.83559000 1.83314000
1.19825000 1.85318000 1.81120000
1.15941000 1.90131000 1.82428000
1.23499000 1.87608000 1.78487000
1.19825000 1.85318000 1.81120000
1.22610000 1.79939000 1.81152000
1.36038000 1.78866000 1.73345000
1.34461000 1.93446000 1.72129000
1.40535000 1.95114000 1.68120000
1.37410000 1.99374000 1.68863000
1.37410000 1.99374000 1.68863000
1.32555000 1.97684000 1.72123000
1.28923000 2.01959000 1.72853000
1.26057000 2.06515000 1.73366000
1.23317000 2.11207000 1.73181000
1.25099000 2.21660000 1.67690000
1.21872000 2.24782000 1.66297000
1.29626000 2.27932000 1.59831000
1.19713000 2.29167000 1.62707000
1.08220000 2.31633000 1.63402000
1.17606000 2.32600000 1.59209000
1.25243000 2.33285000 1.55415000
1.25243000 2.33285000 1.55415000
1.17606000 2.32600000 1.59209000
1.17777000 2.36400000 1.53440000
1.22761000 2.36258000 1.51664000
1.29150000 2.36220000 1.47620000
1.29150000 2.36220000 1.47620000
1.22761000 2.36258000 1.51664000
1.20129000 2.40624000 1.41807000
1.26267000 2.38512000 1.43773000
1.26267000 2.38512000 1.43773000
1.32010000 2.38303000 1.39705000
1.32010000 2.38303000 1.39705000
1.28870000 2.40611000 1.36210000
1.28870000 2.40611000 1.36210000
1.34109000 2.40585000 1.32435000
1.38450000 2.36762000 1.37012000
1.36961000 2.33747000 1.45978000
1.55001000 2.41353000 1.16274000
1.52642000 2.45661000 1.14714000
1.56665000 2.46345000 1.11242000
1.59373000 2.43036000 1.13516000
1.59676000 2.44656000 1.06057000
1.62514000 2.41685000 1.08577000
1.68748000 2.45484000 0.95073400
1.63529000 2.44447000 1.01270000
1.60963000 2.48180000 0.99190900
1.03630000 2.53803000 0.26805700
1.04477000 2.53473000 0.32770900
1.01036000 2.53546000 0.30324400
1.03630000 2.53803000 0.26805700
1.01036000 2.53546000 0.30324400
0.95790500 2.53254000 0.35714800
1.00310000 2.53765000 0.24365000
-0.54043300 2.64881000 -0.16861400
-0.58526800 2.61344000 -0.17971900
-0.55593900 2.61987000 -0.23129400
-0.57927000 2.60884000 -0.29195200
-0.60613700 2.60133000 -0.34551900
-0.56282100 2.60351000 -0.33604900
-0.60613700 2.60133000 -0.34551900
-0.61965400 2.59355000 -0.30218600
-0.66272800 2.58127000 -0.31186800
-0.65333100 2.59769000 -0.35326700
-0.63519400 2.57458000 -0.39354800
-0.58734000 2.58338000 -0.38668700
-0.60613700 2.60133000 -0.34551900
-0.54278500 2.59706000 -0.38189800
-0.56282100 2.60351000 -0.33604900
-0.68291700 2.56462000 -0.40313800
-0.65690300 2.55217000 -0.45308400
-0.60943000 2.56782000 -0.44659700
-0.63519400 2.57458000 -0.39354800
-0.65690300 2.55217000 -0.45308400
-0.62269700 2.55371000 -0.52566800
-0.57565700 2.57175000 -0.51772600
-0.70090100 2.53173000 -0.46312700
-0.66753100 2.50587000 -0.62497700
-0.74348500 2.50682000 -0.46680600
-0.75436400 2.47712000 -0.54094000
-0.62773800 2.42303000 -0.80483600
-0.65780200 2.38616000 -0.81159400
-0.70744300 2.41308000 -0.72997900
-0.74146600 2.36455000 -0.73611600
-0.68530400 2.34782000 -0.81301700
-0.65780200 2.38616000 -0.81159400
-0.63795500 2.32743000 -0.87982000
-0.60591100 2.36642000 -0.87679500
-0.63418300 2.19544000 -0.96801100
-0.66676700 2.13166000 -0.99970000
-0.62434800 2.17754000 -1.00656000
-0.58476100 2.22772000 -1.01279000
-0.66676700 2.13166000 -0.99970000
-0.66751400 2.11867000 -1.03964000
-0.62007100 2.16629000 -1.04550000
-0.66751400 2.11867000 -1.03964000
-0.71329100 2.05420000 -1.05259000
-0.66174400 2.10110000 -1.07090000
-0.66751400 2.11867000 -1.03964000
-0.66174400 2.10110000 -1.07090000
-0.62007100 2.16629000 -1.04550000
-0.71329100 2.05420000 -1.05259000
-0.69528700 2.03103000 -1.04702000
-0.64252300 2.07905000 -1.06589000
-0.67798700 2.01224000 -1.03695000
-0.60745300 2.04792000 -1.04969000
-0.66102000 1.99284000 -1.03068000
-0.58051400 2.02550000 -1.04765000
-0.65111200 1.96816000 -1.04912000
-0.59539500 2.03047000 -1.07178000
-0.59539500 2.03047000 -1.07178000
-0.65111200 1.96816000 -1.04912000
-0.68496800 2.00624000 -1.06879000
-0.94653800 2.24053000 -0.70742000
-1.00833000 2.14082000 -0.70146100
-0.98951200 2.25045000 -0.64365400
-1.02092000 2.18122000 -0.64839100
-1.00985000 2.27585000 -0.56452400
-0.96145400 2.36671000 -0.54230800
-0.98259600 2.29736000 -0.60256000
-1.01716000 2.32564000 -0.48958600
-1.03902000 2.24772000 -0.49156500
-1.01860000 2.30861000 -0.45461700
-1.01716000 2.32564000 -0.48958600
-1.01860000 2.30861000 -0.45461700
-0.98455600 2.37344000 -0.42946100
-1.00820000 2.29672000 -0.42544400
-1.18429000 2.90891000 0.66205000
-1.21326000 2.97907000 0.71652200
-1.23285000 2.97410000 0.67442100
-1.18184000 3.00548000 0.79805700
-1.21861000 3.07867000 0.81570900
-1.21861000 3.07867000 0.81570900
-1.18184000 3.00548000 0.79805700
-1.17581000 3.08130000 0.87817400
-1.24957000 3.15292000 0.83899100
-1.24255000 3.07348000 0.77592500
-0.98321900 2.89154000 1.10293000
-1.02502000 2.99978000 1.00949000
-0.97847100 2.91539000 1.03857000
-0.94858900 2.88140000 1.02274000
-0.94877200 2.86784000 1.05272000
-0.97642900 2.93997000 0.98374700
-0.97847100 2.91539000 1.03857000
-0.94910500 2.91146000 0.96964500
-0.94858900 2.88140000 1.02274000
-0.91555600 2.83448000 1.03466000
-1.12374000 2.19493000 -0.18946600
-1.05820000 2.28758000 -0.24470400
-1.11122000 2.17300000 -0.24724300
-1.16852000 2.00137000 -0.25899200
-1.10996000 2.03280000 -0.30348000
-1.14725000 1.97660000 -0.26898700
-1.18078000 1.93267000 -0.21872600
-1.21195000 1.90085000 -0.16295600
-1.26899000 1.90972000 -0.11251900
-1.18078000 1.93267000 -0.21872600
-1.14725000 1.97660000 -0.26898700
-1.12574000 1.95585000 -0.27341100
-1.14020000 1.89702000 -0.21962600
-1.20235000 1.86529000 -0.13614700
-1.21195000 1.90085000 -0.16295600
-1.24914000 1.87727000 -0.11173600
-1.19205000 1.84730000 -0.12119500
-1.19459000 1.85855000 -0.08574790
-1.24729000 1.84350000 -0.04183230
-1.26100000 1.84589000 0.15249600
-1.23922000 1.86605000 0.22549300
-1.25867000 1.88452000 0.22591200
-1.29506000 1.82790000 0.08820740
-1.28215000 1.85393000 0.15750300
-1.29914000 1.88924000 0.13065300
-1.29506000 1.82790000 0.08820740
-1.30452000 1.85671000 0.08540950
-1.31396000 1.83480000 0.01366800
-1.31396000 1.83480000 0.01366800
-1.29444000 1.86250000 -0.05711500
-1.27887000 1.83600000 -0.05550760
-1.27887000 1.83600000 -0.05550760
-1.25638000 1.81685000 -0.05059360
-1.29065000 1.79895000 0.02067410
-1.29444000 1.86250000 -0.05711500
-1.31439000 1.93189000 -0.04511360
-1.28572000 1.94624000 -0.10265900
-1.24914000 1.87727000 -0.11173600
-1.25529000 1.96842000 -0.15403100
-1.20327000 1.96092000 -0.21458000
-0.95245100 2.85135000 1.08434000
-0.94877200 2.86784000 1.05272000
-0.54080700 4.47693000 1.22225000
-0.47852000 4.52983000 1.21472000
-0.50347500 4.51798000 1.18026000
-0.56574900 4.47414000 1.20425000
-0.53217600 4.50879000 1.15721000
-0.56340000 4.50285000 1.14296000
-0.58992600 4.47721000 1.19153000
-0.59264100 4.50931000 1.13323000
-0.59264100 4.50931000 1.13323000
-0.56340000 4.50285000 1.14296000
-0.54640600 4.51626000 1.09250000
-0.61434800 4.49808000 1.18456000
2.47033000 4.10325000 0.29157000
2.43106000 4.23562000 0.41996800
2.47574000 4.11099000 0.35108200
2.25538000 4.02626000 1.02273000
2.28624000 3.91739000 0.96170000
2.22476000 4.06359000 0.97706200
1.65667000 2.88721000 1.78602000
1.61521000 2.90489000 1.81891000
1.60503000 2.86451000 1.79340000
1.59349000 2.82350000 1.76812000
1.58020000 2.78380000 1.74154000
1.59349000 2.82350000 1.76812000
1.60503000 2.86451000 1.79340000
1.51851000 2.86921000 1.81626000
1.52011000 2.80471000 1.77302000
1.52241000 2.74779000 1.72585000
1.45421000 2.78073000 1.75653000
1.46742000 2.71906000 1.70122000
1.50789000 2.71258000 1.69332000
1.43012000 2.72879000 1.70459000
1.43012000 2.72879000 1.70459000
1.39425000 2.78823000 1.75287000
1.38788000 2.70645000 1.67157000
1.41964000 2.69696000 1.66956000
1.36209000 2.71627000 1.67084000
1.36209000 2.71627000 1.67084000
1.33852000 2.72701000 1.66809000
1.32799000 2.69864000 1.63403000
1.28418000 2.66741000 1.58865000
1.24587000 2.60516000 1.50092000
1.26969000 2.66777000 1.61910000
1.22803000 2.60867000 1.55311000
1.11064000 2.53683000 1.56189000
1.17915000 2.56729000 1.55214000
1.13469000 2.56437000 1.60485000
1.10169000 2.52348000 1.54806000
1.10169000 2.52348000 1.54806000
1.11064000 2.53683000 1.56189000
1.08296000 2.52039000 1.57818000
0.67462300 2.41078000 1.77472000
0.61869400 2.37945000 1.81522000
0.67687800 2.37523000 1.82000000
0.24794100 2.12824000 1.82901000
0.23698000 2.08034000 1.83171000
0.25872500 2.17599000 1.82611000
0.22494300 2.16953000 1.80765000
0.21218900 2.12270000 1.81309000
0.24794100 2.12824000 1.82901000
0.21218900 2.12270000 1.81309000
0.15479300 2.00879000 1.80602000
0.15255300 1.94234000 1.76448000
0.15391200 1.95012000 1.79963000
0.14131600 2.00108000 1.77422000
0.14105400 1.99714000 1.74286000
0.15869600 1.93797000 1.73134000
0.15255300 1.94234000 1.76448000
0.15869600 1.93797000 1.73134000
0.21264500 1.81513000 1.68513000
0.17171000 1.88472000 1.75726000
0.17171000 1.88472000 1.75726000
0.16762800 1.89111000 1.79122000
0.22918000 1.75777000 1.71039000
0.19253300 1.83121000 1.76715000
0.19253300 1.83121000 1.76715000
0.19004400 1.83987000 1.79901000
0.21965000 1.77028000 1.76315000
0.21774800 1.77982000 1.78846000
0.21774800 1.77982000 1.78846000
0.21750200 1.79237000 1.81879000
0.21965000 1.77028000 1.76315000
0.24992800 1.72007000 1.79523000
0.25027900 1.74553000 1.84111000
0.24992800 1.72007000 1.79523000
0.30228800 1.65871000 1.77798000
0.29752100 1.68080000 1.82422000
0.29752100 1.68080000 1.82422000
0.29384700 1.70543000 1.86127000
0.35857700 1.64252000 1.82566000
0.35373600 1.65288000 1.84799000
0.35373600 1.65288000 1.84799000
0.36648900 1.67548000 1.91023000
0.35857700 1.64252000 1.82566000
0.41693100 1.62244000 1.84881000
0.40422000 1.63956000 1.88413000
0.41693100 1.62244000 1.84881000
0.40207400 1.62169000 1.81634000
0.47469200 1.60494000 1.87373000
0.46886200 1.61575000 1.89468000
0.61349500 1.57644000 1.89911000
0.68622600 1.60431000 1.90717000
0.75274300 1.64649000 1.90729000
0.80181400 1.70912000 1.89164000
0.84108900 1.77961000 1.89694000
0.78709200 1.72420000 1.90466000
0.83134100 1.79044000 1.91183000
0.84108900 1.77961000 1.89694000
0.83134100 1.79044000 1.91183000
0.88979600 1.83794000 1.86748000
0.85161800 1.76855000 1.88277000
0.74590100 1.72754000 1.93133000
0.82243200 1.79973000 1.92957000
0.82243200 1.79973000 1.92957000
0.81176800 1.80981000 1.94691000
0.85376400 1.86487000 1.94631000
0.85376400 1.86487000 1.94631000
0.79879800 1.82139000 1.96453000
0.83697100 1.87615000 1.96354000
0.83697100 1.87615000 1.96354000
0.86656700 1.93261000 1.95534000
0.86656700 1.93261000 1.95534000
0.79345900 1.89086000 1.93258000
0.86851500 1.99545000 1.93644000
0.89408300 1.98985000 1.94719000
0.89408300 1.98985000 1.94719000
0.86851500 1.99545000 1.93644000
0.88734400 2.05612000 1.93865000
0.88734400 2.05612000 1.93865000
0.86590900 2.05556000 1.91670000
0.85962600 2.10508000 1.89124000
0.90103000 2.11512000 1.92624000
0.90103000 2.11512000 1.92624000
0.92087600 2.10732000 1.90960000
0.92275300 2.16515000 1.89061000
0.90774900 2.16919000 1.90787000
0.88335500 2.20411000 1.88783000
0.90774600 2.20944000 1.88688000
0.90774900 2.16919000 1.90787000
0.90774600 2.20944000 1.88688000
0.92609800 2.18987000 1.86225000
0.88299800 2.23486000 1.87238000
0.90385100 2.22529000 1.86220000
0.90385100 2.22529000 1.86220000
0.91384800 2.21183000 1.84897000
0.90385100 2.22529000 1.86220000
0.88299800 2.23486000 1.87238000
0.87904700 2.25228000 1.85665000
0.89717100 2.24148000 1.79901000
0.91384800 2.21183000 1.84897000
0.91851400 2.20099000 1.81988000
0.92215200 2.19806000 1.83573000
0.91178300 2.21063000 1.79312000
0.91632500 2.16667000 1.79944000
0.92087300 2.17061000 1.81130000
0.91469100 2.16302000 1.78540000
0.95931400 2.16183000 1.78466000
0.99208200 2.12537000 1.82100000
0.95432600 2.11066000 1.80278000
1.09728000 2.05779000 1.80961000
1.23876000 2.00106000 1.76100000
1.15326000 1.96311000 1.81064000
1.19435000 1.91956000 1.79837000
1.13809000 2.06455000 1.78518000
1.20574000 2.04770000 1.76412000
1.27725000 1.95825000 1.75080000
1.26057000 2.06515000 1.73366000
1.28923000 2.01959000 1.72853000
1.23876000 2.00106000 1.76100000
1.28923000 2.01959000 1.72853000
1.32555000 1.97684000 1.72123000
1.27725000 1.95825000 1.75080000
1.17457000 2.09533000 1.76079000
1.20574000 2.04770000 1.76412000
1.17457000 2.09533000 1.76079000
1.09253000 2.13583000 1.77580000
1.14412000 2.14428000 1.75136000
1.14412000 2.14428000 1.75136000
1.20765000 2.15907000 1.72569000
1.05308000 2.18911000 1.77154000
1.10628000 2.19051000 1.73898000
1.14412000 2.14428000 1.75136000
1.10628000 2.19051000 1.73898000
1.17557000 2.20236000 1.71101000
1.20765000 2.15907000 1.72569000
1.00719000 2.24634000 1.76689000
1.06608000 2.23611000 1.72105000
1.06608000 2.23611000 1.72105000
0.98198800 2.27613000 1.72036000
1.04295000 2.28802000 1.69957000
0.97297000 2.31406000 1.66602000
1.02156000 2.33618000 1.66569000
1.04295000 2.28802000 1.69957000
1.02156000 2.33618000 1.66569000
1.02156000 2.33618000 1.66569000
0.97297000 2.31406000 1.66602000
0.97126100 2.38314000 1.55903000
1.07667000 2.35078000 1.58550000
1.08220000 2.31633000 1.63402000
1.20552000 2.42908000 1.35938000
1.23041000 2.46702000 1.30298000
1.25885000 2.43342000 1.32998000
1.08832000 2.46127000 1.37324000
1.23993000 2.49877000 1.25037000
1.30764000 2.47524000 1.25808000
1.38544000 2.50801000 1.15953000
1.37112000 2.47917000 1.21595000
1.30764000 2.47524000 1.25808000
1.37112000 2.47917000 1.21595000
1.44769000 2.44682000 1.21225000
1.41444000 2.48228000 1.18598000
1.41444000 2.48228000 1.18598000
1.41444000 2.48228000 1.18598000
1.38544000 2.50801000 1.15953000
1.44560000 2.50965000 1.11432000
1.45629000 2.48181000 1.15299000
1.48347000 2.44921000 1.17609000
1.49722000 2.48275000 1.11816000
1.49722000 2.48275000 1.11816000
1.53710000 2.48398000 1.08188000
1.53710000 2.48398000 1.08188000
1.59676000 2.44656000 1.06057000
1.56665000 2.46345000 1.11242000
1.17591000 2.52908000 0.36979100
1.05455000 2.53106000 0.38703000
1.01868000 2.53289000 0.36234200
1.01868000 2.53289000 0.36234200
1.05455000 2.53106000 0.38703000
1.02800000 2.52933000 0.42125500
1.04477000 2.53473000 0.32770900
-0.63854100 2.58542000 -0.19391700
-0.66675900 2.56267000 -0.26759900
-0.62358700 2.57583000 -0.25522600
-0.72155500 2.55417000 -0.22507100
-0.70916500 2.54670000 -0.28090900
-0.66675900 2.56267000 -0.26759900
-0.70916500 2.54670000 -0.28090900
-0.70696100 2.56437000 -0.32592200
-0.62358700 2.57583000 -0.25522600
-0.75096500 2.52738000 -0.29265300
-0.79064200 2.44279000 -0.54341400
-0.77218300 2.40943000 -0.64410900
-0.71522700 2.46469000 -0.64044800
-0.82129900 2.40548000 -0.54841600
-0.87889000 2.35871000 -0.50069700
-0.79859100 2.37273000 -0.64897300
-0.86712000 2.32610000 -0.56966600
-0.76415400 2.32674000 -0.73559100
-0.76415400 2.32674000 -0.73559100
-0.81715800 2.33221000 -0.65196600
-0.83482800 2.29219000 -0.65496800
-0.68530400 2.34782000 -0.81301700
-0.74146600 2.36455000 -0.73611600
-0.72697200 2.21120000 -0.85849200
-0.72287500 2.10634000 -0.94043500
-0.63834800 2.24900000 -0.93071800
-0.68886800 2.26457000 -0.87245200
-0.74143800 2.06925000 -0.97678900
-0.83803200 2.01183000 -0.95820400
-0.77222000 2.04544000 -1.00666000
-0.81783600 1.98632000 -0.99036700
-0.79683900 1.94113000 -0.98272700
-0.72668000 1.98748000 -1.01908000
-0.69528700 2.03103000 -1.04702000
-0.78777800 1.91042000 -0.98118100
-0.71899200 1.94521000 -1.00631000
-0.66102000 1.99284000 -1.03068000
-0.78357700 1.88272000 -0.98453200
-0.70567000 1.91596000 -1.00473000
-0.71899200 1.94521000 -1.00631000
-0.70567000 1.91596000 -1.00473000
-0.64236200 1.96952000 -1.02939000
-0.79945400 1.89456000 -1.00349000
-0.71942400 1.92248000 -1.02489000
-0.71942400 1.92248000 -1.02489000
-0.71942400 1.92248000 -1.02489000
-0.73973900 1.94569000 -1.03414000
-0.78719500 2.00432000 -1.04458000
-0.81678200 2.04494000 -1.03966000
-0.75835800 2.06939000 -1.07002000
-0.83025000 1.95187000 -1.01128000
-0.88480600 1.92454000 -0.97066700
-0.89962700 1.99038000 -0.97402500
-0.97767700 2.00941000 -0.89341100
-1.02313000 2.00991000 -0.77571400
-1.01268000 2.04272000 -0.79666500
-1.05329000 2.19036000 -0.53771100
-1.03317000 2.23090000 -0.46351700
-1.03738000 2.25392000 -0.53415800
-1.03317000 2.23090000 -0.46351700
-1.04978000 2.17098000 -0.51118100
-1.03829000 2.15519000 -0.48921900
-1.02152000 2.21866000 -0.44292100
-1.03902000 2.24772000 -0.49156500
-1.03829000 2.15519000 -0.48921900
-1.04800000 2.09450000 -0.53723900
-1.03270000 2.07764000 -0.51744300
-1.02211000 2.14082000 -0.47066800
-1.02211000 2.14082000 -0.47066800
-1.00445000 2.20865000 -0.42731900
-1.03829000 2.15519000 -0.48921900
-1.05784000 2.11332000 -0.56010200
-1.04800000 2.09450000 -0.53723900
-1.00948000 2.06035000 -0.49934600
-1.00061000 2.12924000 -0.45683800
-1.00061000 2.12924000 -0.45683800
-0.99022000 2.11988000 -0.49274000
-0.96843300 2.19290000 -0.43279200
-0.98996600 2.20393000 -0.42090800
-0.96233900 2.21452000 -0.49781600
-0.93737700 2.22455000 -0.54232900
-0.92219000 2.26872000 -0.52067400
-0.92219000 2.26872000 -0.52067400
-0.93737700 2.22455000 -0.54232900
-0.88423300 2.28414000 -0.58122900
-0.92219000 2.26872000 -0.52067400
-0.90467600 2.31240000 -0.50142200
-0.94451700 2.30411000 -0.44322200
-0.94744400 2.26067000 -0.46189400
-0.92996100 2.35044000 -0.43172000
-0.92289500 2.33429000 -0.38847500
-0.94001700 2.29226000 -0.39144800
-0.90338600 2.39217000 -0.38717800
-0.89324300 2.37842000 -0.35326000
-0.91096100 2.32502000 -0.35653600
-0.86015600 2.42526000 -0.35025700
-0.82486300 2.46336000 -0.30820900
-0.85614000 2.41810000 -0.31247900
-0.74471200 2.55637000 -0.06560340
-0.65501400 2.57670000 -0.04188800
-0.70683400 2.56156000 0.02319720
-0.58544500 2.61693000 0.17538700
-0.61122000 2.57358000 0.29320800
-0.61736600 2.58536000 0.17748100
0.95267600 2.52750000 0.49370100
1.03439000 2.52061000 0.56566300
1.07517000 2.52297000 0.50473600
1.06467000 2.52695000 0.44601700
1.10212000 2.52457000 0.47137600
1.10212000 2.52457000 0.47137600
1.11419000 2.52121000 0.53083800
1.07517000 2.52297000 0.50473600
1.06467000 2.52695000 0.44601700
1.30257000 2.53015000 0.62878000
1.18809000 2.52160000 0.58829600
1.27733000 2.53269000 0.39895100
1.12631000 2.51871000 0.59049900
1.08607000 2.51965000 0.56329400
1.08607000 2.51965000 0.56329400
1.12631000 2.51871000 0.59049900
1.09691000 2.51843000 0.62227400
1.11419000 2.52121000 0.53083800
0.91254700 2.52612000 0.64916600
-0.03535200 2.58159000 0.66176300
-0.09258050 2.55418000 0.84862700
-0.17157100 2.60516000 0.53175100
-0.40220100 2.60188000 0.50956600
-0.47420000 2.58893000 0.58017500
-0.50385100 2.59605000 0.46562500
-0.52574700 2.58472000 0.53931900
-0.54339500 2.58412000 0.47334100
-0.50385100 2.59605000 0.46562500
-0.54339500 2.58412000 0.47334100
-0.51970100 2.60169000 0.40549800
-0.51970100 2.60169000 0.40549800
-0.65041300 2.54754000 0.29922700
-0.85598000 2.46796000 -0.12173400
-0.91223300 2.39817000 -0.14966700
-0.89104100 2.43664000 -0.22503600
-0.85304400 2.47549000 -0.20773000
-0.81411100 2.50807000 -0.18760100
-0.92108800 2.38654000 -0.23935500
-0.91386700 2.38387000 -0.29035100
-0.94792300 2.33084000 -0.30588000
-0.92055300 2.32229000 -0.33038800
-0.87935200 2.43247000 -0.27787500
-0.92055300 2.32229000 -0.33038800
-0.94792300 2.33084000 -0.30588000
-0.98083900 2.27813000 -0.29093300
-0.95483700 2.27134000 -0.32507000
-0.98083900 2.27813000 -0.29093300
-0.94785300 2.33156000 -0.24674200
-0.96361100 2.28020000 -0.23385000
-0.96550200 2.36946000 -0.06482200
-0.90735600 2.44166000 -0.04557400
-0.58359500 2.52511000 0.54974000
-0.53289700 2.55231000 0.61778300
-0.53740300 2.51221000 0.68787000
-0.47631900 2.57128000 0.67694600
-0.50617000 2.54295000 0.68949100
-0.44580600 2.56078000 0.74168600
-0.47419100 2.53057000 0.75797600
-0.47631900 2.57128000 0.67694600
-0.44580600 2.56078000 0.74168600
-0.37051800 2.54213000 0.88200400
1.13721000 2.51886000 0.65022800
1.17807000 2.52067000 0.67919600
1.14710000 2.52008000 0.71005000
1.17807000 2.52067000 0.67919600
1.18860000 2.52116000 0.74013500
1.14710000 2.52008000 0.71005000
1.22492000 2.52201000 0.73414700
1.23936000 2.52140000 0.83279300
1.19758000 2.52083000 0.80110900
1.15594000 2.52076000 0.77025500
1.15594000 2.52076000 0.77025500
1.19758000 2.52083000 0.80110900
1.02500000 2.52363000 0.96926000
0.97620200 2.52346000 0.76753800
1.18860000 2.52116000 0.74013500
0.04146330 2.55654000 0.86191400
-0.01285330 2.53053000 1.07861000
-0.41174800 2.51612000 0.87011500
-0.44580600 2.56078000 0.74168600
-0.37051800 2.54213000 0.88200400
-1.05154000 2.18947000 -0.11062000
-1.07605000 2.19493000 -0.01587540
-1.06606000 2.12604000 -0.13727600
-1.03558000 2.15629000 -0.17278400
-1.06698000 2.07255000 -0.22127900
-1.09605000 2.05017000 -0.27746200
-1.12641000 1.98933000 -0.25037800
-1.08054000 2.03091000 -0.28524900
-1.03942000 2.07836000 -0.30390900
-1.03942000 2.07836000 -0.30390900
-1.08054000 2.03091000 -0.28524900
-1.06260000 2.01693000 -0.28686800
-1.01687000 2.07059000 -0.30643000
-0.98258400 2.15109000 -0.31857900
-1.00251000 2.14748000 -0.31601900
-1.02797000 2.15599000 -0.30139200
-1.05865000 2.09803000 -0.29534700
-0.96114700 2.21866000 -0.32582500
-0.98258400 2.15109000 -0.31857900
-1.01687000 2.07059000 -0.30643000
-1.03156000 2.01046000 -0.29694200
-0.96776700 2.13465000 -0.32428700
-0.98258400 2.15109000 -0.31857900
-0.96776700 2.13465000 -0.32428700
-0.94022200 2.20570000 -0.36085700
-0.95732000 2.25626000 -0.38549100
-0.97346000 2.04285000 -0.32696500
-0.95619000 2.12570000 -0.35211500
-1.00322000 2.05493000 -0.33846700
-0.98642200 2.13421000 -0.35218600
-1.04583000 2.07291000 -0.33193900
-1.00990000 2.14120000 -0.34790600
-0.99929100 2.20993000 -0.35154400
-0.99929100 2.20993000 -0.35154400
-1.00990000 2.14120000 -0.34790600
-1.03445000 2.14841000 -0.34250100
-0.98295000 2.25587000 -0.35398300
-0.97871900 2.19485000 -0.35850900
-1.16129000 2.92240000 0.74597600
-1.08345000 2.82543000 0.72456000
-1.10423000 2.91387000 0.79811400
-1.14672000 2.94520000 0.78304500
-1.10765000 2.95606000 0.83927400
-1.14761000 3.35592000 1.15587000
-1.16588000 3.47942000 1.21117000
-1.13605000 3.36318000 1.07866000
-0.89477100 2.70849000 0.71252300
-0.93177300 2.76035000 0.76487000
-0.97609700 2.72759000 0.69492000
-1.07804000 2.09387000 -0.32383300
-1.13258000 2.05442000 -0.29189100
-1.07804000 2.09387000 -0.32383300
-1.05803000 2.15810000 -0.33390100
-1.03445000 2.14841000 -0.34250100
-1.08217000 2.01247000 -0.31214500
-1.10996000 2.03280000 -0.30348000
-1.12574000 1.95585000 -0.27341100
-1.14725000 1.97660000 -0.26898700
-1.10453000 1.93782000 -0.27458700
-1.04143000 1.98306000 -0.31494600
-1.07686000 1.91836000 -0.27005900
-1.10453000 1.93782000 -0.27458700
-1.07686000 1.91836000 -0.27005900
-1.10903000 1.88472000 -0.20151800
-1.21837000 1.89747000 -0.09892680
-1.17373000 1.91943000 -0.13659200
-1.19507000 1.93101000 -0.14852100
-1.20344000 1.89989000 0.29452800
-1.17307000 1.96277000 0.34593600
-1.19452000 1.98447000 0.33709900
-1.22645000 1.92845000 0.28548400
-1.21726000 2.01464000 0.32160300
-1.23957000 1.94989000 0.27691300
-1.26794000 1.90908000 0.21753800
-1.28667000 1.98892000 0.18627000
-1.19470000 2.18307000 0.08169800
-1.23018000 2.09166000 0.06248320
-1.20518000 2.12412000 0.20745600
-0.69356200 2.78610000 1.45314000
-0.66254400 2.75082000 1.42454000
-0.59518100 2.72717000 1.42089000
-0.75191500 2.82731000 1.44257000
-0.72385600 2.78756000 1.41758000
-0.69356200 2.78610000 1.45314000
-0.72385600 2.78756000 1.41758000
-0.66254400 2.75082000 1.42454000
-0.63040000 2.71782000 1.39515000
-0.65920100 2.71516000 1.35801000
-0.74205100 2.76742000 1.35728000
-0.77172500 2.75002000 1.29457000
-0.84818300 2.43660000 0.51619900
-0.89638600 2.40342000 0.54218700
-0.86790400 2.45080000 0.56436900
-1.11531000 2.19989000 0.41522900
-1.11183000 2.10442000 0.41125900
-1.08272000 2.17640000 0.42604100
-1.05280000 2.24308000 0.43291900
-1.08714000 2.26992000 0.41890800
-1.05280000 2.24308000 0.43291900
-1.08272000 2.17640000 0.42604100
-1.06159000 2.16396000 0.42554400
-1.00113000 2.35999000 0.42982100
-1.02658000 2.23358000 0.43637800
-1.00159000 2.22735000 0.42839500
-1.06029000 2.23949000 0.17750100
-1.05265000 2.21296000 0.29188200
-1.09799000 2.14912000 0.15350400
-1.13375000 2.05919000 0.25231700
-1.21605000 1.97268000 0.24173100
-1.17280000 2.00323000 0.18232200
-1.16039000 2.06694000 0.33503000
-1.14574000 2.04940000 0.35341100
-1.18371000 1.99383000 0.31240500
-1.12861000 2.03282000 0.36840600
-1.11183000 2.10442000 0.41125900
-1.14232000 2.03431000 0.38253700
-1.14232000 2.03431000 0.38253700
-1.14475000 2.12379000 0.39812400
-1.19452000 1.98447000 0.33709900
-1.17307000 1.96277000 0.34593600
-1.08978000 2.09396000 0.40272700
-1.10176000 2.28293000 0.33155100
-1.04894000 2.37657000 0.32717900
-1.06715000 2.37917000 0.28623700
-0.84099700 2.82599000 1.32853000
-0.84219900 2.86156000 1.38607000
-0.81451600 2.82408000 1.36917000
-0.78470600 2.82517000 1.40712000
-0.65803300 3.24995000 1.75245000
-0.70309400 3.08912000 1.66790000
-0.58717900 3.08776000 1.71641000
-0.75146400 2.87913000 1.51360000
-0.82248800 2.95523000 1.50426000
-0.77820900 2.86905000 1.46578000
-0.82187100 2.87886000 1.43895000
-0.78470600 2.82517000 1.40712000
-0.75191500 2.82731000 1.44257000
-0.81451600 2.82408000 1.36917000
-0.74988800 2.52582000 0.52421400
-0.82113000 2.49342000 0.55799000
-0.94915000 2.28145000 0.49087800
-0.95370100 2.23949000 0.47722800
-0.96405900 2.18504000 0.47347200
-0.96405900 2.18504000 0.47347200
-0.95370100 2.23949000 0.47722800
-0.94221100 2.23654000 0.46928400
-0.94241500 2.09883000 0.48334500
-0.96182200 2.11173000 0.47025100
-0.94789200 1.93890000 0.69379100
-0.91530200 1.98564000 0.79995900
-0.93414200 1.92676000 0.79575900
-0.88972500 1.98832000 0.87859000
-0.93076900 1.90265000 0.83439500
-0.84612900 1.99099000 0.96321100
-0.86465200 1.95216000 0.94788900
-0.84612900 1.99099000 0.96321100
-0.81883300 1.95243000 1.01752000
-0.84327300 1.91154000 1.00224000
-0.86465200 1.95216000 0.94788900
-0.85334400 2.07750000 0.90695300
-0.82632900 2.03225000 0.97337400
-0.80079500 1.99864000 1.03009000
-0.80876700 2.07633000 0.98039700
-0.77149200 2.12080000 1.02272000
-0.70718100 2.07349000 1.13530000
-0.68461500 2.12178000 1.18755000
-0.70581900 2.04261000 1.20590000
-0.59575600 2.19957000 1.19778000
-0.65307100 2.11793000 1.20710000
-0.20467400 2.43965000 1.18073000
-0.10435400 2.44008000 1.26291000
-0.12920300 2.42338000 1.31740000
1.22857000 2.51937000 1.01180000
1.24993000 2.52083000 0.95607800
1.28924000 2.51944000 0.99029400
1.32646000 2.51717000 1.02492000
1.36221000 2.51351000 1.06018000
1.32021000 2.51275000 1.08905000
1.32646000 2.51717000 1.02492000
1.28924000 2.51944000 0.99029400
1.37174000 2.52185000 0.91907000
1.36221000 2.51351000 1.06018000
1.52300000 2.51160000 1.04326000
1.35330000 2.51078000 1.12499000
1.28686000 2.52115000 0.92755000
1.24617000 2.52128000 0.89450500
1.20468000 2.52106000 0.86193200
1.20468000 2.52106000 0.86193200
1.24617000 2.52128000 0.89450500
1.23936000 2.52140000 0.83279300
-0.62393200 2.42044000 0.84855200
-0.70024300 2.41140000 0.77593000
-0.62701700 2.45839000 0.74349300
-0.82839500 2.26756000 0.82207400
-0.79159200 2.24042000 0.91392500
-0.81341200 2.19764000 0.91531200
-0.76586700 2.28195000 0.90985600
-0.76586700 2.28195000 0.90985600
-0.75048900 2.21402000 0.99366400
-0.79159200 2.24042000 0.91392500
-0.77297000 2.34596000 0.80339900
-0.73543900 2.32058000 0.90166900
-0.73543900 2.32058000 0.90166900
-0.68482200 2.29672000 0.99474900
-0.73975600 2.38154000 0.79104800
-0.70196500 2.35760000 0.89012800
-0.64545100 2.32855000 0.99359800
-0.81341200 2.19764000 0.91531200
-0.79433400 2.12328000 0.98674100
-0.83182600 2.15410000 0.91426900
-0.83182600 2.15410000 0.91426900
-0.86644900 2.17244000 0.82501000
-0.79433400 2.12328000 0.98674100
-0.80876700 2.07633000 0.98039700
-0.67365800 2.17823000 1.11411000
1.28686000 2.52115000 0.92755000
1.24993000 2.52083000 0.95607800
1.32021000 2.51275000 1.08905000
1.26773000 2.50752000 1.18989000
-0.53138300 2.11416000 1.22494000
-0.53856300 2.00768000 1.23810000
-0.53287700 2.11416000 1.20273000
-0.53718700 2.11631000 1.18697000
-0.56127400 2.05655000 1.18698000
-0.56147600 2.12579000 1.19765000
-0.57217400 2.06042000 1.20983000
-0.56391900 2.12422000 1.21265000
-0.56147600 2.12579000 1.19765000
-0.55001500 2.17725000 1.21686000
-0.59575600 2.19957000 1.19778000
-0.54035100 2.21616000 1.22756000
-0.55698800 2.20575000 1.30014000
-0.51517800 2.28869000 1.21789000
-0.68548400 1.98384000 1.22885000
-0.72777000 1.87622000 1.21557000
-0.68849700 1.86114000 1.20600000
-0.65675800 1.93820000 1.21689000
-0.64886800 2.01508000 1.22690000
-0.65675800 1.93820000 1.21689000
-0.64650700 1.93893000 1.19392000
-0.62628900 2.01445000 1.21100000
-0.64886800 2.01508000 1.22690000
-0.62628900 2.01445000 1.21100000
-0.62713000 2.08679000 1.22699000
-0.64412500 2.14693000 1.23765000
-0.67973200 2.09443000 1.23855000
-0.62713000 2.08679000 1.22699000
-0.62311600 2.08974000 1.21266000
-0.59755800 2.15220000 1.22363000
-0.61664100 2.15325000 1.23380000
-0.59645100 2.16676000 1.20878000
-0.63709500 2.10067000 1.20852000
-0.80045900 1.89398000 1.10282000
-0.84139000 1.84929000 1.07898000
-0.83651700 1.87716000 1.04293000
-0.83651700 1.87716000 1.04293000
-0.84139000 1.84929000 1.07898000
-0.89952900 1.80452000 1.02245000
-0.88783900 1.83117000 0.99780700
-0.87022900 1.87798000 0.97694500
-0.84327300 1.91154000 1.00224000
-1.00805000 1.83572000 0.72987400
-0.96967300 1.88603000 0.72069200
-0.98480900 1.84321000 0.76737400
-0.95206700 2.00155000 0.47976700
-0.95595600 1.93395000 0.49094700
-0.98665900 2.02641000 0.49176100
-0.95206700 2.00155000 0.47976700
-0.93273800 2.00276000 0.49368600
-0.98524500 2.16042000 0.48625500
-0.96182200 2.11173000 0.47025100
-1.01335000 2.14677000 0.52368200
-1.00108000 2.20509000 0.52827300
-1.00108000 2.20509000 0.52827300
-1.01335000 2.14677000 0.52368200
-1.02544000 2.15598000 0.54911800
-1.00986000 2.21272000 0.55266000
-1.00986000 2.21272000 0.55266000
-0.98907900 2.26318000 0.55350700
-0.95930100 2.28880000 0.51475000
-0.98907900 2.26318000 0.55350700
-0.95388500 2.30731000 0.57940400
-0.96570600 2.30858000 0.55057400
-0.96570600 2.30858000 0.55057400
-0.95388500 2.30731000 0.57940400
-0.93257100 2.35005000 0.57574300
-0.94171700 2.34363000 0.54715900
-0.93257100 2.35005000 0.57574300
-0.92698000 2.33107000 0.60645700
-0.89455500 2.38981000 0.59994200
-0.91069800 2.39247000 0.57119100
-0.91069800 2.39247000 0.57119100
-0.85126400 2.44809000 0.59445800
-0.89455500 2.38981000 0.59994200
-0.87888400 2.39691000 0.63688700
-0.57515500 2.66795000 1.33685000
-0.53210400 2.67234000 1.35841000
-0.56313800 2.69918000 1.38949000
-0.59518100 2.72717000 1.42089000
-0.56313800 2.69918000 1.38949000
-0.52833500 2.70914000 1.41260000
-0.55895400 2.73595000 1.44509000
-0.60586100 2.78851000 1.49461000
-0.63040000 2.71782000 1.39515000
-0.34699000 3.30446000 2.01631000
-0.31715600 3.21748000 2.02820000
-0.30061200 3.31493000 2.06762000
-0.03111470 3.58744000 2.26823000
0.04833500 3.53430000 2.28246000
0.05366630 3.56535000 2.26779000
0.04787100 3.59597000 2.24563000
0.10640100 3.55447000 2.25814000
-0.26723600 3.60091000 2.04273000
-0.33000200 3.57136000 1.99009000
-0.21517600 3.60341000 2.15103000
-0.41887400 4.43654000 1.55271000
-0.37857800 4.46826000 1.52539000
-0.38792900 4.44118000 1.48618000
-0.38792900 4.44118000 1.48618000
-0.32857600 4.48765000 1.50636000
-0.33416900 4.46181000 1.46878000
-0.34641100 4.45873000 1.43062000
-0.39696900 4.42737000 1.44920000
-0.39696900 4.42737000 1.44920000
-0.45325300 4.39174000 1.50442000
-0.34641100 4.45873000 1.43062000
-0.36438000 4.47687000 1.39630000
-0.40816400 4.43547000 1.41100000
-0.45649400 4.37232000 1.44260000
-0.46773000 4.37762000 1.40290000
-0.41773300 4.44225000 1.37008000
-0.43770200 4.45505000 1.33403000
-0.42582300 4.53725000 1.28672000
-0.39996500 4.51562000 1.32002000
-0.34801700 4.52460000 1.32561000
-0.44107500 4.55109000 1.18291000
-0.47728800 4.54996000 1.14628000
-0.34852700 4.57787000 1.24912000
-0.38409500 4.55945000 1.26411000
-0.34801700 4.52460000 1.32561000
-0.29997000 4.53201000 1.34068000
-0.31581600 4.49056000 1.38194000
-0.31581600 4.49056000 1.38194000
-0.38187800 4.49953000 1.35941000
-0.36438000 4.47687000 1.39630000
-0.22446900 4.48048000 1.48869000
-0.28080900 4.47276000 1.45212000
-0.26811100 4.51009000 1.53560000
-0.20571000 4.51780000 1.56391000
-0.30700900 4.51925000 1.66184000
-0.32902200 4.50304000 1.68494000
-0.29528000 4.50225000 1.72428000
-0.27563300 4.51586000 1.70289000
-0.29528000 4.50225000 1.72428000
-0.25643500 4.49462000 1.75645000
-0.23911100 4.50826000 1.73678000
-0.27563300 4.51586000 1.70289000
-0.27706200 4.47160000 1.77380000
-0.25643500 4.49462000 1.75645000
-0.20955800 4.48516000 1.77767000
-0.22154400 4.38266000 1.80875000
-0.20506900 4.23199000 1.85710000
-0.17498500 4.36668000 1.82120000
0.10084200 3.51803000 2.27506000
0.10640100 3.55447000 2.25814000
0.05366630 3.56535000 2.26779000
0.04833500 3.53430000 2.28246000
0.03962230 3.50428000 2.28998000
0.07695280 3.45421000 2.28135000
0.09060330 3.48489000 2.28318000
-0.01797970 3.48722000 2.28928000
0.01937000 3.44867000 2.27865000
0.03005320 3.47500000 2.28746000
-0.02749860 3.43770000 2.26529000
0.00905550 3.42522000 2.26144000
0.06127730 3.42548000 2.27266000
0.06119040 3.37774000 2.23666000
0.12703300 3.41967000 2.26555000
0.13623800 3.26096000 2.18925000
0.01806460 3.30269000 2.19950000
0.04364300 3.16146000 2.15158000
-0.02774470 3.26521000 2.17139000
-0.00533293 3.11000000 2.11558000
-0.00062201 3.06830000 2.09976000
0.05888560 3.04478000 2.11026000
-0.00533293 3.11000000 2.11558000
-0.02774470 3.26521000 2.17139000
-0.06656640 3.13692000 2.11964000
-0.05865990 3.06611000 2.09361000
-0.00062201 3.06830000 2.09976000
-0.05865990 3.06611000 2.09361000
-0.05339300 3.02359000 2.07535000
0.00712940 2.99733000 2.07129000
-0.10779900 3.02779000 2.05957000
-0.05339300 3.02359000 2.07535000
-0.10779900 3.02779000 2.05957000
-0.09630160 2.95804000 2.02547000
-0.04795030 2.98036000 2.05728000
-0.23135600 2.95297000 1.95007000
-0.27965900 2.89155000 1.86809000
-0.21129000 2.87803000 1.90793000
-0.27255600 2.68964000 1.37174000
-0.30304800 2.74373000 1.46949000
-0.37512000 2.67665000 1.39570000
-0.32579300 2.60847000 1.17576000
-0.30332800 2.61515000 1.15559000
-0.26432400 2.61850000 1.20289000
-0.33239800 2.58363000 1.10892000
-0.35884500 2.58661000 1.14603000
-0.35049500 2.57423000 1.09745000
-0.33239800 2.58363000 1.10892000
-0.35049500 2.57423000 1.09745000
-0.33731800 2.56711000 1.08321000
-0.31017100 2.56131000 1.09158000
-0.33731800 2.56711000 1.08321000
-0.38197100 2.56440000 1.07889000
-0.35380100 2.56417000 1.07101000
-0.34171900 2.55527000 1.05829000
-0.34171900 2.55527000 1.05829000
-0.38246300 2.56599000 1.04952000
-0.37058700 2.55786000 1.03680000
-0.37058700 2.55786000 1.03680000
-0.37082900 2.54310000 1.01312000
-1.07598000 1.91364000 0.68425700
-1.06868000 1.93809000 0.61852800
-1.07904000 1.89053000 0.65328300
-1.08543000 1.84539000 0.69584800
-1.08543000 1.84539000 0.69584800
-1.07904000 1.89053000 0.65328300
-1.06143000 1.85600000 0.61443800
-1.06959000 1.81025000 0.65955100
-1.07673000 1.78380000 0.72467800
-1.08529000 1.80721000 0.74586100
-1.06688000 1.76204000 0.70534100
-1.07673000 1.78380000 0.72467800
-1.06688000 1.76204000 0.70534100
-1.06219000 1.72847000 0.76332900
-1.07497000 1.75956000 0.78867200
-1.04433000 1.68077000 0.81183000
-1.06322000 1.72310000 0.83730800
-1.06219000 1.72847000 0.76332900
-1.04447000 1.72668000 0.67568500
-1.05211000 1.70750000 0.74761500
-1.05211000 1.70750000 0.74761500
-1.04034000 1.68781000 0.73261500
-1.00040000 1.63910000 0.85809100
-1.02685000 1.66793000 0.87582900
-1.00040000 1.63910000 0.85809100
-1.03005000 1.65700000 0.79592200
-1.00901000 1.65810000 0.78772900
-0.94607600 1.65484000 0.90561000
-0.96170100 1.63754000 0.91608400
-0.96170100 1.63754000 0.91608400
-0.98043500 1.65647000 0.92759900
-0.98043500 1.65647000 0.92759900
-0.92152200 1.64361000 0.97388500
-0.94406400 1.66226000 0.98469100
-0.94406400 1.66226000 0.98469100
-1.00271000 1.68928000 0.94494600
-0.90644600 1.67172000 1.04606000
-0.77200900 1.81378000 1.19141000
-0.80023700 1.73988000 1.14707000
-0.74164900 1.79416000 1.18205000
-0.68617000 1.86606000 1.18555000
-0.73968400 1.89937000 1.19826000
-0.67827700 1.95119000 1.19670000
-0.68849700 1.86114000 1.20600000
-0.85134600 1.81170000 1.13318000
-0.89330000 1.76574000 1.08973000
-0.89825800 1.79609000 1.07369000
-0.85494200 1.83530000 1.11119000
-0.89825800 1.79609000 1.07369000
-0.94123700 1.76851000 1.03081000
-0.85494200 1.83530000 1.11119000
-0.94799000 1.80004000 0.93026800
-0.99558200 1.76383000 0.91974500
-0.98127400 1.80527000 0.86661900
-0.99596300 1.77087000 0.61876200
-0.99259900 1.80778000 0.55615000
-0.97749100 1.81885000 0.57226200
-1.00418000 1.81142000 0.61198400
-0.97169000 1.86587000 0.51298800
-0.96012500 1.87409000 0.53150600
-0.99740600 1.87914000 0.52645200
-1.02689000 1.89570000 0.54988400
-1.01327000 1.98509000 0.51931900
-1.03169000 2.09429000 0.54519200
-1.00982000 2.08335000 0.50938300
-1.03169000 2.09429000 0.54519200
-1.03685000 2.03206000 0.55129300
-1.03695000 2.04616000 0.58141900
-1.01092000 2.15930000 0.57853800
-1.02544000 2.15598000 0.54911800
-0.96527300 2.24492000 0.61331000
-0.97625700 2.25888000 0.57749100
-0.91393300 2.34207000 0.65083100
-0.87888400 2.39691000 0.63688700
-0.82357900 2.45295000 0.71075500
-0.77874400 2.49005000 0.73873300
-0.83286900 2.45713000 0.66517600
-0.47167000 2.58734000 1.19768000
-0.47629300 2.63126000 1.29791000
-0.54564400 2.62525000 1.25964000
-0.49883100 2.68680000 1.37849000
-0.41793500 2.65719000 1.32778000
-0.46377400 2.69505000 1.39595000
-0.56313800 2.69918000 1.38949000
-0.53210400 2.67234000 1.35841000
-0.49168400 2.76366000 1.50107000
-0.57681300 2.81367000 1.52319000
-0.52140800 2.74781000 1.46477000
-0.06548600 3.43958000 2.26713000
-0.05604550 3.39579000 2.23249000
-0.00583870 3.36758000 2.22419000
-0.02749860 3.43770000 2.26529000
-0.08510190 3.33752000 2.19639000
-0.14820000 3.26926000 2.13347000
-0.07532940 3.24332000 2.15769000
-0.16797000 3.20399000 2.10081000
-0.16482500 3.06239000 2.05155000
-0.29700200 3.01809000 1.95153000
-0.34251400 3.13268000 1.95245000
-0.32108700 2.99496000 1.90261000
-0.40559300 2.56014000 1.12765000
-0.38313500 2.55775000 1.10525000
-0.39396300 2.56019000 1.02305000
-0.39396300 2.56019000 1.02305000
-0.40833600 2.58439000 1.02249000
-0.40962200 2.56771000 1.00722000
-0.40962200 2.56771000 1.00722000
-0.40830800 2.55321000 1.00356000
-0.41041500 2.53876000 1.00502000
-0.42266500 2.57738000 0.98572100
-0.42815700 2.56165000 0.98788800
-0.40830800 2.55321000 1.00356000
-0.42815700 2.56165000 0.98788800
-0.41041500 2.53876000 1.00502000
-0.93097300 2.28633000 0.69809700
-0.98874500 2.12941000 0.65557900
-1.00434000 2.04151000 0.71896400
-1.01645000 2.06668000 0.61973200
-0.99427500 2.15542000 0.61437100
-1.05026000 1.98889000 0.59659600
-1.03371000 2.00543000 0.63176700
-1.05026000 1.98889000 0.59659600
-1.03695000 2.04616000 0.58141900
-1.03685000 2.03206000 0.55129300
-1.05252000 1.91926000 0.58723200
-1.06868000 1.93809000 0.61852800
-1.04034000 1.68781000 0.73261500
-1.01400000 1.67016000 0.71934400
-1.01400000 1.67016000 0.71934400
-1.00901000 1.65810000 0.78772900
-1.03005000 1.65700000 0.79592200
-0.97810300 1.70589000 0.91502500
-0.95909400 1.71857000 0.97595900
-0.94097300 1.69542000 0.97215500
-0.92669200 1.67085000 0.96975200
-0.92669200 1.67085000 0.96975200
-0.94097300 1.69542000 0.97215500
-0.90918500 1.70925000 1.03178000
-0.88465300 1.66601000 1.03344000
-0.92152200 1.64361000 0.97388500
-0.88465300 1.66601000 1.03344000
-0.92152200 1.64361000 0.97388500
-0.85991200 1.72271000 1.08903000
-0.84491800 1.69962000 1.09050000
-0.85677300 1.69648000 1.10288000
-0.90644600 1.67172000 1.04606000
-0.85677300 1.69648000 1.10288000
-0.92863100 1.70160000 1.05140000
-0.83363700 1.76905000 1.15487000
-0.95909400 1.71857000 0.97595900
-1.00324000 1.73140000 0.92526500
-0.97694200 1.74560000 0.98054600
-0.97694200 1.74560000 0.98054600
-0.94123700 1.76851000 1.03081000
-0.88325100 2.36961000 0.73342400
-0.46228600 2.55586000 0.94171000
-0.44819800 2.57782000 0.95108300
-0.48129200 2.59002000 0.85175300
-0.42266500 2.57738000 0.98572100
-0.81215200 1.76871000 1.13253000
-0.78271200 1.84152000 1.17368000
-0.74033500 1.80253000 1.16577000
-0.76610400 2.29652000 1.05104000
-0.75592700 2.37967000 0.98678400
-0.79378100 2.31819000 1.00826000
-0.28062300 2.58899000 1.12445000
-0.29342200 2.60876000 1.13323000
-0.24677900 2.69743000 1.61151000
-0.20049600 2.70514000 1.69411000
-0.28013500 2.73697000 1.66326000
-0.19493500 2.75600000 1.77762000
-0.14826400 2.71867000 1.78344000
-0.18923500 2.82534000 1.87496000
-0.22987300 2.82406000 1.83564000
-0.13990400 2.76603000 1.86448000
-0.16088500 2.81923000 1.91005000
-0.13990400 2.76603000 1.86448000
-0.11163900 2.81998000 1.92175000
-0.16088500 2.81923000 1.91005000
-0.11163900 2.81998000 1.92175000
-0.12380300 2.86162000 1.94967000
-0.17508700 2.86048000 1.94002000
-0.12380300 2.86162000 1.94967000
-0.05735880 2.79376000 1.92250000
-0.07477370 2.85660000 1.96862000
-0.07477370 2.85660000 1.96862000
-0.08462750 2.89899000 1.99413000
-0.13517100 2.90767000 1.97802000
-0.19230900 2.92962000 1.97719000
-0.08462750 2.89899000 1.99413000
-0.02391740 2.85407000 1.98578000
-0.03625630 2.91606000 2.02466000
0.37859100 3.42346000 2.18950000
0.40401500 3.46806000 2.19113000
0.35853800 3.47966000 2.19291000
0.31353200 3.49327000 2.19437000
0.25640300 3.67888000 2.15293000
0.21789300 3.73661000 2.13538000
0.00542762 4.33766000 1.79247000
0.04720690 4.36221000 1.74144000
0.01176290 4.36717000 1.75584000
-0.02001780 4.38813000 1.77179000
-0.03423680 4.36013000 1.80173000
-0.06003360 4.41525000 1.78104000
-0.07823040 4.38990000 1.80559000
-0.10567600 4.44496000 1.78465000
-0.12892300 4.42219000 1.80323000
-0.15753600 4.46892000 1.78419000
-0.10567600 4.44496000 1.78465000
-0.09085860 4.46235000 1.75548000
-0.15753600 4.46892000 1.78419000
-0.14041900 4.48633000 1.75862000
-0.19182400 4.50046000 1.75493000
-0.19182400 4.50046000 1.75493000
-0.18913500 4.51880000 1.70885000
-0.23911100 4.50826000 1.73678000
-0.17968000 4.52503000 1.64362000
-0.25229800 4.52581000 1.58067000
-0.25635600 4.52867000 1.66007000
1.92704000 4.34067000 1.42335000
1.96839000 4.31149000 1.42040000
1.98707000 4.34488000 1.39681000
1.94998000 4.37686000 1.39684000
1.88171000 4.36559000 1.40667000
1.86941000 4.32898000 1.44099000
1.91624000 4.29974000 1.44205000
1.92704000 4.34067000 1.42335000
1.91624000 4.29974000 1.44205000
1.95757000 4.27334000 1.43759000
1.91315000 4.25822000 1.46405000
2.28485000 3.86150000 1.21203000
2.23986000 3.94226000 1.25203000
2.28322000 3.78474000 1.26585000
2.25684000 3.83714000 1.32186000
1.69174000 3.21273000 1.94890000
1.60461000 3.19102000 1.96830000
1.64465000 3.12822000 1.92740000
1.56296000 3.09185000 1.92834000
1.63341000 3.02193000 1.88237000
1.52978000 3.10263000 1.93604000
1.52978000 3.10263000 1.93604000
1.55369000 3.04626000 1.90671000
1.56296000 3.09185000 1.92834000
1.54884000 3.15365000 1.95878000
1.51582000 3.16654000 1.96201000
1.48740000 3.07718000 1.92092000
1.48875000 2.93205000 1.85641000
1.16450000 2.65508000 1.76391000
1.08452000 2.64488000 1.81668000
1.11700000 2.61250000 1.74172000
1.06332000 2.57798000 1.71743000
1.04065000 2.60653000 1.79510000
1.02237000 2.56368000 1.72873000
0.96640000 2.53774000 1.68533000
0.93929900 2.55649000 1.74412000
0.92199400 2.52905000 1.67034000
0.95814200 2.52940000 1.66165000
0.89659000 2.53701000 1.71725000
0.88719400 2.52009000 1.68241000
0.88719400 2.52009000 1.68241000
0.87105300 2.49856000 1.61121000
0.92199400 2.52905000 1.67034000
0.85120100 2.53204000 1.68862000
0.84854700 2.52742000 1.67023000
0.27269800 2.43563000 1.61760000
0.27341800 2.39791000 1.67716000
0.37991800 2.40411000 1.70665000
0.27341800 2.39791000 1.67716000
0.25425900 2.37083000 1.70509000
0.37991800 2.40411000 1.70665000
0.24211800 2.39600000 1.66668000
0.22249900 2.36898000 1.69456000
0.25425900 2.37083000 1.70509000
0.22249900 2.36898000 1.69456000
0.27166700 2.34073000 1.74225000
0.22249900 2.36898000 1.69456000
0.24211800 2.39600000 1.66668000
0.21973500 2.38591000 1.65158000
0.18850400 2.34074000 1.68575000
0.20403600 2.33762000 1.72368000
0.09991270 2.13788000 1.73638000
0.06856040 2.07949000 1.76096000
0.10130900 2.03337000 1.72489000
0.10151800 2.08377000 1.73596000
-0.00465639 1.73319000 1.69591000
0.06454730 1.78213000 1.67332000
0.03472610 1.79250000 1.70405000
-0.06553820 1.68536000 1.68513000
-0.03782660 1.66430000 1.66107000
-0.12084600 1.63463000 1.65233000
-0.10307100 1.61711000 1.63590000
-0.10869900 1.63485000 1.62519000
-0.10307100 1.61711000 1.63590000
-0.17612500 1.58607000 1.59708000
-0.39108100 1.94174000 1.43201000
-0.45400300 2.00672000 1.36148000
-0.34454900 1.95679000 1.47631000
-0.38583100 2.09829000 1.41876000
0.58486400 2.46243000 1.45530000
0.50367100 2.49258000 1.40105000
0.60544800 2.49128000 1.42293000
0.67670600 2.49823000 1.38913000
0.60581000 2.50513000 1.29111000
0.74828700 2.50126000 1.34284000
1.08950000 2.51155000 1.15524000
1.13015000 2.51733000 1.07920000
0.78646800 2.50521000 1.22560000
0.69300200 2.52580000 0.98558600
-0.56742800 1.99152000 1.20758000
-0.58422000 1.99880000 1.29988000
-0.57217400 2.06042000 1.20983000
-0.57326200 2.14070000 1.30046000
-0.56391900 2.12422000 1.21265000
-0.60703000 2.38524000 1.14721000
-0.55988800 2.41121000 1.14015000
-0.57816300 2.41648000 1.12499000
-0.47205000 2.36716000 1.13578000
-0.48630200 2.44520000 1.10312000
-0.17849100 2.64613000 1.56819000
-0.12099700 2.64342000 1.64216000
-0.14174300 2.67042000 1.68190000
-0.19150700 2.68116000 1.65108000
-0.14174300 2.67042000 1.68190000
-0.12099700 2.64342000 1.64216000
-0.10504400 2.64509000 1.69564000
-0.13060200 2.68370000 1.74649000
-0.16253000 2.69997000 1.72069000
-0.14174300 2.67042000 1.68190000
-0.19150700 2.68116000 1.65108000
-0.11325600 2.70624000 1.80631000
-0.14826400 2.71867000 1.78344000
-0.13060200 2.68370000 1.74649000
-0.11325600 2.70624000 1.80631000
-0.08442700 2.74325000 1.85622000
0.39858600 3.17180000 2.10642000
0.43136000 3.04655000 2.04422000
0.42380800 3.20737000 2.10923000
0.41822900 3.52008000 2.19496000
0.39197400 3.60151000 2.19625000
0.35853800 3.47966000 2.19291000
0.40401500 3.46806000 2.19113000
0.08513780 4.36878000 1.73597000
0.08594040 4.41427000 1.70585000
0.04667170 4.40080000 1.70847000
0.03321550 4.28997000 1.80692000
0.04667170 4.40080000 1.70847000
0.08594040 4.41427000 1.70585000
0.11211300 4.46024000 1.67503000
0.01176290 4.36717000 1.75584000
0.04720690 4.36221000 1.74144000
