-17.48060000 -107.93600000 -13.47470000
-14.57280000 -109.21700000 -13.14220000
-17.00100000 -109.63500000 -12.77700000
-19.61440000 -110.06400000 -12.39820000
-20.16320000 -108.41600000 -13.05250000
-22.35970000 -110.43200000 -12.09900000
-23.05360000 -108.83600000 -12.86590000
-25.14040000 -110.76600000 -12.05300000
-25.91470000 -109.22300000 -13.05490000
-27.69030000 -111.24100000 -12.25230000
-28.47920000 -109.72300000 -13.44590000
-30.00510000 -111.66000000 -12.17850000
-30.82820000 -110.01600000 -13.14440000
-32.10470000 -112.21000000 -12.02230000
-32.91520000 -110.47400000 -12.57140000
-33.96700000 -112.83800000 -11.59600000
-34.82750000 -111.20300000 -11.92160000
-31.47580000 -113.91500000 -11.25270000
-33.45510000 -114.46000000 -10.93020000
-31.08250000 -115.50700000 -10.37980000
-33.16630000 -116.02000000 -10.14590000
-35.19170000 -116.32800000 -9.64534000
-33.04600000 -117.48400000 -9.33554000
-35.34510000 -117.61800000 -8.78774000
-37.60040000 -117.83900000 -8.61534000
-37.38240000 -116.48600000 -9.42974000
-39.66550000 -117.85000000 -8.45684000
-39.26900000 -116.31700000 -9.34644000
-41.60900000 -117.71300000 -8.22864000
-41.00880000 -115.99600000 -9.18134000
-40.30210000 -114.26300000 -10.10870000
-42.51270000 -115.48500000 -8.87974000
-41.59580000 -113.57400000 -9.78854000
-39.17410000 -112.47800000 -10.71190000
-43.64900000 -114.73700000 -8.40314000
-43.19220000 -117.26500000 -7.78064000
-44.39960000 -116.55800000 -7.22034000
-45.56350000 -115.86400000 -7.03094000
-46.20780000 -117.59500000 -5.65624000
-47.58570000 -117.11000000 -5.80074000
-46.76710000 -115.44400000 -7.24084000
-48.95130000 -116.91300000 -6.26004000
-47.85690000 -114.98500000 -7.52934000
-50.23860000 -116.70200000 -6.76414000
-48.98270000 -114.58800000 -7.93594000
-51.47360000 -116.41900000 -7.34874000
-50.11020000 -114.21700000 -8.41354000
-52.72600000 -116.19000000 -8.12914000
-53.09440000 -118.38400000 -5.99544000
-54.53760000 -118.21500000 -6.98894000
-55.80440000 -118.09200000 -8.13364000
-56.46550000 -120.15800000 -5.78184000
-57.92120000 -119.95600000 -7.01604000
-58.88570000 -120.23300000 -8.58064000
-60.61270000 -122.31900000 -7.81604000
-60.78830000 -122.31900000 -9.90464000
-62.38660000 -123.58700000 -7.46904000
-62.40300000 -123.43800000 -9.88194000
-61.84980000 -123.37000000 -12.20900000
-60.32460000 -122.36500000 -12.05150000
-61.24450000 -123.16600000 -14.43650000
-59.85430000 -122.35700000 -14.21410000
-60.44530000 -123.54900000 -16.57450000
-59.16580000 -122.76700000 -16.29910000
-59.66650000 -123.69000000 -18.81460000
-58.33740000 -123.11500000 -18.40480000
-58.82870000 -123.78200000 -20.95180000
-57.47090000 -123.27300000 -20.54290000
-58.09160000 -123.78700000 -23.05250000
-56.83580000 -123.31200000 -22.68250000
-57.26190000 -123.88800000 -25.13730000
-56.12230000 -123.43200000 -24.68870000
-56.26680000 -124.32300000 -27.13060000
-55.22230000 -123.77800000 -26.58600000
-54.37290000 -122.84800000 -26.24610000
-54.15710000 -124.04900000 -28.40260000
-53.26320000 -123.34300000 -27.78980000
-52.60410000 -122.25600000 -27.52740000
-52.15820000 -123.61100000 -29.38780000
-51.41420000 -122.74800000 -28.87640000
-50.86060000 -121.60000000 -28.72370000
-50.48790000 -123.04700000 -30.42560000
-50.04260000 -121.95700000 -30.21940000
-49.38280000 -120.72200000 -29.99620000
-48.93440000 -122.42800000 -31.36170000
-48.39010000 -121.25200000 -31.03390000
-47.69380000 -119.94400000 -30.89820000
-48.57160000 -119.41000000 -29.85930000
-46.87390000 -118.57700000 -30.75270000
-47.61040000 -118.04200000 -29.72690000
-45.96940000 -117.16800000 -30.78660000
-46.59730000 -116.54500000 -29.83540000
-45.54170000 -115.00900000 -30.26210000
-45.75920000 -119.25200000 -31.14760000
-45.02830000 -117.94500000 -31.13950000
-44.36970000 -119.96700000 -31.21680000
-43.74200000 -118.72000000 -31.16860000
-42.74420000 -120.70100000 -31.54410000
-42.25400000 -119.48100000 -31.60010000
-40.96500000 -121.29800000 -31.99190000
-43.15110000 -121.77900000 -32.01540000
-41.17350000 -122.40700000 -32.19140000
-39.05160000 -122.85800000 -32.53840000
-41.38640000 -123.50000000 -32.50700000
-39.19650000 -123.93000000 -32.91810000
-37.09980000 -124.13900000 -33.67010000
-39.45950000 -124.44400000 -33.95330000
-37.40730000 -124.40300000 -34.80770000
-35.34660000 -124.45900000 -35.70370000
-37.73420000 -124.56900000 -36.02170000
-35.67600000 -124.65000000 -36.87630000
-33.55540000 -124.78000000 -37.73550000
-36.00610000 -124.79600000 -38.13550000
-33.90320000 -124.89200000 -38.98640000
-31.73580000 -124.85600000 -39.71050000
-34.26510000 -124.96200000 -40.28360000
-32.09970000 -124.89200000 -41.01010000
-29.88400000 -124.79700000 -41.58100000
-32.54120000 -124.93000000 -42.49890000
-30.36520000 -124.83800000 -43.20060000
-28.12600000 -124.81300000 -43.71380000
-30.95420000 -124.95200000 -45.06040000
-28.75540000 -124.97000000 -45.65370000
-26.59800000 -125.32200000 -46.13190000
-29.54960000 -125.16400000 -47.88090000
-27.37090000 -125.32700000 -48.39640000
-25.24400000 -125.52800000 -48.90450000
-28.15950000 -125.43700000 -50.66250000
-25.97470000 -125.47500000 -51.19910000
-23.83110000 -125.47500000 -51.76760000
-26.67070000 -125.55100000 -53.41500000
-24.45170000 -125.50400000 -53.97190000
-22.25940000 -125.36900000 -54.61340000
-25.01270000 -125.49400000 -56.04230000
-22.72020000 -125.27000000 -56.62020000
-20.45220000 -124.92800000 -57.28210000
-23.10010000 -125.11600000 -58.41500000
-20.73590000 -125.21300000 -59.10010000
-18.30880000 -125.32600000 -59.80780000
-21.03260000 -125.38000000 -60.85910000
-18.50640000 -125.35500000 -61.58040000
-15.89070000 -125.36100000 -62.28170000
-18.69700000 -125.05000000 -63.23660000
-15.99360000 -124.96500000 -63.96200000
-13.17680000 -124.83500000 -64.54850000
-16.07910000 -123.86600000 -65.22100000
-13.19670000 -123.53300000 -65.65340000
-10.21500000 -123.19200000 -65.89030000
-13.22700000 -122.34000000 -66.59300000
-10.21240000 -122.06300000 -66.77570000
-7.14680000 -121.91300000 -67.04230000
-10.20820000 -120.73200000 -67.06350000
-7.15770000 -120.53900000 -67.12950000
-4.07050000 -120.30700000 -67.12120000
-7.15890000 -119.22400000 -66.92310000
-4.11420000 -119.02700000 -66.77650000
-1.09320000 -118.73200000 -66.39800000
-4.17820000 -118.08500000 -65.82510000
-1.21590000 -117.80700000 -65.42300000
1.70610000 -117.42600000 -64.99700000
-1.34600000 -117.04000000 -64.25980000
1.53490000 -116.76600000 -63.77800000
4.35170000 -116.68900000 -63.14990000
1.38300000 -116.37100000 -62.37560000
4.13800000 -116.11200000 -61.82610000
6.88540000 -116.01500000 -61.08080000
3.94840000 -115.49800000 -60.39420000
6.62040000 -115.51000000 -59.61360000
9.16200000 -115.45400000 -58.70130000
6.15810000 -114.90500000 -57.99840000
8.59350000 -114.71800000 -57.13120000
10.99820000 -114.78600000 -56.04970000
7.99940000 -113.83700000 -55.65110000
10.38150000 -113.96600000 -54.62680000
12.82890000 -113.92100000 -53.62700000
9.88980000 -112.90800000 -53.35310000
12.29800000 -112.87500000 -52.40360000
14.73620000 -112.77000000 -51.45720000
11.79770000 -111.78700000 -51.22170000
14.19230000 -111.64200000 -50.30560000
16.52160000 -111.50400000 -49.24880000
13.72930000 -110.21500000 -49.53460000
15.98900000 -110.03700000 -48.42200000
18.15080000 -109.88400000 -47.14970000
15.63530000 -108.28400000 -47.94860000
17.76520000 -108.07900000 -46.66080000
19.88420000 -107.85900000 -45.34750000
17.45330000 -106.18700000 -46.29310000
19.53510000 -105.96400000 -44.95390000
21.53550000 -105.77300000 -43.46200000
19.33680000 -103.95700000 -44.79240000
21.33780000 -103.76000000 -43.30080000
23.28250000 -103.59100000 -41.69600000
21.18110000 -101.71800000 -43.19720000
23.15660000 -101.54600000 -41.64020000
25.12830000 -101.38900000 -40.01330000
23.00910000 -99.48930000 -41.57330000
24.90430000 -99.35020000 -39.86210000
26.71390000 -99.23540000 -38.00980000
24.69190000 -97.29590000 -39.77420000
26.53830000 -97.18680000 -37.95220000
28.36610000 -97.07810000 -36.04470000
26.42280000 -95.11240000 -38.03130000
28.23700000 -95.01810000 -36.11200000
30.01710000 -94.91850000 -34.11130000
28.10070000 -92.93310000 -36.25080000
29.87180000 -92.83600000 -34.26530000
31.62110000 -92.72700000 -32.21750000
29.72000000 -90.71590000 -34.50080000
31.45380000 -90.59630000 -32.48490000
33.16810000 -90.44900000 -30.44080000
31.26760000 -88.41360000 -32.83410000
32.97260000 -88.24570000 -30.84030000
31.08810000 -86.18340000 -33.27940000
32.81700000 -85.98880000 -31.40190000
30.92330000 -83.90310000 -33.84420000
32.63680000 -83.68360000 -32.04330000
30.74810000 -81.55980000 -34.46350000
32.43310000 -81.33320000 -32.72800000
34.14200000 -81.08740000 -30.98180000
32.26100000 -78.95550000 -33.35460000
33.97800000 -78.71820000 -31.68920000
35.60650000 -78.43580000 -29.98430000
33.81570000 -76.33940000 -32.30830000
35.41210000 -76.06230000 -30.63780000
36.83040000 -75.75070000 -29.02260000
35.28000000 -73.69640000 -31.31660000
36.60540000 -73.39800000 -29.69540000
37.79500000 -73.11510000 -28.23750000
36.37080000 -71.00950000 -30.37720000
37.49700000 -70.77220000 -28.98210000
38.48120000 -70.53100000 -27.70990000
38.88060000 -72.82130000 -26.91160000
39.41300000 -70.25960000 -26.56420000
38.18430000 -68.13290000 -28.46310000
39.12750000 -67.90460000 -27.36400000
40.10920000 -67.65630000 -26.45240000
38.88380000 -65.46630000 -27.74420000
39.96060000 -65.28790000 -26.74860000
41.14220000 -65.13030000 -26.03290000
39.73450000 -62.84570000 -26.87780000
41.00090000 -62.69430000 -26.16760000
42.25070000 -62.56220000 -25.59830000
42.35380000 -65.00830000 -25.48880000
43.46800000 -62.44180000 -25.12750000
42.21970000 -60.06730000 -25.71790000
43.53680000 -59.95690000 -25.17300000
44.77750000 -59.85460000 -24.47660000
43.63670000 -57.47190000 -25.09370000
44.97710000 -57.37200000 -24.37920000
46.19770000 -57.28560000 -23.42270000
45.06820000 -54.86770000 -23.96600000
46.27580000 -54.83430000 -22.91140000
47.50670000 -54.81790000 -21.80260000
46.35600000 -52.34650000 -22.29440000
47.61800000 -52.37490000 -21.19810000
48.95140000 -52.43490000 -20.08430000
48.79640000 -54.82680000 -20.68900000
50.34000000 -52.54430000 -18.94200000
50.17460000 -54.86340000 -19.56340000
51.83430000 -52.70430000 -17.77710000
51.63190000 -54.95610000 -18.40670000
53.35830000 -52.91370000 -16.53620000
53.11380000 -55.08480000 -17.17500000
54.83190000 -53.15080000 -15.14480000
54.66610000 -55.23650000 -15.82330000
56.23750000 -53.37100000 -13.53970000
56.13060000 -55.41570000 -14.30040000
57.91470000 -53.49090000 -12.10030000
57.75140000 -55.52410000 -12.80360000
59.50080000 -53.67500000 -10.52900000
59.38130000 -55.66000000 -11.27220000
61.09090000 -53.89150000 -8.94812000
60.98800000 -55.83680000 -9.70512000
62.66040000 -54.13910000 -7.40172000
62.53640000 -56.05820000 -8.17362000
64.14370000 -54.45320000 -5.90292000
63.99610000 -56.35460000 -6.68382000
65.33100000 -54.75780000 -4.65202000
65.25200000 -56.67140000 -5.35262000
66.14740000 -54.99140000 -3.79662000
66.02290000 -56.89370000 -4.53392000
66.81850000 -55.18270000 -3.10252000
66.70000000 -57.09600000 -3.82502000
67.43030000 -55.36830000 -2.50102000
67.35520000 -57.29440000 -3.15482000
68.05270000 -55.56030000 -1.89312000
67.97500000 -57.48390000 -2.52532000
68.65710000 -55.74740000 -1.31122000
68.57660000 -57.67270000 -1.92332000
68.49710000 -59.60200000 -2.49972000
69.15400000 -57.85710000 -1.33762000
69.04160000 -59.79530000 -1.84752000
69.17610000 -61.70960000 -2.45252000
69.37690000 -60.00950000 -1.13092000
69.53640000 -61.93530000 -1.67852000
69.71600000 -63.86260000 -2.22932000
69.49940000 -62.18030000 -0.87902000
69.57680000 -64.12390000 -1.38282000
69.71990000 -66.07960000 -1.85142000
69.03220000 -64.35550000 -0.62282000
69.12340000 -66.31880000 -1.06332000
69.10310000 -68.25380000 -1.65062000
68.10230000 -66.41770000 -0.77582200
68.16150000 -68.37310000 -1.27602000
68.19550000 -70.31530000 -1.88132000
67.15140000 -68.46380000 -0.99492200
67.18320000 -70.41010000 -1.60292000
67.24510000 -72.40030000 -2.15302000
67.36640000 -70.66440000 -0.64872300
67.48860000 -72.65450000 -1.19442000
67.65420000 -74.70700000 -1.60582000
67.35430000 -72.87300000 -0.39472400
67.39820000 -74.91850000 -0.87512400
67.48660000 -77.01300000 -1.28413000
66.78470000 -75.07230000 -0.41092400
66.87140000 -77.18770000 -0.77852600
66.96220000 -79.31250000 -1.23893000
67.59240000 -79.13940000 -1.67693000
67.14670000 -81.45380000 -1.77643000
67.76520000 -81.28950000 -2.10423000
67.43130000 -83.63600000 -2.23533000
68.01160000 -83.45690000 -2.58883000
67.80790000 -85.82650000 -2.63203000
66.78040000 -83.73970000 -2.22133000
67.14790000 -85.97350000 -2.56173000
66.22470000 -83.75780000 -2.64143000
66.56490000 -86.01070000 -2.99103000
65.73260000 -83.73820000 -3.18383000
66.03790000 -86.01440000 -3.53453000
65.21830000 -83.69170000 -3.75443000
65.50800000 -86.01660000 -4.08033000
64.67780000 -83.63610000 -4.34033000
64.93190000 -85.96970000 -4.68143000
64.10290000 -83.55770000 -4.94313000
64.42870000 -81.31810000 -3.94123000
63.85460000 -81.22360000 -4.54283000
63.29430000 -81.12590000 -5.15123000
63.65050000 -78.92800000 -4.18363000
63.10490000 -78.81610000 -4.81173000
62.38570000 -78.71100000 -5.48863000
62.54020000 -81.04990000 -5.86043000
61.45640000 -78.61690000 -6.38753000
61.72740000 -80.97720000 -6.64093000
60.33560000 -78.52920000 -7.47933000
60.52130000 -80.89340000 -7.77553000
59.06450000 -78.49750000 -8.63902000
60.21790000 -76.18320000 -7.20052000
58.90860000 -76.14580000 -8.44133000
57.69610000 -76.18620000 -9.57952000
58.75880000 -73.86090000 -8.19022000
57.46830000 -73.91520000 -9.28972000
56.25980000 -74.08180000 -10.18470000
56.59210000 -76.33700000 -10.46690000
55.19110000 -74.28800000 -10.96680000
55.57320000 -76.52970000 -11.21590000
54.20360000 -74.48220000 -11.69070000
54.80920000 -72.05400000 -10.68110000
53.80640000 -72.28130000 -11.41080000
52.83640000 -72.49860000 -12.12310000
53.29440000 -74.68840000 -12.39870000
51.90440000 -72.70410000 -12.81530000
52.40800000 -74.85600000 -13.06940000
50.90430000 -72.93420000 -13.34820000
51.43750000 -75.04890000 -13.51180000
49.84980000 -73.19990000 -13.21090000
50.42930000 -75.30100000 -13.27490000
48.93980000 -73.43650000 -12.59280000
49.54990000 -75.51690000 -12.64850000
48.09000000 -73.64500000 -11.84240000
48.24640000 -71.35960000 -12.51730000
47.37660000 -71.57450000 -11.81770000
46.45990000 -71.86010000 -11.74400000
47.07280000 -73.94790000 -11.47080000
45.81080000 -72.00070000 -11.44780000
46.42470000 -74.07080000 -11.13030000
45.87050000 -71.80330000 -10.36180000
46.57240000 -73.87770000 -9.94142000
46.01550000 -71.62600000 -9.24612000
46.77180000 -73.68730000 -8.72592000
46.04400000 -71.50280000 -8.02032000
46.79060000 -73.59090000 -7.40392000
45.95900000 -71.40110000 -6.73972000
46.66430000 -73.49640000 -6.05132000
45.78910000 -71.26250000 -5.37242000
46.47420000 -73.36430000 -4.65222000
47.14070000 -75.45340000 -3.94662000
46.25930000 -73.10210000 -3.20042000
46.93530000 -75.16280000 -2.44412000
47.58640000 -77.18250000 -1.69732000
46.70360000 -74.71720000 -0.84832400
47.40900000 -76.64310000 -0.00672400
48.09470000 -78.54940000 0.83297400
47.12420000 -75.96650000 1.77308000
47.81000000 -77.75900000 2.68417000
48.51980000 -79.49030000 3.61407000
48.81480000 -80.37880000 1.70677000
49.22720000 -81.20900000 4.56167000
49.55540000 -82.15740000 2.59807000
50.00500000 -82.94220000 5.53627000
50.35600000 -83.86030000 3.56077000
50.79190000 -84.72590000 6.52367000
51.19000000 -85.58720000 4.55497000
51.67630000 -86.54270000 7.52197000
52.09230000 -87.39760000 5.56627000
52.55550000 -88.42030000 8.52787000
53.00530000 -89.30140000 6.58617000
53.46390000 -90.33730000 9.53777000
53.91190000 -91.30360000 7.60387000
54.14940000 -92.37940000 5.71527000
54.96100000 -93.28770000 8.57897000
55.17550000 -94.47470000 6.68217000
55.15260000 -95.73530000 4.82957000
56.18660000 -96.65040000 7.60887000
56.18090000 -98.03820000 5.69677000
55.97480000 -99.36170000 3.82327000
57.25930000 -100.29800000 6.49947000
57.10190000 -101.81500000 4.55257000
56.83110000 -103.22100000 2.62637000
58.47410000 -104.14300000 5.23177000
58.38410000 -105.70900000 3.16757000
58.04350000 -106.97400000 1.02917000
60.06050000 -107.76200000 3.81556000
60.08190000 -106.17600000 5.99177000
61.63980000 -107.77300000 7.05466000
61.70890000 -109.39600000 4.68756000
63.11780000 -108.95000000 8.52606000
63.20560000 -110.72900000 5.96476000
63.78960000 -113.53200000 3.97106000
63.20050000 -114.47900000 0.20996200
64.53760000 -115.04800000 4.74476000
64.38920000 -115.47900000 0.68706200
63.95090000 -115.77200000 -2.88184000
62.92730000 -114.86400000 -3.13044000
65.18320000 -116.51300000 5.26686000
64.96200000 -116.82500000 1.03306000
64.54910000 -116.89600000 -2.79374000
63.94600000 -116.85600000 -6.37964000
63.70200000 -115.68800000 -6.30624000
65.13510000 -118.18300000 1.15976000
64.71140000 -118.13600000 -2.72684000
63.86030000 -118.04100000 -6.35894000
63.17090000 -118.19700000 -9.86124000
63.19690000 -117.00000000 -9.86334000
64.57610000 -119.38200000 -2.76814000
63.64440000 -119.18300000 -6.26784000
62.93390000 -119.36900000 -9.83184000
62.04860000 -119.62600000 -13.11320000
62.18230000 -118.45600000 -13.15920000
63.01890000 -120.11400000 -6.16894000
62.46070000 -120.47700000 -9.69964000
61.64690000 -120.72800000 -12.95490000
60.33930000 -120.63400000 -16.05940000
60.71270000 -119.56600000 -16.16880000
61.67780000 -121.36000000 -9.51914000
60.81690000 -121.46700000 -12.70940000
59.62690000 -121.41300000 -15.77770000
58.25870000 -121.30800000 -18.66800000
58.98570000 -120.49200000 -18.97520000
59.68090000 -121.71100000 -12.38680000
58.55080000 -121.59000000 -15.37130000
57.18170000 -121.44100000 -18.15730000
55.71700000 -121.40300000 -20.79670000
56.78220000 -121.14400000 -21.32470000
57.38870000 -121.55000000 -14.90900000
56.03760000 -121.43400000 -17.62990000
54.56710000 -121.37500000 -20.20450000
53.05290000 -121.26600000 -22.67820000
54.20530000 -121.35500000 -23.31930000
54.71880000 -121.42800000 -17.08950000
53.28800000 -121.32800000 -19.57950000
51.80020000 -121.21100000 -21.99580000
50.26000000 -121.19600000 -24.34170000
51.47120000 -121.23100000 -25.07000000
51.86090000 -121.33600000 -18.89850000
50.42200000 -121.33100000 -21.26290000
48.92770000 -121.28100000 -23.57940000
47.36820000 -121.36200000 -25.87160000
48.63390000 -121.28500000 -26.66180000
48.97620000 -121.34000000 -20.53640000
47.52330000 -121.41200000 -22.82380000
46.04430000 -121.47400000 -25.09190000
44.37150000 -121.65300000 -27.30100000
45.67110000 -121.53400000 -28.12500000
46.08920000 -121.47000000 -22.08740000
44.64770000 -121.60400000 -24.32120000
43.04760000 -121.75100000 -26.48510000
41.28540000 -122.01300000 -28.53590000
42.52560000 -121.87200000 -29.41540000
43.27070000 -121.62100000 -23.58970000
41.73760000 -121.91300000 -25.69040000
40.07310000 -122.18200000 -27.65690000
38.26330000 -122.25000000 -29.53600000
39.41900000 -122.18300000 -30.48240000
40.44870000 -121.93200000 -24.91050000
38.81940000 -122.26000000 -26.76250000
37.11400000 -122.32300000 -28.58390000
35.23580000 -122.25300000 -30.31590000
36.29440000 -122.24600000 -31.32540000
37.67020000 -121.79500000 -25.95950000
36.08040000 -121.75000000 -27.77660000
34.26510000 -121.71500000 -29.40000000
31.98810000 -121.68000000 -30.86910000
33.00480000 -122.23200000 -31.87810000
35.40160000 -120.49200000 -27.28130000
33.63590000 -120.52800000 -28.89610000
31.16630000 -120.73700000 -29.96120000
29.39780000 -121.93200000 -32.20570000
33.14080000 -119.12000000 -28.47030000
30.60260000 -119.36400000 -29.21650000
32.47280000 -117.44600000 -28.01150000
30.16710000 -117.78200000 -28.40990000
31.74450000 -115.70500000 -27.17470000
29.89700000 -115.68700000 -28.12760000
27.61330000 -115.77900000 -28.31220000
25.11840000 -115.31800000 -28.19660000
29.36230000 -113.69200000 -27.01360000
27.51650000 -113.51700000 -27.69130000
25.37250000 -113.21700000 -26.82510000
22.63400000 -113.90900000 -27.48900000
27.45090000 -111.31800000 -26.64730000
25.32410000 -110.99100000 -26.17070000
26.85880000 -109.05700000 -25.61000000
24.69010000 -108.79000000 -25.38440000
26.10480000 -106.88800000 -24.80100000
28.85060000 -109.20500000 -25.39780000
28.26460000 -107.10700000 -24.50800000
27.55000000 -105.00200000 -23.92610000
25.35470000 -104.82100000 -24.11670000
26.79700000 -103.00600000 -23.57280000
24.71110000 -102.85900000 -23.68660000
22.49640000 -102.41900000 -23.71600000
20.32830000 -101.60800000 -23.87610000
24.20590000 -101.07500000 -23.36760000
26.15570000 -101.20900000 -23.16790000
25.67660000 -99.53340000 -22.82360000
28.07180000 -101.09100000 -22.78810000
27.53810000 -99.42970000 -22.37070000
27.01870000 -97.94630000 -21.77010000
25.24880000 -98.09790000 -22.33070000
26.55520000 -96.48260000 -21.13440000
24.80810000 -96.68520000 -21.64250000
26.19390000 -94.89170000 -20.72240000
24.49460000 -95.01280000 -21.23740000
25.91730000 -93.16700000 -20.41280000
24.25080000 -93.21820000 -20.89040000
25.59010000 -91.44290000 -19.87440000
24.01460000 -91.42520000 -20.44210000
22.53660000 -91.38190000 -20.90740000
23.78210000 -89.58320000 -19.98970000
22.42400000 -89.51440000 -20.47210000
21.07380000 -89.43650000 -20.61990000
22.35850000 -87.52690000 -20.17130000
21.07540000 -87.43480000 -20.30090000
19.92110000 -87.33280000 -20.06110000
21.13360000 -85.33330000 -20.07050000
19.98060000 -85.25280000 -19.71950000
19.27780000 -85.25520000 -18.95630000
20.29420000 -83.18050000 -19.39140000
19.57690000 -83.16010000 -18.71280000
19.04800000 -83.15870000 -17.97380000
20.09510000 -81.26400000 -18.16270000
19.54230000 -81.23430000 -17.58920000
19.33230000 -81.34140000 -16.91360000
20.05510000 -79.31590000 -17.18440000
19.90380000 -79.41770000 -16.58640000
20.14620000 -79.61680000 -16.05330000
20.59680000 -77.44300000 -16.18340000
20.91320000 -77.71320000 -15.70430000
21.28200000 -78.00230000 -15.27730000
21.78650000 -76.07500000 -15.32800000
22.17690000 -76.48800000 -14.99960000
22.60760000 -76.89400000 -14.73080000
23.25610000 -75.70630000 -15.13980000
23.63460000 -76.00740000 -14.82100000
24.25450000 -74.65930000 -15.04880000
22.88590000 -75.39630000 -15.50150000
23.99480000 -74.39790000 -15.44780000
25.08510000 -73.16760000 -15.08520000
24.89270000 -73.08400000 -15.36760000
26.17130000 -72.29120000 -14.92140000
24.74090000 -72.89400000 -15.74080000
26.32800000 -72.33580000 -15.26070000
27.22560000 -72.38390000 -14.77210000
26.46840000 -72.74150000 -15.57130000
27.37530000 -72.69050000 -14.92640000
26.69440000 -73.14180000 -15.68670000
27.50640000 -73.09430000 -15.06340000
26.97240000 -73.62250000 -15.74990000
27.74990000 -73.60190000 -15.15790000
27.30440000 -74.27250000 -15.79280000
28.09090000 -74.23850000 -15.23210000
27.75910000 -75.20930000 -15.85290000
28.54370000 -75.24830000 -15.25570000
28.24740000 -76.43580000 -15.86820000
28.96970000 -76.23940000 -15.28020000
29.44590000 -76.06220000 -14.70070000
29.53670000 -77.66730000 -15.24280000
30.07450000 -77.42420000 -14.59800000
30.42500000 -77.16290000 -13.99740000
30.64030000 -79.07550000 -14.28150000
31.13800000 -78.67860000 -13.69800000
31.57450000 -78.27410000 -13.18650000
31.99710000 -80.30350000 -13.29770000
32.50850000 -79.86260000 -12.74010000
32.79730000 -79.47580000 -12.18130000
33.39530000 -81.73100000 -12.09500000
33.76190000 -81.30970000 -11.47960000
34.03640000 -80.90900000 -10.89920000
34.75460000 -83.31400000 -10.75160000
34.94860000 -82.89160000 -10.02300000
35.10890000 -82.50730000 -9.38033000
34.26010000 -80.53590000 -10.33280000
35.67200000 -85.05370000 -9.14233000
35.85930000 -84.64240000 -8.40133000
36.03690000 -84.26560000 -7.77053000
36.51830000 -86.85470000 -7.53733000
36.69360000 -86.44680000 -6.82563000
36.75200000 -86.08800000 -6.15383000
37.40780000 -88.59060000 -5.99233000
37.34400000 -88.22060000 -5.22083000
37.31700000 -87.87360000 -4.53393000
38.15750000 -90.28910000 -4.38433000
37.97280000 -89.94980000 -3.58813000
37.81310000 -89.65300000 -2.88843000
37.25620000 -87.54730000 -3.86983000
37.62830000 -89.38980000 -2.24813000
37.13780000 -87.24870000 -3.25273000
37.41170000 -89.14950000 -1.63923000
38.04730000 -91.51070000 -1.37193000
37.83170000 -91.23930000 -0.69423000
37.46780000 -91.01830000 -0.06813000
38.29260000 -93.41470000 -0.08883000
37.95740000 -93.16440000 0.60257000
37.34890000 -93.06200000 1.06737000
38.42800000 -95.28650000 1.09937000
37.93820000 -95.10000000 1.80047000
38.96010000 -97.45490000 1.49787000
38.39600000 -97.21370000 2.10527000
39.71230000 -99.43920000 2.18717000
39.01630000 -99.21600000 2.60107000
40.46880000 -101.38200000 3.04717000
39.86500000 -100.89500000 3.63517000
38.98030000 -100.75300000 3.98947000
40.51610000 -103.03900000 4.77177000
39.74270000 -102.42500000 5.40177000
40.76540000 -105.46200000 5.52987000
40.35320000 -104.88500000 6.38177000
41.24000000 -107.99600000 6.22216000
40.77270000 -107.49400000 7.14557000
41.83460000 -110.64100000 6.84906000
41.39210000 -110.25700000 7.76246000
40.84210000 -109.94400000 8.58846000
42.15790000 -113.09100000 8.45856000
41.55600000 -112.85800000 9.34806000
40.97170000 -112.56000000 10.22880000
42.51790000 -115.57200000 10.23910000
41.88160000 -115.37000000 11.21100000
40.90270000 -115.25300000 11.84670000
42.37230000 -118.16000000 11.73230000
41.45460000 -118.09700000 12.48970000
40.35350000 -118.00300000 12.97080000
41.85810000 -120.70800000 12.89500000
40.79380000 -120.62200000 13.51890000
39.49370000 -120.54900000 13.57450000
41.37960000 -122.71400000 14.30450000
39.93670000 -122.45600000 14.29460000
38.26530000 -122.27900000 14.15040000
38.00050000 -120.27300000 13.29930000
36.45470000 -121.93000000 14.12400000
36.37880000 -119.92500000 12.96180000
34.58880000 -121.52300000 13.85900000
34.58740000 -119.87500000 12.35260000
32.57620000 -121.96600000 12.80460000
32.58860000 -120.01900000 11.48070000
30.25790000 -122.04700000 11.81730000
30.37500000 -120.11300000 10.50610000
27.75120000 -121.91300000 10.93930000
28.05890000 -120.16400000 9.53146000
25.21790000 -121.76600000 10.02070000
25.57820000 -120.18900000 8.48126000
25.70260000 -118.06600000 7.59526000
23.16480000 -120.24300000 7.36596000
23.33140000 -118.16500000 6.41396000
23.28020000 -115.85600000 5.88286000
20.97290000 -118.24600000 5.24426000
20.93760000 -115.99200000 4.63256000
20.85380000 -113.73100000 4.02196000
18.62700000 -116.12800000 3.31696000
18.52930000 -113.88500000 2.74406000
18.28810000 -111.62100000 2.17166000
20.69460000 -111.49500000 3.22566000
17.99990000 -109.38100000 1.30716000
20.28890000 -109.20300000 2.40746000
17.66830000 -107.18500000 0.12076600
19.77300000 -106.91300000 1.33817000
17.09910000 -104.93300000 -1.07123000
19.13110000 -104.62300000 -0.01913400
15.47720000 -107.35600000 -1.15154000
14.96240000 -105.17100000 -2.29413000
13.24940000 -107.50700000 -2.46623000
12.77550000 -105.38400000 -3.58143000
11.01490000 -107.68000000 -3.82064000
10.53190000 -105.59700000 -4.86333000
8.81480000 -107.90600000 -5.14064000
8.36490000 -105.84300000 -6.15353000
6.63000000 -108.14900000 -6.38504000
6.25070000 -106.11600000 -7.33783000
4.40160000 -108.35700000 -7.32134000
4.10050000 -106.43100000 -8.31673000
3.77970000 -104.48700000 -9.40583000
1.95980000 -106.90200000 -9.32343000
1.58760000 -105.03000000 -10.24470000
1.18390000 -103.38300000 -11.35840000
-0.71490000 -105.76700000 -11.20300000
-1.20880000 -104.06800000 -12.11060000
-2.03200000 -102.21400000 -13.01990000
-3.89310000 -104.31300000 -12.91260000
-3.25040000 -106.20200000 -11.97360000
-6.05460000 -106.18700000 -12.89630000
-3.04950000 -107.65200000 -10.88490000
-5.80010000 -107.80700000 -11.82180000
-8.43150000 -107.31800000 -12.13080000
-5.59450000 -108.84400000 -10.12960000
-8.04310000 -109.04700000 -10.98660000
-9.97620000 -109.65900000 -11.90520000
-10.41640000 -108.02400000 -13.09770000
-11.96780000 -110.30400000 -12.37910000
-12.36390000 -108.74900000 -13.47550000
-14.22300000 -110.86000000 -12.41220000
-11.69340000 -111.81100000 -11.25680000
-13.95920000 -112.40300000 -11.56430000
-16.44250000 -112.98600000 -11.50810000
-16.66270000 -111.35700000 -12.24650000
-19.01010000 -113.45600000 -11.20320000
-19.24210000 -111.77300000 -11.83750000
-21.58410000 -113.75300000 -10.83590000
-21.90520000 -112.10500000 -11.47540000
-24.17400000 -114.11200000 -10.68600000
-24.54040000 -112.41300000 -11.24150000
-26.65840000 -114.47500000 -10.52090000
-27.09500000 -112.67900000 -10.96750000
-28.92660000 -114.95600000 -10.44840000
-29.39520000 -113.23700000 -11.10880000
-26.36210000 -116.21500000 -10.07840000
-28.63900000 -116.65300000 -9.84964000
-30.85590000 -117.10300000 -9.66024000
-28.44650000 -118.34300000 -9.28154000
-30.71450000 -118.65200000 -8.91604000
-32.98880000 -118.85100000 -8.49234000
-30.69110000 -120.15700000 -8.08904000
-33.00100000 -120.26100000 -7.73504000
-35.36560000 -120.37100000 -7.35424000
-35.36570000 -118.99100000 -8.08414000
-37.78870000 -120.58900000 -6.96414000
-37.73030000 -119.26200000 -7.83864000
-35.37420000 -121.70200000 -6.42864000
-37.85470000 -121.72300000 -5.97234000
-35.42790000 -122.59200000 -5.19544000
-37.79070000 -122.37700000 -4.58134000
-40.26120000 -122.42000000 -3.83654000
-37.63480000 -122.61300000 -3.14384000
-40.06260000 -123.22200000 -2.62304000
-42.51340000 -124.03300000 -2.05794000
-42.75830000 -123.36200000 -3.40094000
-44.98070000 -124.14600000 -1.31964000
-45.31940000 -123.58000000 -2.61064000
-47.38390000 -124.08200000 -0.48044000
-47.59540000 -123.40300000 -1.68074000
-47.65140000 -122.33000000 -2.72084000
-49.84900000 -123.48800000 -1.27244000
-49.77710000 -122.29500000 -2.30504000
-49.40900000 -120.77000000 -3.35924000
-47.55500000 -121.00700000 -3.60114000
-48.57630000 -118.93700000 -4.53474000
-47.19490000 -119.49000000 -4.66544000
-51.20540000 -120.59600000 -3.45674000
-50.02820000 -118.76700000 -4.91604000
-52.98710000 -120.48700000 -3.90954000
-51.52840000 -118.75400000 -5.50634000
-54.77070000 -120.37200000 -4.72614000
-54.15970000 -122.10000000 -2.25684000
-51.95060000 -122.38400000 -2.28304000
-52.26690000 -123.69300000 -1.11404000
-54.76660000 -123.59200000 -0.81394000
-52.25670000 -124.19600000 0.52526000
-55.02840000 -124.23200000 0.88726000
-52.18490000 -124.27100000 2.04326000
-55.08670000 -124.44300000 2.61506000
-58.08620000 -124.50500000 2.92036000
-54.83110000 -124.59200000 4.15556000
-57.75950000 -124.69000000 4.77616000
-60.49340000 -124.60600000 4.98536000
-60.80870000 -124.48400000 2.67646000
-62.91820000 -124.66400000 4.81766000
-63.12780000 -124.48900000 2.29646000
-64.91270000 -124.55000000 4.46956000
-65.03080000 -124.51800000 1.84936000
-65.32530000 -124.37000000 -0.49784000
-66.77270000 -124.50800000 1.44726000
-67.18330000 -124.34500000 -0.71264000
-67.52350000 -123.97600000 -2.81304000
-65.68110000 -123.97800000 -2.57754000
-67.80730000 -123.71100000 -5.15164000
-66.01470000 -123.60300000 -4.93834000
-67.84540000 -123.74100000 -7.72884000
-66.12290000 -123.51200000 -7.51894000
-64.32070000 -123.55200000 -7.39274000
-65.92260000 -123.78200000 -10.14450000
-64.15440000 -123.86600000 -9.95504000
-65.37290000 -123.38500000 -12.68620000
-63.59640000 -123.42500000 -12.43540000
-64.54340000 -123.32200000 -15.11370000
-62.85800000 -123.26300000 -14.79420000
-63.62670000 -123.34400000 -17.43490000
-62.00150000 -123.57600000 -17.04060000
-62.71290000 -123.50700000 -19.69710000
-61.17000000 -123.64000000 -19.26530000
-61.79690000 -123.64000000 -21.95390000
-60.32790000 -123.72200000 -21.43550000
-60.84220000 -123.70700000 -24.20490000
-59.44280000 -123.72300000 -23.61970000
-59.78150000 -124.42800000 -26.31740000
-58.44010000 -124.26300000 -25.66990000
-58.69220000 -124.59300000 -28.51460000
-57.42010000 -124.53300000 -27.80280000
-57.39590000 -124.70100000 -30.63380000
-56.23280000 -124.65100000 -29.84100000
-55.13800000 -124.48700000 -29.10320000
-54.85950000 -124.69600000 -31.80470000
-53.91560000 -124.58700000 -30.91810000
-52.99920000 -124.22200000 -30.08160000
-52.49740000 -124.49300000 -32.67210000
-51.79160000 -124.30500000 -31.70250000
-51.04550000 -123.88300000 -30.90970000
-50.32360000 -124.46800000 -33.19010000
-49.72050000 -124.22700000 -32.20820000
-49.28670000 -123.51300000 -31.61620000
-48.05840000 -124.36400000 -33.39420000
-47.70120000 -123.88000000 -32.40560000
-47.39130000 -122.97300000 -31.94100000
-45.89740000 -124.20400000 -33.18380000
-45.57900000 -123.52900000 -32.26880000
-45.33420000 -122.32400000 -32.20250000
-47.01420000 -121.81500000 -31.72950000
-44.92740000 -121.12200000 -31.86170000
-46.46170000 -120.58200000 -31.44380000
-43.43730000 -122.90100000 -32.31620000
-43.65180000 -123.94800000 -32.78800000
-41.55080000 -124.33700000 -33.25250000
-43.86710000 -124.46500000 -33.81880000
-41.77310000 -124.58400000 -34.45740000
-39.77680000 -124.54100000 -35.21910000
-42.12010000 -124.62800000 -35.75770000
-40.10520000 -124.64800000 -36.51290000
-38.06230000 -124.70100000 -37.28970000
-40.44920000 -124.76600000 -37.86370000
-38.39510000 -124.83200000 -38.59600000
-36.34260000 -124.93700000 -39.41720000
-38.73840000 -124.95100000 -39.95520000
-36.71550000 -125.05800000 -40.79340000
-34.67410000 -125.02500000 -41.71820000
-37.29080000 -125.10900000 -42.61650000
-35.25360000 -125.09100000 -43.52130000
-33.12790000 -125.00100000 -44.35020000
-36.07800000 -125.16700000 -45.74330000
-33.92440000 -125.15300000 -46.55540000
-31.74500000 -125.11300000 -47.26890000
-34.85270000 -125.18200000 -48.78170000
-32.62880000 -125.23700000 -49.51110000
-30.38240000 -125.32100000 -50.12240000
-33.50770000 -125.29100000 -51.58000000
-31.21440000 -125.39200000 -52.24690000
-28.91380000 -125.51800000 -52.81010000
-31.94370000 -125.40700000 -54.07050000
-29.59720000 -125.48400000 -54.73480000
-27.26770000 -125.51700000 -55.33920000
-30.19680000 -125.42400000 -56.45000000
-27.81970000 -125.44600000 -57.11190000
-25.43290000 -125.43200000 -57.77340000
-28.31440000 -125.36000000 -58.76900000
-25.86590000 -125.33800000 -59.45060000
-23.44180000 -125.22800000 -60.14000000
-26.30370000 -125.13700000 -61.04760000
-23.82660000 -125.18800000 -61.80010000
-21.30130000 -125.21800000 -62.55180000
-24.10290000 -124.31100000 -63.12730000
-21.51540000 -124.24800000 -63.87210000
-18.84380000 -123.98700000 -64.46670000
-21.65280000 -122.90800000 -64.74860000
-18.96070000 -122.78800000 -65.53080000
-16.13490000 -122.55100000 -66.06860000
-18.99560000 -121.32500000 -66.00410000
-16.14080000 -121.14600000 -66.45620000
-13.21030000 -120.95800000 -66.84420000
-16.09360000 -119.74300000 -66.37410000
-13.17320000 -119.60400000 -66.67100000
-10.19970000 -119.39500000 -66.91950000
-13.08090000 -118.47800000 -65.91910000
-10.14120000 -118.31900000 -66.08190000
-7.14620000 -118.21900000 -66.04020000
-10.06370000 -117.58800000 -64.88500000
-7.13610000 -117.52500000 -64.85500000
-4.22380000 -117.50500000 -64.55860000
-7.11070000 -116.98600000 -63.52840000
-4.26230000 -116.81100000 -63.25570000
-1.43000000 -116.48800000 -62.89180000
-4.28620000 -116.13000000 -61.84880000
-1.52740000 -116.01200000 -61.43350000
1.23130000 -115.88900000 -60.91370000
-1.67150000 -115.50300000 -59.82880000
0.98990000 -115.01100000 -59.44100000
3.64120000 -114.82300000 -58.83840000
0.62730000 -114.13100000 -57.91470000
3.15350000 -114.02100000 -57.27030000
5.60590000 -113.92200000 -56.52780000
2.71670000 -112.97200000 -55.91300000
5.11690000 -112.91200000 -55.14310000
7.50490000 -112.88400000 -54.26920000
4.70450000 -111.82200000 -53.91440000
7.04190000 -111.86900000 -53.00280000
9.40010000 -111.89000000 -52.09080000
6.86210000 -110.31300000 -52.50040000
9.16910000 -110.33000000 -51.56840000
11.42350000 -110.31800000 -50.52190000
9.01510000 -108.58800000 -51.22320000
11.24790000 -108.56400000 -50.17460000
13.46770000 -108.46700000 -49.11940000
11.03890000 -106.72700000 -49.79440000
13.20590000 -106.61000000 -48.71860000
15.35330000 -106.40800000 -47.57010000
13.02410000 -104.60500000 -48.47640000
15.16720000 -104.40500000 -47.37400000
17.27440000 -104.18600000 -46.15060000
15.01730000 -102.32700000 -47.23120000
17.12090000 -102.10800000 -46.01560000
19.17210000 -101.90400000 -44.66720000
17.00080000 -99.98730000 -45.95300000
19.04510000 -99.80670000 -44.60870000
21.03900000 -99.63910000 -43.13810000
18.92100000 -97.67660000 -44.58650000
20.89690000 -97.53720000 -43.10160000
22.82380000 -97.41210000 -41.49940000
20.76660000 -95.39980000 -43.11400000
22.69890000 -95.29940000 -41.53890000
24.57980000 -95.20340000 -39.84190000
22.55750000 -93.15740000 -41.59340000
24.45890000 -93.08490000 -39.95020000
26.29640000 -93.01470000 -38.15250000
24.31770000 -90.93190000 -40.08060000
26.15890000 -90.88140000 -38.32820000
27.95450000 -90.81340000 -36.45570000
26.02400000 -88.71190000 -38.55410000
27.79440000 -88.65280000 -36.71230000
29.54350000 -88.55280000 -34.79970000
27.64810000 -86.44140000 -37.04450000
29.38180000 -86.35130000 -35.17550000
27.50190000 -84.16580000 -37.42790000
29.22680000 -84.07620000 -35.67830000
27.33230000 -81.83020000 -37.83380000
29.04590000 -81.73370000 -36.13900000
27.15380000 -79.43840000 -38.21800000
28.88530000 -79.33290000 -36.64130000
30.58040000 -79.16370000 -35.03210000
28.73040000 -76.89230000 -37.08460000
30.41780000 -76.73850000 -35.53020000
32.09760000 -76.55140000 -33.90960000
30.30230000 -74.28980000 -35.98460000
31.94780000 -74.11530000 -34.41450000
33.63150000 -73.91930000 -32.85720000
31.86140000 -71.64810000 -34.91360000
33.47780000 -71.46210000 -33.42620000
35.17570000 -71.27430000 -32.00220000
33.37470000 -68.95360000 -33.97860000
34.83240000 -68.75850000 -32.51110000
36.18250000 -68.55730000 -31.08580000
34.61170000 -66.20650000 -33.01650000
35.91940000 -66.01770000 -31.61530000
37.06190000 -65.82070000 -30.26350000
37.25980000 -68.34260000 -29.69720000
38.01860000 -65.64150000 -28.98850000
36.74310000 -63.25330000 -30.56070000
37.66760000 -63.11450000 -29.20510000
38.55440000 -62.98930000 -27.86760000
37.36670000 -60.52570000 -29.25260000
38.30680000 -60.45350000 -27.91490000
39.48080000 -60.35320000 -26.88000000
38.17880000 -57.83510000 -27.85570000
39.30970000 -57.75600000 -26.72800000
40.75930000 -57.69170000 -26.11080000
40.85650000 -60.19470000 -26.23230000
42.21300000 -57.57930000 -25.59920000
40.81920000 -55.14960000 -25.84430000
42.32540000 -55.04390000 -25.40950000
43.75840000 -54.93990000 -24.79950000
42.46530000 -52.47380000 -25.02990000
43.91020000 -52.37540000 -24.38690000
45.12770000 -52.34420000 -23.37150000
44.16690000 -49.76460000 -23.93610000
45.37660000 -49.74530000 -22.89800000
46.51180000 -49.78960000 -21.70340000
45.73180000 -46.76430000 -22.17470000
46.73760000 -47.16070000 -21.04530000
47.97290000 -47.36770000 -19.87740000
47.78120000 -49.89180000 -20.57520000
49.34200000 -47.60860000 -18.71740000
49.08150000 -50.03140000 -19.40690000
50.80220000 -47.93580000 -17.51010000
50.52100000 -50.23180000 -18.24070000
52.32300000 -48.23660000 -16.26930000
52.06810000 -50.46680000 -17.06780000
53.84110000 -48.54830000 -14.94480000
53.57970000 -50.74380000 -15.76400000
55.30410000 -48.86330000 -13.53720000
55.05890000 -51.02610000 -14.36950000
56.73490000 -49.16060000 -12.00140000
56.48650000 -51.26810000 -12.83160000
58.28020000 -49.42250000 -10.48410000
58.08150000 -51.46220000 -11.32920000
59.83270000 -49.68740000 -8.91521000
59.65070000 -51.69550000 -9.74982000
61.38770000 -49.98350000 -7.36192000
61.23010000 -51.94140000 -8.17362000
62.93030000 -50.30470000 -5.85422000
62.78760000 -52.22990000 -6.62792000
64.41770000 -50.64570000 -4.39632000
64.27540000 -52.55810000 -5.13752000
65.66520000 -50.96210000 -3.13822000
65.60920000 -52.89870000 -3.76972000
66.50590000 -51.18220000 -2.28662000
66.35810000 -53.09440000 -3.00552000
67.12880000 -51.34450000 -1.66402000
66.98690000 -53.25900000 -2.36382000
67.73130000 -51.50110000 -1.06322000
67.59040000 -53.43710000 -1.77282000
68.29820000 -51.65390000 -0.49991600
68.19110000 -53.62940000 -1.19222000
68.84810000 -51.81890000 0.05828400
68.74160000 -53.79440000 -0.63681800
69.35100000 -51.98660000 0.63908400
69.29430000 -53.95950000 -0.08931800
69.23990000 -55.93050000 -0.75131800
69.68530000 -54.15530000 0.54058200
69.66920000 -56.11690000 -0.11921800
69.54770000 -58.06140000 -0.65681800
69.64990000 -56.32960000 0.61748200
69.58260000 -58.28800000 0.09738200
69.45030000 -60.23300000 -0.40362000
69.19260000 -58.48340000 0.73228000
69.06080000 -60.44170000 0.25548000
68.98670000 -62.39840000 -0.20872000
68.30690000 -60.54060000 0.52668000
68.15750000 -62.51080000 0.09628000
68.08500000 -64.46560000 -0.34132100
67.20440000 -62.55600000 0.13948000
67.06990000 -64.55970000 -0.11492200
67.13700000 -66.52410000 -0.45602200
67.20980000 -64.81030000 0.74177800
67.30820000 -66.76670000 0.38857800
67.34080000 -68.71490000 -0.08592200
67.29020000 -66.98330000 1.13458000
67.32620000 -68.93620000 0.69077800
67.28580000 -70.88040000 0.13137600
66.84300000 -69.09920000 1.24088000
66.75970000 -71.02470000 0.62727600
66.77530000 -73.00730000 0.06137600
66.06440000 -71.06420000 0.71997600
66.05490000 -73.03910000 0.08567600
66.05320000 -75.10840000 -0.39842400
65.47430000 -72.93440000 -0.37242400
65.47980000 -75.00650000 -0.90772400
65.53660000 -77.13840000 -1.35573000
66.12370000 -77.22960000 -0.82362600
65.69090000 -79.31130000 -1.79033000
66.24440000 -79.37680000 -1.27763000
65.94160000 -81.51090000 -2.25583000
66.48890000 -81.53490000 -1.80073000
65.19240000 -79.21880000 -2.38133000
65.43690000 -81.45410000 -2.80113000
64.70710000 -79.12300000 -2.98453000
64.94210000 -81.39090000 -3.36703000
64.18780000 -79.03120000 -3.57433000
64.55080000 -76.90750000 -2.58523000
64.04950000 -76.79130000 -3.20222000
63.48040000 -76.65780000 -3.84912000
63.98240000 -74.60410000 -2.74582000
63.42670000 -74.45200000 -3.39032000
62.86550000 -74.31450000 -4.02932000
62.91550000 -76.52870000 -4.49592000
62.10530000 -74.16300000 -4.81922000
62.24430000 -76.41050000 -5.19212000
61.31480000 -74.00640000 -5.64582000
61.41160000 -76.28870000 -5.99582000
60.07060000 -73.87740000 -6.93922000
61.10710000 -71.80620000 -5.31292000
59.89080000 -71.64430000 -6.59552000
58.50100000 -71.62220000 -7.85612000
59.71620000 -69.48420000 -6.15942000
58.29160000 -69.40960000 -7.49842000
56.84430000 -69.46330000 -8.61492000
57.17280000 -71.68890000 -8.96502000
55.62750000 -69.59340000 -9.61402000
55.95910000 -71.84160000 -9.90842000
54.37880000 -69.83560000 -10.38520000
55.14480000 -67.45430000 -9.18652000
53.90080000 -67.68970000 -10.03120000
52.75190000 -67.97540000 -10.86760000
53.31100000 -70.10310000 -11.15810000
51.69050000 -68.26090000 -11.68510000
52.29230000 -70.35520000 -11.90010000
50.66870000 -68.52310000 -12.47960000
51.31400000 -70.59620000 -12.62570000
49.61260000 -68.77870000 -13.15010000
50.29710000 -70.84530000 -13.28490000
48.46860000 -69.06390000 -13.11820000
49.21050000 -71.12130000 -13.15350000
47.49370000 -69.29020000 -12.39980000
47.81220000 -67.01650000 -13.03370000
46.72650000 -67.27910000 -12.39320000
45.65050000 -67.57090000 -12.32010000
46.49570000 -69.51230000 -11.81550000
44.65760000 -67.87600000 -12.70850000
45.62430000 -69.80030000 -12.29670000
44.09620000 -67.93460000 -12.17360000
45.07480000 -69.88280000 -11.73010000
44.33490000 -67.68870000 -11.18320000
45.16780000 -69.70740000 -10.74740000
44.70850000 -67.40470000 -10.18130000
45.29460000 -69.52550000 -9.72142000
44.88820000 -67.19020000 -9.11402000
45.35070000 -69.38410000 -8.61972000
44.65850000 -67.13410000 -7.93922000
45.27250000 -69.29310000 -7.37512000
44.43740000 -67.02520000 -6.67982000
45.11010000 -69.16400000 -6.06302000
44.21940000 -66.85410000 -5.36562000
44.91080000 -68.97800000 -4.67802000
45.58310000 -71.05160000 -3.95642000
44.68840000 -68.69060000 -3.24552000
45.35730000 -70.74540000 -2.50062000
46.02840000 -72.75000000 -1.68542000
45.08430000 -70.33300000 -0.89842200
45.75740000 -72.27310000 -0.04542400
46.44050000 -74.13840000 0.86327600
45.31450000 -71.66360000 1.79698000
45.95040000 -73.48240000 2.72248000
46.61510000 -75.23230000 3.66068000
45.31940000 -72.84280000 4.63048000
45.91080000 -74.61450000 5.58538000
46.52320000 -76.37150000 6.53728000
47.31720000 -76.96330000 4.60547000
47.16830000 -78.12460000 7.49727000
47.97580000 -78.70300000 5.55537000
47.78730000 -79.90820000 8.44827000
48.63180000 -80.46200000 6.51637000
48.48270000 -81.70050000 9.41597000
49.43660000 -82.20000000 7.50237000
49.25020000 -83.47450000 10.41140000
50.19780000 -84.00230000 8.49717000
50.03800000 -85.27660000 11.41460000
50.97620000 -85.84640000 9.48337000
50.82920000 -87.08690000 12.42420000
51.79690000 -87.70770000 10.48100000
51.63420000 -88.88190000 13.45320000
52.65470000 -89.55770000 11.50030000
52.45250000 -90.66060000 14.48000000
53.52840000 -91.39760000 12.51560000
54.40660000 -92.24500000 10.54220000
54.48770000 -93.16980000 13.51990000
55.45680000 -94.09940000 11.52190000
56.02400000 -95.25270000 9.53007000
56.47780000 -95.98640000 12.46170000
56.98770000 -97.28530000 10.46650000
57.22700000 -98.77810000 8.49297000
58.17340000 -99.23200000 11.31620000
58.46170000 -100.77900000 9.26257000
58.49540000 -102.45700000 7.23357000
59.74220000 -102.70800000 10.02000000
59.91440000 -104.47900000 8.01327000
61.09260000 -104.41200000 11.00430000
61.39020000 -106.09500000 9.15367000
62.45660000 -105.71000000 12.41880000
62.96220000 -107.50000000 10.72730000
60.59820000 -102.53800000 12.99610000
61.69910000 -103.69100000 14.21080000
59.64450000 -100.45500000 15.14820000
60.48740000 -101.37400000 16.24280000
60.94230000 -101.92800000 17.66460000
58.66100000 -99.54190000 18.44980000
58.98060000 -100.25400000 19.54300000
58.73950000 -101.04200000 20.42300000
60.62450000 -102.57700000 18.99060000
58.85260000 -101.24800000 21.47410000
60.45170000 -102.70700000 20.25050000
59.24950000 -101.02800000 22.44960000
60.82160000 -102.24800000 21.43300000
62.05280000 -103.86100000 20.77200000
63.10660000 -105.53200000 20.40930000
61.18760000 -101.97600000 22.77590000
62.40440000 -103.26800000 22.34350000
63.43460000 -104.67200000 22.10250000
64.13700000 -106.20600000 22.20680000
63.91970000 -107.23800000 20.47650000
62.79560000 -102.74200000 23.94410000
63.72280000 -103.90800000 23.78200000
64.33570000 -105.20700000 24.04530000
64.50530000 -106.54500000 24.64420000
64.25580000 -107.79700000 22.97920000
64.06640000 -103.08500000 25.76450000
64.53500000 -104.25900000 25.97760000
63.99950000 -102.72900000 27.95230000
64.40420000 -103.81500000 28.03960000
63.02660000 -102.96800000 30.08090000
63.57210000 -104.05000000 30.16980000
61.70040000 -103.10200000 31.87180000
62.31250000 -104.38400000 31.94320000
62.72170000 -105.76700000 31.72190000
61.05770000 -104.52200000 33.67800000
61.54660000 -106.06300000 33.48290000
61.06650000 -107.36700000 32.60940000
62.39280000 -107.03700000 31.05000000
60.37950000 -108.54000000 31.66330000
61.87710000 -108.24200000 30.08670000
59.93530000 -109.95600000 30.84660000
61.60150000 -109.60700000 29.07570000
63.11810000 -108.92700000 27.28870000
64.19640000 -107.90700000 25.71000000
61.70450000 -111.16100000 28.09690000
63.19610000 -110.37000000 26.05160000
64.06390000 -109.24200000 24.16970000
63.63500000 -111.89800000 24.53420000
64.35990000 -110.55900000 22.45150000
64.25490000 -109.08100000 21.01290000
62.10360000 -112.86200000 27.06010000
62.77740000 -114.63000000 25.86200000
60.00000000 -113.37000000 29.58370000
60.32850000 -115.25800000 29.02130000
60.56840000 -117.22600000 28.34740000
57.17140000 -115.41500000 31.55610000
57.07060000 -117.39100000 31.37180000
56.92230000 -119.20400000 30.89250000
60.37130000 -119.09900000 27.51940000
56.57240000 -120.70400000 30.08030000
60.03920000 -120.60200000 26.80900000
62.46780000 -119.99600000 22.93990000
63.65520000 -119.54300000 19.04820000
59.46560000 -121.91500000 26.17290000
61.62510000 -121.51100000 22.48230000
62.59940000 -121.22500000 18.75630000
63.32290000 -121.34600000 15.40060000
64.11910000 -119.59000000 15.77510000
60.70310000 -122.79300000 21.89510000
61.57440000 -122.65200000 18.29070000
62.20400000 -122.68500000 14.88030000
62.67340000 -122.70400000 11.58700000
