-0.43934700 5.90765000 -0.49056800
-0.49879100 6.02871000 -0.46061200
-0.42718700 5.99584000 -0.53452200
-0.35698600 5.96017000 -0.60704500
-0.42447800 6.08379000 -0.58060000
-0.35450100 6.04961000 -0.65541100
-0.26918300 6.02743000 -0.70956800
-0.35015100 6.14692000 -0.69256300
-0.26943300 6.13040000 -0.75080600
-0.17838200 6.11634000 -0.78644500
-0.27571700 6.22622000 -0.79630700
-0.18434300 6.21604000 -0.83531000
-0.08566980 6.19862000 -0.85328000
-0.08285060 6.10318000 -0.79937100
-0.08566980 6.19862000 -0.85328000
-0.08739510 6.28545000 -0.89797200
0.01383500 6.25439000 -0.91580500
-0.08547490 6.35116000 -0.93492400
0.01581690 6.32783000 -0.95083200
0.11320200 6.31317000 -0.94503800
0.11809700 6.37930000 -0.98027400
0.22511000 6.37416000 -0.96762900
0.12229300 6.44363000 -1.01471000
0.23597100 6.44514000 -1.00636000
0.13607500 6.50480000 -1.05189000
0.25361200 6.50966000 -1.04747000
0.14101000 6.56104000 -1.09842000
0.24565700 6.55685000 -1.10128000
0.12044700 6.59190000 -1.15013000
0.21586200 6.59596000 -1.16141000
0.08314150 6.61398000 -1.20529000
0.16627800 6.61923000 -1.22460000
0.25954700 6.62559000 -1.24434000
0.10178900 6.63378000 -1.28299000
0.18331200 6.63878000 -1.31239000
0.27644200 6.64903000 -1.34210000
0.09856230 6.65230000 -1.37069000
0.18538500 6.65551000 -1.41623000
0.28694500 6.67351000 -1.45618000
0.09289240 6.68722000 -1.47545000
0.19439800 6.70792000 -1.52836000
0.30365700 6.74785000 -1.56952000
0.19439800 6.70792000 -1.52836000
0.10540000 6.75887000 -1.59063000
0.21459400 6.80558000 -1.63168000
0.30365700 6.74785000 -1.56952000
0.31679000 6.86894000 -1.65469000
0.40389400 6.81287000 -1.58934000
0.40389400 6.81287000 -1.58934000
0.40657200 6.94775000 -1.65298000
0.50056300 6.89704000 -1.57854000
0.50056300 6.89704000 -1.57854000
0.48188800 7.03062000 -1.62996000
0.56316900 6.98684000 -1.54077000
0.56316900 6.98684000 -1.54077000
0.53172900 7.11511000 -1.57989000
0.60340700 7.06791000 -1.49028000
0.60340700 7.06791000 -1.49028000
0.56489600 7.19028000 -1.52717000
0.64920000 7.14043000 -1.45615000
0.64920000 7.14043000 -1.45615000
0.61269800 7.25625000 -1.50753000
0.68924900 7.20704000 -1.42671000
0.48426800 7.24584000 -1.58983000
0.52873900 7.31359000 -1.57089000
0.53896100 7.37796000 -1.52486000
0.61706600 7.32138000 -1.45438000
0.68852000 7.27834000 -1.37281000
0.52114400 7.44731000 -1.48110000
0.61410000 7.40777000 -1.41692000
0.69590400 7.37621000 -1.33961000
0.48508900 7.52230000 -1.44088000
0.56777300 7.48744000 -1.37259000
0.65706300 7.47020000 -1.30233000
0.43548000 7.57116000 -1.39431000
0.52220000 7.56173000 -1.33869000
0.59871900 7.54952000 -1.26941000
0.38423000 7.60987000 -1.35067000
0.46627500 7.61481000 -1.30314000
0.55831000 7.61565000 -1.24713000
0.33630500 7.63366000 -1.30995000
0.41822700 7.64941000 -1.26865000
0.50304400 7.65638000 -1.21686000
0.28414100 7.64029000 -1.26988000
0.35710200 7.65517000 -1.22410000
0.42831600 7.65401000 -1.17640000
0.22512000 7.62827000 -1.23244000
0.28813100 7.63285000 -1.18801000
0.34278200 7.63064000 -1.14652000
0.28813100 7.63285000 -1.18801000
0.20628100 7.59660000 -1.16049000
0.24306000 7.60188000 -1.12010000
0.34278200 7.63064000 -1.14652000
0.34278200 7.63064000 -1.14652000
0.11595800 7.56596000 -1.13058000
0.14610200 7.55843000 -1.09621000
0.16811100 7.55320000 -1.06315000
0.05338860 7.51847000 -1.07195000
0.07311180 7.51651000 -1.04056000
0.08940340 7.51710000 -1.01212000
-0.00350651 7.46453000 -1.01724000
0.01130410 7.46841000 -0.98792800
0.02160570 7.47632000 -0.96224700
-0.05972340 7.41607000 -0.95800100
-0.05134870 7.42751000 -0.93167800
-0.04342200 7.44017000 -0.90753100
0.02898910 7.48761000 -0.93928600
-0.04133760 7.46164000 -0.89109200
0.02861920 7.50752000 -0.92529300
-0.04993440 7.48826000 -0.88892600
0.02195880 7.53099000 -0.92661300
0.02195880 7.53099000 -0.92661300
-0.04993440 7.48826000 -0.88892600
-0.06155390 7.51290000 -0.89793400
0.01192530 7.55446000 -0.93654600
-0.07349920 7.53891000 -0.91090800
0.00164754 7.57754000 -0.95500200
-0.08449820 7.56400000 -0.92693500
-0.00864566 7.60064000 -0.97456400
-0.09605140 7.59200000 -0.95008300
-0.01893890 7.62373000 -0.99412700
0.06689470 7.66940000 -1.01734000
-0.03190340 7.65572000 -1.02649000
0.05732130 7.69657000 -1.04287000
0.15135800 7.73756000 -1.05422000
0.04263120 7.73396000 -1.08631000
0.14127400 7.76693000 -1.09107000
0.24597800 7.80568000 -1.06547000
0.14127400 7.76693000 -1.09107000
0.12701700 7.80568000 -1.14082000
0.24455300 7.83382000 -1.10126000
0.24597800 7.80568000 -1.06547000
0.04263120 7.73396000 -1.08631000
0.02265970 7.77848000 -1.15064000
-0.04837960 7.69895000 -1.07494000
-0.06982230 7.75512000 -1.14265000
-0.13274600 7.68512000 -1.04974000
-0.15778900 7.74937000 -1.12737000
-0.20551200 7.68788000 -1.01062000
-0.20551200 7.68788000 -1.01062000
-0.13274600 7.68512000 -1.04974000
-0.11255800 7.63345000 -0.99121100
-0.18330800 7.62021000 -0.94684700
-0.23997600 7.62258000 -0.89287400
-0.26238600 7.69833000 -0.95181600
-0.16594900 7.57084000 -0.90354100
-0.22513300 7.55599000 -0.84587500
-0.27005000 7.57166000 -0.78723800
-0.27944000 7.64227000 -0.82903400
-0.30656800 7.72145000 -0.88404400
-0.28720300 7.58741000 -0.70690300
-0.30255000 7.66307000 -0.75376800
-0.34176100 7.73849000 -0.81236300
-0.26627700 7.50877000 -0.75345300
-0.29522800 7.51750000 -0.67903400
-0.25621300 7.46258000 -0.73391100
-0.30142900 7.45705000 -0.66539300
-0.24313800 7.42042000 -0.72307500
-0.29404900 7.40848000 -0.65559500
-0.23133500 7.38367000 -0.72069300
-0.28857500 7.36425000 -0.65186900
-0.28857500 7.36425000 -0.65186900
-0.23133500 7.38367000 -0.72069300
-0.23062700 7.34992000 -0.73145200
-0.29349500 7.32768000 -0.66116500
-0.25208200 7.33279000 -0.75650700
-0.31923600 7.31155000 -0.68560800
-0.27357200 7.31899000 -0.78474800
-0.34693300 7.29909000 -0.71180300
-0.29025200 7.29400000 -0.81316100
-0.36838200 7.27632000 -0.74006900
-0.29565300 7.26076000 -0.83629600
-0.37444400 7.24375000 -0.75957700
-0.37704900 7.21303000 -0.77622500
-0.39274000 7.19653000 -0.79813200
-0.41708500 7.20475000 -0.81613800
-0.48791700 7.17695000 -0.75000800
-0.48791700 7.17695000 -0.75000800
-0.41708500 7.20475000 -0.81613800
-0.44257400 7.22095000 -0.82547000
-0.51419900 7.19449000 -0.76070300
-0.57387600 7.16108000 -0.70367900
-0.54263500 7.13869000 -0.69462800
-0.62214200 7.11401000 -0.65595300
-0.58593900 7.09000000 -0.64741700
-0.54177600 7.21689000 -0.76950700
-0.46886700 7.23822000 -0.83419400
-0.57170600 7.24562000 -0.77785100
-0.61130100 7.28587000 -0.79384000
-0.65594100 7.34096000 -0.82221600
-0.61071300 7.38184000 -0.94209500
-0.70664700 7.38351000 -0.87601800
-0.70664700 7.38351000 -0.87601800
-0.61071300 7.38184000 -0.94209500
-0.66553900 7.39687000 -1.00720000
-0.76329500 7.39306000 -0.94723100
-0.86016700 7.36537000 -0.88859400
-0.80101600 7.36011000 -0.81313200
-0.81665800 7.37235000 -1.02269000
-0.91003100 7.34598000 -0.96660500
-0.99995800 7.30374000 -0.91806400
-0.94980100 7.29302000 -1.03665000
-1.04108000 7.25584000 -0.98269600
-1.12761000 7.21328000 -0.91751000
-1.08167000 7.19751000 -1.03197000
-1.17262000 7.16962000 -0.96317800
-1.25476000 7.14845000 -0.88902800
-1.20401000 7.10659000 -0.99449400
-1.28628000 7.08513000 -0.91100200
-1.36879000 7.07294000 -0.82760900
-1.29341000 7.00429000 -0.90840900
-1.38012000 6.99373000 -0.81713700
-1.47419000 7.00093000 -0.73626500
-1.39898000 6.90517000 -0.81377600
-1.49196000 6.91044000 -0.71657000
-1.55776000 6.94958000 -0.61112800
-1.50665000 6.80757000 -0.69471400
-1.57471000 6.85174000 -0.57417200
-1.60950000 6.92571000 -0.45487200
-1.57471000 6.85174000 -0.57417200
-1.56946000 6.75873000 -0.51838700
-1.59717000 6.84030000 -0.39214000
-1.60950000 6.92571000 -0.45487200
-1.61598000 6.91235000 -0.28069600
-1.63836000 6.99417000 -0.34787200
-1.54110000 6.77372000 -0.32814300
-1.55887000 6.84645000 -0.21669500
-1.58190000 6.91367000 -0.11298600
-1.47677000 6.79726000 -0.16261100
-1.49773000 6.86545000 -0.05852890
-1.51891000 6.94145000 0.03836630
-1.40310000 6.83536000 -0.01696020
-1.42413000 6.91537000 0.07755240
-1.44398000 6.99870000 0.16585200
-1.32149000 6.91752000 0.09554470
-1.34397000 7.00170000 0.18171500
-1.36118000 7.09191000 0.25561100
-1.24270000 7.03263000 0.16794400
-1.26321000 7.11934000 0.23615700
-1.27741000 7.20613000 0.29955000
-1.17894000 7.16800000 0.19408700
-1.20094000 7.25175000 0.25304900
-1.21348000 7.33186000 0.31454200
-1.20094000 7.25175000 0.25304900
-1.13067000 7.30452000 0.20619500
-1.14428000 7.37701000 0.26925600
-1.21348000 7.33186000 0.31454200
-1.15332000 7.44843000 0.33233200
-1.21747000 7.40993000 0.37909500
-1.10942000 7.43695000 0.21139000
-1.11881000 7.50178000 0.27644100
-1.12445000 7.56518000 0.33939300
-1.11696000 7.56272000 0.21971500
-1.11562000 7.62121000 0.28591600
-1.11498000 7.67254000 0.34681500
-1.09229000 7.71678000 0.40242500
-1.14745000 7.67793000 0.24170000
-1.13493000 7.73126000 0.30444200
-1.11597000 7.77653000 0.36462200
-1.11597000 7.77653000 0.36462200
-1.18028000 7.79004000 0.27682500
-1.16296000 7.83392000 0.34776000
-1.16296000 7.83392000 0.34776000
-1.12891000 7.87752000 0.40425000
-1.21930000 7.88776000 0.34446500
-1.17724000 7.93732000 0.40342100
-1.10932000 7.98839000 0.42417000
-1.10932000 7.98839000 0.42417000
-1.17724000 7.93732000 0.40342100
-1.23497000 7.99170000 0.42156200
-1.16418000 8.05272000 0.45604900
-1.30018000 8.02679000 0.45993500
-1.22509000 8.09834000 0.51448400
-1.36026000 8.04611000 0.51082200
-1.28029000 8.11383000 0.58539600
-1.40954000 8.02550000 0.56909800
-1.34027000 8.10268000 0.65567700
-1.26235000 8.15801000 0.72578600
-1.39514000 8.06489000 0.71586400
-1.32873000 8.12044000 0.79772200
-1.24717000 8.15381000 0.86433900
-1.38452000 8.06709000 0.85739100
-1.30798000 8.10548000 0.92644800
-1.22577000 8.13295000 0.98318100
-1.34759000 8.04934000 0.97641000
-1.27282000 8.08834000 1.03517000
-1.34811000 7.98038000 1.01115000
-1.28318000 8.02745000 1.07315000
-1.31445000 7.91441000 1.03489000
-1.25138000 7.96668000 1.09149000
-1.40357000 7.92905000 0.93930100
-1.36923000 7.85754000 0.97070600
-1.30063000 7.79982000 0.98638800
-1.41248000 7.80554000 0.88197300
-1.35105000 7.74748000 0.90728800
-1.30063000 7.79982000 0.98638800
-1.35105000 7.74748000 0.90728800
-1.26169000 7.71993000 0.91355700
-1.24416000 7.85135000 1.04197000
-1.38581000 7.71447000 0.79117800
-1.38581000 7.71447000 0.79117800
-1.44199000 7.76115000 0.77347300
-1.47072000 7.70843000 0.66116600
-1.42800000 7.65946000 0.68289300
-1.42800000 7.65946000 0.68289300
-1.47610000 7.82116000 0.74378000
-1.50556000 7.75688000 0.63417000
-1.50556000 7.75688000 0.63417000
-1.55827000 7.67045000 0.54770800
-1.47072000 7.70843000 0.66116600
-1.53536000 7.80433000 0.60702600
-1.58566000 7.71604000 0.51505900
-1.60533000 7.62206000 0.41652600
-1.58566000 7.71604000 0.51505900
-1.58295000 7.76199000 0.47014600
-1.60459000 7.66587000 0.37334000
-1.60533000 7.62206000 0.41652600
-1.61340000 7.57590000 0.28270500
-1.62054000 7.53007000 0.32694100
-1.57558000 7.70850000 0.32903300
-1.58979000 7.62275000 0.23662000
-1.61206000 7.54640000 0.14266000
-1.54439000 7.66805000 0.18985900
-1.55884000 7.59552000 0.09618190
-1.57984000 7.53542000 0.00000939
-1.50165000 7.64387000 0.05370630
-1.50755000 7.58050000 -0.03533070
-1.51363000 7.52976000 -0.12793300
-1.42953000 7.61367000 -0.06081200
-1.43144000 7.56688000 -0.15387200
-1.43225000 7.51249000 -0.24635100
-1.33846000 7.57385000 -0.15308200
-1.33606000 7.52582000 -0.24257300
-1.33139000 7.47142000 -0.32628300
-1.23735000 7.52286000 -0.22514800
-1.22908000 7.47126000 -0.30587000
-1.21973000 7.41567000 -0.38192500
-1.13698000 7.43802000 -0.26513900
-1.12514000 7.38474000 -0.33859900
-1.11264000 7.33315000 -0.41191000
-1.12514000 7.38474000 -0.33859900
-1.06764000 7.31419000 -0.27206400
-1.04625000 7.26891000 -0.34465100
-1.11264000 7.33315000 -0.41191000
-1.03273000 7.22078000 -0.41453200
-1.10958000 7.27676000 -0.47481400
-1.00320000 7.18521000 -0.27045300
-0.98771000 7.14057000 -0.34508600
-0.98761400 7.09143000 -0.20357400
-0.97566600 7.04516000 -0.28290100
-1.02873000 6.99318000 -0.15545700
-1.00301000 6.94416000 -0.23424100
-1.09554000 6.90510000 -0.12402000
-1.07027000 6.84907000 -0.20890300
-1.04406000 6.80556000 -0.29345400
-1.04406000 6.80556000 -0.29345400
-1.07027000 6.84907000 -0.20890300
-1.15766000 6.77127000 -0.20089300
-1.13257000 6.72134000 -0.29441200
-1.25795000 6.72013000 -0.20968500
-1.23507000 6.66215000 -0.31501600
-1.36200000 6.70277000 -0.23713700
-1.34489000 6.63229000 -0.35470800
-1.29406000 6.57766000 -0.46728000
-1.44494000 6.64515000 -0.39713900
-1.38438000 6.58242000 -0.53608600
-1.28118000 6.57696000 -0.64998500
-1.45748000 6.62480000 -0.60325000
-1.34300000 6.62459000 -0.72247200
-1.23720000 6.63896000 -0.81555400
-1.17858000 6.58640000 -0.74101600
-1.14731000 6.64489000 -0.90672500
-1.08883000 6.59453000 -0.82989800
-1.05964000 6.65000000 -0.98979200
-1.00008000 6.60356000 -0.91164500
-0.96721600 6.66050000 -1.06164000
-0.91191400 6.61280000 -0.98654000
-0.87485200 6.66735000 -1.12793000
-0.82270600 6.61731000 -1.05761000
-0.76731000 6.59422000 -0.97764500
-0.73194200 6.62415000 -1.12472000
-0.68213700 6.59799000 -1.05437000
-0.63754300 6.60081000 -1.00544000
-0.60278600 6.59927000 -1.12803000
-0.56052200 6.59686000 -1.07357000
-0.52184500 6.60132000 -1.03493000
-0.59794000 6.60348000 -0.97129800
-0.48221000 6.60409000 -1.00220000
-0.55808700 6.60624000 -0.93951600
-0.44848400 6.57806000 -0.97791900
-0.52259900 6.58564000 -0.91118500
-0.44848400 6.57806000 -0.97791900
-0.42477000 6.53004000 -0.96105400
-0.49978100 6.53763000 -0.89596700
-0.52259900 6.58564000 -0.91118500
-0.39775400 6.47972000 -0.94050900
-0.47852000 6.48686000 -0.88017100
-0.45300000 6.43363000 -0.85618400
-0.41642000 6.37900000 -0.81746100
-0.50514200 6.39114000 -0.75372500
-0.37590400 6.32387000 -0.76885300
-0.46061600 6.34105000 -0.70514700
-0.53688700 6.36907000 -0.63052500
-0.44082300 6.25876000 -0.66728000
-0.51672700 6.28747000 -0.59187600
-0.58861300 6.31855000 -0.51420200
-0.49940600 6.20427000 -0.54694700
-0.57957700 6.23201000 -0.47580100
-0.49702900 6.11625000 -0.50543200
-0.58097100 6.14237000 -0.43968400
-0.65689400 6.17034000 -0.37007800
-0.57834500 6.05582000 -0.39286900
-0.65100300 6.08264000 -0.32217200
-0.71053100 6.11166000 -0.24858000
-0.66547300 5.98977000 -0.28358800
-0.73737800 6.01526000 -0.21870100
-0.79888000 6.04615000 -0.15144400
-0.78183700 5.92024000 -0.19982300
-0.84827100 5.95039000 -0.13156600
-0.89864800 5.98346000 -0.05725770
-0.88223700 5.85162000 -0.11037400
-0.92958300 5.87895000 -0.03296260
-0.95959900 5.90363000 0.04960620
-0.92725800 5.77914000 -0.00183293
-0.95119500 5.80312000 0.08123560
-0.96190600 5.82635000 0.16415300
-0.92107700 5.71873000 0.11114300
-0.92934200 5.74190000 0.19542200
-0.96795700 5.76275000 0.27563200
-0.92363300 5.66053000 0.22347900
-0.96894400 5.68960000 0.29904100
-0.96911100 5.63137000 0.32103800
-0.42258500 6.17533000 -0.61994100
-0.36305200 6.23702000 -0.73904700
-0.31794000 6.48906000 -0.98592100
-0.25729700 6.50561000 -1.02387000
-0.23099900 6.49220000 -1.07196000
-0.18503400 6.46159000 -1.04384000
-0.12777300 6.42459000 -1.03443000
-0.18503400 6.46159000 -1.04384000
-0.23099900 6.49220000 -1.07196000
-0.22618300 6.43203000 -1.11684000
-0.17822100 6.41007000 -1.08564000
-0.12105400 6.38513000 -1.07063000
-0.12777300 6.42459000 -1.03443000
-0.12105400 6.38513000 -1.07063000
-0.12777300 6.42459000 -1.03443000
-0.16519700 6.34701000 -1.13124000
-0.10811600 6.33097000 -1.11543000
-0.10811600 6.33097000 -1.11543000
-0.05337080 6.32835000 -1.11175000
-0.00787828 6.34415000 -1.12512000
-0.09662020 6.27161000 -1.16520000
-0.04396070 6.27326000 -1.16340000
-0.00217893 6.28805000 -1.17783000
0.01681180 6.31520000 -1.20661000
0.01507930 6.37400000 -1.15304000
-0.03458630 6.21109000 -1.22399000
0.00641328 6.22466000 -1.23750000
0.01919900 6.25150000 -1.26827000
0.01154770 6.28013000 -1.30439000
0.01172610 6.34447000 -1.24224000
0.01242390 6.15621000 -1.30332000
0.02626460 6.18134000 -1.33370000
0.02292940 6.20947000 -1.37030000
0.01729290 6.23841000 -1.40870000
0.00341455 6.30827000 -1.34184000
0.03771380 6.10418000 -1.39690000
0.03683440 6.13239000 -1.43577000
0.03185810 6.16282000 -1.47707000
0.02141870 6.19430000 -1.52066000
0.00949135 6.26792000 -1.44888000
0.04710840 6.05058000 -1.49633000
0.04462690 6.08038000 -1.54204000
0.03622620 6.11133000 -1.58837000
0.01835820 6.14270000 -1.63199000
0.00303604 6.22639000 -1.56148000
0.05163060 5.99100000 -1.59637000
0.04795550 6.01998000 -1.64548000
0.03284180 6.04945000 -1.69453000
0.00794267 6.07557000 -1.73884000
-0.00720317 6.16968000 -1.67180000
0.05976240 5.92220000 -1.69282000
0.04636620 5.94947000 -1.74592000
0.02535660 5.97532000 -1.79657000
-0.01120250 5.99318000 -1.83615000
-0.02767780 6.09395000 -1.77417000
0.06280260 5.84698000 -1.79143000
0.04583170 5.87243000 -1.84813000
0.00715658 5.88899000 -1.89274000
-0.04728710 5.88322000 -1.89578000
-0.06091270 5.98849000 -1.84038000
-0.01120250 5.99318000 -1.83615000
0.00715658 5.88899000 -1.89274000
0.06149570 5.76568000 -1.89310000
0.02443290 5.78194000 -1.94414000
0.02443290 5.78194000 -1.94414000
-0.03534300 5.77473000 -1.94472000
-0.08265510 5.75419000 -1.90746000
-0.09028080 5.86079000 -1.86095000
0.03692760 5.66884000 -1.98417000
-0.02418350 5.66200000 -1.98414000
-0.07302540 5.64485000 -1.94737000
-0.11052300 5.62414000 -1.89099000
-0.11602100 5.72880000 -1.85212000
-0.01283470 5.54713000 -2.01698000
-0.06275020 5.53336000 -1.97918000
-0.10087000 5.51673000 -1.92256000
-0.12144000 5.49833000 -1.84830000
-0.12876000 5.60082000 -1.82092000
-0.04931820 5.42003000 -2.00219000
-0.09266050 5.40764000 -1.94751000
-0.11321600 5.39309000 -1.87036000
-0.13179400 5.37949000 -1.79523000
-0.13477400 5.48034000 -1.77408000
-0.08214410 5.29710000 -1.96604000
-0.10740900 5.28685000 -1.88765000
-0.12798200 5.27760000 -1.81183000
-0.13854800 5.26752000 -1.74162000
-0.14503700 5.36641000 -1.72578000
-0.10259400 5.18032000 -1.90051000
-0.12409700 5.17422000 -1.82365000
-0.13402500 5.16826000 -1.75177000
-0.09959140 5.16398000 -1.69250000
-0.10624300 5.26071000 -1.68258000
-0.12122500 5.07104000 -1.83183000
-0.13143100 5.06819000 -1.75722000
-0.09592060 5.06626000 -1.69731000
-0.03509900 5.06756000 -1.66521000
-0.04146120 5.16442000 -1.65862000
-0.12798800 4.96735000 -1.76076000
-0.09078800 4.96818000 -1.70072000
-0.03020790 4.96985000 -1.66525000
0.03330570 4.97183000 -1.64805000
0.02930690 5.07023000 -1.65031000
-0.08613820 4.86967000 -1.70137000
-0.02446980 4.87229000 -1.66993000
0.03894230 4.87428000 -1.66093000
0.09688980 4.87581000 -1.65008000
0.09386030 4.97450000 -1.64767000
-0.02255870 4.77454000 -1.66203000
0.04023910 4.77650000 -1.65079000
0.09881000 4.77738000 -1.64832000
0.09881000 4.77738000 -1.64832000
0.15071700 4.77681000 -1.66598000
0.14981800 4.87670000 -1.66633000
0.09688980 4.87581000 -1.65008000
0.04167420 4.67923000 -1.64267000
0.10040400 4.67936000 -1.64482000
0.10040400 4.67936000 -1.64482000
0.15096800 4.67756000 -1.66441000
0.17444500 4.67421000 -1.71459000
0.17240900 4.77549000 -1.71717000
0.10121700 4.58273000 -1.63668000
0.15366000 4.58007000 -1.65564000
0.17352800 4.57378000 -1.70980000
0.18027700 4.56649000 -1.76859000
0.18208000 4.67055000 -1.77492000
0.15214600 4.48368000 -1.64703000
0.17079900 4.47434000 -1.69895000
0.18035600 4.46298000 -1.75514000
0.18604400 4.44993000 -1.81398000
0.18267100 4.55675000 -1.82853000
0.17648400 4.37634000 -1.67731000
0.18456400 4.36037000 -1.73346000
0.19202100 4.34351000 -1.79163000
0.19307100 4.32607000 -1.84557000
0.18698100 4.43563000 -1.87192000
0.18863000 4.26086000 -1.69923000
0.19335500 4.23917000 -1.75524000
0.19673300 4.21797000 -1.80920000
0.18577900 4.19847000 -1.85763000
0.18540300 4.30933000 -1.89526000
0.18603300 4.13856000 -1.71211000
0.18312100 4.11485000 -1.76321000
0.17277900 4.09375000 -1.81056000
0.14857400 4.07824000 -1.84787000
0.16250200 4.18260000 -1.89724000
0.17082100 4.01472000 -1.71872000
0.15646400 3.99297000 -1.76393000
0.13103600 3.97806000 -1.79870000
0.09276750 3.97485000 -1.81442000
0.10839400 4.07416000 -1.86324000
0.14924900 3.89486000 -1.72125000
0.11934700 3.87998000 -1.75396000
0.11934700 3.87998000 -1.75396000
0.07838840 3.87713000 -1.76800000
0.09276750 3.97485000 -1.81442000
0.13103600 3.97806000 -1.79870000
0.03994470 3.88918000 -1.75136000
0.05395120 3.98620000 -1.79998000
0.11060800 3.78529000 -1.70819000
0.06802640 3.78331000 -1.71770000
0.03051130 3.79649000 -1.70006000
0.00708504 3.81900000 -1.66379000
0.01569490 3.90913000 -1.71631000
0.05990890 3.69190000 -1.66471000
0.02209870 3.70864000 -1.64650000
-0.00253321 3.73183000 -1.61202000
-0.04517010 3.74697000 -1.59310000
-0.03145190 3.83682000 -1.63686000
-0.01550540 3.64277000 -1.56568000
-0.05993370 3.65831000 -1.54972000
-0.08802930 3.68008000 -1.51714000
-0.07845750 3.76364000 -1.56396000
-0.02771880 3.55652000 -1.52292000
-0.07410710 3.57600000 -1.50520000
-0.09623730 3.60396000 -1.46950000
-0.08102530 3.63641000 -1.42434000
-0.07778090 3.70732000 -1.47346000
-0.08770940 3.50497000 -1.45720000
-0.10587600 3.53714000 -1.41793000
-0.10147300 3.57510000 -1.37174000
-0.11025900 3.61836000 -1.32478000
-0.09020900 3.67687000 -1.37820000
-0.11585300 3.47427000 -1.36290000
-0.12485400 3.51849000 -1.31703000
-0.13506200 3.56424000 -1.27013000
-0.15392000 3.60501000 -1.23707000
-0.12736100 3.65868000 -1.28746000
-0.15432300 3.46284000 -1.25930000
-0.16277000 3.51169000 -1.21445000
-0.18227000 3.55404000 -1.18297000
-0.16714500 3.58394000 -1.14443000
-0.13969400 3.63338000 -1.19756000
-0.19520100 3.46028000 -1.15778000
-0.21239100 3.50625000 -1.12747000
-0.19278400 3.53803000 -1.08813000
-0.14621500 3.53514000 -1.06298000
-0.12516600 3.58507000 -1.11716000
-0.24641400 3.46319000 -1.07259000
-0.21551500 3.49633000 -1.03295000
-0.16414400 3.49371000 -1.00817000
-0.11269500 3.47983000 -0.99451700
-0.09720830 3.52266000 -1.04694000
-0.24082100 3.45796000 -0.97623400
-0.17846100 3.45337000 -0.95849100
-0.11108900 3.44333000 -0.95445700
-0.03876750 3.50252000 -1.03867000
-0.02046140 3.55095000 -1.08376000
-0.07767690 3.57207000 -1.09846000
-0.04822630 3.45965000 -0.99322800
-0.04822630 3.45965000 -0.99322800
0.02942730 3.42792000 -1.00729000
0.03377070 3.46491000 -1.04562000
-0.03876750 3.50252000 -1.03867000
-0.11269500 3.47983000 -0.99451700
-0.11108900 3.44333000 -0.95445700
-0.04674880 3.42680000 -0.95351100
0.03227690 3.39299000 -0.97403800
-0.04674880 3.42680000 -0.95351100
-0.03829650 3.39474000 -0.91315700
0.04265420 3.36894000 -0.93626100
0.03227690 3.39299000 -0.97403800
-0.01994710 3.41156000 -0.86901600
0.06421170 3.40596000 -0.89005900
-0.09111390 3.44446000 -0.81661000
-0.00693390 3.46034000 -0.83704900
0.08239690 3.45306000 -0.85799300
0.00484725 3.51671000 -0.80461900
0.09410650 3.51558000 -0.82294000
0.08239690 3.45306000 -0.85799300
0.09410650 3.51558000 -0.82294000
0.18017900 3.51015000 -0.83366800
0.16935800 3.43659000 -0.87395000
0.26706200 3.50643000 -0.83163500
0.25668900 3.42624000 -0.87370400
0.35427800 3.50038000 -0.81319900
0.34886600 3.41631000 -0.85400400
0.34117300 3.33819000 -0.89686700
0.44194200 3.40778000 -0.81804800
0.44243500 3.32891000 -0.86231400
0.44527300 3.25315000 -0.90699000
0.33651600 3.26266000 -0.93900000
0.44825700 3.17715000 -0.95086300
0.33546400 3.18965000 -0.98018000
0.45396100 3.10205000 -0.99838500
0.34192800 3.11698000 -1.02067000
0.45902800 3.02479000 -1.04952000
0.35323400 3.04711000 -1.07040000
0.45468500 2.94053000 -1.09564000
0.36420400 2.97437000 -1.13135000
0.26478800 2.98065000 -1.13615000
0.17260400 2.98414000 -1.14096000
0.36398400 2.88630000 -1.18095000
0.27438700 2.90311000 -1.19944000
0.18370200 2.90819000 -1.20560000
0.10767000 2.87584000 -1.17336000
0.09317940 2.95662000 -1.11495000
0.27427000 2.82345000 -1.25950000
0.18930600 2.82592000 -1.26641000
0.11578500 2.79187000 -1.23804000
0.04271630 2.75460000 -1.21262000
0.03219110 2.83928000 -1.14961000
0.19334100 2.74194000 -1.33039000
0.11946500 2.70857000 -1.30624000
0.04710300 2.66937000 -1.27995000
-0.02632500 2.64261000 -1.27063000
-0.03373070 2.72286000 -1.20113000
0.12122300 2.62817000 -1.37428000
0.05623640 2.58421000 -1.34244000
-0.01078870 2.55012000 -1.32588000
-0.06505520 2.51611000 -1.30977000
-0.06499180 2.58832000 -1.23319000
0.06752300 2.50239000 -1.40555000
0.00287170 2.46719000 -1.38873000
-0.05117000 2.43223000 -1.36911000
-0.10525300 2.40456000 -1.35559000
-0.10975100 2.47448000 -1.28695000
0.01022600 2.39593000 -1.46121000
-0.03748290 2.35708000 -1.43919000
-0.08481020 2.32225000 -1.41722000
-0.13232800 2.29745000 -1.40214000
-0.14617800 2.37059000 -1.32900000
-0.02417800 2.28727000 -1.51857000
-0.06558310 2.25262000 -1.49951000
-0.10348300 2.22307000 -1.48130000
-0.00984713 2.22657000 -1.60591000
-0.04626630 2.19197000 -1.58956000
-0.08181020 2.15986000 -1.57256000
0.02057740 2.32953000 -1.53715000
0.03443180 2.27816000 -1.62063000
0.03443180 2.27816000 -1.62063000
0.05581690 2.25850000 -1.69532000
-0.00984713 2.22657000 -1.60591000
0.05581690 2.25850000 -1.69532000
0.08152020 2.33901000 -1.63482000
0.09666770 2.31713000 -1.70765000
0.09666770 2.31713000 -1.70765000
0.13460600 2.38954000 -1.64828000
0.10345000 2.31622000 -1.78043000
0.07177630 2.38004000 -1.55770000
0.13345800 2.42491000 -1.57463000
0.19547500 2.46086000 -1.59486000
0.19042700 2.41700000 -1.66167000
0.25722000 2.47006000 -1.60328000
0.19536100 2.52071000 -1.53128000
0.26340200 2.53170000 -1.53704000
0.33478500 2.52038000 -1.52768000
0.26652900 2.59906000 -1.46746000
0.34379800 2.58745000 -1.45512000
0.41915300 2.56390000 -1.43755000
0.34990700 2.65590000 -1.38075000
0.43097300 2.63469000 -1.36342000
0.50958100 2.59914000 -1.33412000
0.44030200 2.70775000 -1.29013000
0.52443200 2.67259000 -1.25966000
0.60693800 2.62750000 -1.22025000
0.53762100 2.75087000 -1.19124000
0.62069400 2.70625000 -1.14401000
0.66560800 2.64173000 -1.07828000
0.62723400 2.78428000 -1.07269000
0.67358600 2.71987000 -0.99506700
0.72947400 2.66655000 -0.94945400
0.71702700 2.58835000 -1.03719000
0.72947400 2.66655000 -0.94945400
0.62957500 2.86283000 -1.00526000
0.54830400 2.90963000 -1.06303000
0.54500700 2.98570000 -0.99905800
0.62860900 2.94334000 -0.94397400
0.54553600 2.83149000 -1.12802000
0.45308800 2.86040000 -1.15434000
0.45276600 2.79298000 -1.23200000
0.36164200 2.81155000 -1.24671000
0.35632100 2.73151000 -1.31161000
0.27400300 2.74513000 -1.32782000
0.27123000 2.67252000 -1.40022000
0.19114100 2.66548000 -1.39956000
0.19305300 2.58802000 -1.46478000
0.12483700 2.55345000 -1.44052000
0.13347000 2.48042000 -1.50406000
0.06583150 2.43929000 -1.48274000
0.53913100 3.06279000 -0.94273000
0.62450800 3.02361000 -0.88794600
0.53175100 3.13916000 -0.89035000
0.61907300 3.10642000 -0.83702600
0.67537200 3.06039000 -0.76477700
0.60746400 3.19075000 -0.78681200
0.66839000 3.15722000 -0.72091700
0.71584300 3.11674000 -0.63938500
0.72531900 3.01766000 -0.68230900
0.72531900 3.01766000 -0.68230900
0.71584300 3.11674000 -0.63938500
0.74936100 3.07848000 -0.54668600
0.76668200 2.97768000 -0.58216800
0.75237500 3.05199000 -0.44668100
0.76525100 2.94715000 -0.47230000
0.79353400 2.84373000 -0.49157500
0.79782000 2.93913000 -0.36836100
0.81048800 2.83203000 -0.38284400
0.82557800 2.72344000 -0.39088800
0.82490300 2.73447000 -0.49815500
0.84306400 2.61201000 -0.39223000
0.85526900 2.72224000 -0.28374300
0.87061700 2.61394000 -0.28514500
0.86355000 2.50034000 -0.38681900
0.87486100 2.72219000 -0.17647200
0.84046400 2.82941000 -0.27804800
0.86069700 2.82864000 -0.17357000
0.86349400 2.82510000 -0.07126910
0.84479600 2.93605000 -0.16721900
0.82336000 2.93027000 -0.07417340
0.83808700 2.93604000 0.02439740
0.80563000 3.03797000 -0.06355640
0.82201000 3.04076000 0.03227140
0.83320900 3.02999000 0.13316000
0.80733600 3.14145000 0.04446570
0.82367600 3.12935000 0.13887700
0.82555000 3.09508000 0.24487300
0.84742100 3.17589000 0.27344300
0.80780500 3.13806000 0.37412600
0.84227100 3.26902000 0.30859600
0.80059600 3.23010000 0.40136900
0.81604500 3.20771000 0.48903500
0.81053600 3.32566000 0.44002000
0.81593900 3.30183000 0.52064100
0.78668700 3.28991000 0.61494600
0.82190000 3.41002000 0.56689400
0.79970600 3.39597000 0.64420400
0.80902400 3.40339000 0.72559800
0.79488000 3.51740000 0.67031400
0.77981100 3.51721000 0.74528600
0.75410400 3.51901000 0.81211600
0.76833100 3.62968000 0.77659700
0.73004800 3.61694000 0.83864900
0.70554900 3.60837000 0.91624900
0.75132000 3.52695000 0.88172100
0.68898400 3.59584000 1.00141000
0.69784200 3.70284000 0.94995900
0.67337200 3.68955000 1.04773000
0.69453400 3.80620000 0.97457200
0.66074200 3.80532000 1.06973000
0.63918700 3.82624000 1.17061000
0.64565400 3.92517000 1.07631000
0.62784100 3.94687000 1.17864000
0.57625000 3.98294000 1.27928000
0.59146200 3.85620000 1.27347000
0.51099300 4.01670000 1.36997000
0.53890200 3.89551000 1.37540000
0.55320100 3.77000000 1.37412000
0.45020800 3.92374000 1.45542000
0.46276600 3.81316000 1.46340000
0.48589000 3.69916000 1.46676000
0.38974000 3.83659000 1.54255000
0.40965000 3.73412000 1.55596000
0.50189600 3.59630000 1.47673000
0.60224100 3.44001000 1.39553000
0.29903100 3.83641000 1.58014000
0.37566000 3.94314000 1.52591000
0.29468500 3.94498000 1.55720000
0.22677900 3.95168000 1.57892000
0.21815300 3.83801000 1.60129000
0.16855100 3.96051000 1.59981000
0.22171500 4.06656000 1.55674000
0.16338000 4.07067000 1.58073000
0.10976400 4.07367000 1.60664000
0.11517200 3.96595000 1.62473000
0.10976400 4.07367000 1.60664000
0.07066630 4.07774000 1.64213000
0.07812940 3.97027000 1.66140000
0.11517200 3.96595000 1.62473000
0.09312740 4.18479000 1.59186000
0.05838690 4.18549000 1.62966000
0.09312740 4.18479000 1.59186000
0.14689600 4.18385000 1.56444000
0.20538900 4.18292000 1.53816000
0.18602600 4.29908000 1.52984000
0.25665100 4.29887000 1.50082000
0.24047000 4.41285000 1.49182000
0.15810100 4.41324000 1.52754000
0.27099000 4.18117000 1.51544000
0.34575400 4.17300000 1.48341000
0.33735600 4.28977000 1.46763000
0.28515400 4.06268000 1.53261000
0.36023700 4.05658000 1.50501000
0.44401600 4.03942000 1.44841000
0.43886300 4.15697000 1.43900000
0.49777500 4.13242000 1.35480000
0.49872000 4.24750000 1.34413000
0.43245600 4.27163000 1.42418000
0.50462400 4.36040000 1.33293000
0.42240700 4.38236000 1.39997000
0.33421100 4.40249000 1.45645000
0.42133000 4.49061000 1.37924000
0.33216000 4.50812000 1.44203000
0.23365600 4.51975000 1.47921000
0.33398300 4.61147000 1.42287000
0.23691800 4.62763000 1.46331000
0.14896100 4.64463000 1.50222000
0.14191600 4.52998000 1.51693000
0.07789920 4.66223000 1.53178000
0.16377600 4.76000000 1.47764000
0.08755070 4.77678000 1.49889000
0.01975240 4.78784000 1.50946000
0.01621380 4.67994000 1.55010000
-0.04316610 4.79218000 1.51811000
-0.03482870 4.69783000 1.56570000
0.01621380 4.67994000 1.55010000
-0.03482870 4.69783000 1.56570000
-0.09349340 4.80899000 1.55130000
-0.08662950 4.71033000 1.58129000
-0.08662950 4.71033000 1.58129000
-0.06924820 4.61579000 1.62952000
-0.13772900 4.71985000 1.59634000
-0.11358800 4.63205000 1.64564000
-0.09717890 4.54863000 1.69677000
-0.05599610 4.52899000 1.67889000
-0.13772900 4.71985000 1.59634000
-0.18759600 4.71665000 1.59047000
-0.11358800 4.63205000 1.64564000
-0.13772900 4.71985000 1.59634000
-0.14940600 4.81297000 1.56335000
-0.20717800 4.79030000 1.54556000
-0.18759600 4.71665000 1.59047000
-0.10916300 4.90011000 1.51815000
-0.16777300 4.89676000 1.52814000
-0.22719600 4.87585000 1.51540000
-0.13184600 4.98741000 1.47917000
-0.18805200 4.98037000 1.49037000
-0.24231700 4.96887000 1.48695000
-0.19955600 5.07326000 1.45077000
-0.24863800 5.07054000 1.46013000
-0.24231700 4.96887000 1.48695000
-0.24863800 5.07054000 1.46013000
-0.28910000 5.07409000 1.48137000
-0.29170900 4.96487000 1.48627000
-0.33132800 5.07764000 1.48661000
-0.33326800 4.97237000 1.50309000
-0.36693000 5.07913000 1.45980000
-0.37356300 4.97860000 1.48601000
-0.38380700 4.87820000 1.51332000
-0.41880000 4.98283000 1.45770000
-0.42532200 4.88443000 1.47498000
-0.43141700 4.78402000 1.49306000
-0.38728500 4.77606000 1.52379000
-0.48476400 4.89424000 1.45468000
-0.48604500 4.79159000 1.47064000
-0.48514200 4.68666000 1.47993000
-0.54901000 4.79739000 1.41783000
-0.54921700 4.69397000 1.43684000
-0.54633200 4.58732000 1.44884000
-0.61054400 4.69674000 1.35108000
-0.61199700 4.59167000 1.36812000
-0.61372900 4.48447000 1.38713000
-0.69826400 4.58946000 1.30444000
-0.68843400 4.48082000 1.31297000
-0.66920300 4.37240000 1.31233000
-0.77277300 4.47132000 1.24896000
-0.75760500 4.36258000 1.25101000
-0.74673900 4.25243000 1.25905000
-0.81829000 4.34830000 1.17918000
-0.81197000 4.23609000 1.18014000
-0.80030200 4.12701000 1.17826000
-0.85596600 4.22671000 1.09574000
-0.84716200 4.11134000 1.08550000
-0.83249100 3.99839000 1.07023000
-0.79597900 4.01547000 1.17450000
-0.83259200 3.88420000 1.05484000
-0.79371100 3.90254000 1.16464000
-0.81914000 3.77115000 1.03094000
-0.81914000 3.77115000 1.03094000
-0.83259200 3.88420000 1.05484000
-0.84869800 3.86993000 0.95699600
-0.82304300 3.75774000 0.92881000
-0.80573100 3.64349000 0.89594000
-0.78587300 3.78909000 1.14278000
-0.80961200 3.74949000 0.83410400
-0.79196700 3.63998000 0.80300200
-0.75712400 3.52862000 0.76719200
-0.74613300 3.65326000 0.73576100
-0.72850800 3.54833000 0.68948900
-0.69787400 3.67082000 0.66781700
-0.67714400 3.57324000 0.63930000
-0.68307900 3.68179000 0.58672500
-0.66635900 3.58333000 0.56691500
-0.62867200 3.47825000 0.54698700
-0.63529700 3.58000000 0.50397800
-0.58287900 3.48778000 0.49848500
-0.58661200 3.59054000 0.45614700
-0.55557900 3.49170000 0.43154100
-0.52135400 3.39294000 0.41361200
-0.52855000 3.49530000 0.36175000
-0.50533100 3.39281000 0.34599400
-0.51784800 3.49340000 0.29576100
-0.49794400 3.38986000 0.27960400
-0.48515300 3.29216000 0.27048500
-0.49905800 3.39318000 0.22218700
-0.49111700 3.29453000 0.20571000
-0.55113000 3.22207000 0.21421300
-0.52757600 3.30933000 0.15818800
-0.57443200 3.23415000 0.15613300
-0.56824700 3.15228000 0.12315300
-0.57489500 3.05656000 0.04676190
-0.59005100 3.06167000 -0.01549590
-0.55275600 2.99060000 -0.04760110
-0.59584900 3.07584000 -0.08265130
-0.57714600 3.00812000 -0.11709400
-0.59217500 2.92442000 -0.13828000
-0.60793900 3.03441000 -0.18768300
-0.62363000 2.95262000 -0.21111000
-0.61855300 2.87635000 -0.23312800
-0.65609300 2.98976000 -0.28876200
-0.65170300 2.91632000 -0.31475000
-0.67035600 2.85564000 -0.32223900
-0.67409700 2.96125000 -0.40367900
-0.68965900 2.89834000 -0.41913800
-0.69745500 2.84097000 -0.42593100
-0.68352700 2.93308000 -0.51894300
-0.69821500 2.87483000 -0.53130600
-0.66853800 2.81778000 -0.53189900
-0.66256100 2.90327000 -0.63373400
-0.63611300 2.84888000 -0.62714400
-0.64180600 2.76887000 -0.63655000
-0.57911100 2.87324000 -0.71819900
-0.58733900 2.79307000 -0.72633300
-0.61224000 2.70767000 -0.74072100
-0.50328800 2.80686000 -0.78887300
-0.51841700 2.72039000 -0.80365000
-0.53908600 2.62830000 -0.82305800
-0.46068300 2.55947000 -0.88599100
-0.36594000 2.57999000 -0.91837800
-0.38291900 2.48028000 -0.93148800
-0.41160800 2.84013000 -0.82892400
-0.43973300 2.92114000 -0.85265100
-0.37380300 2.96006000 -0.92107300
-0.32578600 2.90153000 -0.88045500
-0.50571500 2.89104000 -0.79331200
-0.54128000 2.95160000 -0.80685300
-0.47366800 2.98492000 -0.87283000
-0.60660200 2.92787000 -0.72768600
-0.60140500 2.98623000 -0.70649400
-0.53753000 3.01612000 -0.77945000
-0.65358900 2.96088000 -0.61831200
-0.65293600 3.02853000 -0.59225700
-0.60407100 3.05781000 -0.67399300
-0.67739000 2.99920000 -0.49806100
-0.66977500 3.07108000 -0.46764500
-0.63899800 3.10262000 -0.55444600
-0.67503300 3.03445000 -0.37546600
-0.66452100 3.10532000 -0.34443100
-0.66407500 3.13924000 -0.43696400
-0.63954200 3.06755000 -0.26153700
-0.63006600 3.12962000 -0.23391000
-0.64554400 3.16137000 -0.32012700
-0.60895800 3.09967000 -0.15568700
-0.62556200 3.15299000 -0.12781600
-0.61557900 3.17972000 -0.20747600
-0.64318500 3.23184000 -0.18192900
-0.62715700 3.26238000 -0.26749900
-0.62291600 3.21147000 -0.29655600
-0.63358200 3.24111000 -0.11420300
-0.65513100 3.33539000 -0.10107800
-0.65303700 3.31355000 -0.16462400
-0.67653000 3.41542000 -0.16240700
-0.67488900 3.40867000 -0.23727700
-0.65584100 3.31860000 -0.24599200
-0.66420800 3.43803000 -0.10029200
-0.67393500 3.54295000 -0.10549800
-0.68309100 3.52536000 -0.16962700
-0.63667900 3.46650000 -0.03139560
-0.61595800 3.55946000 -0.05892890
-0.61072100 3.66225000 -0.05620900
-0.66543500 3.64282000 -0.11407500
-0.57970200 3.47968000 0.00350654
-0.57793800 3.57983000 0.00374865
-0.57580400 3.67788000 0.01689310
-0.59193800 3.76879000 0.04158590
-0.61918100 3.75674000 -0.03426730
-0.56122400 3.58458000 0.07325580
-0.56809100 3.68137000 0.08904700
-0.59154400 3.77469000 0.10904100
-0.62516200 3.86456000 0.12583100
-0.60711700 3.86037000 0.06513940
-0.59156600 3.68085000 0.15053000
-0.60497800 3.77513000 0.16942800
-0.62138700 3.87165000 0.18440600
-0.63024100 3.97088000 0.19701300
-0.64793700 3.96001000 0.14236600
-0.57665300 3.78661000 0.22338000
-0.58719800 3.88687000 0.23871600
-0.59821100 3.98705000 0.25452500
-0.61193500 4.08754000 0.26753600
-0.63283500 4.07162000 0.20285700
-0.57251300 3.89457000 0.31013200
-0.59036100 3.99525000 0.33031800
-0.60765400 4.09825000 0.34704200
-0.62476800 4.20201000 0.35779300
-0.62617000 4.18671000 0.27454400
-0.63002800 3.99543000 0.40841900
-0.64981900 4.09787000 0.42888200
-0.66969300 4.20114000 0.43956400
-0.71537200 4.29857000 0.44004100
-0.65306100 4.30345000 0.36080700
-0.69546000 4.10048000 0.50545700
-0.71066000 4.20534000 0.52190600
-0.73825800 4.30490000 0.53582100
-0.78383200 4.39025000 0.53796700
-0.74547800 4.39107000 0.44169900
-0.76196700 4.18506000 0.57484000
-0.78556400 4.28012000 0.59164300
-0.82186500 4.37980000 0.59688100
-0.84734700 4.47762000 0.59322700
-0.80515400 4.48159000 0.53297200
-0.83638700 4.26920000 0.62243200
-0.86252500 4.37381000 0.63399000
-0.88636800 4.47499000 0.63627900
-0.89885600 4.57421000 0.63298300
-0.86273800 4.57380000 0.58769600
-0.87050700 4.37554000 0.68634700
-0.88527800 4.47981000 0.69388700
-0.88984900 4.58044000 0.68830700
-0.89086200 4.68311000 0.67663200
-0.90516800 4.67326000 0.62413000
-0.87669500 4.49437000 0.75816200
-0.88533800 4.59739000 0.75680700
-0.90176300 4.70135000 0.73980800
-0.92854500 4.80838000 0.72946700
-0.89009500 4.78995000 0.67337300
-0.91275500 4.61606000 0.83409700
-0.92424300 4.72439000 0.80953900
-0.92758300 4.83376000 0.79734500
-0.91246800 4.93884000 0.78831700
-0.93110800 4.91603000 0.72034400
-0.90968800 4.76175000 0.90081200
-0.90086000 4.86484000 0.88065300
-0.89315900 4.96375000 0.86678500
-0.88458400 5.05257000 0.85874700
-0.90246800 5.03323000 0.78266600
-0.86517400 4.89647000 0.97844600
-0.88661100 4.99028000 0.96568100
-0.88202800 5.08171000 0.95098400
-0.86289700 5.15918000 0.93552500
-0.86872800 5.13039000 0.84646700
-0.88202800 5.08171000 0.95098400
-0.88661100 4.99028000 0.96568100
-0.84018400 5.02223000 1.06153000
-0.82702500 5.10974000 1.04403000
-0.80947500 5.18725000 1.02554000
-0.86289700 5.15918000 0.93552500
-0.79512600 5.25579000 1.00422000
-0.84474500 5.22800000 0.92021400
-0.76500700 5.13250000 1.12668000
-0.74605100 5.21085000 1.10372000
-0.73022200 5.27771000 1.07755000
-0.71709900 5.33493000 1.04834000
-0.78249400 5.31429000 0.97970700
-0.68558600 5.22511000 1.16864000
-0.66808500 5.29753000 1.14250000
-0.65844300 5.35921000 1.11444000
-0.66195700 5.41883000 1.09113000
-0.72668200 5.39589000 1.03393000
-0.62701700 5.30485000 1.20417000
-0.60748600 5.37540000 1.17409000
-0.59692600 5.43766000 1.14418000
-0.62349200 5.49387000 1.15648000
-0.69529600 5.46980000 1.10849000
-0.54729800 5.37055000 1.21263000
-0.53658200 5.44521000 1.18787000
-0.54895700 5.51205000 1.19541000
-0.55460600 5.56654000 1.18849000
-0.63157600 5.54627000 1.14637000
-0.47227900 5.44080000 1.23662000
-0.46596900 5.51029000 1.22856000
-0.47503100 5.57172000 1.22949000
-0.43318600 5.50580000 1.31178000
-0.42422100 5.57062000 1.30154000
-0.37343200 5.50985000 1.36969000
-0.36467000 5.58119000 1.35933000
-0.35237200 5.65151000 1.34287000
-0.33193400 5.72463000 1.33283000
-0.31261600 5.58675000 1.38985000
-0.30399500 5.66230000 1.38435000
-0.29095200 5.73956000 1.37602000
-0.27595600 5.81597000 1.36300000
-0.31829100 5.80328000 1.33979000
-0.26090400 5.66985000 1.40033000
-0.24593300 5.74843000 1.37899000
-0.23285400 5.81880000 1.34996000
-0.26406300 5.88630000 1.33927000
-0.25800700 5.95182000 1.31135000
-0.29798800 5.95315000 1.31562000
-0.30613400 5.87999000 1.33581000
-0.33117700 5.94483000 1.30073000
-0.33612300 5.86841000 1.30658000
-0.35488700 5.78886000 1.29308000
-0.35378200 5.86130000 1.26181000
-0.35407000 5.93587000 1.27184000
-0.36034400 5.93023000 1.23516000
-0.38134200 5.86204000 1.23574000
-0.38370400 5.93020000 1.20351000
-0.40891700 5.87172000 1.20575000
-0.44648800 5.82273000 1.19929000
-0.45054500 5.84492000 1.16475000
-0.51399600 5.82690000 1.15133000
-0.51454800 5.78778000 1.18895000
-0.41207800 5.87908000 1.17212000
-0.45012000 5.86027000 1.12419000
-0.39980500 5.93157000 1.17329000
-0.38866000 5.98959000 1.16458000
-0.39980500 5.93157000 1.17329000
-0.38370400 5.93020000 1.20351000
-0.37550000 5.99519000 1.19519000
-0.38784900 6.06251000 1.17814000
-0.38868500 6.05169000 1.14530000
-0.36034400 5.93023000 1.23516000
-0.37298700 6.00091000 1.22966000
-0.38036500 6.07205000 1.21322000
-0.38817200 6.14386000 1.19072000
-0.40361600 6.13087000 1.15243000
-0.35543900 6.00928000 1.25915000
-0.35669600 6.08195000 1.23876000
-0.36073800 6.15435000 1.21687000
-0.37472200 6.22967000 1.19493000
-0.40415400 6.21734000 1.16061000
-0.32560900 6.09088000 1.25769000
-0.33012300 6.16305000 1.24093000
-0.34288800 6.23769000 1.22909000
-0.36869200 6.32024000 1.21423000
-0.39845500 6.30996000 1.17135000
-0.29159500 6.16902000 1.25369000
-0.30269900 6.24343000 1.24513000
-0.28991400 6.09588000 1.26782000
-0.29159500 6.16902000 1.25369000
-0.28991400 6.09588000 1.26782000
-0.25171200 6.09502000 1.25769000
-0.25274000 6.17094000 1.24044000
-0.21593300 6.08819000 1.23675000
-0.21404200 6.16512000 1.21784000
-0.16478800 6.13683000 1.18370000
-0.14694400 6.18663000 1.15967000
-0.17412500 6.07310000 1.20699000
-0.13394200 6.04200000 1.14859000
-0.12322100 6.09332000 1.12711000
-0.06025300 6.05611000 1.07651000
-0.04501950 6.10465000 1.06597000
-0.10079800 6.13991000 1.10951000
-0.07214450 6.00922000 1.08712000
0.00745225 5.98437000 1.06233000
0.01712720 6.03105000 1.05477000
-0.07898740 5.96211000 1.09935000
-0.00256093 5.93925000 1.07120000
0.07481120 5.92133000 1.05051000
0.08382110 5.96683000 1.04496000
-0.06476880 5.92205000 1.12742000
0.00092681 5.90536000 1.10036000
0.07416480 5.88729000 1.07230000
0.15259000 5.87551000 1.04908000
0.15206000 5.90900000 1.02862000
0.07416480 5.88729000 1.07230000
0.00092681 5.90536000 1.10036000
0.02189900 5.89715000 1.14452000
0.08965510 5.87710000 1.11513000
0.16461200 5.86022000 1.08489000
0.15259000 5.87551000 1.04908000
0.24435800 5.84803000 1.04776000
0.22805100 5.86324000 1.01684000
0.11372600 5.86035000 1.15955000
0.17480900 5.82928000 1.11337000
0.25887100 5.82368000 1.08114000
0.34002500 5.81242000 1.03462000
0.31741800 5.83115000 1.00122000
0.19379500 5.79132000 1.14350000
0.26264700 5.77582000 1.09981000
0.34876000 5.77158000 1.05788000
0.42193000 5.75621000 0.99096900
0.40358100 5.79345000 0.96589400
0.26628800 5.72599000 1.11393000
0.34352400 5.72108000 1.06273000
0.41517900 5.70790000 0.99998300
0.46256300 5.69559000 0.91931700
0.47318600 5.74579000 0.90774000
0.32887200 5.67044000 1.05566000
0.39503800 5.65949000 0.99772100
0.45491200 5.64668000 0.92993800
0.52104600 5.63435000 0.86745200
0.51544700 5.68071000 0.85122400
0.37726400 5.61652000 0.98826200
0.44176600 5.60503000 0.92591700
0.50689900 5.59224000 0.85976100
0.56502700 5.58774000 0.78591900
0.58722800 5.63215000 0.78949200
0.42561100 5.56606000 0.92018500
0.48456800 5.55674000 0.85335400
0.53645900 5.54790000 0.78051600
0.57432000 5.53856000 0.70399900
0.60242300 5.58000000 0.70520800
0.48624800 5.51798000 0.86623300
0.52635100 5.50578000 0.78812400
0.55741100 5.49500000 0.70918000
0.58432500 5.48459000 0.62988800
0.60765700 5.52765000 0.62537900
0.53916500 5.46571000 0.80598800
0.57255800 5.45145000 0.72756200
0.59752500 5.43838000 0.64839900
0.62010100 5.42672000 0.56984900
0.60797900 5.47473000 0.55184100
0.57182100 5.40512000 0.74101700
0.60234700 5.39217000 0.66385000
0.62659700 5.37899000 0.58514000
0.64645300 5.36435000 0.50830400
0.63904400 5.41395000 0.49428300
0.58200700 5.35008000 0.66976100
0.61151300 5.33672000 0.59090200
0.62852200 5.31728000 0.51435500
0.64317100 5.30090000 0.44120800
0.66124600 5.34868000 0.43491600
0.61502600 5.29819000 0.60290200
0.63226000 5.26967000 0.52554200
0.65699700 5.25535000 0.45037800
0.67089000 5.23977000 0.37759900
0.65412500 5.28372000 0.36988300
0.65725500 5.22932000 0.54263000
0.68400300 5.21254000 0.46236300
0.69757800 5.19779000 0.38673900
0.70296700 5.17737000 0.31348600
0.68002300 5.22133000 0.30609400
0.70598200 5.16285000 0.47612600
0.71906200 5.13764000 0.40009000
0.73155000 5.11568000 0.32752300
0.73852300 5.09747000 0.25429400
0.69946200 5.14917000 0.24242900
0.75602100 5.07292000 0.41455900
0.76791800 5.04843000 0.34037600
0.77141800 5.03374000 0.26412000
0.77021000 5.02493000 0.18295000
0.74647600 5.08858000 0.17340400
0.78875800 4.97536000 0.34967800
0.79004000 4.96116000 0.27290500
0.78429500 4.95564000 0.19278900
0.77569800 4.96063000 0.10551600
0.76258600 5.02045000 0.09517790
0.80970800 4.89425000 0.27916600
0.80239800 4.89159000 0.19692000
0.78816700 4.90119000 0.11259900
0.76499500 4.89853000 0.02280930
0.75154600 4.95773000 0.01258750
0.81667400 4.82892000 0.19406600
0.79409900 4.83911000 0.11258900
0.75936900 4.84513000 0.03904230
0.76826100 4.77869000 0.12461900
0.73696500 4.79857000 0.05332620
0.75266600 4.70327000 0.13043200
0.72519200 4.71913000 0.05229590
0.74567100 4.61891000 0.13494400
0.72761700 4.63086000 0.04740040
0.69492100 4.64032000 -0.02903750
0.69421700 4.65066000 -0.10483000
0.72748000 4.54161000 0.04370080
0.69346400 4.55357000 -0.03823340
0.69430400 4.56456000 -0.11776200
0.66464800 4.57890000 -0.18963000
0.66754300 4.66715000 -0.17042000
0.69653500 4.46317000 -0.04418060
0.69190100 4.47157000 -0.12612500
0.65800300 4.48364000 -0.19881000
0.60557800 4.50129000 -0.26042500
0.60653100 4.59586000 -0.24276100
0.68856600 4.37206000 -0.13188300
0.65178300 4.38626000 -0.20859900
0.60915800 4.40546000 -0.27847600
0.56952600 4.42458000 -0.34405400
0.56844900 4.52182000 -0.32764300
0.64692100 4.28921000 -0.22004000
0.61633600 4.30795000 -0.29495200
0.57280700 4.32452000 -0.36020900
0.50070500 4.34117000 -0.40329100
0.49892100 4.44357000 -0.38855200
0.62101100 4.20984000 -0.30988300
0.57661700 4.22319000 -0.37340400
0.50622000 4.23939000 -0.41772500
0.45003700 4.26222000 -0.47237800
0.42450500 4.36190000 -0.44339700
0.58336900 4.12035000 -0.38503100
0.51397600 4.13746000 -0.43036100
0.46751800 4.16097000 -0.49286600
0.41131700 4.16196000 -0.53924900
0.39153700 4.26178000 -0.51684900
0.52646600 4.03730000 -0.44601600
0.48810100 4.06130000 -0.50980000
0.43274500 4.06178000 -0.55416500
0.35955800 4.06470000 -0.56857200
0.34045200 4.15830000 -0.54928800
0.41131700 4.16196000 -0.53924900
0.43274500 4.06178000 -0.55416500
0.50798700 3.95684000 -0.52861500
0.45139700 3.96162000 -0.57005700
0.45139700 3.96162000 -0.57005700
0.37780100 3.96909000 -0.58250700
0.30890200 3.98721000 -0.62457700
0.29737300 4.07729000 -0.59637200
0.46569000 3.85902000 -0.58762800
0.39349400 3.86951000 -0.60704000
0.32729700 3.89008000 -0.65096800
0.40952500 3.77012000 -0.64410600
0.34329100 3.78413000 -0.68868300
0.42323200 3.67144000 -0.68677400
0.35135000 3.68294000 -0.72828400
0.26760000 3.68681000 -0.74433300
0.18357800 3.68193000 -0.74698700
0.35406400 3.58700000 -0.76723100
0.27064000 3.59164000 -0.78650100
0.18580000 3.59024000 -0.79159100
0.09931230 3.58661000 -0.78690700
0.09902730 3.67070000 -0.74693100
