1.46886000 -9.57590000 0.20013200
1.44600000 -9.54153000 0.17119000
-0.13698000 3.88147000 -0.62703500
-0.06666270 3.86446000 -0.62868600
-0.02354910 3.89374000 -0.63296800
-1.03329000 -1.76731000 1.13681000
-1.03855000 -1.82171000 1.13077000
-0.08285400 -7.82648000 -0.64592300
-0.07265800 -7.83002000 -0.68762200
-0.12095900 -7.84218000 -0.65132600
1.20253000 -9.02944000 1.65997000
1.18840000 -8.90546000 1.65674000
1.21690000 -8.89196000 1.62314000
-0.53655700 6.48032000 0.09379300
1.49696000 -8.03830000 0.64738200
1.51149000 -8.00142000 0.66873800
-0.24083500 4.88683000 0.70384800
1.67767000 -6.92784000 0.82516700
1.67377000 -6.88639000 0.82577300
0.52309100 -8.71231000 1.63179000
-1.23564000 2.32392000 1.72200000
-0.79793600 -6.42085000 -0.39791700
-0.74025000 -6.40400000 -0.41448000
-0.86755100 -6.47851000 -0.40669800
-0.14076200 -6.79231000 2.30252000
-0.13125500 -6.76669000 2.30179000
-0.10483600 -6.76740000 2.31763000
-1.10780000 3.83266000 1.06658000
-1.06390000 4.02571000 1.04945000
1.75470000 -0.65359800 1.73864000
1.74066000 -0.71384300 1.75206000
-0.35504500 7.38569000 0.25544200
0.83719300 -4.35625000 1.56538000
0.78221600 -4.65514000 1.55747000
0.83710400 5.05932000 0.59069900
0.84870400 5.04319000 0.60997400
-0.22748800 -7.64513000 2.00065000
-0.25661900 -7.66659000 2.00513000
-0.28353000 -7.64738000 2.02002000
1.35181000 0.78505400 1.26095000
1.35910000 0.74310600 1.23948000
1.33110000 0.71477000 1.26000000
0.28465000 2.69928000 2.02813000
0.28162900 2.68941000 2.01550000
0.77818900 -8.11479000 -0.43844100
0.73576600 -8.11590000 -0.46465700
-0.48783100 6.92241000 -0.11371400
1.45521000 -8.27087000 0.86402900
1.44723000 -8.29327000 0.79522600
-1.22879000 -6.72954000 -0.35479000
-1.16263000 -6.76577000 -0.42434500
-1.15748000 -6.73918000 -0.41806600
-1.19950000 -6.74398000 -0.39569300
0.78899600 -8.10461000 2.01435000
-0.68969700 2.03642000 2.16143000
-0.75796900 2.01205000 2.12422000
-0.72507700 2.09298000 2.14116000
-0.80990200 2.12109000 2.09608000
0.20274200 -5.05404000 1.17200000
-1.82926000 -9.43922000 2.05119000
-1.81126000 -9.45264000 2.06695000
-1.77467000 -9.41061000 2.07554000
-1.73516000 -9.41110000 2.09575000
-0.89888900 1.80998000 2.06007000
-0.79425900 1.83574000 2.11115000
1.20223000 -3.24880000 1.55985000
1.15264000 -3.23822000 1.58648000
1.14578000 -3.27212000 1.59130000
1.07048000 -3.27685000 1.62230000
1.24378000 -6.60537000 2.40133000
1.23099000 -7.51102000 -0.09879340
1.22836000 -7.51564000 -0.11494100
-0.31674500 1.80987000 1.58688000
0.39514300 -1.85568000 1.51645000
0.38721800 -1.84830000 1.48429000
0.35830000 -1.85885000 1.47631000
-0.56741900 -8.81664000 -0.85961900
-0.55989200 -8.71104000 -0.84246900
-0.46581500 -8.69876000 -0.86741800
-0.20595300 -8.07130000 -0.60436200
-0.27363400 -8.15124000 -0.60526600
-0.23678400 -8.16321000 -0.60427400
0.16189300 -4.29521000 -0.09197280
-0.05509040 6.03835000 1.30554000
-0.05651490 6.00569000 1.30274000
-0.07341390 5.99799000 1.30052000
0.14450600 4.90396000 0.92777000
0.06351550 4.90057000 0.91215900
1.59439000 1.86404000 1.86078000
1.59917000 1.80530000 1.86186000
-0.84088100 -6.30063000 -0.62453000
0.01817810 6.80316000 1.29928000
-0.01115420 6.84603000 1.28398000
0.17566900 6.84198000 1.31138000
0.10183400 6.90304000 1.28938000
0.06829580 6.80423000 1.30795000
0.48156800 -1.56448000 0.01790650
0.53066600 -1.54956000 0.02410530
0.48929700 -1.53888000 0.01515450
0.39967000 -1.53593000 0.00449482
2.06736000 -0.89558600 1.18373000
2.08259000 -0.84051500 1.17871000
2.08626000 -0.80975200 1.21233000
2.04920000 -0.93972000 1.18370000
1.46220000 -2.63393000 0.59537000
1.43702000 -2.68339000 0.52390100
1.48022000 -2.50000000 0.57911700
1.47845000 -2.56332000 0.63468100
1.51256000 -2.42260000 0.70299800
-1.51498000 2.58285000 1.23296000
-1.19082000 -5.84146000 -0.23416000
-1.20154000 -5.94186000 -0.27006000
-1.23537000 -5.76654000 -0.16570000
-1.22799000 -5.84212000 -0.20661500
-0.33660000 -2.09237000 1.68435000
2.28286000 3.04266000 0.28945400
2.30276000 3.04060000 0.34028700
-0.27850700 -7.84961000 -0.68462300
-0.31935000 -7.84284000 -0.70613300
-0.26472500 -7.86056000 -0.71088700
0.82023100 -7.42648000 2.02696000
0.78132700 -7.48660000 1.98416000
0.16735600 -9.60869000 1.79289000
-1.93695000 -8.51470000 0.80984500
-1.94382000 -8.46734000 0.78052900
0.83523400 -3.98865000 1.16668000
-1.95256000 -7.03841000 1.10450000
-1.94913000 -6.98844000 1.10979000
-0.06099130 -5.40029000 1.12092000
-0.22050500 -9.87178000 1.42720000
-0.11999700 -9.90949000 1.46029000
-0.21540700 -9.90329000 1.45471000
-0.15221700 -9.90736000 1.45137000
0.81929400 -4.41717000 1.21706000
-2.24116000 -9.59542000 1.43853000
0.74281400 0.42503600 2.20498000
0.71199600 0.33559900 2.19148000
0.72971900 0.46518600 2.19733000
0.72627900 -2.62160000 1.80518000
-1.71656000 -9.80798000 1.74457000
1.43273000 3.92512000 1.25051000
0.41090000 -2.44803000 1.46077000
0.41071300 -2.41509000 1.45190000
2.13684000 2.32692000 1.17109000
2.15809000 2.29780000 1.17102000
-1.39003000 0.71899500 0.82422600
-1.40764000 0.58549900 0.89636700
0.38214000 2.87155000 1.60061000
0.33457300 2.93586000 1.59660000
0.38154600 2.83427000 1.60910000
0.89521500 -9.44057000 2.06888000
0.86547400 -9.34819000 2.01562000
0.07741650 5.28754000 -0.30451900
0.23534000 5.29023000 -0.32967500
0.16827100 5.28709000 -0.32652000
-2.16084000 -9.86224000 0.96750800
-2.19270000 -9.86256000 0.99112000
-2.19270000 -9.86256000 0.99112000
-2.22265000 -9.83780000 0.98363300
-2.21657000 -9.85914000 0.95364000
-1.59838000 -7.69073000 2.31008000
-1.53983000 -7.77595000 2.30085000
-0.56295400 -6.68725000 2.23776000
0.70668000 7.42876000 -0.10916300
0.69413200 7.41599000 -0.10198700
0.75045100 7.48657000 -0.10791200
-0.97885800 -9.74173000 -0.96786900
-0.87109100 -9.74132000 -0.99147600
-0.81303400 -9.72963000 -1.00109000
-0.18337700 2.04378000 1.96486000
-0.19230200 2.02745000 1.97522000
-0.18059500 2.05567000 1.96374000
-1.33255000 -7.14112000 1.94687000
-1.31016000 -7.16358000 1.95546000
1.15112000 -1.75174000 -0.06265690
1.14537000 -1.76413000 -0.03309890
0.17203500 -8.19817000 -0.54527800
0.10945400 -8.28326000 -0.55212900
0.12049400 -8.26575000 -0.53807400
2.18621000 3.96645000 0.39125100
1.69430000 -7.96648000 1.23914000
1.68682000 -7.95582000 1.22044000
-0.15625400 -2.12349000 1.41372000
-1.48213000 -0.43290000 0.79754200
-1.48429000 -0.42584300 0.81755800
-1.94915000 -7.89924000 0.52681500
-1.94595000 -7.85983000 0.51478000
-2.11660000 -9.85955000 0.71988500
1.60326000 2.33207000 1.58416000
-0.93794200 -9.06199000 -0.48600700
-0.92448900 1.64796000 0.75788500
-0.96673400 1.75642000 0.74015400
0.10183500 -8.38848000 -0.56855000
0.09762120 -8.34428000 -0.56173700
1.45662000 1.38453000 1.12474000
-1.26036000 0.82066200 1.77355000
-1.32755000 0.69414900 1.69901000
-1.29825000 0.78459400 1.71959000
-1.34158000 0.70547500 1.68199000
-2.07518000 -8.10242000 1.26694000
-2.09677000 -8.13145000 1.40951000
1.54007000 -7.88893000 0.64067700
1.53176000 -7.88318000 0.58209600
-0.41537100 6.52321000 -0.16738500
-0.41426700 6.60872000 -0.15629200
1.30883000 -4.09083000 0.33812400
1.27479000 -4.14729000 0.29923100
0.37061200 -8.22234000 1.80515000
0.33869300 -8.24685000 1.80002000
0.36603700 -8.29744000 1.81237000
0.33965600 -8.15316000 1.79730000
-2.20640000 -6.86575000 1.83260000
-2.24398000 -6.89154000 1.75114000
-2.21958000 -6.84207000 1.75737000
-1.62575000 2.04894000 1.42243000
-1.67526000 1.99913000 1.39206000
-1.18357000 4.39380000 -0.08524390
-1.41029000 -6.19815000 0.57128600
-1.38577000 -6.14269000 0.50584000
-1.28086000 -5.81572000 0.39746100
0.27277800 -9.45745000 -0.72799400
0.26869700 -9.41136000 -0.71527700
0.32864300 -9.55472000 -0.74950300
0.33926500 -9.50729000 -0.73209100
0.60634400 0.34250300 1.93763000
0.56097300 0.34350000 1.92613000
0.79461500 -1.85916000 0.12959300
-0.28298700 -9.72038000 -1.09214000
-0.28720000 -9.74702000 -1.08238000
-1.81306000 -8.43249000 0.24565100
-1.84202000 -8.42683000 0.28024300
1.49738000 -9.01555000 -0.12774900
1.60035000 -8.96380000 0.04921350
1.63526000 -8.90971000 0.12542800
-2.12115000 -7.42561000 1.71335000
-2.14653000 -7.39607000 1.69557000
0.04194460 -2.93893000 1.05420000
-1.39256000 -6.68670000 -0.57893600
-1.41259000 -6.66718000 -0.56215700
-0.40686900 -6.02421000 -0.60927500
-0.32373900 -6.14417000 -0.66820000
-0.38737100 -6.15457000 -0.67883300
-0.34674600 -6.11683000 -0.65801700
1.13307000 6.12066000 0.15839800
1.13072000 6.15947000 0.14639400
0.80044900 1.34073000 1.70618000
0.83586000 1.31553000 1.70256000
0.87022200 1.41151000 1.67743000
0.87179800 1.32218000 1.68816000
1.40569000 -9.59129000 0.01452120
0.03696460 3.18403000 1.32111000
0.07286880 3.21493000 1.27079000
-0.16615100 -1.15531000 -0.30482600
-1.69982000 -9.75829000 2.13564000
-1.75865000 -9.79357000 2.09814000
1.15548000 -2.18753000 0.96284200
1.18118000 -2.10166000 0.94732000
0.83199400 -4.84755000 1.36056000
0.76166500 -8.84844000 1.96002000
0.68189800 -8.88995000 1.94341000
-1.83453000 -8.90335000 1.29137000
1.78899000 -9.00212000 0.73037000
1.37950000 -7.00215000 -0.50611800
1.37246000 -6.94580000 -0.54831600
1.37170000 -6.97278000 -0.53272400
0.92343100 3.10919000 0.24269800
0.94515800 -9.64741000 -0.56012700
-0.64250100 -6.02890000 -0.56008800
-0.56368800 -5.96638000 -0.56166800
-0.81567500 1.39798000 0.83544500
-0.88260500 1.36588000 0.87465700
-0.85667600 1.28807000 0.89544300
-0.86331400 1.21354000 0.92665200
-1.82843000 -7.47071000 1.63021000
-1.80530000 -7.49742000 1.64694000
-1.84214000 -7.56160000 1.67293000
-0.48756100 -5.79711000 1.33460000
-0.25202900 -1.24094000 1.70155000
1.42191000 -9.12134000 1.36116000
1.42202000 -9.06523000 1.32372000
1.40466000 -8.97418000 1.25556000
-2.12170000 -9.89496000 1.78432000
-2.13629000 -9.88633000 1.80018000
1.90581000 -6.79876000 1.57764000
1.85906000 -6.78356000 1.68466000
-1.32442000 -2.17332000 1.72261000
0.27621300 -1.47206000 -0.04694390
0.37294400 -1.49663000 -0.03410120
0.31864200 -1.49523000 -0.03844740
0.31055300 -1.50622000 -0.01017550
-2.10566000 -9.39892000 1.66764000
1.39931000 0.32748000 0.82237700
-0.36712900 0.76204600 1.74821000
-0.24526900 0.65442700 1.77917000
0.44507500 -2.83863000 1.46493000
0.46416800 -2.83207000 1.48760000
0.48414300 -2.84481000 1.52564000
0.44440500 -2.76799000 1.46706000
-0.07252310 4.62930000 -0.42608400
-0.14187200 4.66816000 -0.40601400
0.08674000 -7.72465000 -0.76758900
0.09601890 -7.73070000 -0.82282300
0.02345010 -7.79946000 -0.86387900
1.45927000 -9.22470000 0.93112600
1.46054000 -9.20451000 0.95959200
1.45130000 -9.16829000 0.91244100
1.44646000 -9.13087000 0.91815700
-1.70312000 -6.78028000 1.05443000
-1.68996000 -6.78615000 1.11564000
-0.80406900 4.25186000 -0.40177400
0.60074800 2.09092000 2.16017000
0.58991900 2.12978000 2.19487000
0.57145900 2.15629000 2.20910000
0.10237100 -8.95856000 -0.64292700
0.08087720 -8.89326000 -0.63695600
0.13050100 -8.93345000 -0.62561700
1.54317000 -9.47947000 0.58784700
1.55215000 -2.11226000 0.57902800
1.51800000 -2.15133000 0.51354000
-1.74237000 -7.75809000 0.08064500
-1.76693000 -7.75444000 0.08773110
1.15114000 2.71206000 1.18252000
1.43800000 -9.08468000 1.15642000
1.41801000 -9.04169000 1.28753000
0.87837300 -7.64680000 -0.42556900
0.92757600 -7.62082000 -0.39477400
0.90285300 -7.63720000 -0.41607700
-0.97641900 -8.92950000 -0.43382000
-0.98164000 -8.87052000 -0.41853800
1.40131000 -9.79249000 -0.08594640
0.41994700 2.14859000 1.98441000
0.44566400 2.15189000 1.97777000
-0.26300100 2.43021000 2.27136000
-0.29815900 2.43518000 2.27823000
-1.17776000 0.06667960 0.68257500
-1.20753000 0.07608660 0.68730600
-1.11112000 -3.46111000 0.32954200
-1.01293000 -3.77155000 0.17990600
-1.08118000 -3.70354000 0.26211800
0.78072800 -8.78453000 -0.35401300
0.81980600 -8.78922000 -0.32075800
0.74489600 -8.75491000 -0.37131400
0.74993400 -8.79368000 -0.37107900
1.70362000 -7.28797000 0.47891200
-0.13815200 4.79233000 0.79036700
-1.90822000 -9.70249000 1.36473000
-1.38872000 -4.74408000 1.01490000
1.10358000 -9.52124000 -0.33412800
1.07637000 -9.46794000 -0.33177400
1.08233000 -9.44358000 -0.30874500
0.86104200 -8.79122000 -0.28408500
0.86634100 -8.75019000 -0.28486600
0.85994600 -8.81782000 -0.29266900
-2.05607000 -7.27536000 0.08035010
-2.07879000 -7.25377000 0.11360300
-2.07269000 -7.23011000 0.06858820
-1.48699000 -1.56788000 0.89647500
-1.49070000 -1.47603000 0.88730300
-1.30868000 -7.67902000 1.93946000
-1.29037000 -7.80946000 1.89369000
-1.28392000 -7.87473000 1.88024000
-1.79483000 -8.02392000 1.36304000
-1.78475000 -8.02067000 1.41352000
-1.78081000 -7.99521000 1.44056000
-1.06825000 -4.88032000 1.48628000
-1.05816000 -4.75960000 1.48890000
-1.80527000 -7.88058000 0.20163300
1.35285000 4.16165000 -0.40404900
-0.43607700 -6.92380000 2.33744000
-0.36398100 -6.94050000 2.33239000
-1.47372000 0.71899900 1.04890000
-1.47076000 0.77980900 0.97818100
-1.46386000 0.70277400 0.98215200
1.75658000 -7.78753000 1.05601000
1.74180000 -7.80010000 1.04457000
1.74314000 -7.77805000 1.05339000
1.72687000 -7.77355000 1.04080000
-1.67205000 -7.55114000 0.03405170
-1.60307000 -7.54677000 -0.03636240
-1.63901000 -7.50897000 -0.00272776
-1.58623000 -7.49389000 -0.05763610
2.34007000 1.71509000 1.19466000
0.36867300 1.35366000 1.63774000
0.34012000 1.33438000 1.58820000
0.35112000 1.37463000 1.62751000
0.35749600 1.30859000 1.63063000
0.39878400 1.64979000 0.22122200
0.47510700 1.64080000 0.23245800
0.43647200 1.61685000 0.24991200
0.39331000 1.72991000 0.19968800
-1.52852000 2.11441000 1.49796000
-1.44419000 2.21835000 1.48123000
0.18269300 -7.54110000 -0.60795000
0.19665000 -7.57326000 -0.61441200
0.18838300 -7.51364000 -0.61356500
0.16829100 -7.51834000 -0.60919000
-0.69852300 -6.47260000 -0.46396000
-0.59567700 -6.48389000 -0.51994100
-0.70222700 -6.45681000 -0.45803800
-0.67802300 -6.42684000 -0.44951200
-1.33620000 -6.94378000 2.45179000
1.28165000 -7.82159000 -0.10369300
-0.21349100 -6.63532000 -0.98256400
-0.18716100 -6.65906000 -0.98182400
-0.17600600 -6.63525000 -0.98203200
-0.37419900 -9.76364000 -1.01199000
-0.80688100 -9.77473000 -0.90395100
-0.82557800 -9.77782000 -0.91150800
-0.85241900 -9.78364000 -0.88771700
0.31945500 -4.99330000 -0.28240200
0.26320200 -5.01387000 -0.29672400
0.26806100 -5.08175000 -0.30391700
0.33561700 -5.01277000 -0.28040600
1.65516000 1.21566000 0.51016500
1.59001000 1.13305000 0.56868000
-0.71080100 0.88172700 0.85561200
-0.64628800 0.92551200 0.83045100
-0.67673900 0.90958200 0.84610100
0.89470200 2.57578000 2.09656000
-0.55904400 -5.75291000 -0.47731300
-0.60755200 -5.84252000 -0.50252500
-0.63332800 -5.75991000 -0.46213900
0.66737800 -7.87859000 -0.73870600
0.81579300 -7.86237000 -0.69700100
-0.93041000 1.38103000 1.40268000
-0.91097300 1.44648000 1.44727000
1.96781000 2.97538000 1.10361000
1.89718000 2.80571000 1.15007000
1.79350000 2.26903000 1.25077000
0.99521100 -7.13232000 2.36433000
1.04955000 -7.13878000 2.36121000
0.52996000 -1.92940000 0.06592940
0.58256800 -1.99935000 0.06472990
1.23244000 -2.27916000 0.07796030
1.24343000 -2.34360000 0.09469280
-0.36703100 5.38773000 0.61347100
-0.33508400 5.33165000 0.66509900
-0.38745100 5.43483000 0.59641500
0.89298200 8.59423000 -0.20555200
0.87153000 8.60566000 -0.18348600
-0.11923000 -1.47462000 1.57213000
1.42643000 -5.40487000 0.30005900
0.79094000 4.52921000 1.03744000
0.80996300 4.60181000 1.02260000
0.77624000 4.56497000 1.06451000
0.75387000 4.41378000 1.09274000
-0.62111800 -7.73187000 -0.58529200
-0.63450800 -7.80800000 -0.57268300
-0.61353300 -7.70898000 -0.58469200
-1.15682000 -9.48397000 -0.82286600
-1.29187000 -9.37776000 -0.70912800
-1.07352000 -5.29575000 0.15091600
0.98974000 0.81722400 0.63888200
-0.83919900 -5.82337000 -0.15724600
-0.73360500 -5.69059000 -0.18777800
-0.82484800 -5.69932000 -0.14049200
-0.56594000 0.55288400 0.57119700
0.12509500 -8.53365000 -0.58973600
0.10655700 -8.49954000 -0.59279400
0.10161600 -8.52875000 -0.58751300
0.17736200 -8.58076000 -0.58285700
0.15610300 -8.55339000 -0.58130400
1.25645000 -8.04513000 1.72706000
1.21983000 -8.06310000 1.74812000
-0.00394348 -7.65615000 1.93162000
0.06031130 -7.66468000 1.93876000
1.47797000 -9.73410000 -0.02216590
1.45796000 -9.71815000 -0.01219450
1.45550000 -9.70117000 -0.03669740
1.47534000 -9.71976000 -0.00501142
-0.36193000 0.08193110 1.98964000
-0.38005200 0.12847300 1.99150000
-0.39880600 0.12066200 2.03969000
-0.39123100 0.17999400 2.01786000
1.27400000 -3.30421000 1.46498000
1.19909000 -3.28091000 1.55654000
-2.16226000 -8.69618000 0.82538900
1.00573000 -8.17307000 -0.59738700
0.92360100 -8.08354000 -0.64095500
0.33185000 2.21434000 1.80607000
0.34585600 2.18148000 1.79609000
-0.63358400 5.08297000 0.54024200
-0.61531000 5.07648000 0.55808500
-0.60585700 5.03588000 0.63860400
0.20579500 1.91919000 0.56434100
0.54253000 -1.04849000 1.55256000
0.55606000 -1.15569000 1.55121000
0.57167000 -1.34501000 1.52735000
0.03277710 -9.70953000 -1.06752000
-0.00608636 -9.72218000 -1.04497000
-0.53934000 -7.75364000 -0.82936800
-0.47686100 -7.80177000 -0.83366400
-1.80622000 2.19091000 1.09420000
-1.76228000 2.12412000 1.25966000
-1.49382000 -6.18271000 1.39641000
-1.43933000 -6.13876000 1.42739000
-1.53107000 -6.15010000 1.32037000
-1.14237000 -8.66957000 1.86549000
-1.11011000 -8.52917000 1.87809000
1.09319000 -1.16879000 0.25871200
1.06402000 -1.26136000 0.22864500
1.11499000 -1.33751000 0.27756900
1.09495000 -6.41312000 2.08847000
1.04896000 -6.41732000 2.11221000
0.98037300 -6.42221000 2.16812000
-0.67646000 -1.60527000 1.52245000
-0.74339500 -1.82396000 1.48511000
-0.77332600 -1.94621000 1.46077000
-1.79601000 -8.94695000 1.94975000
-1.75521000 -9.06075000 2.01077000
-1.72061000 -9.00261000 2.03786000
0.04840020 -7.15677000 2.24018000
0.41995200 -4.74376000 -0.24578400
1.18042000 0.79636600 2.07442000
1.09564000 0.60554100 2.11607000
1.43580000 -8.00150000 1.46046000
-0.99060200 -9.54886000 -0.92247400
-0.94391400 -9.56679000 -0.94093300
-0.99179800 -9.59665000 -0.93287800
2.14326000 -0.69696000 0.81455800
1.46987000 -7.85555000 0.02952780
1.43200000 -7.83143000 0.02286180
1.56745000 -7.90229000 0.00224427
0.53754000 -8.23476000 1.87209000
-0.45814700 0.23411700 0.45955600
0.72851200 -8.19620000 -0.45080000
0.70503900 -8.16411000 -0.46801200
0.76405800 -8.14111000 -0.44542300
0.41041800 2.55538000 2.25487000
1.39218000 1.09653000 1.94962000
1.39023000 1.26894000 1.96159000
-0.65969000 -0.05488310 2.13737000
-0.79559900 -0.17086000 2.09434000
0.15705000 -4.82023000 1.20806000
0.14451700 -4.95960000 1.21659000
-0.81468500 -0.15792900 1.41739000
-1.36726000 2.67374000 1.26712000
-1.43118000 2.71982000 1.27381000
0.39373900 -5.99963000 -0.34835500
-0.48871300 5.73145000 0.60212600
0.61044400 -0.36708200 1.69889000
0.57883200 -0.44107100 1.70062000
0.56996500 -0.36798800 1.69224000
0.56585300 -0.33711400 1.68294000
1.56561000 -9.62385000 0.41770500
1.60204000 -9.65655000 0.49074400
-1.62284000 -1.40755000 1.00103000
-1.84604000 -8.25392000 1.19580000
-1.84584000 -8.24784000 1.22617000
-1.69825000 -8.48994000 0.09327210
-1.71347000 -8.43572000 0.11729500
-1.69255000 -8.56859000 0.05298150
-1.69270000 -8.54543000 0.07258370
-1.71675000 -8.54515000 0.09633040
0.03606900 -8.26724000 1.39888000
0.03651990 -8.24390000 1.41006000
1.70064000 -9.68382000 1.69545000
1.71221000 -9.55654000 1.57995000
1.42020000 -0.97312500 0.57228500
1.38139000 -0.96667600 0.55411200
1.32933000 -0.92010600 0.53909200
1.43160000 -8.87410000 0.62758300
1.42036000 -8.84116000 0.63058200
1.43136000 -8.85247000 0.64593200
1.43435000 -8.87426000 0.67671300
1.43045000 -8.83006000 0.68734100
-1.32801000 -5.30648000 1.20902000
-1.25971000 -5.29045000 1.26798000
-1.30483000 -5.23430000 1.20764000
-1.27345000 -5.25896000 1.24551000
0.64516100 7.31353000 -0.24314200
0.59189600 7.32579000 -0.23707400
0.63196100 7.34143000 -0.17871000
0.56398600 7.30423000 -0.28308900
0.58047000 -8.78008000 -0.50844400
0.60979400 -8.73950000 -0.46515200
-0.02875820 2.73011000 1.90394000
0.00114688 2.73820000 1.93328000
0.18592700 8.38530000 0.01180240
-1.46065000 -8.21949000 2.22011000
-1.44139000 -8.40076000 2.20346000
-1.43823000 -8.30340000 2.21591000
-2.15154000 -9.17231000 0.39747100
-2.14036000 -9.02322000 0.37310100
-2.11025000 -9.03463000 0.24666000
0.69519900 2.32994000 2.30076000
0.20725800 -5.90544000 1.06621000
0.20303600 -5.82594000 1.06359000
-0.85041700 -8.67280000 2.04756000
1.44184000 4.16383000 1.15304000
-1.33483000 -5.24517000 0.19496300
-1.38622000 -5.28422000 0.22873100
-1.40734000 -5.24454000 0.27038700
0.27971800 -4.14236000 1.21456000
0.30806800 -3.96104000 1.23925000
0.28968400 -3.94173000 1.22883000
0.29971600 -3.88417000 1.24063000
1.19816000 -1.72410000 -0.07874680
0.12033100 1.37413000 0.23252800
0.12033100 1.37413000 0.23252800
2.17330000 0.64021600 0.80242100
2.14464000 0.52342800 0.71529000
1.13914000 -6.81861000 -0.35091400
1.04136000 -2.49183000 1.97439000
1.01080000 -2.44987000 2.00721000
-1.67032000 -8.74672000 0.03936360
-1.64323000 -8.71799000 -0.00359563
-1.67043000 -8.71068000 0.01795730
-0.97854000 1.76481000 2.01178000
-0.96998400 1.78523000 2.00876000
-1.00223000 1.78687000 1.99586000
-0.95559300 1.89117000 2.01908000
-0.60809900 6.41767000 0.24141900
-0.63161000 6.47059000 0.25550100
-1.01841000 -3.82608000 1.49149000
-1.01341000 -3.75131000 1.52776000
-1.01132000 -3.90147000 1.50174000
0.60382000 1.84604000 1.88713000
0.60454900 1.86059000 1.90463000
-0.37223600 4.20445000 1.19004000
-0.45526000 4.20260000 1.21762000
1.70070000 -9.84128000 0.09388610
1.73692000 -9.84559000 0.09815700
1.68779000 -9.84177000 0.14161400
-0.56817200 4.87824000 -0.01262770
1.12167000 -0.53256100 1.49264000
-1.69266000 -9.00000000 0.06592140
-1.68260000 -8.99531000 0.03380360
-1.66643000 -8.94853000 0.01281710
0.47936500 -1.25671000 -0.29566600
0.43878900 -1.26022000 -0.29146600
0.54290300 -1.26082000 -0.29339900
-1.56807000 4.02825000 0.12846400
-1.55914000 4.06867000 0.18317800
-1.53801000 4.01572000 0.03359190
2.17304000 2.55106000 0.99616800
0.14718800 -7.73147000 1.89112000
0.13258100 -7.72025000 1.93207000
0.10469400 -7.69894000 1.83047000
0.15031300 -7.73735000 1.83429000
0.26372600 -2.62098000 -0.18480000
-0.78385400 -1.57583000 1.44541000
-0.91268500 -1.38068000 1.32282000
-0.04957680 -7.62578000 1.77211000
-0.06270190 -7.60925000 1.69444000
-0.02416240 -7.62504000 1.70699000
0.02250610 -7.63714000 1.68416000
0.07427900 -7.66722000 1.69399000
-0.91765800 4.65653000 0.16837400
-0.49879300 -5.07250000 -0.28810500
-0.43230200 -5.18818000 -0.32072100
-0.46253400 -5.12326000 -0.30159400
0.51716300 5.70858000 1.18202000
0.49968500 5.70190000 1.17255000
-0.36947900 -9.76568000 -1.05247000
-0.34284400 -9.76127000 -1.06468000
1.30847000 3.24819000 0.60989300
1.27642000 3.30087000 0.68774300
1.27561000 3.28503000 0.59908700
-0.67963000 -3.22353000 0.34243600
-1.09387000 -9.19627000 2.22400000
1.32366000 -7.40856000 -0.05500020
1.34027000 -7.40492000 -0.01860730
-1.72313000 3.09325000 0.49403000
-1.72884000 3.21160000 0.53280300
-1.71753000 3.11605000 0.46207700
0.36092700 3.20710000 0.13490900
0.28369900 3.12852000 0.12184400
1.57091000 -9.78867000 1.41963000
1.56994000 -9.80742000 1.45229000
1.55969000 -9.81926000 1.47210000
-1.04311000 -0.12965100 1.98639000
-1.09223000 -0.17734400 1.97052000
-1.36094000 2.69745000 1.25372000
0.41282300 2.75321000 1.66634000
0.39596700 2.74052000 1.64591000
0.23489000 5.77062000 1.39319000
0.17182300 5.76353000 1.39818000
-1.75869000 -7.83367000 0.11840300
-0.54943500 -4.50341000 -0.18063100
1.41011000 -8.92740000 1.19620000
1.24128000 -6.23513000 2.25312000
1.19761000 -6.24084000 2.26437000
-1.50056000 -5.47944000 0.93250400
1.79324000 -1.18043000 0.70547600
1.85376000 -1.33230000 0.82776700
1.80519000 -1.24070000 0.75392600
-0.62967000 -9.44372000 -0.98440300
-0.67040800 -9.43354000 -0.96930200
-0.67555200 -9.36095000 -0.94909800
-0.03100350 -5.88342000 1.05805000
-0.04991420 -5.79972000 1.00730000
-1.69818000 2.18424000 1.30688000
-0.23241800 -2.37482000 -0.14632100
-0.46076300 6.33152000 -0.00881924
-0.44408100 6.31379000 -0.06546700
-0.45354700 6.35087000 -0.05976380
0.29337800 -6.93384000 2.29698000
0.38223400 -6.90562000 2.29519000
1.25020000 -9.10520000 -0.44995700
1.19581000 -9.09169000 -0.50684000
-0.17600800 -1.68985000 -0.21729500
-0.17600800 -1.68985000 -0.21729500
1.44984000 -4.25060000 0.96424800
1.40850000 -4.39138000 1.04541000
1.06503000 -7.09570000 -0.43209300
1.05956000 -7.15211000 -0.40211500
1.00196000 -7.06816000 -0.48446900
0.27955600 -8.05401000 -0.52720000
0.29266400 -8.07654000 -0.52809900
0.26852800 -8.05505000 -0.54276900
0.57881900 -1.49916000 -0.01945820
0.62115800 -1.52171000 0.00146083
0.53495600 -1.51462000 -0.01886640
-1.74320000 -6.79588000 2.00077000
-1.74777000 -6.78552000 1.92930000
-1.79476000 -6.78452000 1.88169000
1.39393000 -9.28293000 1.42805000
1.38411000 -9.32746000 1.46161000
1.35690000 -9.29376000 1.54632000
-2.11014000 -8.71192000 0.50217800
-2.11392000 -8.73431000 0.52912700
-2.13711000 -8.66685000 0.51715500
-0.21129200 0.29484200 1.90954000
-0.22990600 0.25841400 1.93617000
-0.21396700 -2.29759000 1.56510000
1.27791000 1.84372000 1.39811000
0.51750700 3.71873000 0.47553100
0.60184500 3.21742000 1.31535000
0.65761100 3.22909000 1.29283000
0.39935700 -3.79684000 0.02357760
0.41190700 -3.71075000 0.03534750
0.33214800 -3.69867000 0.02384690
-0.64587600 -3.27211000 1.19638000
-0.69618400 -3.21087000 1.14747000
-0.65064700 -3.23913000 1.19916000
-0.62674400 -3.21004000 1.23886000
-1.55030000 -9.72155000 -0.37976300
-1.49256000 -9.66044000 -0.36740500
-1.52462000 -9.71300000 -0.39102300
-0.98364500 -6.74306000 -0.53861200
-1.08017000 -6.74890000 -0.47846500
-0.81149600 -6.73735000 -0.62954900
0.98061300 -6.93314000 -0.50488100
1.43919000 2.53798000 1.05606000
0.88323400 4.80358000 1.00159000
0.47484900 -8.10123000 -0.79931700
0.46440300 -8.38158000 -0.81628400
0.41714900 -8.24421000 -0.81835600
0.46362800 -8.52374000 -0.81431800
-1.54013000 0.31206300 1.33435000
0.00847702 -3.97206000 0.92901500
-0.04573650 -3.88019000 0.95321800
-0.27341200 -4.00647000 1.22353000
-0.31849400 -4.19163000 1.24661000
1.19712000 -5.05557000 1.37806000
1.23282000 -4.96215000 1.33139000
-0.94417600 -1.09793000 -0.01612380
-0.91686400 -1.02350000 -0.02617960
-0.94417600 -1.09793000 -0.01612380
0.17704800 -7.59352000 -0.82524400
0.18238200 -7.59559000 -0.86667800
0.70192500 -8.50842000 1.68616000
0.73213400 -8.51655000 1.69743000
-1.66557000 -6.50313000 2.15619000
-0.17873200 -1.86639000 1.54861000
-0.16708500 -1.92290000 1.54337000
-0.23445000 -1.92357000 1.56096000
-0.12963300 -1.83123000 1.43850000
0.92690900 -9.24576000 -0.36262200
0.92850300 -9.19246000 -0.33498500
-1.90273000 -8.44283000 0.50733200
-1.90244000 -8.46550000 0.46570900
-1.89777000 -8.42813000 0.48828800
-0.07578550 -6.48769000 -0.88638900
-2.09390000 -7.35893000 1.27305000
-2.05900000 -7.37830000 1.23036000
-2.06384000 -7.35584000 1.27493000
-2.12528000 -7.37439000 1.24251000
0.88711800 1.93192000 0.69780500
0.88851500 2.01772000 0.66299100
0.87152600 1.97564000 0.67905800
-2.29928000 -6.73614000 0.91278800
-2.26324000 -6.72502000 0.84218800
-2.30855000 -6.72786000 0.73900100
-0.47319600 8.19262000 -0.35217000
-0.53663500 8.17003000 -0.31618900
1.42409000 -9.83653000 1.69221000
1.41166000 -9.83882000 1.71047000
-1.78502000 2.28582000 0.81340200
-1.79610000 2.34595000 0.89459300
-1.78772000 2.35267000 0.82793600
-1.78866000 2.44174000 0.91607400
-1.79026000 2.40970000 0.85325100
-1.28659000 -9.90625000 2.20483000
-1.27053000 -9.88904000 2.23038000
-0.08098420 -5.24312000 -0.35254400
-0.14453100 -5.23334000 -0.34600700
-0.12676700 -5.26245000 -0.36026500
-0.22279300 -5.32439000 -0.37296900
1.43087000 -9.08676000 0.40828100
-0.85809100 -6.83117000 1.99394000
-0.85110100 -6.74479000 2.03149000
-0.81534100 -6.69698000 2.07011000
-1.50221000 3.94845000 -0.07464610
-1.52010000 3.84423000 -0.07018010
0.74608000 1.50408000 0.67003600
-0.49962300 -7.61473000 2.17172000
1.36554000 3.11380000 0.94237300
-1.03136000 -3.52464000 1.54714000
-1.08245000 -3.46672000 1.49919000
-1.00432000 -3.59749000 1.56118000
-1.45120000 2.06535000 1.63245000
-1.44198000 2.10118000 1.62466000
0.62385600 -6.28379000 1.41644000
0.65842700 -6.23356000 1.41272000
-1.10217000 0.10291800 1.95809000
-1.10687000 0.27018700 1.95192000
-0.80844700 -9.92815000 1.96037000
-0.81996800 -9.94659000 2.03534000
-1.54039000 -5.77599000 0.15906300
0.42596900 1.89960000 1.84525000
-0.33760000 -6.16002000 1.40664000
1.33363000 1.94508000 1.24988000
1.31765000 1.92018000 1.26596000
1.25758000 1.94597000 1.25344000
-0.08109770 -6.34792000 -0.51015100
1.21004000 -5.08641000 0.07236580
-1.25778000 -6.23083000 1.76672000
-0.26715500 7.65081000 0.67281900
-0.28773900 7.69529000 0.67173200
-0.24141900 7.71520000 0.71716800
-2.22780000 -9.85661000 0.84461100
0.83771200 -6.32332000 -0.57458100
0.69767200 -6.27777000 -0.60458900
0.67657100 -6.23422000 -0.59039300
0.58938500 -2.44599000 1.42591000
0.58983900 -2.42371000 1.48273000
-1.33548000 -2.19746000 1.09891000
0.94952600 5.07793000 -0.09912310
0.95038600 5.01532000 -0.09248580
0.63010600 3.23522000 1.25860000
-1.22662000 -8.60650000 -0.29620900
-1.27850000 -8.65104000 -0.26613100
1.70540000 3.34962000 1.08371000
1.68596000 3.33819000 1.08990000
-0.23110800 7.38223000 -0.05590480
0.46511500 -9.35083000 -0.63602300
0.47465400 -9.34187000 -0.61970300
0.46262800 -9.31125000 -0.60668800
0.48253400 -9.31561000 -0.59630200
2.12819000 0.34264000 1.29252000
2.11990000 0.43863600 1.23358000
2.11314000 0.38784400 1.27852000
2.12382000 0.32994300 1.27148000
0.15108400 -0.52891700 -0.20362300
0.08089250 -0.40361900 -0.17332400
0.15809600 -0.28298200 -0.15009800
1.48639000 0.49242300 1.90980000
1.46894000 0.53551500 1.93159000
1.49321000 0.52083000 1.90743000
-0.90205200 -1.99226000 0.85112200
-0.93120900 -1.93948000 0.87644500
-0.96051500 -1.99809000 0.97285800
0.57163800 -9.95314000 2.02013000
0.62231500 -9.93735000 2.04761000
-0.33935500 -8.84762000 -0.91690700
0.07448700 3.65353000 -0.59117200
-0.04119500 3.56310000 -0.57765900
-0.09666470 3.52345000 -0.57186100
0.65358400 0.86658100 1.95535000
0.63024900 0.97227500 1.93585000
0.83453200 5.36204000 0.51983300
-0.64930100 5.01971000 0.32543100
-0.64650000 5.01962000 0.37678900
-1.96874000 -9.42858000 0.55345700
-1.95403000 -9.40531000 0.44712200
-1.95553000 -9.38452000 0.46957300
0.18633500 -6.60749000 1.54086000
0.17159500 -6.59031000 1.53961000
0.37155000 -7.72874000 -0.56218300
0.40278000 -7.73587000 -0.56004100
-0.03858070 -0.79552500 0.09949970
-0.05997800 -0.90773300 0.07530060
-2.23522000 -9.83213000 0.26951800
-2.24714000 -9.82530000 0.26198900
-2.24050000 -9.81835000 0.20291200
-2.24231000 -9.82420000 0.31494400
-1.44133000 -9.73693000 1.91517000
-1.37066000 -9.68011000 1.92105000
-1.39881000 -9.74175000 1.92052000
-1.45679000 -9.70498000 1.90517000
-0.52228500 -8.98696000 -0.55789300
-0.56620200 -9.05322000 -0.56048100
1.91760000 -0.58729500 1.57615000
1.87196000 -0.56494600 1.62299000
-0.96317700 2.49597000 1.55270000
-0.16805300 -6.60671000 1.34381000
-0.20920600 -6.56718000 1.32386000
-0.01375980 -7.79635000 -0.60002900
-0.00272427 -7.78383000 -0.61763000
0.04347560 4.01311000 -0.63128000
-0.01821480 3.96911000 -0.63138400
0.02033520 4.09442000 -0.62281700
1.51323000 -1.10172000 0.67146300
0.76534700 -7.94280000 -0.42230000
0.80649800 -7.98270000 -0.41077600
1.15426000 -1.89275000 0.49874000
1.17148000 -1.90537000 0.57631500
1.18251000 -1.89335000 0.57658100
-0.48379700 1.56727000 0.34173500
-0.56196100 1.52776000 0.37456300
-0.57150200 1.56788000 0.37459100
1.20987000 1.34510000 0.71062900
1.17124000 1.23356000 0.70724200
-0.77124900 -6.41730000 2.07959000
-0.84813100 -6.38612000 2.12108000
-1.01035000 -4.81224000 1.00068000
-0.96333400 -4.80087000 1.05964000
-0.92795000 -6.92196000 1.93591000
-0.94921100 -6.93352000 1.94745000
-1.02707000 -6.90981000 1.90723000
-0.84902300 -6.92606000 1.95371000
-0.78559700 -6.93349000 1.95826000
1.42051000 -4.03223000 1.10170000
1.37042000 -3.96205000 1.22130000
1.38307000 -4.11439000 1.17384000
-1.63419000 -7.15364000 -0.44601200
-1.70773000 -7.25926000 -0.34903800
-1.56460000 -7.20772000 -0.48737700
-0.84109900 -4.34611000 1.03200000
-0.86706400 -4.42740000 1.01439000
-0.87895500 -4.32418000 0.97722000
-0.65891500 -6.90632000 1.83208000
-0.66147100 -6.87972000 1.84078000
-0.68796500 -6.90848000 1.87516000
-1.36930000 -0.18519600 0.73821200
-1.42096000 -0.28339600 0.75639200
0.08522420 -9.15318000 -0.99142200
1.44342000 -8.36915000 0.76842800
1.44469000 -8.33543000 0.72774600
1.44592000 -8.38459000 0.73813200
1.43972000 -8.38415000 0.81097200
-0.03246390 -5.28006000 0.99554800
-0.05054440 -5.26310000 0.98873400
-0.05458550 -5.33060000 0.99097600
-0.08045160 -5.31576000 0.99619900
0.89789500 1.67762000 0.76630200
-0.09983440 -6.63092000 1.44043000
-2.20952000 -7.65795000 0.98615200
-2.19433000 -7.76379000 1.05972000
0.95314100 -6.08065000 -0.41587100
0.86371300 -6.06533000 -0.44983900
1.29008000 -1.49966000 0.66823600
-1.00251000 -6.36741000 1.90384000
0.78783300 -7.13970000 2.42897000
0.96734200 3.19051000 1.22534000
0.64820100 7.29974000 1.04783000
0.60069400 7.34564000 1.02177000
-0.40399400 -6.81055000 -0.98805700
0.35246100 -1.84175000 1.46906000
0.34479500 -1.83470000 1.45783000
0.45421700 -8.28594000 1.63210000
-0.94663900 2.77130000 1.25365000
2.10651000 4.00680000 0.06159360
-0.85495800 -9.79944000 1.77365000
-0.83643100 -9.83472000 1.79016000
-0.86506100 -9.84223000 1.81512000
-0.75973900 -9.87540000 1.77871000
1.57043000 -7.74503000 2.04589000
1.51426000 -7.80795000 2.07752000
1.50872000 -7.74015000 2.09042000
-1.68458000 -6.67538000 0.48258400
0.08346410 -3.76686000 -0.19097400
-0.08533670 -3.81379000 -0.18201300
1.08455000 0.62607700 0.16894900
2.30353000 2.34493000 0.39942900
2.29421000 2.49315000 0.36980600
2.27234000 2.47501000 0.32092300
0.77524300 4.38910000 1.07948000
0.75844700 4.35742000 1.10333000
0.20177900 -4.83893000 1.03513000
0.22015000 -4.80179000 1.02406000
0.52178500 8.01925000 0.17612600
0.32692300 5.51181000 -0.33459300
0.41961500 5.51246000 -0.30445700
0.65903800 1.96422000 2.23818000
1.71737000 -9.93735000 1.41327000
1.65244000 -9.94260000 1.51064000
1.37945000 2.92347000 1.01369000
1.37335000 2.99159000 1.01565000
2.20601000 1.12005000 0.74031500
-1.23864000 -1.09764000 0.30055900
1.44571000 -9.11008000 0.87375300
1.45569000 -9.07992000 0.84511800
1.44518000 -9.02683000 0.89046500
1.44501000 -9.06820000 0.87631400
0.86012700 -2.67809000 1.72669000
0.93984000 -2.65053000 1.78846000
0.88417300 -2.67472000 1.73684000
-0.31249400 6.91498000 1.10655000
-0.25128200 6.96233000 1.15018000
-0.30494300 6.95473000 1.10785000
-0.44883300 6.04073000 0.10578600
-0.42238900 6.01314000 0.00219827
-0.43767900 6.01145000 0.06194270
-0.16520500 2.35024000 1.48675000
-0.18178500 2.33214000 1.49636000
-0.16872100 -4.46261000 1.18978000
-0.30500900 -7.08400000 -0.90330900
-0.29602800 -7.09644000 -0.88058600
-0.32440700 -7.10455000 -0.85782000
-0.34296400 -7.09766000 -0.88307900
-0.55529300 6.24993000 0.38270700
-0.55201600 6.27841000 0.41362300
0.99965300 -7.78379000 -0.34745600
0.98336100 -7.78908000 -0.35292600
-1.31149000 0.47950400 0.80833400
-1.29406000 0.53785900 0.80551700
2.07152000 2.79035000 0.03258110
-1.65734000 -6.14289000 0.09320940
-1.63140000 -6.01156000 0.14263400
0.35766300 -5.42999000 1.25838000
0.38543900 -5.27156000 1.24234000
0.35821400 -5.25544000 1.22556000
-1.21098000 -0.33224000 0.63421600
-1.16420000 -0.20305900 0.63816400
1.35703000 2.99486000 1.34646000
1.32562000 3.05329000 1.37505000
-0.06013030 7.80971000 0.69324300
-0.07483970 7.84387000 0.61918100
-0.04195670 7.84042000 0.71532200
1.04097000 -7.62721000 -0.30062900
1.06780000 -7.57197000 -0.28685500
1.34891000 -9.71937000 -0.59864200
-0.06820690 -6.52391000 1.29914000
-0.09919520 -6.50481000 1.24441000
-0.08287170 -6.43821000 1.19733000
-0.09738590 -6.47325000 1.21291000
-1.57927000 -9.05706000 -0.11040400
-1.59436000 -9.07462000 -0.10256500
-0.64159300 2.04825000 1.60051000
1.41973000 1.31466000 0.88487200
1.40099000 1.33083000 0.83831800
1.44739000 1.39885000 0.88631900
1.87138000 0.97958300 1.59672000
1.77939000 1.34227000 1.70738000
1.58304000 -9.75900000 -0.35852700
1.55615000 -9.77565000 -0.33409700
1.53319000 -9.77420000 -0.32143000
-1.46910000 -5.97563000 1.26529000
-0.34838700 0.84374400 1.98514000
-1.10237000 -6.80528000 -0.46511300
1.67318000 -6.84792000 1.84042000
1.83789000 4.31521000 0.75427600
1.76383000 4.35178000 0.76791400
1.76728000 4.32413000 0.80095300
1.73049000 4.31433000 0.83311200
-0.32313500 1.25614000 2.03021000
-0.29834800 1.26490000 1.94444000
0.15597000 7.55933000 0.87440800
0.21751700 7.56978000 0.86900400
0.16798100 7.59392000 0.86327200
-0.19919600 1.81228000 1.93572000
0.21718900 -7.81994000 -0.86552200
-0.35347600 -9.60967000 1.53833000
-1.51491000 0.29376300 1.51809000
-1.79024000 -9.76605000 1.68205000
-1.76155000 -9.76790000 1.71849000
0.44752300 1.35130000 1.66658000
0.45737300 1.33646000 1.67821000
0.46298900 1.35630000 1.69077000
0.43703200 1.38051000 1.68640000
0.75455100 -7.15348000 -0.52623900
0.79367600 -7.14097000 -0.52435800
0.70910900 6.32052000 1.17893000
0.72350800 6.36868000 1.16975000
-0.65813500 1.85723000 0.38970600
-0.32716900 -8.33545000 1.75466000
-0.34855600 -8.31453000 1.76273000
-0.36974900 -8.28444000 1.73597000
-0.38874600 -8.24601000 1.73387000
-1.47749000 -0.11972300 1.63788000
-1.41237000 -0.06361510 1.70304000
0.46479100 2.61418000 2.23453000
-0.86945000 -6.40124000 2.17819000
-0.82678900 -6.44439000 2.19893000
-0.46808700 6.50421000 -0.02963310
-0.46596500 6.47321000 -0.01514090
-0.45310500 6.42667000 -0.06387780
-1.12245000 -4.76098000 0.57492600
1.56835000 -9.64263000 1.14265000
1.56170000 -9.65190000 1.18040000
1.55583000 -9.62377000 1.16601000
-1.09312000 4.05713000 1.00406000
-1.10064000 4.06008000 0.96701800
-1.11457000 4.01378000 0.97975700
0.20034500 -7.92674000 1.64073000
0.42286000 -9.96650000 1.95825000
0.47557600 -9.97198000 1.96049000
0.23491700 -3.96884000 0.98109300
0.19403600 -4.05449000 0.98689100
0.55414500 -6.89260000 2.26954000
0.70336400 -6.88800000 2.25496000
0.59732800 -6.88453000 2.26007000
0.63257600 -5.53969000 1.35626000
-0.51876100 -5.42011000 1.49933000
-0.60765100 -5.46890000 1.55674000
-0.60335900 -5.31195000 1.57805000
-1.01857000 -1.61108000 0.12566100
0.14921800 2.70419000 1.85480000
0.12676500 2.70669000 1.86973000
0.20459300 2.73285000 1.85408000
-0.08468400 -9.47357000 -1.08527000
-0.07321070 -9.52551000 -1.09740000
-1.17936000 0.18856400 1.87327000
-1.16951000 0.26077800 1.87459000
-1.21018000 0.12357200 1.84714000
0.84638800 6.40912000 1.00745000
0.87430200 6.44670000 0.98527000
0.84144200 6.42314000 1.03185000
0.63982700 -8.01309000 1.98634000
0.70699500 -7.97765000 2.05125000
0.64013900 -7.94891000 2.03299000
-0.34217200 0.37064900 1.96631000
-0.36276100 0.41642600 1.98786000
-0.35368600 0.50784100 1.97901000
0.50366100 -2.25435000 1.56596000
0.53415200 -2.14647000 1.57274000
0.12367700 4.96313000 -0.45309800
0.06413780 4.93867000 -0.44000600
-0.71461100 8.10404000 -0.14128100
-0.75941100 8.18968000 -0.05617160
1.53093000 -7.59096000 1.58802000
1.51024000 -7.58524000 1.58841000
0.50981200 2.68048000 2.00227000
0.04992460 5.93185000 1.34720000
0.02827090 5.93031000 1.35156000
0.04296440 5.94588000 1.35038000
0.01750220 5.94800000 1.36877000
-1.21875000 2.44544000 1.33651000
0.26879000 -1.82497000 1.21960000
-1.23862000 -6.37144000 -0.05458150
1.08235000 -0.29443000 1.50013000
1.10130000 -0.30156500 1.47628000
0.40148800 -7.28335000 2.00184000
0.33541100 -7.27731000 1.97922000
-0.62367700 8.38635000 -0.13950300
-0.67909200 8.40674000 -0.15579500
-1.32921000 -2.59894000 0.87921300
1.10338000 -8.12505000 -0.20127500
1.59610000 -5.94163000 0.61861900
1.57006000 -5.81392000 0.71883400
-0.36733300 6.03386000 1.16183000
-0.39200200 6.01969000 1.13475000
-0.41961800 6.01465000 1.09855000
0.70186000 -6.64195000 1.88294000
1.26107000 -0.31957400 2.09704000
1.20038000 -0.36086000 2.11119000
1.25097000 -0.29630500 2.09583000
1.18342000 -0.21210900 2.11939000
1.24799000 -9.42363000 -0.05825690
1.27398000 -9.41908000 -0.03094020
1.29524000 -9.41571000 0.00121058
0.11932700 2.16459000 1.91321000
0.06128340 -2.62506000 1.09965000
-0.87399000 2.45079000 1.88934000
-0.85097000 2.49110000 1.85622000
-0.26508700 6.45293000 1.21716000
-0.84478500 4.37645000 0.91237900
0.51890000 0.91601600 1.79291000
0.49557300 0.90582900 1.78710000
0.29682000 -4.73267000 -0.21076000
0.27303200 -4.60098000 -0.16589700
-0.25242200 -8.35900000 1.65249000
-0.24250200 -8.37039000 1.63863000
-1.17416000 -4.85797000 1.38422000
-1.20004000 -4.72640000 1.33933000
1.06029000 -1.59687000 0.25948600
1.10467000 -1.61627000 0.31393000
1.15089000 -1.62475000 0.37767500
0.41108300 -9.76235000 -0.92452500
0.44886900 -9.77209000 -0.94597800
0.41972600 -9.76794000 -0.94722800
1.47926000 2.58830000 0.82448400
1.46811000 2.71091000 0.85020300
-1.13164000 -2.89170000 1.51500000
1.28003000 -1.78407000 2.04256000
1.32337000 -1.68832000 2.03311000
-0.42448900 6.82857000 0.97986100
-0.46316200 6.73279000 0.93636700
1.63047000 -9.83891000 0.13648300
1.67657000 -9.84477000 0.21720700
-0.83285400 -9.94495000 2.14342000
1.65422000 0.08218440 0.47757800
0.77547400 -4.35707000 0.08075800
0.80146900 -4.37783000 0.09148280
0.40569200 -5.26050000 1.26215000
0.38838800 -5.05846000 1.26314000
-0.25293500 1.73166000 0.23867200
-0.32780500 1.71014000 0.25575100
0.76256500 -1.31737000 -0.20531600
0.73598200 -1.30513000 -0.22777600
0.67790600 -1.28792000 -0.26513000
0.69156100 -1.31210000 -0.22338400
-1.15833000 -9.50322000 2.26080000
-1.10427000 1.87540000 1.96193000
-1.11112000 1.89124000 1.93512000
-0.40429800 5.15886000 0.30369300
-0.36971200 5.18991000 0.29885400
-2.11282000 -8.90831000 0.99002100
-2.13061000 -8.85221000 0.96351200
-2.10276000 -8.83265000 1.01365000
0.28215700 8.22130000 0.36833200
-0.69471000 -7.15125000 2.44081000
-0.74090000 -7.09603000 2.46648000
-1.22962000 3.76021000 1.01417000
-1.13494000 3.70959000 1.04333000
-1.16057000 3.85833000 0.99391000
1.41921000 -7.23397000 -0.38593500
1.37524000 -7.31721000 -0.41564500
-1.94451000 -7.66028000 1.72502000
-1.95260000 -7.62497000 1.72989000
-1.92889000 -7.67181000 1.71406000
-0.92438800 2.61994000 1.25681000
-0.94178600 2.67575000 1.25303000
-0.81304200 -9.79498000 -0.73378500
-0.81327500 -9.79001000 -0.72716500
0.18297200 8.43809000 -0.20901200
0.13511600 8.43795000 -0.23387000
0.22055700 8.43308000 -0.20698200
-1.02437000 3.43198000 -0.38049700
-1.05581000 3.52005000 -0.38388600
1.74762000 3.05696000 -0.13113000
1.66120000 3.09933000 -0.14736900
0.35232200 -7.31813000 -0.64384400
0.29955500 -7.32851000 -0.65342000
2.09046000 0.89371800 0.60275900
2.08937000 0.85847400 0.62282900
-1.92829000 -9.23895000 1.84115000
-1.87531000 -9.24200000 1.91511000
-1.88699000 -9.29062000 1.92494000
-0.01762330 -2.41414000 1.40433000
-0.03940610 -2.39139000 1.42863000
0.01263890 -2.39930000 1.41473000
-0.65581900 -7.87666000 2.15354000
-0.75654400 -7.96282000 2.18448000
1.70759000 -1.93014000 1.08728000
1.69227000 -1.98656000 1.12263000
1.78858000 -1.86321000 1.11618000
1.74045000 -1.90630000 1.09680000
1.84256000 -1.76274000 1.11164000
1.78053000 -7.39327000 0.45172500
1.79539000 -7.42873000 0.47215700
0.26596800 -9.89487000 1.41781000
0.96005500 -2.13481000 1.52543000
1.52071000 -9.81727000 -0.13818700
1.47229000 -9.81250000 -0.20254200
0.82728300 -9.30916000 -0.45602400
0.83860900 -9.33998000 -0.45462000
0.85852300 -9.32056000 -0.44644000
0.76602900 -2.02582000 -0.15223400
0.78536800 -1.92355000 -0.14910100
0.88003700 -1.83307000 -0.11931800
0.87533700 -1.93940000 -0.11612200
0.82154500 -1.86827000 -0.14089600
0.57683500 1.71980000 2.13352000
0.57666600 1.78414000 2.13269000
0.58562000 1.49314000 2.04705000
0.57179500 1.66719000 2.10366000
-0.35928600 -7.79540000 1.87154000
-0.39884400 -7.80680000 1.87591000
0.77037500 -2.37055000 -0.13702100
-1.17785000 -6.62836000 1.95530000
-1.20375000 -6.67774000 1.93325000
-1.23634000 -6.66123000 1.92085000
1.21433000 -2.01234000 0.93644300
1.19222000 -1.98931000 0.88164100
1.24566000 -1.72004000 0.65566700
0.96973500 -9.92743000 2.12084000
0.96874500 -9.90634000 2.12749000
1.48983000 -7.58130000 -0.07607730
1.40283000 -7.55819000 -0.03449160
-1.29289000 -9.95963000 2.17979000
-1.32979000 -9.94662000 2.17390000
1.67476000 -9.81051000 -0.14821600
1.65474000 -9.82495000 -0.14137400
-1.05755000 -5.09644000 -0.06642410
-1.08349000 -5.15065000 -0.06032700
-1.08773000 -5.10106000 -0.03655530
-0.06675650 3.14846000 1.58144000
-1.41512000 -8.90479000 -0.19953900
-1.42468000 -8.85567000 -0.18763300
-1.37204000 -8.81179000 -0.22402400
0.85398900 3.90475000 1.41350000
0.94807500 3.90253000 1.41208000
1.11403000 3.91649000 1.38129000
0.70995000 4.71727000 1.08387000
-0.58252900 1.11034000 0.87026000
1.51209000 -6.89155000 0.16260300
1.46660000 -6.88857000 0.06695750
0.16196100 -1.76047000 -0.04637040
0.07553980 -1.65370000 -0.02069260
0.97512900 2.32134000 1.13432000
0.96925100 2.25036000 1.13345000
0.95387600 2.19083000 1.12309000
1.39590000 -0.79961800 1.26592000
1.36605000 -0.94550900 1.28868000
1.19540000 2.24724000 1.18821000
1.17887000 2.28421000 1.20555000
0.95308000 -2.65686000 1.77184000
-0.93439800 2.28412000 1.96677000
-0.90967000 2.18134000 2.02117000
1.01188000 0.71774700 1.57381000
0.98392100 0.83561500 1.58450000
-1.64456000 -9.37950000 2.13736000
0.42331100 -3.18125000 1.19860000
0.43427500 -3.33194000 1.18401000
0.01135080 -6.70846000 1.79326000
0.18344100 -6.73438000 1.72457000
0.09237860 -6.74376000 1.77626000
-1.93883000 -8.82988000 0.49215800
-1.94045000 -8.81100000 0.53506900
-1.95028000 -8.82864000 0.55816500
1.52697000 -7.92309000 0.70540600
1.17401000 -7.07033000 -0.36547200
1.15211000 -7.02945000 -0.40419300
1.14104000 -7.00653000 -0.41704700
0.02840490 -4.64532000 1.03288000
0.04099460 -4.61446000 1.03888000
-1.10936000 2.39119000 1.73009000
-1.14869000 2.35380000 1.78672000
1.50930000 -5.88500000 1.05112000
1.48160000 -5.91358000 1.13673000
1.48305000 -6.01862000 1.23897000
-0.78066200 1.44223000 0.58057700
-0.80517300 1.45974000 0.64188300
-0.62442000 6.80958000 0.36540800
-0.40022800 0.09209000 2.12605000
1.71002000 -0.61280600 0.44262200
1.69265000 -0.60802500 0.41427100
-0.81926300 -6.89432000 -0.63955400
-1.14795000 -6.88806000 -0.47260500
-0.94777800 -6.94718000 -0.57689200
-0.96854000 -6.89915000 -0.56214100
-0.25040100 -8.42184000 1.63821000
-1.56035000 -7.87685000 -0.09349510
-1.66336000 -7.86668000 -0.00148608
1.07691000 -3.33569000 0.82074300
1.07579000 -3.50730000 0.79048000
1.07174000 -3.30152000 0.85697200
-0.26949900 -6.87501000 2.28750000
-0.31732500 -6.87143000 2.28463000
-0.32712000 -6.85367000 2.28123000
0.13169700 2.46609000 2.35400000
-0.05433600 3.26928000 1.27306000
-0.10706100 3.32872000 1.23559000
-0.02293280 3.30305000 1.29360000
0.50728000 3.57886000 1.07694000
0.46298900 3.57220000 1.06942000
0.53755700 3.57251000 1.09954000
-2.02916000 -7.91863000 0.24172800
-2.03531000 -7.89941000 0.31000400
-0.81856600 -1.42659000 0.43310800
-0.83668700 -1.45926000 0.49549800
0.21720700 2.01160000 1.94539000
-0.84995900 -6.00348000 1.71744000
-0.75386600 -6.05783000 1.71508000
-1.46226000 -1.41046000 0.84458300
-1.50786000 -1.30642000 0.85842400
-1.85730000 -9.67655000 1.53970000
-1.85250000 -9.69564000 1.56819000
-1.80206000 -6.48117000 2.00616000
0.83325100 -0.71769700 -0.20731200
1.00456000 -0.64287700 -0.12996700
-0.87664300 -4.43742000 1.59627000
-0.83533000 -4.51996000 1.61058000
-1.01619000 -0.57746300 1.03953000
0.91062300 -6.79814000 -0.50922000
0.88741500 -6.77656000 -0.51536200
1.39348000 -8.65017000 1.01786000
1.39541000 -8.67522000 0.99948900
1.39250000 -8.67559000 1.04658000
1.38851000 -8.68497000 1.10442000
1.04687000 0.29933600 1.54347000
1.03294000 0.48794400 1.56435000
1.30724000 4.50154000 -0.14509900
1.33184000 4.51729000 -0.11665400
2.03699000 -0.59275800 0.65909200
1.80129000 0.80970200 0.46389900
1.72500000 1.07873000 0.48306000
1.77623000 0.90083500 0.46332700
-1.15859000 1.25821000 1.90883000
-1.16142000 1.28878000 1.88627000
