-14.64500000 42.30920000 6.03640000
-14.36940000 35.48960000 6.22450000
-13.22330000 57.79490000 11.90610000
-13.43600000 56.48760000 11.21770000
-13.36740000 57.81440000 11.41340000
-0.08940000 23.13210000 15.98730000
0.96540000 22.40950000 16.15600000
1.02870000 23.03090000 15.71780000
-10.96060000 24.30460000 8.55700000
-10.37770000 24.39170000 9.44740000
-10.57250000 24.72160000 9.53860000
-9.69600000 24.51370000 10.21280000
-9.38100000 24.99670000 11.06180000
10.92010000 47.21740000 2.15390000
-1.52060000 29.89460000 0.20400000
-2.32960000 30.02010000 -0.73920000
-2.35110000 31.43570000 -0.49230000
-2.30170000 28.59010000 -0.97440000
12.67970000 16.41470000 6.79150000
11.38050000 18.57650000 8.91830000
11.83370000 18.85630000 8.05560000
12.07150000 17.49380000 7.94040000
5.90210000 25.98280000 0.14480000
5.85720000 27.46810000 0.39120000
4.82380000 27.26950000 0.59610000
-10.58570000 45.90320000 14.68490000
-10.46330000 44.85280000 14.73870000
-10.05770000 44.95140000 14.68850000
12.23390000 35.90150000 12.48970000
12.87830000 35.85800000 11.90070000
-6.01260000 10.06770000 -9.80340000
-5.89240000 14.08080000 -8.12460000
-14.43770000 93.34890000 -6.85430000
-13.72490000 38.32240000 7.79220000
-13.45370000 38.38060000 8.55470000
-13.55170000 39.69120000 8.40210000
-13.74610000 45.04900000 8.39280000
-13.72600000 43.71050000 8.28350000
-13.60120000 43.72930000 9.18220000
-14.10050000 63.31010000 11.00420000
-14.56120000 63.23710000 10.60120000
-14.38340000 61.92680000 10.73800000
-14.45500000 60.53500000 10.28760000
-14.55490000 60.51700000 9.75970000
-14.38360000 59.19180000 9.73700000
-12.36280000 74.43500000 12.13700000
-13.16360000 73.92920000 11.46600000
-5.94290000 68.61810000 -1.94460000
-5.50230000 71.70800000 -1.79270000
-4.65610000 72.00520000 -1.32180000
-4.53290000 70.60770000 -0.81650000
-11.12310000 40.69000000 -2.95430000
-11.45010000 40.72090000 -2.77000000
-11.20580000 42.14810000 -2.77670000
-11.81800000 37.88600000 -2.67250000
-11.63800000 39.30540000 -2.75880000
-4.16250000 58.25070000 -0.14340000
5.78680000 42.76270000 16.06290000
6.42150000 42.86390000 15.52120000
5.77780000 42.14050000 15.83240000
-9.16020000 103.42800000 -11.51060000
-8.35520000 102.51600000 -11.16840000
-9.16680000 102.11500000 -10.94620000
-10.78290000 101.26200000 -10.91580000
-10.93250000 100.21600000 -10.56690000
-12.07640000 100.49300000 -10.85440000
-13.00770000 24.91510000 5.46320000
-12.42090000 24.60880000 5.13080000
-12.65830000 24.77300000 5.28450000
-12.70040000 24.90770000 4.80370000
-9.06120000 3.20190000 -13.36040000
-9.30750000 3.57560000 -13.22430000
-7.37070000 4.26620000 -12.91510000
-10.95810000 2.23230000 -12.40480000
-3.40570000 64.15690000 15.35310000
-3.37850000 62.58700000 15.54690000
-3.40440000 65.71340000 14.98600000
-3.04090000 65.71070000 15.00300000
6.27720000 24.96540000 12.02880000
6.37690000 24.65240000 12.36310000
5.22930000 24.84740000 12.81470000
-7.58330000 4.44420000 -10.81770000
-7.53950000 4.97770000 -10.40490000
-8.58600000 4.79000000 -10.31030000
-6.52150000 4.36310000 -10.51610000
-2.69820000 95.06970000 5.61080000
-0.65730000 25.58230000 4.61120000
0.11260000 28.05710000 6.06020000
-0.11340000 27.69240000 5.42200000
0.51630000 27.31710000 5.58070000
-0.47630000 71.11020000 12.60540000
-0.29470000 70.96720000 12.33810000
0.01280000 70.83720000 12.18340000
0.19840000 72.25090000 11.43660000
-0.06290000 72.38500000 11.65870000
-6.51420000 21.52980000 8.31610000
-7.13030000 21.60150000 7.10240000
-5.86070000 18.76580000 9.62620000
-5.07970000 18.81430000 10.72540000
7.69620000 43.29940000 2.54570000
7.36740000 43.19330000 2.72230000
6.94270000 44.60070000 2.68960000
7.46660000 44.77810000 2.14010000
7.04360000 46.21700000 2.08530000
8.67870000 64.90120000 9.43260000
9.88550000 50.08130000 2.52740000
9.18190000 50.02740000 2.21840000
-1.13540000 53.25530000 16.63660000
-0.04170000 53.41850000 16.66510000
1.20460000 52.90710000 16.49360000
2.52810000 52.54740000 16.30960000
-14.82920000 65.47230000 9.57150000
-14.67140000 66.32180000 8.71040000
-13.22150000 24.99810000 6.67000000
-13.68040000 25.39340000 6.84880000
-13.73380000 25.41020000 6.31990000
-12.60300000 25.12740000 8.14990000
-4.17490000 90.53950000 7.66380000
-4.95640000 91.25940000 8.11630000
15.06860000 2.01100000 -0.98430000
15.75500000 1.78210000 0.51790000
15.60280000 2.39630000 0.60380000
15.79390000 2.10990000 2.07100000
5.14090000 72.51730000 -1.34740000
4.20870000 70.76840000 -1.09210000
2.83870000 70.47240000 -1.15120000
3.25360000 69.08920000 -0.70860000
1.87040000 68.82360000 -0.63820000
12.57070000 61.38200000 6.90410000
-5.86880000 64.26370000 -1.12860000
-5.84660000 60.45800000 -0.81530000
5.86720000 46.88950000 16.32790000
14.11900000 7.94450000 -2.53720000
4.09440000 46.80450000 2.36560000
3.41680000 46.63210000 2.53360000
3.13540000 48.15090000 2.63510000
2.70420000 46.52290000 2.33310000
2.49960000 48.05770000 2.44300000
5.72210000 13.49780000 12.88370000
5.78660000 11.99610000 12.72000000
4.44870000 11.99790000 13.05670000
7.11090000 12.01800000 12.32600000
7.02270000 13.50300000 12.47700000
-1.37320000 53.39650000 2.61030000
-1.22800000 54.36430000 2.71610000
2.49150000 87.95230000 3.25760000
9.99270000 46.56310000 14.86530000
9.35000000 45.54290000 14.84610000
7.51160000 44.59460000 15.11370000
8.37970000 45.20280000 15.21040000
8.12190000 45.28840000 15.96670000
-13.46510000 8.48070000 -0.60860000
-13.60660000 7.06490000 -0.96890000
-13.78470000 5.75430000 -1.34410000
-13.64100000 5.41680000 -0.11970000
16.83890000 18.34840000 7.26820000
-14.71050000 52.89970000 5.59230000
-14.39330000 47.70600000 5.43960000
-14.23710000 46.40600000 5.39520000
-2.57000000 54.88580000 16.58980000
-1.54610000 55.24730000 16.71060000
8.81730000 68.81440000 0.53540000
7.64300000 73.25710000 -0.63110000
6.48620000 77.64390000 -1.82680000
-2.78350000 44.53520000 0.67490000
-5.07350000 43.12210000 -0.72890000
-12.53050000 83.88890000 5.14980000
-11.63300000 83.36730000 6.18160000
-10.93270000 1.99270000 -12.66650000
-17.24240000 100.79700000 -1.35680000
7.42360000 18.64000000 15.12150000
9.38210000 19.51360000 14.50480000
8.17480000 17.32110000 15.06660000
-8.45810000 13.16770000 5.61360000
-7.71700000 13.00400000 6.76240000
-7.85940000 11.56020000 6.59170000
-4.94860000 6.71880000 10.59380000
-5.82150000 6.87290000 9.51270000
-5.71520000 8.29630000 9.68010000
-12.87780000 34.83000000 11.27810000
-12.88980000 34.74520000 10.84840000
-12.52060000 30.51900000 10.98680000
-12.46270000 29.17310000 11.23470000
-12.40750000 29.30430000 11.74740000
-7.07380000 84.41990000 -4.71900000
-6.80800000 87.08390000 -5.10840000
12.25920000 65.26750000 4.92720000
11.85780000 66.90090000 4.53790000
-0.82260000 26.31660000 15.99800000
-1.33730000 27.07280000 15.98370000
-1.70160000 26.79990000 15.78700000
-1.65220000 29.44310000 16.18730000
1.97480000 47.19110000 17.57320000
0.42430000 47.13970000 17.52550000
-1.49820000 81.84030000 -4.15500000
15.87840000 1.33320000 0.51700000
15.95010000 1.14490000 2.02680000
15.88380000 1.59220000 2.03360000
15.48120000 1.30320000 3.33900000
15.44110000 1.76680000 3.41160000
-3.90430000 21.79260000 14.68260000
-2.57360000 20.52470000 14.95180000
-0.99370000 5.50820000 -3.14650000
-12.31440000 70.21620000 11.08570000
-12.76340000 70.94490000 11.20320000
-12.71960000 71.03100000 11.92920000
-1.16100000 27.31910000 10.65320000
-2.81030000 3.99000000 11.78590000
-14.69120000 79.63130000 -5.22240000
-14.55790000 96.56320000 2.25720000
-13.74020000 98.22080000 2.45230000
-13.95830000 99.17670000 1.80330000
-12.88550000 7.04300000 5.48450000
-10.90210000 39.95770000 13.63050000
-10.74320000 39.94980000 14.02870000
-11.25100000 40.55270000 14.22710000
-10.39410000 39.93750000 14.68110000
-2.29710000 78.00110000 -2.56270000
-1.93340000 76.92170000 -2.42390000
-2.96030000 76.68160000 -2.07280000
-3.88610000 76.45180000 -1.87740000
-0.82140000 100.76600000 0.08040000
-0.43830000 98.75520000 1.56000000
-8.06330000 63.79490000 16.04650000
-10.05470000 63.24130000 15.27230000
-9.38470000 63.46830000 15.59750000
-5.52400000 3.24300000 -12.55120000
14.09240000 30.93870000 3.02090000
14.43750000 30.97930000 3.46840000
14.16320000 32.46000000 3.39170000
14.43300000 32.47130000 3.96150000
-11.18870000 71.98460000 8.37270000
0.28010000 55.18000000 1.96310000
0.22550000 93.71460000 -5.41390000
6.53420000 68.34030000 10.55290000
4.07290000 71.98060000 10.08920000
4.99670000 71.00010000 10.12230000
0.39040000 99.01100000 -7.80430000
-1.38030000 99.36920000 -9.50050000
-0.58240000 99.89470000 -9.07560000
-0.29700000 98.45560000 -8.33860000
-10.03990000 26.62150000 -4.46310000
-10.96950000 32.62320000 -1.90100000
-16.21240000 104.40800000 -10.06680000
14.96300000 0.24490000 4.75520000
15.62540000 0.56260000 3.28650000
0.69760000 103.97400000 -6.19660000
0.67830000 103.55000000 -7.00860000
1.11930000 102.45100000 -5.57550000
12.97900000 19.40910000 13.78090000
12.82270000 18.69140000 13.97390000
12.43020000 20.27310000 13.99440000
12.11580000 18.92210000 14.13450000
12.59600000 19.24360000 14.07480000
-9.52060000 89.65740000 7.60710000
-9.91050000 42.96910000 14.70710000
-10.29930000 42.87410000 14.78620000
-5.52020000 56.39180000 16.85380000
-5.62350000 70.94800000 14.48230000
-5.06220000 93.63910000 6.62980000
-9.35410000 83.78670000 8.92210000
-9.34200000 83.34400000 8.25540000
-8.53570000 82.24660000 8.16470000
-9.46710000 2.90130000 9.28380000
15.40160000 2.33670000 3.51690000
13.75610000 10.70440000 5.63370000
-10.57920000 10.22460000 -1.21370000
-10.59120000 9.86820000 0.05290000
-9.14420000 17.37290000 0.15140000
-9.41590000 15.99990000 -0.13280000
-9.28380000 16.29780000 -1.04850000
-12.87990000 88.04440000 6.37640000
-15.17600000 56.51650000 1.36390000
-15.04820000 56.41990000 1.89750000
-15.34490000 57.84730000 2.04880000
-15.55180000 59.41700000 1.98570000
-14.07920000 47.74520000 5.22660000
-3.84990000 81.48400000 -3.66750000
-2.85030000 81.56530000 -3.89140000
-13.81120000 29.98380000 2.13400000
-8.47110000 80.18240000 -4.77940000
-10.46580000 80.14190000 -5.47620000
-9.37130000 80.12490000 -5.15040000
-9.23320000 50.97000000 -2.97300000
-8.88750000 50.93320000 -2.69880000
-9.25790000 49.40380000 -2.86240000
4.50480000 82.79710000 2.76940000
4.02460000 82.72620000 3.10500000
4.58070000 81.61050000 3.46130000
6.39850000 77.87040000 4.94510000
6.29320000 79.25170000 4.34260000
-4.97980000 85.96940000 -4.89590000
-4.24940000 87.22470000 -5.47230000
-9.68990000 88.02030000 -5.11670000
-9.71670000 89.30580000 -5.89990000
-8.12450000 13.18660000 -5.03830000
-8.33580000 11.86380000 -5.71530000
-7.78680000 11.95080000 -5.91330000
-7.53680000 17.10460000 -3.06950000
8.98670000 43.61050000 1.37250000
9.46370000 42.20770000 1.48400000
9.02310000 42.10340000 1.65900000
-9.12660000 57.06270000 16.32760000
-9.35450000 58.88590000 16.14530000
12.20190000 45.45490000 10.12500000
12.29350000 44.60360000 10.07210000
12.67550000 44.77980000 10.06970000
12.77500000 43.89460000 10.06530000
13.19530000 43.91210000 10.14650000
-8.05370000 22.98970000 0.06400000
-7.97480000 23.96990000 0.43880000
-8.16080000 23.83890000 0.70210000
-8.61280000 19.17310000 -0.87660000
-8.79260000 17.87260000 -1.32480000
-8.43860000 18.05050000 -1.76980000
15.11500000 20.12110000 11.28070000
6.66870000 10.39880000 14.39390000
6.14550000 7.61030000 14.14490000
5.93130000 6.23800000 14.08770000
-11.92850000 25.91950000 1.74440000
-12.12410000 26.04170000 0.50110000
-12.02650000 25.75980000 1.01780000
-11.97050000 26.28440000 1.24470000
13.43550000 28.23490000 11.37160000
13.80500000 27.87430000 11.11210000
14.07440000 28.72110000 11.05280000
2.85970000 79.34840000 -3.10930000
3.30070000 78.22460000 -2.93490000
1.89590000 77.88240000 -3.01180000
4.27990000 79.75830000 -2.87810000
10.42260000 40.90640000 1.65500000
11.34590000 38.08160000 2.04060000
11.82300000 36.69430000 2.30760000
-1.95500000 89.38620000 -4.89690000
-0.23040000 89.74710000 -4.47550000
-0.82140000 87.84650000 -4.18350000
8.83100000 54.74220000 14.21390000
8.75890000 54.40580000 14.19550000
9.51210000 54.50090000 13.65320000
7.31240000 54.98320000 14.75740000
15.39920000 18.80660000 4.88950000
15.37690000 17.89510000 4.66930000
15.28980000 18.55140000 4.04500000
15.44450000 17.23010000 5.43870000
-0.86480000 106.33900000 -3.09380000
-11.48720000 58.33230000 -3.21100000
-11.26810000 56.94070000 -2.99560000
-12.33360000 56.76180000 -2.86940000
-11.38800000 55.49720000 -2.71650000
-10.68130000 55.58570000 -3.24540000
-11.11360000 54.06480000 -2.97360000
6.50660000 43.75600000 16.80930000
7.73410000 45.81530000 16.80760000
12.18800000 53.07330000 2.91370000
11.89010000 54.55930000 3.00300000
-14.40490000 47.07380000 0.73550000
-14.45510000 46.95420000 1.25090000
-14.55400000 48.18480000 1.33250000
-14.70030000 51.97400000 2.67130000
-14.85070000 52.04960000 2.32480000
-14.71320000 50.67220000 2.19280000
2.68260000 12.04350000 15.73620000
5.22710000 12.58020000 15.44190000
4.48110000 14.13010000 15.80090000
6.41530000 15.54140000 15.52160000
-1.93820000 104.41800000 -10.61020000
-2.66410000 103.63900000 -11.01770000
-5.95250000 0.94570000 13.25010000
-4.03360000 1.19840000 13.64290000
-16.85590000 73.54410000 0.22770000
7.84850000 69.14620000 9.13500000
7.99260000 67.86310000 9.57400000
7.78160000 70.59860000 8.38650000
8.06470000 70.47170000 8.12060000
7.53000000 72.33980000 7.48670000
4.70720000 0.92290000 -5.13510000
6.38320000 0.92210000 -5.61770000
6.37960000 1.35170000 -5.36430000
-9.36540000 43.56530000 -1.90900000
-8.74120000 47.84780000 -1.13170000
-8.84870000 46.44250000 -1.27050000
-9.03750000 46.51000000 -1.62700000
-10.03970000 109.53600000 -1.59250000
-14.92070000 86.94250000 2.08080000
-14.91030000 88.46820000 2.03710000
-12.26690000 55.38550000 -2.61820000
-4.60700000 7.38250000 -10.17390000
11.03560000 58.23430000 11.19500000
11.36920000 56.63390000 11.39450000
0.12170000 27.84290000 7.06960000
-0.60470000 28.26850000 5.92940000
14.23610000 42.72780000 4.76090000
13.91720000 44.13010000 4.61290000
-4.47130000 102.13300000 -11.43070000
-3.50330000 102.85600000 -11.36590000
1.34540000 99.76570000 -2.83680000
-8.32500000 81.89790000 7.44650000
-8.62040000 81.28750000 7.01110000
17.27150000 6.51740000 2.58840000
17.64820000 6.32900000 3.22400000
17.78600000 5.06170000 2.63080000
17.66900000 4.00330000 1.67900000
17.94050000 3.85870000 2.20050000
18.05970000 2.68540000 1.36740000
10.62110000 49.39300000 14.66780000
8.52500000 46.75410000 16.36090000
15.71180000 14.33720000 2.41060000
15.42500000 15.96730000 2.79330000
15.61790000 15.81550000 3.19760000
15.07330000 18.85590000 3.63590000
7.91170000 58.69950000 13.20640000
8.30840000 58.21180000 12.79210000
8.54580000 59.25040000 12.31290000
-11.23680000 51.47450000 13.50200000
-11.08800000 51.48030000 13.82660000
-11.08780000 52.57880000 13.72690000
-11.22950000 46.92510000 13.97790000
-11.41920000 46.87550000 13.60670000
2.08370000 17.38050000 15.81840000
0.10740000 16.88010000 15.91120000
12.72650000 50.25220000 11.64780000
8.22520000 26.99830000 14.40720000
6.46200000 25.99220000 15.27880000
6.81580000 25.41250000 14.86960000
7.36610000 26.32250000 14.75860000
-9.74660000 28.49990000 14.42920000
-9.35230000 29.62150000 14.40140000
-7.39610000 76.40150000 9.86570000
-8.30470000 75.41520000 10.02050000
-17.15690000 97.40820000 -1.31220000
-17.08680000 95.97150000 -0.87250000
-8.53900000 10.54650000 -6.40140000
-8.33980000 7.07690000 -8.75960000
7.86400000 2.92340000 13.73270000
12.39050000 1.11440000 -6.64430000
14.27090000 0.65340000 -5.21530000
1.52410000 99.15270000 -5.05280000
-2.88780000 25.16230000 3.51750000
-2.83690000 25.97740000 3.80530000
-3.81320000 25.78140000 3.23340000
-5.30080000 26.17510000 2.40340000
-5.98040000 26.60560000 2.20760000
5.44140000 50.53380000 2.67750000
5.08890000 50.40350000 2.76970000
4.78120000 51.69180000 2.80710000
4.72970000 50.25640000 2.70950000
4.40580000 51.52210000 2.71720000
6.42310000 3.69810000 14.36580000
5.81010000 2.86410000 14.38910000
7.59120000 4.39150000 14.11600000
7.96030000 5.70960000 14.10560000
-6.26270000 61.39900000 17.11190000
-6.46810000 59.93170000 17.38980000
-5.74720000 59.90900000 17.61700000
-6.43840000 58.80300000 17.60150000
-12.93140000 50.26690000 11.58230000
-12.83910000 50.28880000 12.06880000
-12.85140000 51.48430000 12.03430000
-12.66360000 52.66780000 12.76630000
-12.67410000 51.49330000 12.77060000
-12.37270000 51.49410000 12.95810000
8.30500000 64.20510000 10.75950000
8.42700000 65.08180000 9.87820000
-14.59030000 79.96960000 3.59340000
-14.96280000 79.90940000 3.13790000
-14.99400000 78.65560000 3.44180000
-15.02730000 77.29020000 3.73190000
-12.75120000 46.63230000 12.50610000
-12.77160000 39.85750000 11.29970000
-12.15870000 28.69890000 0.96020000
-9.75510000 5.92900000 8.57940000
-10.01600000 5.41090000 8.36940000
-7.35160000 0.56660000 8.40100000
-9.16910000 52.27960000 13.83010000
-9.58060000 53.25520000 13.94240000
-9.26740000 5.90390000 -8.94810000
-0.67730000 40.21650000 2.19300000
-0.72400000 41.74100000 2.23830000
-0.06810000 41.76420000 2.30490000
-0.19980000 46.37180000 2.29960000
-0.86030000 46.32620000 2.28250000
-0.92770000 47.84180000 2.25800000
4.88750000 63.30500000 14.43600000
4.73120000 65.67490000 13.53090000
4.79690000 64.48620000 14.03500000
13.14260000 2.36270000 -5.60000000
12.04660000 1.91900000 -6.32760000
11.64240000 2.36910000 -6.18810000
4.76290000 36.13490000 1.67820000
6.00490000 36.46270000 1.74760000
6.39510000 35.02540000 1.59750000
-7.33980000 37.84790000 13.08560000
-7.68560000 37.82330000 12.99590000
-7.48730000 36.54710000 13.03540000
-8.11690000 42.41520000 13.04750000
-7.63440000 41.38370000 12.96040000
6.70880000 0.04980000 11.87250000
-0.93850000 34.21280000 1.48600000
-0.33880000 35.70070000 2.04590000
-1.30700000 41.71070000 1.82170000
-1.88860000 4.45320000 -8.66010000
-1.84060000 3.91200000 -8.73570000
-2.81640000 4.26890000 -10.11440000
-1.27610000 3.32960000 -7.41490000
-7.32080000 51.43700000 -0.34420000
-6.19060000 49.84240000 -0.31710000
-12.36060000 65.20380000 -3.37000000
-15.65970000 59.75270000 5.01950000
-15.77400000 59.89560000 4.54380000
-15.57950000 58.48060000 4.50870000
-7.66530000 97.12320000 5.72220000
-8.04480000 98.26720000 4.98730000
0.88810000 87.03760000 -3.87880000
-6.84040000 26.33560000 1.15190000
-6.92120000 26.71880000 1.42330000
-7.25590000 26.66600000 1.22180000
-7.11940000 26.88880000 1.64940000
-7.35260000 26.93960000 1.85530000
-7.66280000 26.76980000 1.42870000
-5.37870000 52.15260000 0.39290000
-5.66530000 52.56120000 0.33030000
-4.68030000 52.94760000 0.91280000
-3.37910000 52.74830000 1.47680000
-3.57400000 53.22410000 1.50600000
-2.49660000 53.42420000 2.10920000
-8.69580000 26.74180000 -4.91630000
-8.76570000 28.12870000 -4.50600000
-7.84640000 28.10300000 -4.48490000
-8.23980000 33.55870000 -3.23800000
-8.15560000 32.22280000 -3.49610000
-9.09390000 32.24760000 -3.40040000
-12.10780000 69.06400000 7.90100000
-0.58610000 84.42640000 7.15270000
-0.60520000 84.72740000 7.83050000
-10.32680000 27.63950000 14.31260000
-10.60900000 27.80390000 14.05600000
-10.65560000 26.94960000 14.06330000
14.92250000 26.23030000 11.41700000
15.26140000 27.40310000 10.69990000
14.44870000 23.33400000 12.20120000
14.12100000 21.86190000 12.66890000
-13.32060000 35.83310000 -0.19880000
-13.72900000 38.87730000 0.02860000
-13.59070000 37.55150000 -0.03100000
-3.32830000 59.54440000 16.53360000
14.06440000 46.64920000 9.73880000
14.51540000 42.78020000 9.69510000
-9.91720000 84.67220000 8.42960000
7.31640000 9.52440000 -1.10280000
-9.55860000 37.77610000 14.63570000
-9.90850000 37.77480000 14.68060000
-9.67890000 36.48550000 14.69110000
-9.24270000 33.76870000 14.54170000
2.13960000 73.19540000 10.21980000
1.05760000 72.01990000 11.26850000
5.65160000 55.40400000 0.78420000
-6.71620000 16.94760000 -2.79230000
-5.88450000 16.57990000 -2.11640000
-5.84880000 17.87160000 -1.43120000
-6.25990000 18.03640000 -1.77410000
-4.43840000 101.99000000 2.21070000
-4.13370000 99.89040000 3.60810000
-4.32160000 100.94500000 2.82680000
-5.68380000 100.77500000 3.33920000
-4.22670000 22.81560000 2.12920000
-4.44580000 21.53260000 1.49940000
-3.55850000 21.48250000 2.12350000
-5.82630000 20.44760000 -0.14670000
-5.78990000 21.71580000 0.48340000
-6.22750000 21.83270000 0.07180000
13.19710000 4.54440000 10.77500000
11.32910000 2.86880000 12.35330000
-15.55340000 59.25070000 2.39530000
-15.81380000 62.70920000 1.22590000
3.19310000 30.02430000 0.96300000
4.94540000 25.79390000 0.37930000
3.90240000 25.68890000 0.24420000
-0.63800000 8.84780000 -4.80720000
0.25270000 8.68300000 -4.05190000
0.21990000 7.42720000 -4.44510000
1.31610000 7.35120000 -4.25930000
2.83870000 45.79090000 15.97610000
2.79050000 46.36200000 16.37670000
4.36540000 47.13160000 16.96400000
11.40700000 51.62490000 13.49090000
11.79880000 51.34540000 13.21150000
11.53070000 52.84950000 13.04580000
11.38760000 50.23360000 13.92590000
-8.70670000 25.04340000 11.71920000
-9.00950000 25.23560000 11.82550000
-8.42020000 25.47720000 12.31950000
-8.16360000 25.17630000 12.34400000
-7.93800000 25.86840000 12.68490000
14.49340000 13.34250000 0.36400000
14.29830000 14.87560000 0.74110000
14.56790000 14.68450000 1.30690000
14.13000000 13.52940000 -0.14990000
14.31170000 12.05310000 -0.58430000
13.74660000 12.16230000 -0.94570000
10.43640000 18.52530000 -1.00480000
9.61240000 14.23350000 -2.61140000
-6.37960000 64.15530000 16.50680000
-7.43480000 63.92140000 16.27530000
-13.96270000 26.20500000 6.09600000
-13.79530000 27.21460000 5.96040000
-9.46140000 8.89840000 10.66110000
7.51830000 50.06860000 15.61160000
7.88700000 49.68560000 15.28020000
8.55720000 50.87270000 14.92680000
7.26550000 48.59050000 15.82440000
3.22910000 0.58070000 14.63750000
3.25960000 0.24440000 14.39460000
1.27640000 0.32960000 14.55900000
-13.55700000 41.28790000 2.26970000
-13.70640000 39.86690000 2.23390000
-13.27460000 37.24800000 1.42950000
-13.29790000 37.33140000 1.00280000
-13.24180000 36.22390000 0.68580000
-11.02160000 65.12340000 15.46830000
-12.24340000 65.81600000 14.47890000
-15.75330000 61.87870000 7.02510000
-15.35560000 61.44980000 7.78550000
-7.72420000 23.92350000 -5.71490000
3.44280000 20.85570000 16.00840000
3.49670000 19.99580000 15.77180000
-14.12400000 1.05880000 -7.66080000
-7.82040000 43.38580000 -1.65860000
-7.31020000 41.82400000 -1.75900000
-12.93270000 59.15670000 12.88520000
-12.99060000 57.73280000 12.75430000
-12.43550000 60.46370000 12.80120000
12.13810000 30.07920000 13.04480000
12.46490000 30.00890000 12.91310000
12.74990000 29.92430000 12.58450000
11.64600000 3.10000000 8.92440000
10.45470000 3.00410000 9.82920000
-10.41620000 31.20020000 12.90760000
-10.33140000 31.28150000 13.32290000
-10.36390000 32.76090000 12.73670000
-16.02250000 65.24470000 1.21060000
-15.97500000 63.98490000 1.23150000
-15.81440000 64.05650000 2.37550000
-1.46940000 90.67620000 7.00190000
-2.80470000 90.63590000 7.38220000
-3.68010000 99.73200000 -10.38050000
-4.03100000 100.90000000 -10.93180000
11.30910000 1.16560000 10.32580000
10.32370000 0.63600000 10.97250000
-14.02000000 27.26520000 7.06550000
-13.98820000 26.16110000 7.00690000
-13.64130000 26.23420000 7.57390000
-13.75060000 28.59530000 7.49050000
-13.79900000 29.98740000 7.41320000
-14.05160000 29.94570000 7.01050000
-16.80030000 78.16570000 0.42420000
-16.72250000 76.67810000 0.81060000
16.29730000 13.28440000 5.64630000
-13.83360000 2.64520000 3.58630000
-13.21540000 2.48340000 4.82600000
11.36540000 15.93990000 2.89770000
10.69920000 13.39900000 1.25090000
13.07450000 59.26160000 7.71240000
13.24770000 57.67960000 8.02930000
-10.62660000 57.46420000 13.93320000
-10.90910000 56.07170000 13.70940000
-10.93010000 52.57710000 14.01890000
11.16370000 19.90380000 8.94810000
10.66110000 19.66790000 9.81850000
10.50010000 20.92400000 9.75560000
9.87870000 20.77680000 10.54270000
-14.67300000 77.34830000 -4.45480000
-11.41220000 81.99740000 4.43390000
-10.61540000 81.67470000 5.38290000
-10.42320000 82.27230000 5.63560000
-9.72670000 81.43050000 6.23440000
-13.22980000 29.14870000 1.31020000
-12.95810000 51.48430000 11.56240000
-13.24240000 50.24670000 11.09300000
-12.84890000 45.18630000 11.47910000
-5.48210000 75.94810000 -2.14700000
9.95600000 27.48580000 13.85530000
9.62660000 27.68320000 14.11790000
9.22630000 26.38860000 14.39680000
10.59730000 30.28400000 13.32800000
10.31610000 28.87000000 13.55220000
10.56070000 28.79740000 13.28770000
-0.80930000 96.51720000 3.85300000
0.59790000 95.14930000 3.09060000
-0.46200000 95.30160000 4.18750000
-0.18900000 94.19450000 4.53060000
-10.11590000 9.89100000 -4.79780000
-2.61970000 69.92430000 13.63400000
-3.27970000 69.87260000 13.79500000
-3.75110000 71.10350000 13.36420000
-3.90110000 69.75560000 13.85350000
11.38720000 41.46240000 11.61560000
11.83080000 44.51390000 10.64580000
-8.14920000 92.53390000 -6.95310000
-14.89810000 47.67390000 5.95530000
-14.91530000 48.96540000 6.07010000
-14.81900000 48.98160000 5.71230000
15.69010000 32.60180000 5.75770000
15.87220000 31.15790000 5.88910000
15.79990000 31.11050000 5.39970000
15.28100000 34.02580000 5.07780000
15.30800000 35.53190000 5.25870000
-11.55360000 28.61830000 13.12650000
-11.77700000 29.68310000 12.78230000
-12.12070000 29.54570000 12.56820000
-11.96530000 30.95450000 12.49220000
11.83310000 45.33310000 10.44600000
14.39000000 50.11900000 5.48920000
14.10720000 53.16230000 6.26720000
-11.40820000 57.56400000 12.79850000
8.08720000 23.91870000 14.96020000
8.72860000 26.69220000 14.49220000
-12.92570000 14.16530000 1.12540000
-12.49530000 20.97500000 4.31980000
-12.38000000 21.38690000 3.16720000
-12.46000000 20.03770000 2.86800000
-3.05180000 104.40900000 0.74360000
-1.77020000 103.11200000 0.23420000
-0.77350000 103.07500000 -0.75270000
-5.37920000 66.97530000 16.12160000
-8.12560000 61.29660000 -2.51370000
-12.31270000 78.94110000 4.55500000
-12.72880000 74.24580000 5.63060000
-12.39250000 75.89710000 5.59870000
-12.66320000 75.91430000 5.19260000
-14.09210000 47.26310000 0.25820000
-14.09250000 45.96910000 0.23470000
-14.38280000 45.78760000 0.75050000
-17.03370000 80.61800000 -1.72210000
-10.43710000 4.83790000 8.63780000
-11.35510000 4.30520000 8.02200000
-6.09460000 87.35390000 9.03110000
-7.00330000 85.93740000 9.18250000
-6.15100000 88.32490000 8.86450000
-5.86480000 32.34100000 14.39400000
-5.46150000 29.18730000 14.73650000
-5.20090000 55.66090000 -0.91320000
0.00620000 78.20260000 8.60390000
-0.10610000 78.51350000 9.15450000
0.00480000 77.39540000 9.56450000
7.82180000 2.29500000 11.09250000
7.77710000 2.89440000 11.18560000
9.14140000 2.91510000 10.52880000
6.30880000 2.22450000 11.61470000
3.05790000 26.19830000 16.33950000
4.91580000 26.71380000 16.12180000
-13.69400000 102.97800000 1.53890000
-12.21190000 103.15500000 2.09800000
-14.47540000 4.68080000 1.89710000
-13.99800000 6.39790000 1.73650000
-14.12640000 5.00740000 1.26110000
-14.33400000 4.84310000 1.60260000
-8.60630000 4.66180000 -12.90850000
-8.28820000 6.58960000 -12.08000000
-9.64710000 39.27340000 -2.04940000
-9.86740000 37.80070000 -2.13300000
-4.25260000 2.98410000 -11.30200000
-2.94980000 3.02680000 -10.20040000
-13.42650000 26.48990000 4.09670000
-13.52560000 26.16590000 4.54390000
-13.23590000 28.09030000 2.60910000
-3.07580000 108.78100000 -5.00930000
-4.76340000 109.25000000 -4.43360000
-6.15720000 109.61300000 -3.69040000
-4.62120000 107.77200000 -1.10460000
2.84100000 10.75950000 15.57320000
0.94540000 9.49220000 15.41810000
12.21410000 4.27900000 -4.62870000
13.23840000 4.25830000 -4.35940000
12.22470000 6.63130000 -3.44420000
11.67290000 47.70500000 13.05370000
10.81720000 47.16910000 14.21740000
5.20450000 84.46610000 2.76080000
4.11090000 85.02350000 2.40270000
-18.00700000 99.12910000 -5.48040000
-18.11220000 100.74100000 -5.94640000
13.51880000 16.80530000 11.45150000
14.02160000 16.39780000 10.50810000
-13.97470000 3.06340000 2.16800000
-13.81440000 2.92590000 2.69220000
-6.32530000 35.24470000 13.85860000
-5.77100000 35.29840000 14.04750000
-5.95700000 36.66020000 13.81520000
-6.08240000 39.27130000 13.69400000
5.79230000 25.21590000 9.64130000
4.73080000 25.46800000 10.49980000
-8.48250000 19.13020000 4.99690000
-7.54010000 23.09420000 5.67910000
-7.76820000 21.79200000 5.98400000
-14.00240000 107.52200000 -10.90440000
17.58300000 7.35040000 4.37550000
17.31860000 8.82720000 4.50990000
17.33690000 8.42860000 5.29510000
11.22260000 32.95110000 12.55230000
11.75390000 34.35630000 12.47950000
4.79030000 75.45930000 7.21080000
5.71090000 73.83690000 7.77650000
6.03400000 76.59400000 5.71450000
5.38290000 76.71810000 6.08210000
-9.94700000 75.54860000 13.23090000
-15.64010000 58.61530000 4.00970000
-15.44210000 57.36150000 3.47280000
-1.12310000 50.51170000 2.24360000
-1.20640000 51.55950000 2.30650000
-10.67110000 51.49750000 14.38230000
-10.17840000 45.96400000 14.69260000
-10.34590000 47.02640000 14.68560000
-5.47650000 101.50400000 -11.15040000
-5.99900000 102.62900000 -11.57090000
-6.48310000 100.99600000 -10.71590000
-13.67070000 6.55290000 1.18280000
-13.61920000 8.09480000 1.63170000
-13.28210000 8.26370000 0.51440000
13.06520000 56.07460000 9.56120000
12.77960000 57.73950000 9.22610000
12.68760000 56.09540000 10.19420000
12.77950000 54.56080000 10.21270000
6.65630000 36.49670000 15.57160000
6.88440000 31.27510000 15.70280000
6.73860000 30.08440000 15.77590000
7.61730000 29.92730000 15.26670000
3.68950000 52.99270000 15.91850000
6.75450000 53.28430000 15.48340000
-2.13410000 31.99250000 16.10530000
6.13050000 21.87800000 15.60060000
-11.77500000 37.33290000 11.47610000
-12.26280000 37.58020000 11.55900000
-12.17390000 36.39620000 11.70560000
-12.00040000 38.29940000 11.43440000
-10.56780000 62.96540000 14.82920000
-6.85410000 76.83170000 10.96530000
-7.59050000 78.65590000 10.14800000
-7.28020000 77.60430000 10.47750000
-7.06630000 77.75580000 10.71560000
0.40130000 47.82450000 17.86790000
-4.58210000 66.97150000 14.77400000
-4.96990000 68.19210000 14.45570000
-4.51780000 65.71910000 15.13540000
-4.73160000 65.70900000 15.27630000
-14.53230000 59.20660000 9.19790000
-14.41850000 57.90260000 9.04170000
-14.27320000 57.88180000 9.60420000
-14.51800000 55.35060000 8.01650000
-14.31000000 55.33120000 8.55450000
-6.46840000 26.90330000 2.82960000
-6.90710000 26.94270000 2.29070000
-6.75930000 26.81660000 3.09850000
-7.15760000 26.87750000 2.53230000
-3.74880000 60.12750000 16.89200000
-4.19120000 61.16490000 16.52080000
-3.89050000 60.92100000 15.99900000
-14.19170000 34.13740000 6.74280000
2.11680000 49.54980000 18.06990000
-9.51690000 90.33050000 7.44920000
-10.73660000 90.28670000 7.12690000
-10.58240000 89.46650000 7.43150000
-9.66720000 97.52220000 -9.01320000
-5.79850000 97.52730000 -9.06830000
-7.06070000 97.41310000 -8.68600000
-7.14080000 98.04540000 -9.02730000
1.37890000 82.28760000 5.18420000
0.73060000 82.58780000 5.36240000
0.77370000 81.78050000 5.84020000
1.98680000 82.80090000 4.51680000
-10.87630000 38.60300000 12.02540000
-10.66290000 36.51250000 12.25970000
-10.74970000 37.72170000 12.13810000
-2.23890000 12.01990000 -6.07630000
-1.31390000 6.69770000 -6.70670000
-2.19450000 6.90630000 -7.99450000
-2.23500000 8.07460000 -7.58450000
2.92440000 88.45200000 0.54630000
3.17240000 87.69950000 -0.17830000
13.86900000 54.64460000 6.80120000
13.71720000 54.63580000 7.43100000
13.38230000 56.10520000 8.10250000
-7.74890000 81.71950000 -4.30510000
-6.65720000 81.00250000 -3.88020000
-7.16430000 81.89880000 -4.27680000
-5.37330000 69.63750000 14.64520000
-5.45970000 69.74500000 15.14780000
-5.27220000 69.53300000 14.17210000
-5.21600000 68.22640000 14.79390000
-12.03630000 23.93290000 6.11670000
-11.78880000 23.85400000 6.81770000
-12.23010000 23.68680000 5.31660000
-12.27950000 23.27310000 5.11280000
-12.08590000 23.15720000 5.93300000
-12.27040000 71.20290000 12.35140000
-12.30250000 72.08110000 12.31600000
2.35130000 63.67180000 15.21080000
1.08700000 63.77950000 15.36650000
13.29420000 5.25190000 -3.77440000
14.08750000 5.33590000 -3.76240000
14.01690000 4.30590000 -4.29800000
14.86760000 2.39950000 -4.78480000
-12.02870000 11.51400000 7.48930000
-11.15730000 7.19710000 8.72990000
-12.41370000 7.74990000 7.35170000
-7.06100000 30.67040000 13.35070000
10.60050000 13.10100000 13.11300000
10.43400000 14.84530000 13.58660000
-9.44670000 26.70290000 -4.75260000
-8.90410000 19.79860000 -7.04830000
-9.72590000 19.76820000 -6.85320000
-9.61040000 21.15040000 -6.44490000
1.13300000 101.37300000 -3.24010000
1.45650000 40.46920000 16.42400000
1.60740000 32.51980000 16.63040000
1.54100000 33.79960000 16.61720000
0.21380000 33.67860000 16.54330000
3.58420000 87.41220000 -1.04760000
-0.65740000 23.95820000 0.05090000
-1.43550000 24.10670000 -0.81720000
-1.48340000 25.55190000 -0.49460000
-7.70230000 26.41230000 2.77330000
-7.90920000 26.45990000 2.25980000
-6.59260000 26.47010000 4.11150000
-5.64210000 26.79480000 4.52120000
-11.61650000 17.91870000 7.68060000
-10.94230000 17.83450000 8.78680000
-10.85660000 19.32750000 8.77320000
-9.19430000 21.70960000 10.37720000
-10.11380000 21.76580000 9.62620000
-10.08850000 20.62480000 9.71790000
-2.99840000 58.43000000 0.83840000
10.82860000 25.48910000 12.92500000
10.80280000 27.19890000 12.93850000
-9.99060000 100.12700000 3.46530000
-8.53620000 100.34500000 3.62330000
-8.74390000 101.36600000 3.18570000
-7.27380000 101.62700000 3.08480000
-7.09610000 100.54900000 3.56140000
-7.15180000 71.14030000 15.79280000
-7.16480000 72.16000000 15.01940000
-7.81820000 71.97290000 15.06420000
9.08860000 13.31460000 14.05870000
9.32390000 15.98070000 14.25430000
2.65740000 87.16430000 2.77090000
2.93850000 87.59440000 2.13860000
2.70240000 87.97910000 2.30400000
2.96570000 87.74860000 1.52190000
-8.20720000 45.70910000 13.12360000
-8.47670000 44.45960000 13.40520000
-8.51850000 45.52030000 13.46320000
-8.87110000 45.29930000 13.82160000
2.69600000 92.94500000 -1.50520000
2.79040000 92.61500000 -2.17670000
1.71810000 95.16870000 0.01100000
2.07300000 94.49270000 -1.30330000
-6.45960000 109.26800000 -8.92130000
-6.47110000 108.94000000 -8.42310000
9.18530000 67.32700000 0.86130000
7.65040000 68.50940000 0.09010000
3.51890000 84.60390000 2.31600000
3.52500000 83.60170000 2.82330000
-2.38560000 0.97920000 14.08610000
-3.93360000 0.82790000 13.39750000
0.54460000 77.54290000 -2.91110000
1.03090000 76.22410000 -2.61920000
-0.27900000 75.93790000 -2.43100000
-1.08370000 74.26370000 -1.84420000
-5.57820000 22.23610000 -5.31730000
-4.40190000 22.02120000 -4.57890000
-4.40460000 20.64870000 -5.02200000
-4.42680000 19.27280000 -5.46450000
-4.08300000 2.43610000 -9.43340000
-4.21940000 2.67520000 -9.27400000
-10.97420000 90.63930000 -5.94120000
-11.63990000 92.64630000 -6.83010000
3.33160000 89.31590000 0.27500000
0.41070000 43.67160000 16.25270000
-14.51170000 67.20490000 5.66480000
-14.67690000 67.31210000 5.33780000
-14.37120000 66.66740000 5.96260000
-6.11440000 57.37820000 17.52830000
-5.12520000 57.48270000 17.56040000
-4.80390000 57.07950000 17.24480000
-4.47080000 57.60740000 17.61720000
12.59310000 40.03380000 10.57610000
12.69920000 38.65450000 10.94560000
12.98590000 38.62140000 10.61370000
-9.21620000 105.67600000 1.29450000
-9.16310000 104.73200000 2.00830000
-6.69230000 3.16270000 12.36200000
-6.89490000 2.56760000 12.30820000
-5.74590000 2.48280000 13.33240000
-13.81540000 108.66900000 -8.72280000
-3.68960000 87.42950000 8.32200000
-3.79940000 88.51190000 8.24540000
14.99210000 39.82670000 6.64900000
14.90360000 41.25680000 6.94940000
14.50760000 46.91680000 7.55060000
14.36020000 48.45220000 7.25800000
14.36520000 48.41770000 7.98420000
-5.99730000 107.75100000 -11.95030000
-11.01980000 5.73900000 -10.00810000
-11.99240000 4.65640000 -9.58860000
-1.90120000 72.63060000 -1.21060000
-10.13420000 38.95270000 14.70320000
-9.79740000 38.94780000 14.72870000
-10.07590000 39.96820000 14.81450000
-12.32140000 33.99750000 -1.85510000
-12.90440000 32.59720000 -1.08450000
-12.93400000 33.51290000 -0.90630000
-0.93720000 106.54800000 -8.37000000
0.01650000 105.49500000 -6.94180000
-16.38390000 89.42090000 -1.74570000
-16.40920000 90.68070000 -2.57460000
-10.22620000 74.69420000 8.80360000
-9.71910000 74.94430000 9.49300000
-12.26390000 28.12450000 12.08420000
-12.31210000 29.42970000 12.20650000
-12.38740000 27.97740000 11.54170000
12.38070000 25.30180000 13.41730000
15.78970000 0.21710000 -1.17200000
-14.61150000 87.39650000 2.84980000
11.83940000 28.69530000 13.17900000
11.79850000 30.11990000 12.98260000
11.97110000 27.09960000 13.32250000
-12.01190000 51.49140000 12.95030000
-11.98320000 52.64050000 12.88450000
-11.39560000 45.69210000 13.74930000
-11.36800000 44.53770000 13.92000000
2.90250000 2.15200000 14.72900000
15.14400000 2.66580000 9.18300000
14.75830000 3.19930000 9.73490000
-15.43750000 58.13140000 6.27490000
-15.53230000 59.47530000 6.48490000
-15.62490000 59.42760000 6.82190000
9.57690000 1.34600000 13.03360000
-14.08820000 43.11640000 0.34820000
-11.72100000 35.18810000 -2.22870000
-11.41150000 35.22040000 -2.15060000
-11.09690000 33.92490000 -1.87630000
-11.09040000 35.23970000 -2.05370000
-10.77320000 35.15340000 -2.01380000
-3.74400000 86.04530000 -5.02370000
-0.12530000 75.21340000 10.95050000
13.34210000 35.45410000 3.08810000
13.79040000 33.95150000 3.24680000
13.40370000 38.43990000 3.32910000
2.18670000 53.22400000 2.88580000
1.26550000 53.43810000 2.78600000
14.23890000 32.49710000 11.72390000
13.82360000 32.64600000 11.99480000
-9.94270000 7.07240000 9.63360000
9.19770000 58.75670000 11.67900000
8.83510000 58.95040000 11.95240000
8.66540000 57.67300000 12.30870000
-13.16100000 56.47330000 11.65130000
-13.02030000 53.92410000 11.61760000
-13.17310000 53.94120000 11.16400000
-9.66270000 49.43850000 -3.02010000
-10.13430000 49.45820000 -2.95030000
-9.70740000 50.99660000 -3.01160000
-12.89040000 94.47140000 4.47880000
-11.96290000 96.23530000 4.64850000
-15.23320000 94.65210000 1.86810000
-12.82990000 10.72630000 -3.06140000
0.00520000 27.55040000 16.46300000
-0.78190000 27.39500000 16.25210000
-0.37950000 26.62030000 16.21460000
0.29160000 26.62510000 16.37910000
0.44540000 25.80370000 16.21060000
15.95880000 25.49120000 5.32200000
16.11380000 24.16940000 5.37190000
12.31580000 10.48410000 0.79750000
9.49180000 43.74890000 1.42280000
8.66050000 46.62850000 1.19120000
8.12630000 48.03110000 1.14530000
2.38780000 5.10020000 -5.25100000
3.51800000 4.12080000 -5.95940000
3.34300000 3.32290000 -6.17000000
2.15790000 3.45870000 -5.65940000
12.40710000 27.26560000 2.56140000
13.49020000 25.92160000 2.37520000
13.06300000 25.78310000 2.59240000
12.78420000 27.37210000 2.46490000
-13.54180000 42.73010000 2.25060000
-14.25220000 48.04380000 2.23380000
-14.10570000 46.77470000 2.19260000
10.38260000 42.60540000 11.77750000
9.44690000 43.46360000 12.41850000
-8.95730000 60.04150000 16.26420000
-8.38530000 61.39390000 16.33860000
-8.97380000 61.37330000 16.04100000
-5.66320000 80.35610000 -3.19890000
-4.99360000 80.47790000 -3.01730000
-5.75230000 83.54670000 -3.87380000
-5.18970000 82.48300000 -3.62620000
-5.95800000 82.33750000 -3.68070000
-4.10780000 8.08370000 13.54380000
-4.19460000 76.23420000 11.41730000
-4.13460000 77.37310000 11.03350000
-4.97910000 77.22890000 11.03600000
-5.54680000 77.12270000 11.05910000
-5.94840000 77.06000000 11.13870000
-4.25750000 13.41840000 13.99570000
-5.66000000 14.91170000 13.11290000
-4.77630000 16.61490000 14.08320000
7.10500000 55.68140000 0.90660000
7.22790000 52.64770000 0.93880000
-2.38080000 26.09700000 15.48930000
-2.70750000 28.93090000 15.67300000
-2.19520000 27.77620000 15.74460000
-1.80130000 28.03820000 15.96490000
-13.19310000 38.67160000 10.91460000
-6.58880000 9.21570000 -7.12300000
-5.04490000 21.87580000 10.78010000
-5.88160000 21.59960000 9.58100000
-5.83470000 22.83180000 9.34240000
-4.01020000 22.17990000 11.72910000
-5.55540000 2.90760000 -12.44320000
9.24900000 76.31850000 3.49320000
9.00380000 74.94170000 4.73730000
-8.42410000 52.13200000 -1.14540000
-8.42210000 52.24750000 -1.59200000
-7.93290000 53.39340000 -1.06820000
-8.62820000 50.90480000 -1.82490000
-8.60410000 50.82560000 -1.39730000
-8.80600000 49.39140000 -1.68360000
-4.24620000 2.30930000 10.91160000
-5.23070000 3.29740000 10.19300000
-12.05960000 28.15340000 0.57200000
-6.31130000 26.78720000 13.91310000
-6.76700000 26.48590000 13.66580000
-11.05440000 15.27100000 -7.06620000
-11.06550000 13.86200000 -7.56270000
-11.29880000 13.58870000 -6.75570000
-10.91310000 18.08230000 -6.18530000
8.10470000 51.32700000 15.14430000
9.02560000 52.81670000 14.28330000
6.93080000 55.23310000 14.58400000
5.91030000 56.49500000 15.05330000
13.01880000 1.45060000 -3.88300000
14.32670000 1.32100000 -2.65120000
14.19030000 1.74910000 -2.51750000
15.23680000 1.48620000 -1.09190000
-14.50750000 51.91350000 3.02750000
-14.53350000 50.62380000 2.52660000
-14.45280000 48.10250000 1.79330000
-14.30000000 46.85830000 1.72990000
-1.72390000 26.26250000 4.38500000
-0.87010000 24.43730000 4.14980000
-11.50320000 3.14280000 0.75020000
-11.38360000 4.13720000 0.78520000
-10.82950000 3.90950000 2.20270000
-11.84450000 3.28870000 -0.78620000
16.09210000 2.15380000 -3.57780000
-9.20370000 88.01930000 8.61840000
6.22090000 0.81380000 -7.91110000
4.45950000 1.32910000 -7.15030000
-5.34550000 50.27630000 16.39540000
-6.44320000 50.69590000 15.73240000
-5.25950000 50.94830000 16.47180000
-5.12570000 51.53330000 16.42130000
-7.59370000 77.79000000 8.79680000
-7.81580000 79.01220000 8.22690000
-12.74970000 0.49750000 -5.79780000
-12.56440000 1.24480000 -5.76550000
-1.39310000 52.96270000 2.50740000
-2.37200000 52.95840000 2.04000000
-15.39030000 106.12300000 -10.46880000
-0.94660000 12.23010000 13.15640000
13.31160000 26.72030000 11.76870000
8.94540000 19.97200000 14.41110000
-7.88170000 16.28020000 11.34670000
4.71960000 78.60660000 -2.67370000
5.58460000 80.27860000 -2.50420000
-8.16860000 30.74380000 13.53050000
-8.45460000 30.84550000 13.79390000
-8.08520000 29.27140000 13.54020000
-8.70330000 33.79520000 14.00280000
-8.46480000 33.78000000 13.69850000
-8.63230000 35.15590000 13.90530000
-3.36760000 69.42130000 -0.18660000
-2.36000000 69.64010000 -0.15160000
-8.61330000 11.72640000 5.44140000
-8.00540000 10.11370000 6.42560000
-8.75540000 10.27600000 5.26340000
-4.09480000 79.79680000 10.42760000
-8.63330000 49.24720000 -0.88580000
-8.36790000 47.78630000 -0.99140000
2.98020000 44.97830000 2.22780000
2.07320000 44.87080000 2.01260000
1.23030000 44.83360000 2.03350000
6.31830000 50.84690000 1.28510000
6.19380000 52.37990000 1.02700000
6.86730000 47.73780000 1.74410000
-12.13860000 31.39250000 -1.05990000
-11.74720000 31.27540000 -0.99070000
16.21940000 0.06440000 5.14200000
15.27470000 0.25010000 7.40100000
-2.36550000 83.75540000 8.96390000
4.03000000 51.34640000 2.63380000
4.36570000 50.08860000 2.61550000
3.97140000 49.93180000 2.54660000
-7.37230000 91.24070000 8.51600000
-12.35150000 22.98690000 3.97790000
-12.26610000 24.18940000 4.80850000
-5.86050000 94.75260000 6.50810000
-4.80490000 94.21510000 6.09620000
-4.62370000 94.85920000 5.97790000
6.08850000 24.60930000 15.03390000
5.19680000 23.99770000 15.15170000
3.18740000 23.43770000 15.39550000
15.43820000 11.53180000 0.96390000
-12.70530000 11.75540000 6.20610000
-13.15780000 12.04790000 4.92860000
-13.37610000 10.51770000 4.86000000
-13.55000000 10.77940000 3.57520000
13.83660000 1.01380000 6.35150000
13.35470000 5.63970000 6.97870000
-12.50980000 18.13680000 -1.47310000
-12.59730000 16.67470000 -1.88430000
-12.09340000 23.57410000 0.98650000
-12.20030000 22.38320000 0.23190000
-16.60810000 102.58800000 -9.68710000
3.85520000 14.87510000 1.74250000
3.60140000 19.21430000 3.39300000
-2.46850000 8.12670000 14.31390000
-2.45310000 6.81050000 14.16990000
-10.26880000 21.05570000 -6.04100000
5.65390000 23.70000000 5.45160000
5.71330000 24.23390000 6.46650000
4.45830000 24.56260000 6.33960000
-5.24910000 70.29280000 -1.47130000
-7.23680000 68.43820000 -2.37070000
2.99980000 54.86580000 16.34170000
1.88710000 54.64570000 16.59150000
2.11930000 53.91230000 16.45830000
0.81280000 54.44940000 16.72550000
-17.35130000 93.98160000 -1.97880000
-17.59120000 95.50310000 -2.37840000
-17.46100000 95.25340000 -3.05570000
7.17910000 35.28690000 1.80050000
6.96560000 32.12480000 1.20560000
7.91350000 32.34360000 1.45730000
8.17920000 30.87730000 1.21580000
-13.16670000 57.77940000 12.36730000
-9.68720000 13.94450000 1.92700000
-9.43250000 15.39120000 2.09350000
-9.28720000 15.10830000 3.36380000
-9.46650000 15.69560000 0.90870000
-9.72860000 14.25740000 0.70930000
-9.67990000 14.59560000 -0.42520000
-7.53380000 1.58550000 7.11080000
-7.50340000 1.19250000 7.14150000
-8.25980000 1.09830000 6.08140000
-6.86790000 3.40290000 8.12200000
8.40570000 23.19640000 -0.29930000
8.55270000 21.63430000 -0.64720000
-10.96630000 27.41460000 13.73690000
-10.78620000 27.97230000 13.74170000
-10.57820000 29.84900000 13.14630000
-10.77110000 28.77070000 13.37530000
0.11290000 78.62200000 -3.06120000
1.46300000 78.97810000 -3.18070000
7.45490000 25.02710000 11.50900000
15.00260000 24.67830000 11.50170000
14.71130000 24.82250000 11.79180000
14.26880000 24.91880000 11.76680000
14.47540000 26.34360000 11.45080000
-4.44920000 78.67210000 -2.17960000
-4.17530000 77.61020000 -2.11130000
8.66590000 76.44090000 4.23560000
8.83280000 73.36150000 5.52180000
-17.42750000 93.75530000 -2.63430000
7.40860000 40.11310000 2.46700000
7.79010000 40.26430000 2.61110000
8.17040000 38.84280000 2.59780000
8.94270000 39.09890000 2.71190000
8.55900000 38.98200000 2.71440000
8.17340000 40.40290000 2.70090000
-12.68180000 40.33840000 11.86630000
-14.13160000 66.11770000 10.52730000
-14.02460000 67.18330000 9.76780000
6.37690000 0.87500000 11.44770000
7.99730000 0.79010000 10.83770000
-10.69650000 76.27180000 -4.55170000
-3.58380000 22.23830000 14.88140000
-4.68280000 23.58220000 14.52520000
-3.35490000 30.18930000 -1.66080000
-2.54910000 37.17470000 0.21320000
13.33080000 42.73410000 10.21580000
12.88700000 42.69570000 10.11780000
13.79760000 42.78250000 10.27860000
13.84150000 41.48120000 10.42610000
14.25350000 41.48010000 10.27520000
-13.01940000 0.11270000 -7.57580000
14.70310000 0.28060000 -2.92420000
13.35750000 0.38510000 -4.27370000
-12.52440000 -0.01220000 2.94730000
-12.09420000 -0.07420000 2.67970000
-12.79260000 0.81510000 1.25350000
-13.59200000 32.53180000 4.44170000
-13.57180000 31.03150000 4.57300000
-13.89150000 30.58720000 2.74630000
-8.24610000 26.09630000 12.80660000
7.08570000 43.10370000 14.97110000
-14.80800000 0.94980000 -3.98670000
15.17560000 32.42810000 10.44200000
15.16260000 33.99770000 10.23990000
14.78780000 34.06600000 10.65150000
14.98060000 41.38960000 8.92320000
-3.73210000 41.60500000 -0.15640000
-3.79220000 43.06080000 -0.10300000
-3.64820000 40.14230000 -0.28440000
13.84210000 39.87110000 4.22410000
14.16600000 38.43190000 4.49270000
14.73390000 38.44050000 4.81240000
11.01620000 65.84600000 7.44500000
-6.92130000 30.75390000 -3.54640000
-6.84960000 29.38090000 -3.88430000
-7.94180000 29.48900000 -4.11330000
-5.84710000 46.10570000 14.11340000
-0.76940000 101.74500000 -0.45290000
0.22630000 99.31060000 -0.27000000
-0.64480000 99.79140000 0.83790000
-6.59650000 53.97550000 -0.48380000
-6.65100000 54.17490000 -0.85050000
-13.71150000 9.09210000 -2.63700000
-13.46370000 13.21270000 -0.89910000
-13.20170000 13.32810000 -1.36680000
12.28850000 38.76350000 11.72300000
12.62030000 35.90350000 12.27750000
8.42680000 5.02210000 -6.28240000
6.83030000 4.92740000 -6.20180000
6.91270000 6.12800000 -5.77690000
5.29500000 6.14380000 -5.67830000
5.18300000 4.95230000 -6.11880000
3.66610000 5.00480000 -5.69940000
-4.94360000 6.41880000 -7.33470000
-5.65020000 5.26410000 -9.09600000
-14.58620000 3.94000000 -3.52660000
-14.42040000 4.93810000 -3.28400000
-14.15590000 5.15490000 -4.08400000
-14.42520000 3.73990000 -2.62150000
15.05250000 19.14250000 11.33490000
13.88830000 18.26200000 12.79580000
14.12880000 19.06180000 12.87730000
13.72000000 19.14250000 13.35210000
-10.16030000 107.56900000 -0.18470000
-9.25030000 106.68400000 0.69560000
