1.30950000 -1.54660000 10.53610000
-8.54520000 -6.57060000 6.11050000
6.85920000 -49.73660000 6.46000000
3.30610000 -40.91300000 -6.29330000
2.48600000 -41.44930000 -5.55650000
2.67660000 -42.11840000 -6.05370000
1.88340000 -41.54680000 -5.05350000
7.63930000 -10.43560000 -10.21080000
10.09630000 38.89660000 -13.31690000
9.84530000 38.09880000 -12.23400000
-0.19600000 8.13430000 -5.80920000
10.09190000 -45.62860000 -16.12810000
9.69090000 -42.75310000 -15.30870000
9.87570000 -44.42740000 -15.80900000
-13.59040000 -34.60450000 4.74990000
-13.45600000 -33.45600000 5.02640000
-13.27790000 -33.02900000 5.48970000
-14.38880000 -22.80950000 5.75270000
12.69660000 -46.83160000 -13.98110000
12.92290000 -46.86720000 -13.63060000
-8.29580000 -9.28960000 6.81510000
11.62220000 60.34960000 -30.62610000
5.50950000 3.83350000 -12.07510000
5.72020000 4.02350000 -12.61630000
-9.32120000 15.28310000 2.35600000
-4.77110000 54.64570000 -19.36300000
-4.54020000 55.40400000 -19.56550000
-6.74660000 27.95120000 -1.69690000
-7.48470000 26.75130000 -1.34950000
1.09160000 -7.05190000 9.40230000
1.99610000 -7.75380000 9.34130000
-8.63980000 -38.57050000 -6.31100000
1.00600000 -17.68670000 -7.76470000
0.73360000 -19.56640000 -7.57580000
9.12340000 17.20060000 4.52970000
2.93610000 4.08360000 11.37550000
4.82510000 53.15440000 -28.34320000
6.36540000 61.22080000 -22.10030000
2.73010000 27.20980000 0.99110000
2.51560000 28.33140000 -0.10100000
1.97450000 27.52990000 0.80730000
-14.04680000 -31.87060000 5.47500000
11.64150000 3.22160000 3.75940000
11.89270000 4.18570000 3.74870000
1.50760000 7.52390000 9.10440000
1.79420000 7.49300000 9.19470000
1.64380000 6.78510000 9.24130000
9.09090000 54.84010000 -14.58780000
8.99250000 54.29450000 -14.09000000
12.83320000 43.55170000 -15.95000000
-14.36560000 -36.63320000 0.08210000
-14.31240000 -36.34510000 0.30580000
11.14160000 6.10830000 -11.05390000
11.37630000 6.17970000 -10.84590000
11.14980000 -19.86350000 8.76400000
1.74070000 42.62850000 -18.98480000
-13.83660000 0.94600000 -0.21200000
-13.89000000 2.06620000 0.09550000
8.65300000 63.09880000 -24.42900000
11.30070000 -48.72410000 -1.39540000
13.26270000 -47.86110000 -12.53910000
8.65240000 4.82760000 8.70520000
12.97440000 -6.99890000 3.09850000
13.09620000 -7.62270000 2.55500000
2.49540000 49.42150000 -25.15540000
-0.51860000 -46.63470000 -11.07020000
5.05870000 -49.31730000 5.57730000
8.41410000 1.75250000 -1.86240000
4.62390000 20.98010000 -14.82490000
4.64550000 19.92180000 -14.48200000
4.41900000 21.77620000 -14.85910000
4.71340000 22.05340000 -15.17860000
-8.49950000 3.20640000 -5.10840000
-8.34860000 4.98880000 -5.43920000
-8.22890000 6.13890000 -5.64030000
-5.57660000 -6.53990000 9.80490000
-5.39450000 -6.67980000 9.13450000
-4.12320000 -28.70940000 9.84420000
-1.90080000 59.87340000 -26.63270000
-1.91750000 59.26850000 -27.13160000
-2.12810000 59.08390000 -27.68170000
-15.55150000 -46.96450000 3.44150000
-15.68550000 -46.94590000 3.27130000
-2.61620000 -31.49760000 6.69970000
1.62660000 -3.12230000 8.75530000
7.96150000 -31.35170000 -6.65470000
8.12730000 -31.75390000 -6.55710000
8.14740000 -30.75930000 -6.14610000
2.70810000 -49.00330000 -11.01290000
2.66500000 -49.43570000 -11.48510000
2.90510000 -48.85890000 -12.97280000
7.91920000 34.31010000 -20.72930000
12.08710000 -24.51880000 -6.11430000
-15.20390000 -29.91380000 5.98870000
-15.14610000 -30.22290000 6.41230000
-15.08400000 -29.24760000 6.48020000
13.52990000 36.02320000 -16.57060000
-1.70130000 -24.11410000 -3.30930000
-1.93390000 -24.88400000 -3.46390000
-1.95920000 -23.71980000 -3.35130000
-1.49480000 61.36280000 -28.05310000
-1.18900000 -33.08080000 -4.37050000
-3.62500000 -33.05770000 -4.77280000
-4.41660000 -32.32330000 -4.77420000
-14.68980000 -47.09770000 3.79660000
-14.90720000 -46.77470000 3.88610000
4.03790000 -0.22020000 -1.70610000
4.27610000 -2.70100000 -1.98360000
5.56690000 42.09160000 -20.55420000
13.48680000 58.12650000 -25.60950000
13.25090000 57.71420000 -25.73880000
12.67010000 10.02840000 -9.73380000
12.47670000 8.54680000 -9.72680000
-9.56290000 12.99470000 3.61380000
-9.59610000 13.28040000 3.41150000
-9.35690000 13.33580000 3.37490000
7.31240000 -12.55400000 10.76470000
3.17470000 43.82910000 -7.31940000
3.98220000 43.63030000 -7.35100000
5.04230000 45.49760000 -23.95850000
5.04390000 45.58000000 -22.72930000
5.08330000 45.46050000 -22.89850000
5.08540000 45.10620000 -22.28750000
2.01780000 0.89400000 11.18120000
12.11520000 20.98730000 -3.81720000
12.14500000 20.54460000 -3.62030000
12.26690000 20.73590000 -3.99680000
1.79160000 63.51220000 -32.52740000
1.77420000 63.14140000 -32.85360000
-14.95970000 -13.68790000 2.90770000
-15.08720000 -13.28440000 3.38160000
2.41360000 2.55610000 -7.56430000
2.62210000 2.48760000 -7.80420000
13.73970000 52.34390000 -21.20290000
13.71110000 51.30870000 -20.97420000
6.68370000 38.71940000 -9.99140000
4.43960000 38.65060000 -8.85790000
-4.78230000 -49.88130000 5.65570000
-4.09000000 -50.13070000 6.01220000
-5.15390000 -49.95930000 5.56070000
10.33870000 47.32690000 -12.04340000
9.96070000 47.19750000 -11.41710000
9.53270000 45.50060000 -10.39120000
-0.27780000 -4.11200000 -3.63980000
10.82020000 -41.04010000 -3.03570000
10.97650000 -41.92190000 -2.77370000
11.23890000 60.87470000 -27.29960000
11.36880000 61.15910000 -27.50180000
13.23450000 29.42340000 -10.72360000
13.13510000 30.80990000 -11.93940000
-0.01660000 -23.14900000 -3.99840000
-0.01770000 -22.67010000 -4.51740000
-5.33870000 19.86330000 -9.20390000
-5.24000000 39.77630000 -16.79370000
2.20080000 -47.35060000 -8.29230000
1.99810000 -48.62460000 -8.73210000
2.48050000 -46.94570000 -8.44880000
-8.46240000 -26.33490000 8.93100000
-7.82750000 -28.61270000 9.27520000
-6.51170000 -28.53690000 9.57120000
-7.09290000 -28.13070000 9.36740000
-10.99550000 7.72410000 -4.86390000
-11.21050000 6.31020000 -4.42120000
-10.78380000 5.52240000 -4.65790000
-10.78330000 31.23180000 -11.08520000
-10.37180000 32.14370000 -12.08590000
7.85950000 -38.95950000 -14.81490000
8.26880000 -38.28700000 -14.47240000
14.78200000 -24.64880000 -0.62430000
-4.79490000 3.93630000 3.95010000
9.70390000 -39.01020000 -7.42560000
13.56970000 -35.20040000 -1.40980000
13.46780000 -33.12550000 -1.58170000
-4.48700000 -12.34810000 9.53830000
-4.89180000 -13.71810000 9.43570000
12.72350000 -44.00090000 -11.03770000
12.72800000 -43.65330000 -10.95350000
12.61800000 -43.00640000 -10.60070000
-12.47830000 -6.93780000 4.67030000
-12.33730000 -6.25440000 4.70400000
8.54330000 -29.97130000 -4.68970000
0.40600000 49.59380000 -9.64520000
-0.13410000 49.59710000 -10.31190000
1.33700000 45.99410000 -22.38630000
1.00720000 45.07640000 -21.93630000
0.94320000 44.60740000 -20.89540000
10.14300000 8.68400000 6.65250000
1.27490000 42.15210000 -18.42340000
1.95650000 43.40920000 -19.72660000
9.17370000 62.73380000 -22.45420000
7.89240000 -16.43960000 10.81660000
8.36770000 -17.05160000 10.65680000
7.88180000 -16.03470000 10.88620000
8.37460000 -17.45280000 10.54950000
12.89660000 -13.45120000 -7.27530000
9.96050000 63.65920000 -27.30830000
7.91850000 -0.47440000 10.41290000
-10.63990000 -35.30890000 0.98060000
-10.62670000 -35.67900000 0.72250000
14.15730000 -14.03250000 -0.45580000
-0.04350000 -9.38830000 -3.32450000
-7.82400000 -17.81470000 8.23780000
-7.60390000 -17.82060000 8.34270000
-7.69310000 -16.15190000 8.13400000
9.85220000 -50.06090000 -16.53570000
10.47630000 -50.22400000 -15.87160000
14.84290000 39.17930000 -14.75380000
-7.55350000 -5.53890000 9.91270000
9.10860000 -36.29890000 -7.09220000
11.11370000 11.72890000 3.48590000
-9.41000000 16.41650000 -7.27310000
-8.74180000 16.20320000 -7.57420000
-12.34600000 11.73200000 -4.11090000
-5.40650000 3.51970000 1.95520000
-6.49080000 3.04970000 2.00840000
-13.77820000 -13.73540000 -0.12670000
-14.23710000 -12.94790000 0.05360000
7.78380000 -2.79460000 -10.49900000
5.10020000 42.69830000 -23.21490000
1.23010000 -49.08890000 -16.54310000
-14.04280000 -49.99440000 -4.67160000
-14.03280000 -49.89060000 -5.72980000
10.40840000 -48.35550000 3.77360000
10.15470000 -48.45320000 3.82130000
-7.54790000 -5.93010000 9.17790000
-9.14180000 -27.84500000 3.10400000
-7.94170000 38.70040000 -15.97970000
10.55900000 61.94920000 -32.13740000
5.10680000 -47.49600000 -15.61090000
5.57970000 -45.78740000 -14.65890000
13.57490000 -49.39310000 -4.62480000
-0.41190000 -37.39270000 -7.31400000
-0.39040000 -38.54970000 -7.20660000
-0.29120000 -37.94240000 -6.53840000
-0.35230000 -37.51150000 -6.77430000
11.28770000 -50.08390000 -14.91620000
10.81670000 -50.26470000 -15.56820000
-13.30910000 12.88050000 -1.70370000
-13.25960000 13.92240000 -1.86220000
2.24720000 5.54280000 -12.01730000
2.31580000 5.63500000 -12.21500000
-13.60140000 -7.06430000 -0.22710000
-13.04010000 -50.00200000 1.19820000
2.39650000 63.27630000 -24.57680000
0.24700000 62.87500000 -24.78860000
14.58880000 40.17280000 -16.08630000
14.62030000 39.78340000 -16.08150000
14.85930000 38.99470000 -15.83810000
-11.43440000 -6.83340000 -2.39220000
-11.37200000 -6.09020000 -2.52090000
-1.67130000 9.77650000 -6.15560000
-9.95140000 -43.36560000 -3.35000000
1.02310000 48.99450000 -25.92710000
0.54280000 49.71530000 -26.46500000
0.31710000 49.78670000 -26.50950000
4.56230000 -18.46260000 -10.78370000
4.94510000 -16.64720000 -10.67330000
4.94420000 -18.44780000 -10.82540000
5.32950000 -18.08010000 -10.78560000
-13.10410000 12.80870000 -0.09340000
-12.79500000 11.96380000 0.32880000
8.22020000 -34.76450000 7.22920000
5.39490000 -4.50840000 -9.86050000
12.10340000 -29.41430000 -8.99140000
12.79870000 39.67640000 -12.09960000
8.81020000 59.81900000 -19.66370000
-13.50920000 8.69840000 -0.35500000
12.67420000 44.11580000 -18.39680000
-8.66020000 10.52290000 5.10010000
-8.67930000 11.25470000 4.72820000
-8.89970000 11.09230000 4.63330000
14.40460000 46.54290000 -18.18480000
14.29870000 44.95900000 -16.61380000
14.72970000 45.51100000 -17.10420000
7.56540000 -7.48890000 10.51050000
-15.13910000 -49.75150000 -0.63880000
-14.96520000 -49.84600000 -0.64500000
-15.40020000 -49.86330000 -2.54770000
-15.19300000 -49.82360000 -1.59140000
-4.30830000 -50.07480000 8.49930000
9.77700000 0.77580000 8.14650000
8.97590000 2.06100000 8.72480000
8.56270000 2.67530000 8.99940000
13.12850000 10.34870000 -2.24690000
8.68170000 -39.68690000 2.70380000
8.39310000 -39.33080000 3.07660000
9.02700000 -38.78650000 2.03580000
9.33620000 -39.93450000 1.55260000
-1.18490000 -47.30740000 -6.06540000
12.12630000 58.54830000 -24.01730000
11.73590000 58.57010000 -23.71100000
12.07490000 58.13850000 -24.20420000
12.61730000 -49.02610000 2.57330000
5.77600000 15.76750000 6.50440000
5.23700000 15.16900000 6.94560000
-15.55800000 -49.40770000 -0.63680000
11.54430000 21.62260000 -2.40220000
11.25260000 22.65590000 -2.58290000
7.79080000 -32.93790000 -13.10670000
8.18770000 -32.22950000 -12.84860000
8.23900000 -33.64910000 -13.19500000
2.84010000 15.10180000 -11.35740000
2.59630000 12.96870000 -10.49940000
1.18830000 -39.11020000 -3.62730000
1.44490000 -39.80780000 -4.05140000
1.25420000 -41.28030000 -4.50620000
0.15170000 -41.36470000 -4.01880000
6.57490000 -1.50010000 11.50310000
6.68640000 -1.91300000 11.48080000
8.95260000 -8.74920000 -9.66460000
9.90530000 -26.65900000 5.64560000
9.97370000 -26.03130000 5.46430000
6.56240000 47.81810000 -26.97170000
-15.27380000 -18.76220000 4.77100000
-15.47780000 -19.55660000 4.68120000
-15.21720000 -16.36980000 4.70680000
-6.14240000 -50.18690000 -8.13480000
-6.61570000 -50.21900000 -8.13430000
6.28530000 -0.53520000 -5.59780000
12.12230000 -44.35990000 3.73050000
12.25410000 -44.41460000 3.23100000
-15.53700000 -29.31720000 1.39180000
-15.47180000 -28.27660000 1.56690000
-15.56610000 -28.89470000 1.73230000
3.76660000 52.35260000 -27.41400000
3.49480000 51.92320000 -27.08240000
3.76160000 53.06290000 -28.06250000
-9.30170000 -4.83320000 8.57340000
8.47720000 -48.41240000 3.19840000
7.86010000 -47.09950000 3.95600000
-12.86030000 12.56360000 -3.25770000
13.99690000 -0.60150000 -1.92770000
-8.24190000 39.07260000 -10.42760000
-3.57470000 -4.56950000 -3.32320000
-3.22050000 -4.93010000 -3.19980000
8.53100000 64.76770000 -25.76770000
10.84640000 10.89510000 5.86740000
10.75060000 10.30360000 6.10580000
6.42730000 -39.95920000 -11.29290000
6.13080000 -39.66220000 -11.01580000
-13.32000000 -45.21020000 -5.97280000
-12.13370000 -45.91250000 -6.70120000
5.12920000 3.35910000 11.15270000
8.64040000 -4.10340000 -1.34900000
8.64270000 -5.22870000 -1.05960000
0.22070000 15.83230000 -7.10950000
-0.20200000 15.10090000 -6.91770000
8.48050000 -21.45600000 7.57550000
8.05640000 -20.92770000 7.79570000
8.31560000 -20.83890000 7.91480000
0.65830000 4.91570000 8.96060000
1.29810000 5.34240000 9.03590000
-5.13340000 54.75200000 -21.51270000
-4.82410000 55.57300000 -21.61030000
9.26960000 -26.04070000 5.92020000
9.47740000 -26.51700000 6.02000000
-5.05190000 36.33200000 -16.87740000
-7.27300000 -26.29230000 1.22270000
-7.04130000 -33.57840000 5.40280000
-6.81590000 -34.45700000 5.51060000
14.37820000 -44.01620000 -2.79050000
-14.44750000 -30.06780000 -1.74190000
0.08510000 -16.83320000 -3.98980000
0.05200000 -16.45320000 -3.30450000
0.90370000 -34.97080000 -11.34540000
2.05580000 61.42500000 -23.16770000
-11.30520000 -5.11120000 6.27050000
15.03130000 41.24280000 -15.99970000
-14.15220000 -39.74200000 -1.64940000
13.65580000 8.89260000 -2.91910000
13.53500000 9.01150000 -2.97300000
13.57050000 54.05870000 -23.46650000
13.47830000 54.83540000 -23.56740000
13.60010000 54.02490000 -22.96020000
-15.41820000 -21.56910000 2.87900000
-10.62710000 -39.20630000 3.27830000
-1.13060000 60.01380000 -24.07740000
8.20740000 -4.20300000 -10.41990000
13.39970000 9.16380000 0.37840000
14.62760000 -47.92530000 -3.70160000
12.38710000 6.28610000 3.77070000
10.22310000 40.68640000 -15.98330000
10.01070000 41.15410000 -16.37520000
9.82370000 40.85450000 -16.92490000
10.94350000 62.66820000 -28.04710000
11.38440000 -46.10650000 -8.36570000
10.33250000 -42.11700000 -8.10590000
10.83240000 -43.73870000 -7.88670000
-3.11170000 5.81230000 8.67610000
-2.64580000 5.44790000 8.83340000
-14.58080000 -22.72200000 -0.79270000
-14.36150000 -23.07030000 -0.90750000
12.90540000 -26.98480000 -1.64510000
11.33640000 15.82850000 1.81070000
-16.10910000 -49.11310000 -3.95090000
9.26480000 41.60120000 -18.09070000
9.16880000 40.71780000 -18.04820000
9.08460000 41.73150000 -18.37220000
13.58350000 -22.73550000 -3.92180000
13.52370000 -22.37120000 -4.18420000
2.74280000 -47.36870000 -17.22000000
7.90970000 65.47860000 -28.06180000
-4.77570000 -7.08310000 11.65560000
-6.44750000 44.72840000 -16.82880000
-6.94580000 45.09850000 -17.39980000
-10.64720000 -45.87410000 8.36130000
-1.17950000 62.11290000 -24.87330000
-0.35620000 61.68560000 -24.58700000
-0.35600000 60.96300000 -24.71600000
1.55910000 -31.41520000 -0.75100000
-1.60580000 30.37460000 -1.51280000
-2.52830000 29.97800000 -1.38000000
-2.25360000 57.89020000 -18.74780000
2.11120000 8.85850000 -10.47060000
-10.36210000 -50.20540000 -7.36750000
-9.85970000 -50.15860000 -7.38880000
12.86840000 -24.50540000 5.77840000
-1.20160000 39.29500000 -8.83270000
7.02580000 -25.90030000 -6.34260000
11.79400000 -40.88130000 3.69410000
11.52080000 -41.23040000 3.92190000
1.98250000 -3.70050000 -8.26760000
-12.69040000 -44.33390000 -0.46730000
-13.04950000 -46.37230000 -0.73730000
-12.89430000 -45.54410000 -0.81510000
13.28620000 41.25320000 -16.31090000
12.80680000 41.50400000 -16.23080000
12.64790000 41.95420000 -16.43510000
13.24180000 41.53110000 -16.45750000
-3.00070000 -15.46270000 -2.86680000
-3.47160000 -15.46720000 -2.97560000
-4.02940000 -15.06720000 -3.23670000
-3.51620000 -14.30270000 -3.00200000
10.69590000 41.99910000 -15.72710000
13.23730000 -40.01810000 1.57650000
13.13500000 -37.75720000 1.04050000
-5.82900000 36.47670000 -16.54620000
-6.83980000 36.64860000 -16.35580000
-10.35240000 -40.55640000 -1.83040000
12.67330000 -45.27960000 3.22150000
12.18730000 -45.13860000 3.56330000
12.19440000 -45.43720000 3.67950000
12.19730000 -33.48410000 -7.58860000
-9.91550000 -32.65130000 1.54420000
-0.64990000 40.37670000 -19.01760000
-0.52730000 40.62940000 -17.83730000
12.39760000 38.90020000 -16.26740000
-11.48280000 19.85760000 -6.62270000
1.79680000 8.74080000 -9.30380000
1.79640000 9.02340000 -9.08360000
1.63110000 8.80860000 -8.62490000
14.60300000 -25.68500000 0.31450000
14.72750000 -25.38100000 0.37150000
9.99040000 1.24940000 7.55400000
10.57830000 1.27280000 7.19040000
10.68910000 1.84460000 7.21120000
-6.97190000 -4.78610000 10.25860000
-7.12220000 -4.94100000 10.16150000
4.90180000 46.19390000 -23.03140000
5.02700000 46.08200000 -23.15700000
4.93680000 45.67690000 -22.59290000
2.20730000 21.58150000 -11.26380000
2.32020000 23.09890000 -11.78300000
2.59080000 22.40040000 -12.37640000
2.21990000 22.80380000 -11.47210000
2.05640000 21.35760000 -10.76530000
-6.43120000 -43.28620000 10.10850000
-6.07100000 -44.71320000 10.08070000
-5.25450000 -44.35460000 9.75810000
12.32580000 -49.43850000 -4.06210000
-7.46070000 14.17620000 5.02450000
-7.76030000 14.96450000 4.50160000
-8.26760000 14.45650000 4.15100000
-0.68840000 -18.50770000 -2.55070000
11.72260000 55.12850000 -17.59080000
10.95410000 54.45770000 -16.27000000
12.39280000 41.99590000 -14.40150000
9.96530000 26.97850000 -2.04470000
9.72720000 27.13100000 -2.46630000
-2.63900000 40.96530000 -20.31480000
-12.15860000 -48.91380000 -8.38490000
-12.63520000 -48.97320000 -8.17140000
-12.11480000 -48.76490000 -8.41100000
0.70280000 -28.27170000 -9.45320000
0.30640000 -12.11880000 10.13590000
0.22330000 -9.93580000 9.95680000
-0.27210000 -9.41800000 9.95770000
-9.23170000 -35.73720000 4.29950000
-8.63010000 -35.00800000 4.68910000
-8.73800000 -35.83220000 4.62770000
-12.81910000 -10.59930000 4.74630000
-5.32430000 48.23340000 -12.45820000
-4.99720000 48.25890000 -12.01600000
13.31630000 -13.93120000 -3.67430000
8.62940000 -45.90840000 6.07370000
8.35380000 -45.57250000 6.22130000
-6.56300000 -12.11870000 -3.34700000
-5.77170000 -11.47190000 -3.22170000
-3.28770000 60.93380000 -28.92190000
-2.80030000 60.87300000 -28.94640000
3.11310000 -1.99160000 10.23420000
3.32530000 -2.09060000 10.47740000
9.61470000 -13.41190000 9.04600000
9.96490000 -14.93800000 9.30510000
6.01180000 -21.79010000 9.10130000
5.91900000 -20.85270000 9.12060000
8.85410000 -11.36220000 9.51100000
9.29260000 -11.93860000 9.18260000
8.94080000 -11.29670000 9.38510000
0.15710000 -30.41220000 -8.31730000
6.69000000 28.46420000 -1.61130000
8.14660000 -34.42240000 -7.77040000
8.00450000 -33.02880000 -7.27490000
6.54400000 42.17290000 -21.87810000
6.60760000 42.09790000 -22.43780000
6.60400000 42.76220000 -22.68610000
12.03540000 29.70000000 -8.24240000
-6.88320000 -29.38670000 5.20530000
-6.95260000 -30.21770000 5.19970000
-0.88380000 43.76070000 -7.86680000
-12.60150000 -30.37170000 -1.53930000
-12.55380000 -30.54740000 -1.32200000
-12.60510000 -30.79210000 -0.82640000
-13.40870000 11.53850000 1.52310000
13.35620000 -24.90570000 5.41350000
13.03930000 -24.51000000 5.64720000
13.13420000 -24.89280000 5.52000000
-12.49740000 1.09090000 -1.88360000
-1.03300000 -43.10360000 -6.52030000
13.19250000 47.63940000 -18.06140000
11.37710000 -17.58370000 7.64290000
-8.87960000 -4.27110000 1.94580000
-8.72770000 -0.58100000 1.82060000
-8.92390000 -6.08770000 1.99260000
9.15130000 -35.37860000 1.14510000
-4.05330000 51.87820000 -14.99990000
-4.63320000 51.42710000 -15.14160000
-13.64890000 -16.02360000 4.81080000
-13.69520000 -15.62170000 4.70980000
-13.83550000 -16.80640000 4.80690000
-13.60090000 -16.02230000 4.91750000
-2.87810000 30.27080000 -1.68140000
12.76480000 -49.08740000 -14.54590000
-5.50930000 42.67580000 -15.38260000
3.84420000 45.76250000 -8.87960000
3.40760000 45.46760000 -8.54770000
3.49110000 45.19580000 -8.31530000
-6.86760000 3.30420000 3.22860000
5.47890000 -35.47600000 5.83940000
5.81580000 -34.62000000 5.65220000
0.29920000 0.26750000 -4.72010000
0.21220000 -1.58740000 -4.57960000
4.93790000 -45.81620000 8.65220000
6.22140000 -46.03400000 8.54920000
11.84610000 -49.79490000 -15.14100000
-7.19070000 -8.36950000 -4.25550000
11.68280000 -6.25300000 -9.07220000
13.26000000 -14.85270000 -2.62650000
-3.44550000 -47.87560000 6.12560000
7.95450000 -5.32400000 -5.07350000
11.77170000 -17.24020000 -7.21510000
11.98830000 -15.74640000 -7.67080000
11.76140000 -17.61670000 -7.10530000
11.83290000 -12.83430000 -8.81330000
11.75870000 -13.24120000 -8.72050000
11.96980000 -13.93210000 -8.35610000
14.14130000 -49.47950000 -4.08930000
14.30470000 -49.44070000 -3.91570000
-6.18410000 -49.88100000 6.96830000
-6.97240000 -50.16530000 7.07920000
-13.57740000 -25.11050000 -1.61690000
0.56180000 15.05960000 -6.93520000
0.63400000 13.36650000 -6.50060000
-3.71150000 -47.31420000 -8.42490000
10.37590000 54.56510000 -30.11200000
10.58350000 54.61020000 -30.49460000
3.51880000 1.32010000 6.16900000
-1.52820000 58.76600000 -26.59640000
13.94760000 -46.42820000 -9.24170000
13.96180000 -45.85210000 -9.58760000
-3.57780000 59.67990000 -28.66000000
-9.52850000 19.63390000 0.67440000
-9.48320000 19.03830000 1.17010000
-12.77730000 -26.84560000 5.96150000
-13.00170000 -26.81270000 6.04080000
-12.97140000 -27.63940000 6.10440000
-8.81940000 40.65490000 -13.22740000
-13.37500000 6.51600000 -0.07630000
-13.31220000 6.53180000 -0.32920000
-13.22780000 6.21740000 -0.68810000
13.08100000 -17.79940000 -5.08940000
11.35970000 35.14110000 -18.78740000
11.12660000 33.95120000 -18.95140000
-12.28950000 -43.74010000 -1.41380000
-12.27210000 -44.34460000 -1.87490000
-10.91680000 -49.12270000 2.97820000
-10.80810000 -48.23450000 3.09910000
12.95530000 -44.45900000 2.17590000
13.21860000 -44.95820000 2.13200000
-6.31060000 -50.23310000 6.05610000
-5.72340000 -50.19230000 6.15010000
6.65000000 8.74730000 -12.90540000
6.61830000 8.58220000 -12.97990000
3.05040000 -6.48790000 -9.34600000
11.87330000 -22.62660000 -7.10530000
4.52840000 12.00920000 -11.85250000
11.64190000 55.71120000 -31.04820000
11.67780000 56.19050000 -30.89640000
-11.98770000 19.34370000 -1.75930000
-13.48030000 -31.66860000 5.61550000
-13.75730000 -31.91460000 5.37240000
10.95930000 -25.78510000 3.85190000
10.79990000 -25.71500000 4.01470000
4.57880000 2.17210000 -9.38480000
-5.81200000 1.23940000 -3.60130000
-5.69260000 1.83420000 -3.60330000
-5.58280000 1.84310000 -3.45580000
-5.80440000 1.81060000 -3.84730000
11.62990000 59.74820000 -28.81920000
12.34340000 -37.23770000 -8.48870000
12.21080000 -35.72220000 -8.15460000
-4.38390000 -31.25730000 10.53650000
-4.91080000 -30.96020000 10.36130000
2.97980000 -2.41320000 9.76620000
2.65950000 -2.39140000 9.69330000
-10.38950000 -44.60350000 3.56770000
-9.41630000 -44.75780000 4.16270000
-9.08300000 -44.80870000 4.34420000
-8.01020000 -44.94120000 4.85090000
-0.29530000 59.69380000 -30.09450000
10.86240000 37.92510000 -13.04920000
11.04530000 37.71040000 -12.76990000
15.47210000 42.86830000 -16.89220000
15.63050000 43.53840000 -17.27450000
15.19840000 41.08740000 -15.37290000
4.81090000 16.48870000 -13.76620000
4.97730000 16.46020000 -13.94390000
14.31180000 -46.72120000 -4.87310000
14.16660000 -47.06110000 -4.81510000
-11.00720000 3.06290000 -3.59740000
-11.90090000 24.08810000 -3.04470000
14.51980000 -42.29060000 -1.86080000
14.27380000 -40.91810000 -2.18950000
6.31940000 32.25680000 -20.14040000
-10.95250000 -45.71300000 -4.09130000
-11.08630000 -46.59740000 -4.48970000
-11.28880000 -45.98590000 -4.01000000
10.06310000 62.12160000 -24.86200000
0.28770000 -14.11160000 -4.50740000
0.37090000 -12.99190000 -4.90590000
0.18360000 -14.10320000 -4.01360000
1.71120000 -22.22770000 -9.66730000
2.34590000 -21.43250000 -10.10010000
2.67790000 -21.39930000 -10.34870000
-5.84280000 4.31860000 -5.51820000
-6.16970000 4.20610000 -5.60670000
12.01010000 40.50650000 -15.85780000
12.16080000 39.35650000 -16.12860000
14.29800000 39.96550000 -12.52170000
14.38780000 39.34540000 -12.13020000
14.35370000 38.46380000 -11.54570000
-4.42330000 -43.11230000 6.21830000
-3.69150000 -44.64250000 6.31550000
6.09870000 -14.57970000 10.21690000
1.52050000 4.87080000 -8.23260000
1.53640000 4.11130000 -7.86180000
9.54450000 22.86900000 1.54920000
8.43200000 3.60300000 -12.73770000
-5.52420000 3.63680000 -3.69070000
13.70870000 15.51270000 -4.98260000
-11.64230000 4.99910000 -3.24300000
-11.59200000 4.22440000 -3.19750000
10.39450000 24.77170000 -16.99660000
10.64280000 23.73990000 -16.53370000
-11.85830000 3.05600000 -3.23020000
-11.67370000 3.84250000 -3.17890000
-10.65600000 24.73020000 -2.87150000
-10.08300000 25.69660000 -2.87670000
-10.74690000 25.42090000 -3.29100000
-4.50770000 48.73270000 -23.03850000
4.51850000 -7.86120000 10.63190000
4.31340000 -7.54290000 10.49650000
8.78160000 -2.38780000 -11.86150000
-9.12240000 27.03520000 -3.03760000
-1.77750000 -32.43060000 -0.31060000
-2.08960000 -31.63620000 -0.04190000
-1.98380000 58.48570000 -28.15730000
7.66920000 -26.88750000 3.02940000
12.72930000 27.30090000 -15.90580000
12.50890000 27.47010000 -16.45900000
-9.17370000 -26.75730000 -3.91610000
8.87670000 50.85900000 -12.67330000
-8.69940000 -35.31890000 -5.60390000
6.30030000 30.44570000 -19.00040000
-7.23510000 -49.79930000 -9.95350000
5.08160000 -26.19020000 5.49930000
13.10660000 47.92290000 -22.49950000
12.89340000 47.73080000 -22.85910000
13.53860000 49.20100000 -22.46240000
13.15470000 47.31640000 -21.55200000
-1.27270000 2.62050000 -3.85480000
-1.51230000 3.00650000 -3.77360000
-2.03600000 3.44960000 -3.63730000
0.06040000 60.91270000 -30.60710000
6.39230000 42.12650000 -23.56310000
-11.65300000 -4.10010000 4.91580000
-11.55270000 -4.18030000 5.19540000
-14.96720000 -30.96120000 6.40840000
-14.86260000 -31.43330000 6.07530000
-14.44040000 -31.68020000 5.79580000
-5.07550000 54.71170000 -20.79090000
-14.39260000 -4.07130000 5.02560000
-14.24500000 -4.09270000 5.22320000
-14.08240000 -2.37680000 5.31170000
-15.28610000 -29.64330000 -0.40830000
-5.97080000 -14.12820000 8.67010000
-5.81650000 -14.12300000 8.70760000
-1.38970000 -34.91310000 -4.68230000
-8.21050000 -36.07880000 -0.83520000
0.02180000 -22.83670000 -3.45350000
-0.01490000 -22.89560000 -3.08660000
0.02270000 -22.77730000 -3.83020000
4.10250000 63.50040000 -33.21440000
4.19750000 -41.70760000 -9.16330000
4.13950000 -42.61930000 -9.89680000
4.29810000 -42.71890000 -10.59270000
4.49760000 -41.94270000 -10.46840000
0.50630000 -50.19100000 -8.52650000
5.81470000 12.01050000 8.68900000
7.95860000 54.38650000 -29.83760000
1.62200000 11.61700000 -8.22530000
2.04730000 58.54890000 -17.05670000
-8.78650000 -39.05990000 9.61090000
9.33110000 -38.41630000 5.01910000
8.53590000 38.84520000 -19.85240000
-12.10330000 9.42650000 5.14130000
-16.54750000 -47.82260000 -1.97430000
-16.60230000 -47.68440000 -1.15020000
-16.56110000 -48.03180000 -0.03290000
6.00040000 60.74790000 -19.69740000
-9.23880000 -32.65790000 0.91320000
-10.03110000 -35.62930000 0.10980000
-10.29730000 -36.01740000 0.14540000
13.31580000 -10.76300000 4.40280000
14.22450000 -46.53430000 -4.68870000
7.66090000 8.12620000 8.83290000
7.20070000 8.64060000 8.95530000
7.63600000 8.23560000 8.76240000
-12.18900000 -43.69070000 1.42060000
6.30610000 2.23970000 -3.75600000
-5.85990000 -47.45610000 5.53130000
-5.48590000 -48.39540000 5.55350000
-0.40710000 -49.76620000 -8.80110000
6.73210000 -24.57370000 8.79520000
6.42450000 -25.99490000 9.06670000
5.94750000 -25.23350000 9.32930000
11.46360000 -3.33710000 6.84410000
10.29270000 -1.95810000 8.00400000
1.42110000 -27.03080000 6.66290000
12.95220000 17.50840000 -11.43130000
13.08970000 16.51260000 -10.79700000
12.88530000 15.69690000 -10.95420000
4.22230000 57.71560000 -33.34140000
-3.80010000 -2.92700000 9.73410000
-3.98590000 -2.63240000 9.73270000
-3.67040000 -2.68080000 9.71150000
6.91150000 -14.37440000 11.15480000
10.94400000 39.02530000 -17.08110000
10.58360000 39.56550000 -17.10020000
12.82870000 59.96030000 -23.83640000
-13.41830000 -15.63370000 -0.49560000
-13.13380000 -15.22550000 -0.96490000
-13.43420000 -16.39330000 -0.49080000
11.23790000 41.82600000 -12.64960000
-10.02800000 -44.31220000 8.92640000
8.93230000 -6.57950000 -10.16070000
8.96370000 -7.27570000 -9.93150000
8.82950000 -6.58180000 -10.04290000
-5.22950000 2.26820000 5.48980000
-4.06830000 2.34500000 5.81960000
-2.79240000 -23.51250000 10.65710000
9.95020000 44.47900000 -10.94150000
11.41460000 -49.85900000 -0.56490000
-4.96590000 -40.28130000 -6.40890000
1.08330000 40.63240000 -8.15070000
8.44030000 -42.73210000 6.09910000
-13.84150000 -36.82770000 3.73810000
-10.54140000 -14.57840000 -3.12190000
9.74500000 6.06540000 6.67110000
0.95670000 47.71280000 -9.39130000
12.46390000 52.38600000 -26.56150000
13.67850000 -45.25880000 1.06000000
14.06830000 -45.50090000 0.22970000
-11.90530000 -4.05030000 4.75700000
-12.09310000 -4.86980000 4.52760000
0.47480000 53.28750000 -28.11270000
1.30330000 53.28630000 -28.41950000
9.60830000 -11.90500000 -9.15130000
9.83340000 -12.57400000 -8.95230000
-2.47030000 26.70490000 -12.20560000
-1.77970000 28.44480000 -12.92860000
-3.41770000 29.34880000 -13.61250000
1.16320000 -50.20450000 -10.04290000
0.94910000 -50.04760000 -9.43890000
14.09670000 -24.98880000 2.03490000
-5.80920000 -6.76040000 8.47930000
-13.27510000 -16.38810000 5.91570000
-13.36600000 -16.38250000 5.85990000
6.97130000 -1.88360000 -10.29880000
11.73620000 46.70230000 -23.84350000
5.95670000 -4.79790000 -10.08580000
-9.03410000 1.79340000 9.58360000
-8.59020000 0.90950000 9.98380000
6.50210000 45.67860000 -25.63860000
7.14150000 46.54430000 -26.01000000
6.66510000 46.27130000 -25.98920000
-6.51910000 -5.69340000 10.13710000
-6.47360000 -5.62810000 10.21560000
-11.52090000 23.02680000 -2.35030000
14.41190000 -44.10210000 -4.45220000
14.32350000 -44.83010000 -5.05430000
10.86120000 14.28060000 -13.32130000
5.62140000 55.28960000 -13.53180000
5.29610000 55.66830000 -13.80900000
-11.51990000 30.33030000 -6.61560000
-2.72420000 61.94680000 -26.34390000
-3.33670000 61.67860000 -26.98730000
-3.31200000 61.51490000 -26.88610000
6.63360000 54.66340000 -29.92680000
6.71850000 54.54780000 -29.75700000
-14.74540000 -32.28760000 4.72010000
-14.20740000 -32.27720000 4.80380000
-15.00210000 -32.22620000 4.76230000
-0.15820000 -32.67430000 -4.35870000
8.84370000 58.99170000 -33.53670000
9.04460000 58.65290000 -33.29640000
0.38750000 17.24890000 6.96820000
7.49920000 -46.41580000 -17.61950000
-3.04650000 6.92380000 8.68620000
-5.57980000 19.78000000 3.97650000
-5.41610000 17.44630000 5.16630000
6.16640000 -45.76390000 -17.45390000
5.90400000 -46.40470000 -17.70220000
6.18210000 -44.71580000 -17.05880000
-12.68720000 -1.46680000 5.96990000
-12.68110000 -1.24360000 6.27400000
-12.75670000 -1.39860000 5.84430000
-15.12670000 -15.25400000 3.16430000
-15.15390000 -27.65730000 5.53610000
12.11120000 57.41480000 -24.00390000
12.09220000 57.36720000 -24.33210000
13.80840000 -23.83320000 5.19460000
13.85150000 -23.30030000 5.16650000
9.31990000 19.55110000 -15.63980000
-11.12040000 -9.55420000 5.20680000
-10.79600000 -8.87420000 5.10940000
-11.22660000 -8.79650000 5.43110000
-5.62060000 -32.49870000 5.85460000
4.86830000 -45.34330000 -16.98040000
4.39190000 -44.51690000 -16.61260000
5.15990000 -44.50110000 -16.71250000
5.11430000 -43.87020000 -16.46980000
-12.92440000 -0.30910000 6.00520000
-12.81360000 0.42060000 6.16310000
-5.33750000 14.32530000 6.25480000
4.07150000 -26.22080000 6.03620000
4.78460000 -19.23220000 5.66730000
4.43430000 -25.79410000 5.86030000
10.07620000 30.70120000 -19.20720000
-14.59520000 -4.74900000 4.68210000
10.94390000 21.26880000 0.26440000
10.51010000 19.92570000 1.72640000
10.61720000 -15.26140000 8.26030000
11.05310000 -15.83920000 7.99850000
2.03270000 3.51120000 11.06540000
12.91500000 -23.54150000 -3.87310000
12.91570000 -24.05740000 -3.53510000
1.78470000 18.72440000 -9.74550000
1.59420000 19.33660000 -9.31080000
1.69150000 -30.13840000 -11.24610000
-6.85330000 -8.72580000 -3.95560000
-7.05810000 -8.36600000 -4.18720000
-6.91180000 -7.98670000 -4.12330000
-6.70730000 -7.96720000 -3.90830000
12.27890000 -38.48900000 2.81290000
8.31320000 60.14690000 -34.04330000
-0.05540000 -34.83530000 -5.00350000
-0.06840000 -33.70360000 -4.96070000
-0.09290000 -34.37270000 -5.39480000
-13.20410000 -1.33890000 5.63510000
-13.57910000 -1.32260000 5.60180000
2.51080000 30.39880000 -1.36910000
2.69810000 31.23800000 -2.06170000
-1.22710000 59.00120000 -30.99260000
3.25570000 -39.28860000 6.75150000
3.67020000 -39.69820000 6.61910000
-14.43160000 -25.25990000 6.63190000
-5.83870000 42.72170000 -14.34870000
-5.79220000 42.75990000 -14.68340000
1.13250000 12.55760000 -6.89400000
1.41170000 12.66560000 -7.56440000
3.57840000 34.17150000 -17.44820000
3.17360000 33.65200000 -16.23510000
2.77560000 32.70980000 -14.95910000
12.83840000 -25.80980000 -4.13800000
12.16630000 -1.21100000 5.44420000
3.58730000 55.36550000 -30.17070000
-14.32080000 -14.84000000 -0.07090000
-14.38200000 -14.07660000 0.06000000
-14.16230000 -14.09220000 -0.04560000
-10.49910000 -35.31950000 2.92440000
-10.27860000 -34.97090000 3.14800000
8.21050000 -2.33810000 1.92820000
8.32950000 -2.33580000 1.56900000
8.28140000 -6.79120000 1.72600000
8.21900000 -9.13260000 1.90630000
-4.17240000 -32.17280000 10.56290000
-2.87870000 -34.92980000 10.57270000
9.86140000 -35.73230000 4.52240000
6.90440000 65.68010000 -26.43670000
-0.24790000 56.51800000 -30.79190000
11.75720000 61.01520000 -29.68840000
-2.94330000 -1.23790000 10.83950000
-3.56120000 -1.43120000 10.71930000
4.73770000 43.64260000 -7.57480000
3.29320000 2.56870000 -8.47580000
3.90420000 2.24700000 -8.97140000
3.18720000 -36.29520000 -13.67030000
-7.92470000 8.10230000 6.85210000
-8.00570000 6.91430000 7.40480000
-7.99550000 7.58330000 7.21500000
-13.92700000 -41.20330000 -2.22400000
-14.35450000 -43.29280000 -2.74830000
13.44970000 14.12550000 -1.12110000
3.97870000 9.34510000 -11.40590000
4.07350000 9.20130000 -11.67180000
3.21060000 21.02080000 4.93270000
3.29330000 17.79640000 6.48050000
8.51980000 22.72440000 1.26360000
9.88970000 -38.92210000 -6.42460000
-13.21450000 -42.65290000 -4.99320000
6.52350000 -49.33260000 -17.53120000
6.95460000 -49.29520000 -17.52420000
10.65660000 39.48420000 -13.84260000
-11.24780000 -36.97850000 1.23910000
-11.54850000 -38.88490000 0.39950000
4.88810000 10.25340000 9.46160000
3.85860000 -7.50750000 9.32780000
3.83830000 -7.89450000 9.17030000
4.35870000 16.09310000 6.97620000
-13.98400000 -24.91550000 6.60020000
13.25640000 0.89120000 -0.82570000
13.50110000 1.52160000 -1.00130000
-1.47450000 6.95640000 8.96240000
8.54640000 -7.52990000 -2.76860000
8.43870000 -8.69930000 -3.46700000
11.71810000 14.29320000 -11.86350000
-15.08850000 -43.21530000 -2.20850000
-15.38830000 -43.87780000 -2.20880000
9.45200000 21.86120000 2.14210000
5.85490000 13.19080000 8.18680000
3.10080000 62.10230000 -33.86180000
9.61080000 -33.66790000 -1.38290000
-3.10050000 47.83960000 -23.93920000
11.59960000 61.07900000 -28.21570000
13.08360000 36.34300000 -13.25760000
-14.53540000 -48.72140000 -6.83230000
8.47430000 54.58140000 -31.62810000
-1.36840000 8.52700000 8.91560000
-12.61190000 -3.05140000 -1.54390000
-12.31270000 -3.01530000 -1.66330000
-12.72300000 12.44360000 1.06870000
0.24810000 -10.65890000 -4.10080000
0.38510000 -10.35560000 -4.94470000
-6.50110000 50.40870000 -20.64720000
-6.42130000 50.49580000 -20.50580000
-6.10920000 50.73940000 -20.09570000
-1.96600000 21.86380000 -9.72830000
10.39710000 54.12450000 -28.55320000
-7.33650000 -13.16920000 -3.75200000
11.54900000 20.86750000 -2.00010000
10.20010000 -37.64850000 -1.72360000
9.86160000 17.04490000 3.29150000
10.12870000 17.39990000 2.62260000
4.17840000 -18.83000000 -10.72840000
4.96510000 -20.93970000 -11.10380000
2.17870000 26.13250000 -11.87150000
2.14350000 -50.00190000 -10.05680000
2.41930000 -49.63210000 -10.33140000
1.97050000 -50.16390000 -10.12980000
4.78200000 35.72220000 -20.58120000
10.89690000 17.54590000 -14.16150000
4.73130000 2.36960000 -1.87740000
4.81970000 2.54110000 -1.75960000
5.46900000 -12.01030000 10.97620000
4.91070000 -10.99410000 10.65540000
-12.92180000 -49.91270000 1.12080000
-12.45310000 -49.84170000 1.61820000
-11.44500000 -2.41720000 7.98510000
8.92610000 6.59300000 -12.28040000
8.87250000 -9.77500000 9.76400000
12.87610000 24.81400000 -14.27440000
12.74830000 23.39300000 -13.98560000
-2.70070000 46.71020000 -22.82950000
-6.50040000 0.30660000 10.17690000
-2.95000000 47.96020000 -10.62410000
-1.70240000 47.53750000 -10.37060000
-14.03180000 -44.29830000 -4.94530000
-13.76160000 -43.33890000 -4.76620000
-14.21390000 -45.16510000 -5.32030000
9.27990000 15.44380000 4.57830000
9.20070000 15.26110000 4.79830000
12.48000000 58.11420000 -30.12610000
7.39770000 36.82100000 -20.38520000
7.59610000 36.86630000 -20.29520000
7.63260000 36.14680000 -20.44360000
7.20550000 -1.65320000 11.19050000
0.09620000 -49.11890000 -10.39520000
12.72390000 19.83830000 -3.53250000
6.98520000 -45.67110000 -14.98190000
6.50490000 -45.67680000 -14.95140000
-11.61250000 7.26680000 6.07150000
-11.86670000 7.83870000 5.58730000
-9.08680000 36.23790000 -14.98780000
7.26270000 -1.44880000 -10.37690000
7.16620000 -1.83940000 -10.31220000
5.85280000 -50.00000000 -18.34000000
13.03040000 20.47020000 -4.69650000
13.19320000 21.02830000 -5.30320000
-3.86950000 15.71930000 6.44590000
-3.05970000 16.24550000 6.53030000
-3.54820000 21.28840000 -9.45930000
-4.18180000 21.73340000 -9.71900000
-4.62860000 21.41200000 -9.56260000
-5.18330000 22.18540000 -10.06800000
3.55530000 40.68540000 -8.05120000
4.97120000 39.90720000 -22.21090000
4.87290000 40.48340000 -22.22010000
9.68880000 -41.83250000 -9.90590000
9.91450000 -42.88480000 -10.38770000
2.49340000 -17.48890000 -9.67110000
2.87410000 -15.64210000 -9.82980000
7.20100000 32.93560000 -20.67320000
7.20540000 33.67620000 -20.89470000
-1.70560000 5.10840000 -4.51780000
-9.94880000 -43.56500000 3.87990000
6.40890000 -31.66360000 -6.77780000
-7.81400000 7.08300000 7.24010000
1.45970000 48.05510000 -9.20940000
7.05790000 45.63580000 -25.35970000
-14.62300000 -12.94440000 0.63850000
-13.47520000 -4.19890000 -0.88770000
-13.70670000 -3.80270000 -0.15160000
-9.78970000 -48.63690000 3.76120000
-9.85210000 -49.32870000 3.68940000
-9.43750000 -48.93280000 3.93380000
2.01270000 7.01140000 -10.83640000
5.32320000 29.94520000 -18.46810000
12.55990000 -22.89760000 6.55340000
14.31560000 -44.26310000 -2.51330000
-5.14550000 -48.92140000 9.80150000
-5.48910000 -48.78900000 9.60360000
-5.11980000 -49.17440000 9.64830000
13.27880000 -33.58870000 -6.60870000
13.24610000 -32.43270000 -6.45900000
13.24760000 -32.10530000 -6.02220000
-12.61880000 -19.28380000 -2.16100000
0.86980000 -2.63450000 -6.36140000
0.85210000 -3.75810000 -6.23230000
1.06970000 -16.58110000 -7.71640000
1.48600000 -16.51230000 -8.41640000
-11.57920000 -44.74690000 7.75490000
8.39440000 -13.80190000 -3.67650000
8.29950000 -18.55240000 -4.05560000
10.17630000 -28.39410000 -11.04410000
9.92050000 -29.81810000 -11.50490000
5.22120000 6.71710000 -13.41510000
4.60530000 6.69360000 -13.23300000
5.22850000 6.88590000 -13.31920000
6.52780000 18.63020000 -15.21290000
-1.82860000 50.75300000 -12.60610000
11.15160000 -40.29300000 3.97950000
10.24280000 -40.82580000 4.45170000
-0.44060000 -26.03180000 -3.27840000
-0.32100000 -26.02330000 -3.31100000
-13.95000000 -2.02700000 5.42850000
-10.45930000 -12.31740000 -3.23680000
8.85110000 56.72780000 -32.02680000
8.37440000 56.85100000 -32.26920000
-14.10330000 -31.64550000 1.54780000
-14.27110000 -31.36930000 0.91240000
12.34430000 34.23240000 -12.55210000
-7.55000000 35.10120000 -7.65000000
6.03520000 41.88080000 -23.54390000
6.59890000 -37.85310000 -14.60500000
6.18220000 -38.91130000 -14.94890000
4.54730000 -3.51640000 11.84990000
8.30990000 26.83600000 -1.84990000
7.73360000 27.48350000 -1.79170000
-13.70180000 -32.37150000 0.23840000
-13.85540000 -32.75810000 0.52650000
9.26750000 37.73510000 -11.19420000
-7.63390000 -0.13930000 10.49180000
6.99390000 21.16750000 3.00600000
7.32520000 21.28660000 2.68800000
-13.68030000 -9.62330000 0.03070000
14.08580000 -12.79010000 0.68010000
-9.97600000 -37.90890000 -4.96040000
12.73760000 29.20830000 -9.20010000
12.88190000 28.29620000 -8.84040000
-10.40640000 -49.44820000 7.22130000
-9.95830000 -49.03850000 7.75430000
10.16860000 64.17000000 -28.52600000
-0.76290000 -49.47780000 9.02670000
3.16910000 -47.99480000 9.21900000
10.59790000 -13.78660000 8.64970000
14.43140000 36.36060000 -15.46870000
12.97480000 -32.27470000 -4.77460000
12.93420000 -30.41020000 -4.18680000
-5.17090000 46.44740000 -11.41040000
6.89770000 39.32640000 -10.53830000
-4.47100000 38.25420000 -17.76910000
-4.24070000 38.78440000 -18.04080000
-4.14100000 38.96440000 -17.75620000
-3.09390000 -7.24240000 -3.05630000
-2.24900000 -7.18710000 -3.07450000
-0.95400000 11.06540000 -5.70260000
1.02960000 53.75970000 -13.27620000
12.16770000 -25.59930000 -6.20920000
4.70160000 -4.74820000 11.57310000
12.04180000 -33.35040000 -8.35330000
12.09770000 -31.05150000 -8.40390000
13.64570000 18.63960000 -9.54320000
13.82840000 -12.94300000 -0.72740000
11.02010000 -33.56350000 -11.51180000
13.40240000 47.85430000 -21.33810000
13.51140000 48.08200000 -21.08180000
7.30620000 2.59270000 -13.16330000
7.53030000 2.66400000 -13.09830000
12.93300000 53.24750000 -18.86210000
12.12130000 53.08140000 -16.87590000
12.38370000 53.41570000 -17.58050000
3.92520000 19.35980000 -13.68230000
3.04610000 20.87230000 -12.95530000
12.56300000 51.54150000 -17.43820000
12.12760000 51.30660000 -16.37060000
-0.44170000 60.47820000 -24.70030000
-0.02620000 60.69780000 -24.36150000
11.39240000 -1.44840000 6.12700000
-6.13770000 0.02450000 -4.08590000
-6.28090000 -0.05290000 -4.51110000
-6.25520000 0.66270000 -4.63150000
-6.23040000 -1.15180000 -4.24290000
-5.34240000 2.07900000 -3.33960000
-5.33110000 2.35330000 -3.37980000
4.54230000 51.54580000 -12.02220000
4.68580000 51.32040000 -11.92890000
-10.00600000 31.85260000 -12.48430000
-6.26130000 -48.70700000 -9.43470000
-6.54790000 -48.83180000 -9.54260000
-9.24710000 -25.40650000 8.51190000
-8.72950000 -25.43990000 8.75450000
12.26760000 29.75520000 -4.18950000
12.11070000 28.79570000 -3.49350000
3.72950000 45.79460000 -21.95930000
3.03640000 45.96300000 -21.85080000
-0.82200000 37.54640000 -17.01010000
-2.52230000 58.33880000 -25.66900000
-3.26000000 57.55660000 -25.28370000
-3.57760000 57.22640000 -24.97720000
-4.24670000 56.38130000 -24.24450000
14.05320000 -18.73780000 -4.21300000
3.38880000 -49.09400000 -14.81050000
3.56330000 -49.10500000 -15.13530000
12.59250000 16.94530000 -11.94910000
0.33470000 13.88190000 8.24150000
-15.32090000 -29.86590000 5.74570000
-15.71160000 -29.56890000 5.41390000
-15.32700000 -30.25670000 5.81030000
12.04380000 -14.62030000 7.14570000
12.45540000 9.89240000 -0.32030000
-6.06040000 -8.44230000 7.92200000
-6.93100000 -12.82830000 -3.42980000
-6.95820000 -13.20970000 -3.47450000
-12.04120000 13.61060000 2.43100000
-12.43460000 14.24260000 1.94110000
-5.83540000 -26.15720000 9.87750000
-6.27150000 -24.95030000 9.65820000
-6.53830000 -27.16600000 9.54140000
8.39710000 -7.56290000 1.31930000
8.36230000 -4.13610000 1.45190000
12.07490000 1.89800000 -9.19940000
7.44360000 61.88520000 -33.88250000
-5.93250000 41.41520000 -11.78680000
9.93990000 32.08350000 -7.04650000
-11.56480000 -8.02870000 5.75270000
-15.95950000 -30.14720000 3.86120000
-15.98810000 -29.95360000 4.20790000
10.32020000 -36.38280000 -12.81610000
-11.21040000 -13.39300000 5.20140000
-1.52530000 -21.31960000 -3.01340000
-0.21810000 -21.71080000 -2.73680000
-0.34350000 -22.12820000 -2.74540000
-0.35770000 -20.89480000 -2.64560000
4.58820000 -1.24770000 -9.51410000
3.72090000 -1.71200000 -9.27240000
6.66810000 37.20800000 -21.97290000
6.46370000 36.79400000 -21.99740000
6.29000000 38.12080000 -22.24210000
6.70340000 37.56070000 -21.95490000
12.53390000 56.06130000 -20.40480000
12.71480000 55.28490000 -20.13910000
13.78290000 -9.57530000 -0.65890000
11.18440000 3.95580000 4.51810000
-5.25210000 49.38290000 -21.74580000
-5.55570000 50.37080000 -22.05320000
11.36020000 -49.11020000 -12.91610000
11.20440000 -48.98370000 -13.24320000
14.26020000 -25.30900000 -1.28960000
14.32390000 -24.77230000 -1.13900000
14.20570000 -25.02020000 -1.52360000
13.59880000 32.09020000 -7.62870000
-0.06060000 -18.47630000 -2.58610000
-0.10890000 -19.67770000 -2.57430000
-0.17060000 -18.48450000 -2.51680000
-0.01170000 -18.86220000 -2.74720000
-0.02290000 -19.66710000 -2.67710000
-4.15470000 -22.15450000 10.25270000
14.18240000 -24.38410000 -1.73770000
14.18710000 -23.14370000 -2.20990000
-5.43630000 5.55600000 -6.40970000
5.91670000 52.55820000 -29.02660000
-13.38500000 11.13780000 2.40140000
10.45690000 5.12850000 5.77340000
10.61710000 4.85380000 5.57400000
-12.04000000 -48.81310000 1.94980000
11.41490000 38.67430000 -13.16670000
11.28750000 38.81130000 -13.46710000
3.83040000 -6.27000000 9.90140000
12.04330000 34.77120000 -12.21400000
11.65250000 54.72760000 -27.28190000
7.41660000 -6.11050000 -6.04780000
12.72910000 -50.39360000 -9.65830000
12.59670000 -50.26270000 -9.11250000
13.26820000 -33.24260000 -6.29920000
13.32340000 -34.38530000 -6.58980000
13.25040000 -34.45890000 -6.19760000
3.89490000 2.80960000 -10.59000000
14.81710000 42.21150000 -14.55620000
14.41550000 42.37930000 -14.39350000
-3.54900000 2.30510000 10.71920000
-5.25010000 2.35620000 10.34590000
-3.94510000 2.22180000 10.69720000
9.23050000 12.04270000 -13.62490000
5.74220000 -9.51730000 10.83800000
5.64240000 -9.16960000 10.75000000
5.47500000 -9.57140000 10.98050000
13.86990000 -38.26070000 -1.55750000
3.46950000 60.25520000 -34.05160000
-13.88150000 -15.20800000 4.67160000
8.82780000 39.74860000 -19.11060000
7.26910000 -9.47860000 11.48640000
-7.96760000 8.79430000 -6.22220000
-4.95260000 -50.02210000 7.98220000
13.92060000 33.79690000 -14.17770000
-3.55000000 11.01210000 -6.30070000
-8.12730000 2.75520000 -5.57810000
9.24550000 -34.21420000 -4.70270000
9.29830000 -33.31910000 -3.39620000
12.19930000 -5.64010000 -8.50350000
13.68160000 49.88490000 -18.56380000
13.39770000 50.04250000 -18.00680000
5.34100000 38.21040000 -19.54530000
0.13140000 -47.55420000 6.61460000
14.63100000 -48.04800000 -2.42890000
10.37750000 60.41340000 -32.81250000
7.70840000 -38.45020000 7.50320000
6.93260000 -38.34730000 7.77720000
-7.05810000 -13.03620000 8.24080000
-0.42030000 40.91510000 -18.46370000
1.02310000 3.51730000 9.17090000
13.40120000 -19.60540000 -5.69280000
-9.77110000 -18.47090000 -3.81350000
-9.49270000 -18.89310000 -3.96280000
7.75560000 63.37380000 -22.60730000
9.14540000 -43.58710000 2.35270000
8.87460000 -43.62690000 2.72360000
9.08050000 -45.53860000 2.59340000
8.11880000 -45.64650000 3.65520000
5.55850000 3.03370000 -0.99450000
-2.03820000 12.70370000 -6.21140000
13.35160000 35.07420000 -13.58900000
-8.17780000 -49.93930000 -10.08310000
-5.75610000 -43.20640000 -7.32670000
-13.30410000 -40.94070000 -4.11360000
6.57070000 9.70780000 8.57410000
5.95890000 9.97790000 9.15530000
13.01850000 -49.56060000 0.39090000
12.72040000 -49.36930000 1.66610000
13.47390000 -49.57780000 -0.99660000
-1.77570000 -10.55530000 10.25400000
-10.12690000 17.54110000 0.92390000
-14.01210000 -17.99380000 4.83070000
-14.24630000 -18.38880000 4.77720000
12.45350000 -50.12130000 -9.05470000
-13.19150000 -31.15020000 -0.31630000
-4.48860000 43.94750000 -18.24710000
-4.23820000 44.45190000 -19.11470000
-13.28150000 -48.08460000 -0.45960000
-13.20180000 -48.13230000 -0.12640000
-13.38270000 -20.86290000 6.12170000
5.71700000 -49.95940000 7.45820000
-9.85510000 -44.71760000 8.72490000
-11.14630000 -44.78310000 8.04980000
-6.20480000 21.35790000 2.82730000
13.35720000 34.71820000 -8.28450000
-6.60290000 -37.95620000 -6.23970000
-6.57600000 -37.58870000 -6.17940000
5.45560000 -23.88950000 9.50310000
8.54930000 11.58690000 7.64840000
-9.46840000 -34.81760000 4.05540000
12.21350000 -47.79330000 -5.56410000
-14.54130000 -7.68550000 1.95310000
-14.58180000 -9.54070000 1.83470000
11.77210000 -26.31820000 2.23370000
9.15560000 21.00820000 2.90090000
-0.00070000 62.03800000 -26.86180000
