0.72540000 -6.87680000 -2.25450000
0.67730000 -6.84830000 -2.19910000
0.81480000 -6.71740000 -2.34110000
0.47590000 -1.89460000 2.90980000
0.48580000 -2.08860000 2.90720000
0.43140000 -1.78770000 2.91780000
0.39040000 -1.73470000 2.89590000
0.03060000 -10.54530000 -0.98080000
0.80610000 -6.66050000 -2.33290000
0.89920000 -6.67310000 -2.41300000
1.06380000 -6.81400000 -2.56120000
1.05880000 -6.78390000 -2.59690000
1.03630000 -6.79180000 -2.52570000
1.06460000 -6.73210000 -2.56130000
1.04000000 -6.67970000 -2.52740000
1.06060000 -6.62940000 -2.59630000
1.06920000 -6.60700000 -2.55400000
1.03840000 -6.51700000 -2.62720000
1.01710000 -6.59800000 -2.51090000
0.64480000 -4.98900000 2.77550000
0.01340000 -1.59870000 2.46380000
0.80160000 -6.58380000 -2.32360000
0.92810000 -6.48090000 -2.44120000
0.57800000 -5.10860000 2.80590000
0.77970000 -6.46180000 -2.30320000
0.52660000 -5.07840000 2.86830000
0.84340000 -6.41650000 -2.36750000
1.06640000 -6.54880000 -2.58120000
1.06340000 -6.51760000 -2.54750000
0.54400000 -4.97990000 2.83470000
1.02440000 -6.43120000 -2.51550000
1.06800000 -6.46440000 -2.58330000
1.06660000 -6.40120000 -2.55270000
1.00830000 -5.91310000 -2.67690000
1.04330000 -6.34950000 -2.62230000
0.91870000 -5.79940000 -2.73860000
1.06850000 -6.34060000 -2.57990000
0.88930000 -6.36200000 -2.41130000
1.06120000 -6.31120000 -2.54650000
-0.41190000 -11.20430000 -1.65230000
1.00780000 -6.23520000 -2.50470000
0.94970000 -6.31060000 -2.47260000
0.56900000 -4.55630000 2.82110000
0.37360000 -4.95730000 2.88040000
0.41020000 -4.97470000 2.90730000
0.51520000 -6.46520000 -2.96510000
0.46130000 -6.40360000 -2.97630000
0.40700000 -4.85170000 2.89620000
0.33730000 -4.74460000 2.84370000
0.42570000 -6.16780000 -2.96340000
0.52630000 -4.83270000 2.85340000
0.40720000 -4.71180000 2.90390000
0.68800000 -5.08650000 -2.89260000
0.49970000 -6.14440000 -2.97660000
0.36500000 -4.24810000 2.86550000
0.30410000 -1.37980000 2.81370000
-0.52880000 -11.08310000 -1.37490000
0.41590000 -4.45740000 2.90370000
-0.07010000 -6.64900000 -2.34000000
0.27870000 -4.30480000 2.77990000
1.06480000 -2.27050000 2.49950000
1.04780000 -2.28920000 2.55960000
1.03980000 -2.18920000 2.43780000
1.06050000 -2.13920000 2.53690000
1.06510000 -2.08090000 2.49730000
1.05170000 -2.01990000 2.45790000
1.05760000 -2.00980000 2.54820000
0.81050000 -4.68150000 2.67750000
0.75030000 -4.71440000 2.71470000
0.80900000 -4.69730000 2.67800000
0.81860000 -4.66800000 2.67260000
0.83250000 -4.64970000 2.66430000
1.02810000 -4.65780000 2.53860000
1.01780000 -1.89360000 2.41960000
1.06700000 -1.91490000 2.49600000
1.05380000 -1.82730000 2.46580000
0.83530000 -4.64390000 2.66270000
1.04210000 -1.88360000 2.56250000
1.06320000 -1.80500000 2.53070000
0.82040000 -4.43430000 2.67550000
0.81980000 -4.44030000 2.67590000
0.82070000 -4.43680000 2.67540000
0.27410000 -10.87430000 -1.55600000
1.06060000 -1.68410000 2.48810000
1.06900000 -1.59230000 2.51290000
1.06530000 -1.64970000 2.53640000
0.81780000 -4.41950000 2.67750000
0.81870000 -4.43680000 2.67670000
0.92080000 -1.20800000 2.35380000
-0.35600000 -6.83800000 -1.86290000
-0.31730000 -6.33690000 -1.93870000
0.77980000 0.88920000 2.26000000
0.50950000 -7.07260000 -1.98480000
-0.68940000 -10.91340000 -0.83530000
0.44870000 -7.03940000 -1.90480000
0.45320000 -6.89470000 -1.91520000
0.00520000 -6.40110000 -2.45080000
1.01070000 -1.57630000 2.41800000
0.42160000 -6.84140000 -1.85150000
-0.04330000 -6.40100000 -2.38390000
-0.06060000 -6.10920000 -2.36640000
1.04890000 -1.58960000 2.45720000
-0.21470000 -6.17980000 -2.13600000
1.06970000 -1.50440000 2.50740000
1.03800000 -1.54910000 2.55630000
1.05670000 -1.41590000 2.47440000
1.07030000 -1.44180000 2.54100000
1.00540000 -1.06680000 2.42370000
1.06880000 -1.38580000 2.51570000
1.06530000 -1.29560000 2.50960000
1.06460000 -1.33850000 2.54070000
1.05050000 -1.21240000 2.46930000
0.50710000 -1.70750000 2.90060000
0.55570000 -1.55350000 2.86700000
0.41700000 -1.46300000 2.91560000
-0.56620000 -6.39990000 -1.37040000
-0.49830000 -6.67210000 -1.53260000
-0.60770000 -4.33580000 1.27300000
-0.48250000 -5.97760000 -1.59730000
0.38210000 -1.14490000 2.89080000
0.45300000 -1.24800000 2.92100000
-0.73020000 -4.19490000 0.85930000
-0.63330000 -9.79190000 -1.09120000
0.65770000 2.21900000 2.15690000
0.41970000 -1.03310000 2.91870000
0.63450000 -0.68070000 2.83290000
0.47290000 -0.85610000 2.92580000
0.52100000 -1.04750000 2.89720000
1.06860000 -1.24020000 2.54280000
1.06940000 -1.18070000 2.51650000
1.06840000 -1.09380000 2.51240000
1.05550000 -1.11530000 2.55210000
1.05600000 -0.93330000 2.48160000
1.07150000 -1.03520000 2.54600000
1.07050000 -0.97310000 2.51380000
1.04860000 -0.92390000 2.57310000
1.07180000 -0.86640000 2.54280000
0.61200000 -6.91560000 -2.11360000
0.53850000 -6.83210000 -2.02000000
0.44510000 -6.65760000 -1.89540000
0.59440000 -6.82350000 -2.09050000
0.59070000 -6.77910000 -2.08480000
0.64810000 -6.77540000 -2.15550000
0.72380000 -6.67500000 -2.24590000
0.65990000 -6.68840000 -2.16710000
0.59440000 -6.69560000 -2.08600000
0.68270000 -6.61460000 -2.19050000
0.61210000 -6.53310000 -2.10450000
0.71100000 -6.51550000 -2.22220000
0.68480000 -6.38450000 -2.19410000
0.56160000 -6.33290000 -2.04530000
0.41400000 -6.34790000 -1.85370000
0.26660000 -6.11690000 -1.57440000
0.78400000 -6.35480000 -2.30910000
0.64370000 -6.27210000 -2.14890000
0.72210000 -6.21370000 -2.24090000
0.88850000 -6.28230000 -2.41310000
0.82490000 -6.26070000 -2.35000000
0.89480000 -6.19690000 -2.41550000
0.79530000 -6.15680000 -2.31930000
0.85140000 -6.04380000 -2.37490000
0.75220000 -6.14990000 -2.27510000
0.74870000 -6.07860000 -2.27240000
0.62450000 -6.15040000 -2.13000000
0.51940000 -5.98260000 -2.00090000
0.40670000 -5.89590000 -1.81980000
0.66130000 -5.97560000 -2.18120000
0.68360000 -6.10620000 -2.20120000
1.06920000 -0.72560000 2.51930000
0.06530000 -6.06720000 -2.53800000
0.36600000 -5.96390000 -2.90570000
0.22180000 -5.72970000 -2.74080000
0.00330000 -5.32090000 -2.48070000
0.46490000 -5.93970000 -2.98580000
1.02860000 -0.72680000 2.45000000
1.00360000 -0.37560000 2.43360000
1.05260000 -0.52090000 2.48640000
1.06790000 -0.59220000 2.53650000
1.06260000 -0.42770000 2.54080000
0.43630000 -10.78710000 -1.84110000
0.53080000 -5.87130000 -2.97120000
0.44220000 -5.81880000 -2.98130000
0.40390000 -5.74650000 -2.95060000
0.48890000 -5.75690000 -2.99370000
0.97780000 -0.09840000 2.41790000
1.04100000 -0.35260000 2.46980000
1.06200000 -0.22240000 2.52200000
1.04540000 -0.18170000 2.47880000
0.39600000 -0.86700000 2.90370000
0.40950000 -0.70820000 2.91720000
0.44800000 -5.64250000 -2.98170000
0.15690000 -4.55220000 -2.68050000
0.14030000 0.90580000 2.63510000
0.36110000 -10.50020000 -1.72190000
0.44510000 -10.64890000 -1.85990000
0.32410000 -0.58720000 2.83750000
0.48030000 -0.71650000 2.92000000
0.45170000 -0.62800000 2.93340000
0.41960000 -0.53540000 2.92320000
0.57720000 -0.48460000 2.86940000
0.49730000 -0.56740000 2.91600000
0.47260000 -0.44370000 2.92560000
0.39360000 -0.38460000 2.90280000
0.42590000 -0.34380000 2.92630000
0.51890000 -0.31350000 2.89960000
0.47050000 -0.23730000 2.92640000
0.53840000 -0.18230000 2.89010000
0.39880000 -0.22610000 2.90920000
0.16290000 -10.46730000 -1.33370000
0.50040000 -10.71720000 -1.94170000
0.40690000 -10.53330000 -1.79220000
0.32030000 -10.30730000 -1.66250000
0.42700000 -0.13480000 2.92720000
0.46520000 -0.09360000 2.92940000
0.50180000 0.04320000 2.91220000
0.57670000 0.18570000 2.87260000
0.44770000 -10.37850000 -1.87090000
0.23310000 -9.90320000 -1.49080000
0.41070000 -9.90720000 -1.81430000
0.38400000 -0.06320000 2.89860000
0.41950000 0.00890000 2.92240000
0.48130000 0.15120000 2.92440000
-0.58730000 -2.97600000 1.30820000
-0.56000000 -2.63680000 1.41040000
-0.63340000 -2.84280000 1.18790000
-0.52330000 -2.69320000 1.49690000
-0.73350000 -2.89330000 0.82650000
-0.65600000 -2.69680000 1.11670000
-0.71160000 -2.57950000 0.95540000
-0.68320000 -2.94050000 1.04130000
-0.60080000 -2.35100000 1.27370000
-0.71310000 -2.22020000 0.94670000
-0.61430000 -2.17160000 1.23980000
0.34760000 -5.29060000 -1.72470000
-0.14270000 -5.29670000 -2.26960000
0.11630000 -9.78370000 -1.23750000
-0.50370000 -4.46910000 1.51520000
-0.54970000 -2.30900000 1.44430000
-0.32550000 -5.47910000 -1.95340000
-0.39300000 -5.18310000 -1.80190000
-0.46960000 -1.99940000 1.61840000
1.07130000 -6.25970000 -2.57820000
1.06560000 -6.19500000 -2.55040000
1.04870000 -6.18720000 -2.61810000
1.07290000 -6.13410000 -2.58110000
1.05010000 -6.11080000 -2.61900000
1.04570000 -6.08210000 -2.53120000
0.95560000 -6.09390000 -2.46900000
1.07070000 -6.05310000 -2.57670000
1.06110000 -5.95100000 -2.54190000
1.04820000 -6.01640000 -2.62300000
-0.59510000 -1.71110000 1.32030000
1.04970000 -5.80460000 -2.62690000
1.07650000 -5.92770000 -2.58130000
0.98010000 -5.94880000 -2.48430000
0.78900000 -6.01440000 -2.31680000
0.75510000 -5.96680000 -2.28580000
0.80750000 -5.96850000 -2.33770000
0.74580000 -5.84250000 -2.28420000
0.60710000 -5.68460000 -2.13770000
0.85740000 -5.89850000 -2.38680000
0.79030000 -5.91920000 -2.32410000
0.83250000 -5.77970000 -2.37080000
1.02900000 -5.85270000 -2.51670000
0.95320000 -5.86880000 -2.46580000
0.97910000 -5.84440000 -2.49900000
0.91490000 -5.81830000 -2.44570000
1.07190000 -5.87010000 -2.55130000
1.07460000 -5.83710000 -2.58820000
1.07080000 -5.78580000 -2.55050000
0.99050000 -5.78530000 -2.49340000
1.05790000 -5.69850000 -2.53570000
0.96890000 -5.69750000 -2.48810000
0.90990000 -5.74600000 -2.43480000
0.89190000 -5.69500000 -2.43040000
0.86070000 -5.62630000 -2.41040000
0.84440000 -5.70450000 -2.38750000
0.53870000 -5.54270000 -2.97250000
0.49260000 -5.41860000 -2.99360000
-0.76600000 -2.10010000 0.72430000
-0.36100000 -9.46980000 -1.81320000
-0.79290000 -1.75660000 0.49770000
-0.65640000 -3.92580000 1.11800000
0.74970000 -5.66690000 -2.30340000
-0.74010000 -1.89470000 0.80260000
-0.77360000 -1.76380000 0.68390000
0.67370000 -5.51780000 -2.23750000
0.77830000 -5.39250000 -2.33200000
0.87180000 -5.52380000 -2.43130000
0.52820000 -5.29000000 -2.03160000
0.39880000 -5.26010000 -2.94700000
1.07640000 -5.68660000 -2.58710000
1.01580000 -5.61540000 -2.51200000
1.07310000 -5.58670000 -2.55470000
1.05690000 -5.56650000 -2.61790000
0.99860000 -5.22160000 -2.69780000
1.08150000 -5.51820000 -2.57250000
1.04760000 -5.36930000 -2.63360000
-0.78010000 -1.32120000 0.62600000
0.94350000 -5.57110000 -2.49590000
1.02920000 -5.49620000 -2.51930000
-0.70230000 -1.92030000 0.95880000
0.90440000 -5.37850000 -2.45270000
0.97810000 -5.46870000 -2.51980000
1.07050000 -5.45830000 -2.54560000
1.07580000 -5.42440000 -2.58630000
1.03120000 -5.39470000 -2.52640000
1.06650000 -5.37310000 -2.54600000
-0.69470000 -1.67720000 0.98650000
0.99770000 -5.34700000 -2.52550000
0.95150000 -5.22060000 -2.49200000
1.08290000 -5.31270000 -2.56930000
1.06940000 -5.25980000 -2.60840000
1.06120000 -5.27200000 -2.53630000
1.01370000 -5.26030000 -2.52040000
1.04100000 -5.18330000 -2.53680000
1.06150000 -5.07750000 -2.61810000
0.80220000 -5.06570000 -2.34760000
0.59270000 -4.82160000 -2.12190000
0.90420000 -4.97180000 -2.44640000
0.96970000 -5.13820000 -2.51430000
0.95770000 -4.39250000 -2.73310000
0.60150000 -10.28460000 -2.10660000
0.80970000 -4.48110000 -2.34020000
0.51180000 -10.32470000 -1.97450000
0.44800000 -5.41080000 -1.91170000
0.48090000 -10.22210000 -1.92910000
0.48430000 -10.31210000 -1.93450000
-0.17690000 -4.85990000 -2.19880000
-0.28240000 -4.46930000 -2.03920000
0.46750000 -4.58530000 -1.93270000
-0.65320000 -1.33370000 1.16150000
-0.71060000 -1.52030000 0.92670000
-0.73250000 -1.38350000 0.83370000
-0.73110000 -1.12540000 0.84760000
1.08390000 -5.18470000 -2.57890000
1.08160000 -5.11450000 -2.55580000
1.08360000 -5.09990000 -2.57910000
-0.74240000 -1.04920000 0.79860000
-0.55010000 -3.59560000 1.40210000
-0.55740000 -3.83930000 1.38400000
0.99170000 -5.09030000 -2.52440000
1.04210000 -5.07400000 -2.53440000
0.99080000 -5.03690000 -2.54000000
0.96460000 -4.96860000 -2.50290000
-0.67920000 -0.88350000 1.08000000
0.94660000 -4.72170000 -2.47720000
1.06900000 -5.03500000 -2.54820000
1.02190000 -4.99320000 -2.52790000
1.08350000 -4.97830000 -2.56570000
1.06850000 -4.93340000 -2.54600000
1.07770000 -4.93120000 -2.59890000
1.05090000 -4.87190000 -2.64430000
-0.62790000 -3.69710000 1.18890000
0.99290000 -4.91080000 -2.52530000
0.99240000 -4.81350000 -2.52300000
-0.65010000 -3.51970000 1.15170000
1.09050000 -4.87420000 -2.56920000
1.07740000 -4.83660000 -2.60360000
1.05140000 -4.85700000 -2.53520000
1.01720000 -4.79310000 -2.53710000
1.08200000 -4.77130000 -2.56210000
1.05640000 -4.75240000 -2.53530000
1.01140000 -4.58010000 -2.69320000
1.06810000 -4.68960000 -2.61760000
1.07980000 -4.70310000 -2.55020000
0.99610000 -4.72120000 -2.51820000
1.01520000 -4.73800000 -2.53110000
1.02310000 -4.68090000 -2.52940000
1.05190000 -4.64970000 -2.53130000
1.01290000 -4.62220000 -2.52710000
0.99330000 -4.57390000 -2.50920000
1.09050000 -4.65130000 -2.57780000
1.02450000 -4.58180000 -2.53140000
1.09260000 -4.57190000 -2.56310000
1.05550000 -4.54260000 -2.52990000
1.06650000 -4.50020000 -2.61920000
1.02380000 -4.51170000 -2.52800000
0.99890000 -4.42310000 -2.50870000
1.08460000 -4.47780000 -2.55650000
1.08400000 -4.42820000 -2.59320000
1.04870000 -4.44380000 -2.53220000
1.01450000 -4.38370000 -2.52090000
1.03380000 -4.35380000 -2.53540000
1.08340000 -4.36180000 -2.56190000
0.94280000 -4.30950000 -2.45940000
-0.78960000 -10.72350000 -0.33680000
1.00250000 -4.28570000 -2.50730000
0.45720000 -5.36550000 -2.98940000
0.47750000 -5.19890000 -3.00040000
-0.46380000 -0.67850000 1.65390000
-0.52730000 -3.37240000 1.45950000
-0.63820000 -6.25380000 -1.14860000
-0.80960000 -10.17120000 0.02610000
0.44690000 -5.14180000 -2.99180000
0.37600000 -4.71040000 -2.92810000
0.50880000 -5.08320000 -2.99480000
-0.70870000 -5.62350000 -0.87660000
0.44400000 -4.94320000 -2.99140000
0.52340000 -4.78500000 -2.99310000
0.46300000 -4.80910000 -3.00380000
0.42270000 -4.72850000 -2.98390000
0.47540000 -4.68380000 -3.00610000
0.44330000 -4.58290000 -2.99830000
-0.75580000 -10.42220000 -0.56530000
-0.02350000 -4.35800000 -2.44010000
-0.15980000 -4.26950000 -2.24670000
0.52720000 -4.57160000 -2.99260000
0.46730000 -4.43500000 -3.00860000
0.41930000 -4.41970000 -2.98310000
0.50770000 -4.30490000 -3.00300000
1.07530000 -4.31480000 -2.61170000
1.07820000 -4.29200000 -2.54430000
1.03530000 -4.16370000 -2.67520000
1.09470000 -4.24190000 -2.56570000
1.08550000 -4.21290000 -2.60140000
1.07860000 -4.09840000 -2.61000000
0.42190000 -4.22850000 -2.98450000
0.52640000 -3.82760000 -2.99970000
0.45210000 -4.29510000 -3.00740000
0.46390000 -4.12820000 -3.00980000
0.41600000 -3.97530000 -2.97850000
1.03690000 -4.21290000 -2.52710000
0.99150000 -4.02810000 -2.49320000
1.06280000 -4.21540000 -2.54670000
1.05400000 -4.10100000 -2.53630000
1.09120000 -4.16710000 -2.54710000
1.09720000 -4.15440000 -2.57000000
1.07710000 -4.12290000 -2.54860000
0.98070000 -3.66630000 -2.72290000
0.48590000 -3.92390000 -3.01270000
0.44880000 -3.78060000 -3.00710000
0.37290000 -3.44710000 -2.93070000
-0.80520000 -10.04510000 -0.23230000
-0.55960000 -0.55010000 1.43770000
0.47310000 -3.55290000 -3.01610000
-0.75610000 -5.59260000 -0.67950000
0.43120000 -3.44200000 -2.99250000
1.08590000 -4.06060000 -2.55240000
1.05250000 -4.02160000 -2.54340000
1.03960000 -3.97640000 -2.53390000
1.09140000 -3.97890000 -2.58540000
1.08980000 -3.94660000 -2.55520000
1.06890000 -3.90350000 -2.55160000
1.06860000 -3.90020000 -2.62690000
1.04870000 -3.90650000 -2.53810000
-0.80420000 -9.91400000 0.31800000
-0.71730000 -0.97280000 0.90100000
-0.73880000 -0.75100000 0.82130000
1.09550000 -3.89240000 -2.58970000
1.03870000 -3.70580000 -2.67380000
1.02720000 -3.88020000 -2.52280000
0.97190000 -3.80680000 -2.47900000
1.06150000 -3.86500000 -2.54440000
1.09800000 -3.83070000 -2.55870000
1.08640000 -3.79920000 -2.59840000
-0.62150000 -5.55490000 -1.19910000
1.06740000 -3.80350000 -2.55120000
1.03200000 -3.75260000 -2.52290000
1.08220000 -3.75420000 -2.54400000
1.09740000 -3.74250000 -2.56780000
1.06830000 -3.72870000 -2.54460000
-0.68960000 0.24320000 1.07950000
0.96920000 -3.70170000 -2.47760000
1.01290000 -3.67460000 -2.51740000
0.97400000 -3.62140000 -2.48900000
1.08950000 -3.68370000 -2.59150000
1.06890000 -3.66880000 -2.54630000
1.09870000 -3.62490000 -2.55740000
1.08520000 -3.56170000 -2.60110000
1.03250000 -3.62940000 -2.53170000
0.99820000 -3.57370000 -2.51630000
1.07210000 -3.56900000 -2.53930000
1.03240000 -3.53180000 -2.53140000
-0.79720000 -0.81320000 0.41990000
-0.68680000 -5.35550000 -0.98270000
-0.83250000 -0.75700000 0.08360000
0.98450000 -3.49460000 -2.49550000
1.10230000 -3.50440000 -2.55920000
1.06680000 -3.39080000 -2.63280000
1.09810000 -3.47370000 -2.59310000
1.07200000 -3.46660000 -2.53730000
1.10120000 -3.41990000 -2.55690000
1.10110000 -3.35750000 -2.58560000
1.03460000 -3.08950000 -2.68200000
1.02040000 -3.47490000 -2.52720000
1.04510000 -3.41100000 -2.52860000
1.01550000 -3.34750000 -2.51310000
0.95570000 -3.33890000 -2.46900000
1.08600000 -3.34270000 -2.53840000
1.05870000 -3.28290000 -2.53020000
0.99940000 -3.21040000 -2.50410000
1.10310000 -3.29710000 -2.55620000
1.09770000 -3.26710000 -2.59130000
1.10150000 -3.21440000 -2.55590000
1.07410000 -3.15690000 -2.62190000
1.04580000 -3.19920000 -2.52830000
1.01780000 -3.09030000 -2.52010000
1.10070000 -3.15050000 -2.58350000
1.08260000 -3.13440000 -2.53970000
1.04910000 -3.09800000 -2.53030000
1.10230000 -3.09160000 -2.55310000
1.09790000 -3.06040000 -2.58980000
1.06820000 -3.05330000 -2.53500000
0.99770000 -2.98720000 -2.50450000
1.04370000 -2.99940000 -2.52330000
0.98560000 -2.93780000 -2.49910000
0.50530000 -3.30550000 -3.01120000
0.45040000 -3.28930000 -3.00640000
0.48020000 -3.18320000 -3.01930000
0.44380000 -3.15110000 -3.00670000
0.53350000 -3.11240000 -3.00270000
0.47540000 -3.07620000 -3.01950000
0.52170000 -3.01760000 -3.00930000
0.42520000 -3.02620000 -2.98730000
0.47850000 -2.97660000 -3.01900000
-0.52700000 -5.18140000 -1.48500000
-0.79770000 -0.60690000 -0.47740000
-0.75470000 -0.10130000 -0.77030000
0.52600000 -2.85920000 -3.00860000
0.44720000 -2.87640000 -3.00530000
-0.60250000 -5.00880000 -1.26880000
-0.56010000 -5.01540000 -1.38950000
0.47720000 -2.77040000 -3.01840000
0.53600000 -2.68950000 -3.00310000
1.10090000 -3.00820000 -2.55410000
1.07730000 -2.96940000 -2.61810000
1.10110000 -2.94200000 -2.58590000
1.06540000 -2.75670000 -2.64010000
1.02570000 -2.91490000 -2.52600000
1.08190000 -2.92890000 -2.53660000
1.05290000 -2.89940000 -2.52420000
-0.50710000 -4.49200000 -1.54670000
-0.69630000 -4.90620000 -0.91670000
0.99770000 -2.86110000 -2.51300000
1.10210000 -2.88570000 -2.54990000
1.10100000 -2.85220000 -2.58900000
1.06750000 -2.84780000 -2.53180000
1.10240000 -2.80340000 -2.55410000
1.02980000 -2.79820000 -2.52070000
1.06230000 -2.74050000 -2.52260000
1.10820000 -2.74130000 -2.57530000
-0.72090000 -5.01790000 -0.80110000
-0.56940000 -4.78290000 -1.36400000
1.10440000 -2.67830000 -2.54550000
-0.75170000 -0.32560000 0.74580000
-0.67350000 -4.65960000 -1.02890000
1.09680000 -2.66410000 -2.59710000
1.07680000 -2.59000000 -2.62010000
1.10650000 -2.61650000 -2.57160000
1.03990000 -8.77940000 2.40220000
0.99150000 -8.69430000 2.31750000
1.03140000 -8.70770000 2.35280000
1.02800000 -8.56450000 2.45580000
1.04230000 -8.60180000 2.40020000
1.01810000 -8.58530000 2.34170000
1.00110000 -8.27230000 2.48690000
1.01940000 -8.49340000 2.33910000
1.04410000 -8.36600000 2.40410000
1.01460000 -8.38590000 2.34140000
0.89170000 -7.91180000 2.57120000
1.03170000 -8.29940000 2.45310000
0.26270000 2.15150000 1.59500000
-0.77070000 -9.68500000 -0.51430000
-0.79740000 -9.70970000 -0.22110000
-0.77980000 -5.24870000 -0.46950000
0.97830000 -8.18740000 2.31510000
0.82150000 -7.98780000 2.18230000
1.02820000 -8.27300000 2.35020000
1.04310000 -8.19160000 2.38880000
1.03870000 -8.14960000 2.44400000
1.03480000 -8.03320000 2.36550000
0.95060000 -7.88610000 2.29150000
1.04550000 -8.01130000 2.42520000
1.04640000 -7.85450000 2.40850000
1.02350000 -7.79870000 2.34890000
-0.73570000 -5.16460000 -0.75840000
0.51790000 -8.35400000 2.83700000
0.53130000 -8.17560000 2.81720000
0.61670000 -8.18540000 2.75550000
-0.78090000 -4.98840000 -0.46090000
-0.77530000 -4.75250000 -0.50470000
-0.81690000 -4.95480000 -0.19310000
-0.79660000 -4.81150000 -0.37490000
-0.75570000 -4.58780000 -0.63330000
-0.81830000 -4.45030000 -0.17150000
-0.79560000 -9.56730000 0.35050000
-0.01230000 3.31670000 0.94560000
-0.17490000 0.17740000 2.18960000
0.57020000 -7.97780000 2.78260000
0.38470000 -8.11490000 2.87530000
0.37040000 -7.93740000 2.86440000
0.40340000 -7.78980000 2.89480000
0.41310000 -7.96230000 2.87050000
-0.29590000 -0.00170000 1.98550000
-0.80400000 -9.48140000 -0.00760000
1.02120000 -7.92400000 2.47620000
1.04110000 -7.79530000 2.44830000
1.01580000 -7.73030000 2.48360000
-0.54010000 0.09530000 1.48260000
-0.79550000 -9.38420000 0.23630000
-0.79910000 -9.21200000 0.11560000
-0.80190000 -9.22600000 -0.18990000
0.51660000 -7.79690000 2.83410000
1.04560000 -7.65520000 2.39390000
1.04400000 -7.59490000 2.43890000
-0.37420000 -4.66630000 -1.85610000
0.08080000 -9.41530000 -1.14220000
0.58030000 -10.11840000 -2.08120000
0.62980000 -10.05380000 -2.15580000
0.67690000 -10.05110000 -2.21210000
0.50870000 -10.05330000 -1.97110000
0.56330000 -9.96300000 -2.05680000
0.65280000 -9.99030000 -2.18510000
0.69430000 -9.92730000 -2.23590000
0.62700000 -9.91390000 -2.15560000
0.59000000 -9.90080000 -2.10070000
0.56580000 -9.85950000 -2.06570000
0.66540000 -9.88180000 -2.21110000
0.60590000 -9.80490000 -2.12960000
0.60470000 -9.86660000 -2.12490000
0.77160000 -9.89380000 -2.31420000
0.70980000 -9.85630000 -2.26240000
0.67020000 -9.83960000 -2.22260000
0.69940000 -9.77870000 -2.26360000
0.63650000 -9.85320000 -2.17350000
0.65010000 -9.80490000 -2.19650000
0.51090000 -9.86750000 -1.98080000
0.53280000 -9.82720000 -2.01560000
0.50040000 -9.79610000 -1.96510000
0.55430000 -9.78650000 -2.05020000
0.46000000 -9.68910000 -1.90320000
0.34140000 -9.57700000 -1.70640000
0.44520000 -9.55910000 -1.88500000
0.53200000 -9.70860000 -2.01770000
0.76310000 -9.80980000 -2.32130000
0.77610000 -9.73470000 -2.32530000
0.73450000 -9.68030000 -2.30240000
0.79950000 -9.60960000 -2.34570000
0.63960000 -9.74190000 -2.18180000
0.67440000 -9.69580000 -2.23090000
0.58620000 -9.72360000 -2.10050000
0.61960000 -9.64250000 -2.14770000
0.56560000 -9.65660000 -2.06990000
0.68360000 -9.63050000 -2.23490000
0.73830000 -9.56510000 -2.28310000
0.65980000 -9.56100000 -2.19340000
0.57090000 -9.60580000 -2.07660000
0.58030000 -9.52150000 -2.08510000
0.68630000 -9.44100000 -2.21200000
0.84630000 -9.53440000 -2.38130000
0.93830000 -9.48770000 -2.46140000
-0.60510000 -4.30470000 -1.25830000
0.82090000 -9.42860000 -2.35320000
0.77070000 -9.49320000 -2.30710000
0.75030000 -9.33430000 -2.28210000
0.83750000 -9.33020000 -2.37560000
0.78610000 -9.27620000 -2.32300000
0.51960000 -9.60180000 -2.00160000
0.48150000 -9.46820000 -1.94610000
0.52880000 -9.32840000 -2.01810000
0.41360000 -9.46490000 -1.84080000
0.43880000 -9.42450000 -1.88270000
0.44760000 -9.37310000 -1.89750000
0.41010000 -9.39290000 -1.83870000
0.65850000 -9.28850000 -2.17720000
0.72620000 -9.23490000 -2.25550000
0.66740000 -9.20980000 -2.18880000
0.43230000 -9.29340000 -1.87500000
0.60660000 -9.17780000 -2.11150000
0.48560000 -9.13360000 -1.95140000
0.39840000 -9.25610000 -2.90620000
0.44140000 -9.17030000 -2.93270000
-0.80810000 -0.21950000 -0.32660000
-0.80490000 0.13220000 -0.41000000
-0.83030000 -0.18130000 0.05090000
-0.82750000 0.04760000 -0.02040000
-0.81430000 0.04610000 -0.23080000
0.42880000 -9.02300000 -2.92580000
0.48740000 -8.97400000 -2.92980000
-0.82960000 0.20680000 -0.05260000
-0.82270000 0.54440000 -0.25620000
-0.78970000 0.35560000 -0.55400000
-0.77220000 0.05210000 0.61770000
-0.80680000 -0.17360000 0.37600000
0.17250000 -9.60460000 -1.37930000
-0.80830000 0.04170000 0.34870000
-0.80360000 0.27550000 0.44730000
0.27480000 -9.66900000 -1.58140000
0.24830000 -9.59300000 -1.51700000
0.24710000 -9.48180000 -1.53490000
0.18030000 -9.49660000 -1.37600000
0.21120000 -9.42350000 -1.46680000
0.13080000 -9.46320000 -1.29740000
0.09350000 -9.38960000 -1.18240000
0.18240000 -9.37190000 -1.38630000
-0.78260000 0.45170000 0.58170000
0.26070000 -9.30740000 -1.56300000
0.34990000 -9.38560000 -1.73380000
0.39240000 -9.33180000 -1.80930000
0.36110000 -9.31390000 -1.75080000
0.31590000 -9.33330000 -1.65830000
0.35300000 -9.26270000 -1.74340000
0.41300000 -9.23930000 -1.84510000
0.41100000 -9.18490000 -1.84120000
0.45420000 -9.23470000 -1.91050000
-0.73400000 0.70440000 0.90280000
0.34830000 -9.11200000 -1.72560000
-0.63980000 -4.57040000 -1.14780000
-0.69700000 -4.18980000 -0.95030000
0.32980000 -9.01020000 -1.69330000
0.22880000 -9.06710000 -1.49990000
0.16040000 -9.30940000 -1.35230000
-0.57260000 -4.23830000 -1.35930000
0.36660000 -8.84240000 -1.76120000
-0.74770000 -4.05580000 -0.69080000
-0.71440000 -4.51490000 -0.85700000
-0.82230000 0.25230000 0.21240000
-0.59150000 -3.87230000 -1.30840000
-0.59320000 -4.14160000 -1.29600000
-0.60990000 -4.03770000 -1.24690000
-0.65230000 -3.72850000 -1.11600000
-0.82930000 0.47400000 0.04230000
-0.81620000 0.51160000 0.34790000
-0.82590000 0.81420000 0.08340000
-0.82380000 0.90300000 0.00150000
-0.81730000 0.70890000 0.24010000
-0.09630000 2.19510000 -0.26350000
0.94210000 -9.36770000 -2.45930000
0.90930000 -9.30360000 -2.45930000
1.02460000 -9.29830000 -2.51170000
0.91320000 -9.18590000 -2.44150000
0.83930000 -9.25460000 -2.38300000
0.78340000 -9.22210000 -2.31880000
0.81470000 -9.16640000 -2.34710000
1.05760000 -9.26290000 -2.54740000
0.75610000 -9.17490000 -2.28600000
0.69570000 -9.13210000 -2.21630000
0.76820000 -9.11580000 -2.29390000
0.61900000 -8.97010000 -2.12170000
0.84790000 -9.09360000 -2.37330000
0.79680000 -9.07210000 -2.32060000
0.80560000 -9.11260000 -2.33360000
1.04030000 -9.20840000 -2.61020000
1.05840000 -9.20350000 -2.57610000
1.05180000 -9.17470000 -2.54100000
1.02420000 -9.14510000 -2.51090000
1.05960000 -9.12110000 -2.57580000
0.97430000 -8.90090000 -2.67520000
0.93980000 -9.02020000 -2.45460000
1.05510000 -9.02180000 -2.53610000
1.05450000 -9.00310000 -2.59310000
0.82190000 -9.00200000 -2.34220000
0.74160000 -9.03590000 -2.25990000
0.74880000 -8.92280000 -2.26470000
0.69510000 -8.86430000 -2.20720000
0.85880000 -8.86600000 -2.37980000
0.75900000 -8.79720000 -2.27630000
0.83840000 -8.75100000 -2.36460000
0.86750000 -8.79860000 -2.39720000
0.65850000 -8.76590000 -2.16440000
1.06130000 -8.92210000 -2.56720000
1.02390000 -8.79380000 -2.62970000
1.03180000 -8.92400000 -2.51170000
0.99180000 -8.85650000 -2.49110000
0.90780000 -8.77560000 -2.44450000
1.05510000 -8.81530000 -2.53750000
1.05450000 -8.81560000 -2.58730000
1.02070000 -8.71560000 -2.51070000
0.92430000 -8.69370000 -2.46980000
1.05930000 -8.73150000 -2.55000000
1.04980000 -8.67890000 -2.59520000
0.98100000 -8.58070000 -2.48900000
1.05390000 -8.64420000 -2.54080000
0.04990000 1.48120000 1.11430000
0.14460000 2.27990000 1.35860000
0.88290000 -8.65450000 -2.41080000
0.75640000 -8.61240000 -2.27540000
0.78050000 -8.40920000 -2.30980000
0.59710000 -8.59450000 -2.09640000
0.64410000 -8.41480000 -2.16140000
0.69740000 -8.29300000 -2.23250000
-0.78430000 0.68830000 0.55880000
-0.79010000 0.87590000 0.53510000
-0.75870000 1.06400000 0.73580000
-0.80910000 1.11510000 0.40830000
0.46470000 -8.93040000 -1.91550000
0.35620000 -8.65660000 -1.74080000
0.32950000 -8.55790000 -1.69500000
0.45320000 -8.78100000 -1.90930000
0.52680000 -8.75630000 -2.00780000
0.43260000 -8.69730000 -1.86760000
-0.83290000 1.20840000 0.11520000
0.40670000 -8.56790000 -1.83260000
0.38100000 -8.51790000 -1.78860000
0.43010000 -8.47990000 -1.87280000
0.35600000 -8.47120000 -1.74790000
0.48550000 -8.58480000 -1.95010000
0.52010000 -8.44440000 -2.00200000
0.63050000 -8.30620000 -2.15010000
-0.00140000 1.40710000 2.45470000
0.63890000 -8.25760000 -2.16200000
0.41990000 -8.37560000 -1.85280000
0.40330000 -8.25520000 -1.83490000
0.37880000 -8.08710000 -1.80270000
-0.54690000 -3.21450000 -1.46260000
0.33650000 0.30430000 2.85030000
0.40830000 0.14880000 2.91480000
0.44650000 0.19750000 2.93010000
0.41220000 0.29880000 2.91690000
0.47590000 0.29040000 2.92300000
0.41390000 0.45110000 2.91650000
0.24930000 1.04380000 2.75940000
-0.44410000 1.73420000 1.70840000
-0.61410000 1.87370000 1.29000000
-0.69240000 1.15890000 1.05910000
-0.81380000 -3.94030000 -0.28870000
-0.72630000 2.16770000 0.92080000
-0.76230000 0.86790000 0.72520000
-0.73810000 1.01380000 0.87920000
-0.75490000 1.37600000 0.79680000
-0.79600000 1.80460000 0.63690000
-0.83260000 1.63550000 0.28590000
-0.82150000 -3.88640000 0.06370000
-0.79080000 -3.56480000 0.49530000
-0.79960000 -3.37260000 -0.41060000
-0.76070000 -3.68530000 0.72430000
-0.71870000 -3.79780000 0.88710000
-0.81570000 -3.40870000 -0.20910000
-0.81680000 -3.26760000 -0.00870000
-0.70550000 -3.38860000 0.95260000
-0.81320000 -3.28270000 0.31970000
-0.77510000 -3.13120000 0.65720000
-0.58760000 -3.17740000 1.31740000
-0.64690000 -3.19150000 1.13900000
-0.67020000 -3.06580000 1.05660000
-0.73200000 -3.04550000 0.85600000
-0.81500000 -3.07770000 0.21040000
-0.82490000 -2.87580000 0.05640000
-0.80610000 -2.83230000 0.40520000
0.40980000 -4.17110000 2.89900000
0.45860000 -2.27550000 -3.01220000
0.50520000 -2.21530000 -3.01860000
0.43870000 -2.19140000 -2.99930000
0.51730000 -2.14520000 -3.01050000
0.64530000 -0.63630000 -2.09910000
0.51910000 -0.62170000 -3.01820000
0.49300000 -0.73360000 -3.02520000
0.43370000 -0.57770000 -2.99670000
0.47340000 -0.51170000 -3.01780000
0.53990000 -1.98830000 -3.00380000
0.48050000 -2.00940000 -3.01890000
0.42900000 -1.95990000 -2.99280000
0.56840000 -0.58670000 -2.99400000
0.47830000 -0.30570000 -3.02310000
0.39190000 -1.04750000 -2.95230000
0.32520000 -0.27350000 -2.89050000
0.53390000 -0.20080000 -3.01370000
0.13350000 1.08090000 -2.67690000
1.09660000 -0.88020000 -2.60020000
1.11540000 -0.82690000 -2.56750000
1.09630000 -0.91880000 -2.53020000
1.04510000 -0.92260000 -2.50650000
1.09410000 -0.82240000 -2.52570000
0.98640000 -0.84350000 -2.46440000
1.11630000 -0.75850000 -2.55210000
1.06890000 -0.67300000 -2.63860000
1.07420000 -0.70820000 -2.51390000
0.98300000 -0.75960000 -2.47290000
0.99000000 -0.66070000 -2.48360000
1.10930000 -0.70290000 -2.59090000
1.12100000 -0.63940000 -2.55650000
1.03160000 -0.62740000 -2.49100000
1.09010000 -0.61170000 -2.51760000
1.10640000 -0.61140000 -2.59610000
1.03040000 -0.20880000 -2.69190000
1.07550000 -0.48610000 -2.62910000
1.03970000 -0.56770000 -2.51100000
0.91420000 -0.57380000 -2.41310000
0.87560000 -0.68610000 -2.35730000
0.99100000 -0.55830000 -2.50650000
0.94220000 -0.55290000 -2.46340000
0.96370000 -0.45350000 -2.46700000
0.89900000 -0.48960000 -2.39880000
-0.63860000 0.00340000 -1.23560000
1.11590000 -0.55880000 -2.56130000
1.08850000 -0.50570000 -2.52330000
1.11130000 -0.49540000 -2.59000000
-0.77460000 1.01330000 -0.69720000
1.11590000 -0.43110000 -2.55190000
1.11370000 -0.38290000 -2.58460000
1.05810000 -0.42790000 -2.50690000
0.86910000 -0.39500000 -2.36060000
0.88550000 -0.30910000 -2.37770000
0.98060000 -0.26840000 -2.46760000
1.10990000 -0.31470000 -2.53600000
1.09680000 -0.29350000 -2.60670000
1.06780000 -0.21840000 -2.50600000
-0.53410000 2.18890000 -1.51590000
-0.63910000 2.51510000 -1.20930000
0.48130000 -1.80290000 -3.01970000
0.42920000 -1.69100000 -2.99260000
0.51590000 -1.49590000 -3.01580000
0.46630000 -1.53360000 -3.01340000
0.54820000 -1.28380000 -2.99840000
0.43570000 -1.43500000 -2.98050000
0.76950000 -0.76650000 -2.24010000
0.86740000 -0.82640000 -2.34890000
0.69780000 -0.59060000 -2.15600000
0.80200000 -0.46470000 -2.28070000
0.80690000 -0.30790000 -2.28760000
0.55430000 -0.41010000 -1.97960000
0.68890000 -0.40430000 -2.14820000
0.72510000 -0.32860000 -2.19060000
0.73870000 -0.39940000 -2.20670000
0.85390000 -0.33740000 -2.34210000
0.89680000 -0.20490000 -2.38670000
0.82250000 -0.17660000 -2.30470000
0.69110000 -0.14110000 -2.15320000
0.76930000 -0.09170000 -2.24370000
0.87130000 -0.13640000 -2.35690000
0.92780000 -0.12200000 -2.41200000
0.83810000 -0.03970000 -2.32080000
0.72550000 -0.00710000 -2.19290000
1.11990000 -0.22790000 -2.55310000
1.07790000 -0.14920000 -2.62730000
1.11430000 -0.17740000 -2.58420000
1.11610000 -0.13910000 -2.54320000
1.09220000 -0.09460000 -2.52040000
1.10540000 -0.06700000 -2.59600000
0.82910000 -0.06580000 -2.82480000
1.11580000 -0.01970000 -2.54800000
1.07840000 0.11110000 -2.62760000
1.11770000 0.03610000 -2.58010000
1.04140000 -0.04230000 -2.49630000
0.94180000 -0.02650000 -2.42860000
0.90660000 0.03650000 -2.39910000
0.98470000 0.02050000 -2.47800000
0.94530000 0.00860000 -2.43800000
0.80670000 0.12140000 -2.29060000
0.76250000 0.05220000 -2.23830000
0.62230000 -0.25350000 -2.06560000
0.51880000 -0.16790000 -1.92530000
0.56960000 -0.10090000 -1.99500000
1.11390000 0.06800000 -2.54250000
0.41910000 -0.15840000 -1.77720000
0.91080000 0.14180000 -2.41220000
0.99820000 0.16500000 -2.49780000
1.11860000 0.12000000 -2.57760000
1.08630000 0.15870000 -2.51820000
1.11540000 0.22020000 -2.54090000
1.03160000 0.25880000 -2.49580000
1.02710000 0.42280000 -2.69290000
1.07630000 0.27440000 -2.62470000
0.82060000 0.24580000 -2.30880000
0.90960000 0.30420000 -2.41000000
0.47040000 -0.11220000 -1.85400000
0.56700000 -0.01830000 -1.99240000
0.79110000 0.33740000 -2.27570000
0.97560000 0.36190000 -2.47910000
0.00590000 3.23280000 -0.71420000
0.80140000 0.46400000 -2.29440000
0.56330000 0.02280000 -2.99660000
0.45620000 -0.13500000 -3.01730000
0.54030000 -0.03920000 -1.95550000
0.46910000 -0.03160000 -3.02550000
0.43010000 0.04160000 -3.00110000
0.48500000 -0.00170000 -1.87920000
0.37330000 0.32600000 -2.94320000
0.61480000 0.04330000 -2.05660000
0.51060000 0.09830000 -1.91530000
0.51410000 0.02200000 -3.02310000
0.47170000 0.08180000 -3.02560000
0.53420000 0.14530000 -3.01360000
0.47270000 0.18260000 -3.02730000
0.44160000 0.33410000 -3.01200000
0.51020000 0.27840000 -3.02700000
0.30090000 0.28950000 -1.55500000
0.37960000 0.13800000 -1.70310000
0.64950000 1.22500000 -2.94100000
0.95440000 1.11660000 -2.73750000
0.52900000 0.46160000 -3.01850000
0.47440000 0.44380000 -3.03140000
0.44130000 0.54820000 -3.01190000
0.44210000 0.80780000 -3.01390000
0.48350000 0.75400000 -3.03140000
0.53070000 0.71650000 -3.01790000
-0.10380000 0.36490000 -2.35930000
0.67550000 0.13700000 -2.13990000
0.71940000 0.29300000 -2.18810000
0.53180000 0.18330000 -1.94210000
0.56930000 0.30920000 -1.99640000
0.77710000 0.29190000 -2.25760000
0.71700000 0.43040000 -2.18950000
-0.74090000 3.07300000 -0.82720000
0.59420000 0.48040000 -2.03490000
0.67850000 0.57870000 -2.15290000
0.44990000 0.33240000 -1.83410000
0.43600000 0.43880000 -1.79870000
0.44910000 0.59540000 -1.81820000
-0.82380000 0.96170000 -0.26590000
0.60590000 0.59060000 -2.06130000
-0.82020000 1.87250000 -0.29410000
0.55060000 0.66090000 -1.98260000
-0.77220000 2.45080000 -0.67660000
-0.82500000 1.34400000 -0.00990000
0.49330000 -1.13570000 -3.02340000
0.46000000 -1.24760000 -3.01010000
0.43740000 -1.13870000 -2.99860000
0.46500000 -0.99560000 -3.01740000
0.52300000 -0.93340000 -3.01760000
-0.83750000 1.44890000 -0.08490000
-0.84060000 2.25250000 0.07560000
0.39530000 1.34130000 -2.97490000
0.44810000 -0.93460000 -3.01060000
0.47810000 -0.85650000 -3.02530000
0.44320000 -0.82150000 -3.01020000
0.25400000 2.57500000 -2.82850000
0.89680000 -0.93150000 -2.38970000
0.81100000 -0.90830000 -2.29350000
0.52770000 -0.78360000 -3.01690000
0.26210000 1.14530000 -1.45450000
-0.36400000 1.28790000 -1.91880000
-0.45620000 4.38580000 -1.68520000
-0.22080000 2.22530000 -2.17290000
1.06430000 -0.06580000 2.52680000
1.04830000 -0.01080000 2.48860000
1.04250000 0.00610000 2.55020000
-0.79440000 2.66150000 0.63780000
1.03530000 1.99030000 2.54060000
1.02130000 1.94110000 2.49150000
1.01890000 2.17230000 2.49050000
0.97780000 1.95250000 2.44980000
1.05000000 2.11050000 2.54010000
1.03450000 2.21350000 2.53990000
1.01390000 2.36960000 2.49010000
1.03810000 0.05980000 2.47430000
1.02450000 0.18440000 2.46310000
1.06050000 0.04200000 2.52270000
1.03690000 0.09150000 2.53890000
1.04070000 2.37840000 2.54320000
1.02780000 2.49860000 2.50770000
0.98480000 0.30560000 2.42880000
0.91060000 2.56800000 2.40530000
1.05390000 0.19160000 2.51810000
1.05330000 0.35030000 2.52120000
1.04040000 0.37940000 2.48530000
0.99160000 2.56370000 2.46700000
1.02680000 0.48080000 2.47240000
1.03100000 2.59400000 2.55240000
1.03490000 2.49430000 2.55050000
0.36160000 1.03870000 2.87720000
0.39980000 0.80790000 2.90940000
0.45020000 1.17330000 2.92080000
0.44540000 0.79510000 2.92270000
0.55430000 0.95720000 2.88660000
0.38500000 1.38070000 2.89750000
0.50200000 1.48720000 2.90530000
0.30740000 1.60680000 2.82590000
0.43210000 1.47670000 2.91570000
-0.15400000 2.07180000 2.23250000
-0.29660000 2.04200000 1.99140000
1.03110000 2.66900000 2.51610000
1.00330000 2.81540000 2.48430000
-0.11200000 3.03950000 0.48060000
1.04450000 2.73580000 2.55210000
1.03480000 2.84910000 2.53150000
0.89180000 3.61930000 2.40600000
1.03170000 3.08580000 2.53460000
1.04000000 2.98530000 2.55280000
1.03520000 3.11680000 2.57750000
1.00820000 3.30550000 2.49980000
0.96940000 0.56030000 2.42320000
1.04790000 1.13600000 2.52620000
1.04550000 0.78870000 2.52870000
1.03630000 0.92510000 2.49050000
1.01560000 1.33800000 2.47350000
0.95760000 1.26730000 2.42280000
1.03580000 1.38560000 2.53160000
1.03070000 1.48480000 2.49470000
1.02010000 1.44280000 2.54940000
1.02190000 1.61230000 2.48610000
1.04240000 1.59260000 2.53450000
0.51100000 3.26640000 2.00130000
1.03420000 1.73160000 2.50170000
1.04750000 1.68050000 2.52850000
1.04490000 1.77190000 2.54400000
0.55630000 2.06110000 2.88580000
0.50780000 1.76040000 2.90400000
0.38580000 1.65390000 2.89670000
0.44740000 1.70160000 2.91720000
0.40050000 1.75480000 2.90690000
0.44150000 1.87620000 2.91590000
0.37040000 1.94730000 2.88480000
0.49670000 2.03410000 2.90980000
0.31960000 2.41260000 2.83580000
0.39020000 2.10590000 2.89920000
0.44970000 2.17000000 2.91670000
0.40060000 2.42320000 2.90420000
0.47240000 2.40530000 2.91180000
0.51460000 2.66470000 2.90070000
0.62190000 2.43850000 2.85000000
0.03150000 4.43080000 2.50480000
0.51790000 0.44650000 2.90060000
0.45840000 0.42640000 2.92270000
0.46590000 0.59880000 2.92260000
1.05360000 0.44760000 2.52060000
1.05120000 0.55760000 2.53460000
1.02110000 0.69950000 2.46830000
1.02010000 3.62170000 2.51960000
1.03550000 3.30750000 2.56460000
1.04860000 3.46170000 2.57790000
1.03250000 3.66640000 2.56690000
0.20520000 4.79310000 1.53080000
-0.51190000 2.59000000 1.53440000
-0.68390000 3.01390000 1.09650000
0.07080000 3.84900000 1.20490000
-0.39470000 3.04110000 1.81380000
1.11820000 0.24310000 -2.57860000
1.08890000 0.31790000 -2.51690000
1.12170000 0.30440000 -2.55410000
1.11640000 0.33350000 -2.58520000
1.08680000 0.41360000 -2.61310000
1.11840000 0.38940000 -2.54820000
1.12210000 0.45060000 -2.57880000
1.04320000 0.46180000 -2.49720000
-0.82670000 6.97230000 -0.18180000
-0.80420000 4.70810000 -0.43790000
-0.81300000 5.05730000 -0.29500000
-0.82140000 4.93550000 -0.12520000
0.91890000 0.51600000 -2.43610000
0.98260000 0.47200000 -2.49890000
1.10980000 0.46230000 -2.52680000
1.08130000 0.56090000 -2.50770000
0.99860000 0.58230000 -2.48370000
1.12220000 0.51110000 -2.55080000
1.11660000 0.54040000 -2.58360000
1.12000000 0.59430000 -2.54750000
1.03430000 0.63230000 -2.48620000
1.07970000 0.61900000 -2.61780000
1.03390000 0.86740000 -2.68140000
1.11880000 0.65600000 -2.57600000
1.10800000 0.66890000 -2.52540000
1.06710000 0.71170000 -2.50460000
1.12000000 0.71750000 -2.54960000
1.10380000 0.76870000 -2.59250000
1.09520000 0.74860000 -2.51820000
-0.04920000 4.19910000 -0.43930000
0.02630000 4.52590000 -0.74190000
-0.08140000 4.59670000 -0.26150000
0.00030000 4.82970000 -0.61380000
0.16380000 5.46230000 -1.12460000
0.08530000 4.19740000 -0.94020000
0.18190000 3.12040000 -1.23180000
1.11740000 0.80240000 -2.54240000
1.08320000 0.87680000 -2.61050000
1.11860000 0.86280000 -2.57420000
0.79240000 0.61950000 -2.29850000
0.69050000 0.69200000 -2.18480000
0.75050000 0.76400000 -2.26300000
0.61440000 0.72670000 -2.07650000
0.65370000 0.73220000 -2.13650000
0.60960000 0.64070000 -2.06940000
0.65790000 0.78670000 -2.13940000
0.58260000 0.87970000 -2.02590000
0.50890000 0.82840000 -1.91110000
0.07210000 5.32580000 -0.85510000
0.49180000 0.96980000 -1.88770000
0.95440000 0.64210000 -2.48850000
0.91550000 0.70770000 -2.45610000
0.83060000 0.81930000 -2.35650000
0.99840000 0.63320000 -2.51660000
1.01360000 0.68530000 -2.49160000
0.99480000 0.72960000 -2.51850000
1.04520000 0.79310000 -2.49600000
0.97970000 0.78530000 -2.49370000
0.99750000 0.83780000 -2.51590000
0.95410000 0.84810000 -2.48540000
0.88170000 0.99010000 -2.40430000
0.75060000 0.86620000 -2.25470000
0.76250000 0.95700000 -2.26200000
0.77310000 1.03830000 -2.26990000
-0.37400000 6.94660000 -1.85310000
0.84360000 9.09030000 -2.16370000
0.65240000 7.31420000 -1.95800000
0.85140000 5.80700000 -2.24540000
0.65830000 0.93570000 -2.13170000
0.67590000 1.10160000 -2.14590000
0.77140000 1.10660000 -2.26540000
0.55820000 1.00220000 -1.98450000
-0.21860000 6.13090000 -2.15960000
0.54060000 1.12900000 -1.95310000
0.57470000 1.19740000 -2.00960000
1.09470000 0.85070000 -2.51620000
1.03030000 0.87560000 -2.49970000
1.05620000 0.95690000 -2.50350000
0.98670000 0.96760000 -2.50270000
1.10330000 0.93480000 -2.53120000
1.11250000 0.94460000 -2.56970000
1.11320000 1.00810000 -2.54170000
1.08570000 1.05630000 -2.52040000
1.08470000 0.98690000 -2.60470000
1.01340000 1.11440000 -2.70140000
1.06400000 1.11470000 -2.63600000
0.15270000 6.11170000 -2.70770000
-0.04440000 6.36480000 -2.44290000
0.27000000 7.75470000 -2.85950000
0.99690000 1.04440000 -2.51400000
1.02840000 1.08260000 -2.50100000
0.81280000 1.20270000 -2.31380000
0.95780000 1.07100000 -2.47920000
0.97750000 1.13030000 -2.50710000
0.92620000 1.14790000 -2.45060000
1.11390000 1.06780000 -2.57080000
1.07730000 1.14130000 -2.51220000
1.11740000 1.12810000 -2.54420000
1.11560000 1.15970000 -2.57860000
1.11380000 1.21440000 -2.53930000
1.11160000 1.25170000 -2.58250000
1.08520000 1.28700000 -2.60940000
0.99430000 1.18230000 -2.49850000
1.05020000 1.23030000 -2.49930000
0.99060000 1.25440000 -2.50150000
0.92440000 1.27970000 -2.43970000
1.10270000 1.28880000 -2.52130000
1.07550000 1.34790000 -2.51160000
1.00920000 1.30410000 -2.48480000
1.00320000 1.34480000 -2.49670000
0.93400000 1.41050000 -2.45310000
1.01700000 1.40530000 -2.48950000
1.05360000 1.33860000 -2.65040000
1.02150000 1.72690000 -2.69350000
1.00590000 2.27870000 -2.70650000
0.71310000 1.20140000 -2.19150000
0.77630000 1.37430000 -2.26710000
0.69620000 1.32480000 -2.17060000
0.84630000 1.46570000 -2.34910000
0.74120000 1.50520000 -2.22210000
0.69920000 1.40880000 -2.17440000
0.71640000 1.44460000 -2.19320000
0.92330000 1.51950000 -2.43180000
0.84850000 1.61770000 -2.34970000
0.78250000 1.57020000 -2.27430000
0.73680000 1.58190000 -2.21580000
0.41890000 0.92320000 -1.76800000
0.38410000 1.08230000 -1.68920000
0.50540000 1.04010000 -1.89050000
0.44480000 1.10350000 -1.80950000
0.29770000 4.39930000 -1.44500000
0.52440000 1.26530000 -1.92020000
0.43370000 1.33820000 -1.76720000
-0.82830000 2.75440000 0.38100000
-0.82590000 2.74350000 -0.07630000
-0.80570000 2.86580000 -0.45280000
0.60780000 1.27710000 -2.05480000
0.52790000 1.38080000 -1.92820000
0.60760000 1.41020000 -2.04710000
0.52140000 1.53590000 -1.90710000
0.66090000 1.41290000 -2.12620000
0.65100000 1.49520000 -2.10540000
-0.83250000 2.83430000 0.15280000
0.68450000 1.61330000 -2.14610000
0.59950000 1.63310000 -2.02440000
0.64020000 1.69270000 -2.08120000
-0.82880000 2.97840000 0.27080000
0.52050000 1.72850000 -1.90170000
0.59410000 1.73580000 -2.01380000
0.06500000 7.25310000 -0.67760000
0.04400000 6.91880000 -0.61860000
0.13530000 7.06560000 -0.94700000
-0.11590000 4.59530000 -0.02580000
-0.10270000 5.51930000 -0.12580000
0.42190000 1.56370000 -1.73480000
-0.12890000 3.95550000 0.28000000
-0.13100000 3.22920000 0.11020000
0.28640000 7.89910000 -1.28120000
0.21790000 8.13170000 -1.10590000
0.49870000 1.97010000 -1.85560000
0.33980000 2.17170000 -1.57790000
0.10440000 7.66590000 -0.79680000
-0.04230000 5.41940000 -0.42090000
1.11600000 1.33440000 -2.54230000
1.11280000 1.36770000 -2.57470000
1.10870000 1.42130000 -2.53640000
1.07700000 1.44870000 -2.51400000
-0.46120000 7.44570000 -1.63280000
-0.12400000 3.40070000 -0.00210000
1.10780000 1.45820000 -2.57890000
1.06960000 1.50790000 -2.62360000
1.02350000 1.53040000 -2.49270000
0.97560000 1.46740000 -2.49070000
-0.54870000 6.62800000 -1.41680000
1.10600000 1.51890000 -2.53230000
-0.11670000 5.44690000 0.01220000
1.11370000 1.57230000 -2.57470000
1.06920000 1.59170000 -2.50330000
-0.06960000 3.35920000 -0.37530000
1.06660000 1.77980000 -2.62330000
1.11490000 1.62390000 -2.53910000
1.09510000 1.67310000 -2.59780000
1.11850000 1.68840000 -2.56720000
-0.53060000 8.07310000 -1.45590000
-0.12530000 5.08530000 0.19240000
0.94170000 1.65200000 -2.45610000
1.01350000 1.67630000 -2.48070000
0.88070000 1.79140000 -2.37800000
-0.08000000 3.66370000 0.69690000
-0.13360000 8.18980000 -2.29320000
-0.24720000 8.14020000 -2.08910000
0.78490000 1.71020000 -2.26910000
0.78770000 1.63120000 -2.28000000
0.74160000 1.64260000 -2.21960000
0.73980000 1.85610000 -2.20550000
1.08680000 1.67640000 -2.51150000
0.97810000 1.77940000 -2.48200000
1.11630000 1.74740000 -2.53610000
1.11440000 1.77790000 -2.57420000
1.08480000 1.78320000 -2.51360000
1.11280000 1.83040000 -2.53650000
1.00300000 1.82880000 -2.47260000
1.08510000 1.88560000 -2.51420000
1.09430000 1.87930000 -2.59590000
1.02910000 1.91790000 -2.49230000
0.98230000 1.87480000 -2.48300000
0.93510000 1.91480000 -2.43690000
0.84380000 2.00340000 -2.33030000
0.96900000 1.98890000 -2.48330000
0.92490000 2.01060000 -2.43180000
1.11590000 1.89490000 -2.56530000
1.11060000 1.95130000 -2.53610000
1.11290000 1.98330000 -2.57250000
1.06650000 2.04010000 -2.50530000
1.07410000 2.13430000 -2.61310000
1.10750000 2.03820000 -2.53220000
1.10010000 2.04890000 -2.58870000
1.11480000 2.10100000 -2.56340000
0.97460000 2.05150000 -2.46250000
0.95190000 2.10120000 -2.45540000
1.09870000 2.13140000 -2.52460000
1.00710000 2.16010000 -2.47080000
-0.76400000 3.38150000 -0.66680000
-0.78350000 3.27880000 -0.57260000
1.10070000 2.21450000 -2.52820000
1.10700000 2.22130000 -2.58020000
1.05260000 2.25990000 -2.49160000
0.94880000 2.20980000 -2.45030000
0.57450000 1.83920000 -1.98240000
0.70390000 1.66910000 -2.17000000
0.71540000 1.72620000 -2.18120000
-0.84050000 3.14130000 0.17210000
0.67770000 1.69690000 -2.13350000
0.65090000 1.78570000 -2.09190000
1.12390000 6.81460000 -2.55070000
1.11530000 6.76140000 -2.50640000
1.10390000 6.74970000 -2.59590000
1.13110000 6.73360000 -2.54840000
1.10880000 6.85570000 -2.58910000
1.06180000 6.80600000 -2.62500000
1.09100000 6.89410000 -2.47190000
0.65500000 1.87790000 -2.09570000
0.66910000 1.94730000 -2.11190000
0.61900000 1.86070000 -2.04710000
0.60370000 1.93190000 -2.02270000
0.80570000 2.11440000 -2.27920000
0.76730000 2.07750000 -2.23270000
0.72510000 2.00940000 -2.18050000
0.62360000 2.05490000 -2.04080000
1.11530000 6.92380000 -2.50790000
-0.83120000 3.13430000 0.09450000
1.02650000 6.72250000 -2.68520000
1.05610000 7.04750000 -2.63100000
1.10470000 7.00930000 -2.59100000
-0.80710000 3.51950000 -0.35120000
-0.82400000 3.46590000 -0.00460000
0.70520000 2.11830000 -2.14900000
0.75810000 2.14110000 -2.21740000
1.12340000 6.98160000 -2.54950000
0.62930000 2.22110000 -2.04090000
0.46170000 2.26640000 -1.78870000
1.11770000 7.08470000 -2.51060000
1.12240000 7.18800000 -2.54710000
1.09610000 7.22180000 -2.47580000
0.96270000 6.75620000 -2.34930000
0.99640000 6.94510000 -2.72180000
0.83270000 5.68420000 -2.82890000
0.93340000 7.37710000 -2.77140000
0.52440000 2.18780000 -1.89110000
0.53640000 2.40250000 -1.90180000
