-2.20570000 0.08360000 -0.26710000
-1.33520000 -1.70180000 0.27610000
1.46530000 -0.09750000 -0.33510000
-0.99880000 -0.76450000 0.34970000
-1.07790000 -0.74600000 0.35670000
1.42190000 -0.06260000 -0.32750000
-1.28660000 1.15270000 0.33620000
-2.25460000 0.22620000 -0.23980000
1.02030000 -1.40440000 0.31310000
-1.06020000 -0.67670000 0.35040000
-2.28980000 0.21440000 -0.21720000
-1.29110000 1.24600000 0.31880000
-1.07350000 -0.57860000 0.35270000
0.93220000 -1.39090000 0.31990000
-1.30810000 1.18020000 0.32030000
-1.07340000 -0.50470000 0.36310000
-2.18490000 0.22390000 -0.26750000
-2.08490000 0.22290000 -0.28970000
-1.13690000 -0.62960000 0.34920000
-1.15400000 -0.73650000 0.35770000
-1.44070000 -1.70210000 0.24410000
-1.20250000 -0.71240000 0.34480000
1.18950000 -0.25830000 -0.32110000
-2.14610000 0.29020000 -0.27710000
-1.39750000 1.30360000 0.32330000
1.15120000 -0.20920000 -0.34200000
1.26840000 -0.09850000 -0.32930000
1.22690000 -0.19310000 -0.31860000
-1.25420000 -0.92460000 0.35550000
-1.31830000 -0.89750000 0.34290000
1.18230000 -0.16580000 -0.32630000
-1.55330000 -1.72500000 0.17070000
-1.60510000 -1.72170000 0.12190000
1.10280000 -0.21330000 -0.36450000
-1.58830000 1.26720000 0.30930000
-1.27990000 -0.84050000 0.35500000
-1.33090000 -0.82590000 0.34030000
-1.68270000 1.33360000 0.27860000
-1.59430000 -1.60980000 0.21780000
1.12770000 -0.11980000 -0.35720000
1.18850000 -0.13340000 -0.33310000
-1.50370000 -1.59330000 0.26200000
-2.28650000 0.36850000 -0.21280000
1.24010000 -0.01650000 -0.32540000
-2.21360000 0.43460000 -0.25100000
1.21240000 -0.03390000 -0.32640000
1.17300000 -0.01460000 -0.34310000
-1.27270000 -1.62920000 0.30690000
-1.20650000 -0.56710000 0.34990000
-1.20470000 -1.54830000 0.32760000
-2.36570000 -0.26140000 -0.04160000
1.51340000 0.06160000 -0.34040000
1.47570000 0.02740000 -0.33840000
-1.26440000 -0.45280000 0.34610000
-1.14450000 -1.47800000 0.33070000
-1.10640000 -1.44790000 0.32340000
0.42710000 -1.53330000 0.32670000
1.29980000 0.04770000 -0.34740000
1.39920000 -0.01170000 -0.32640000
1.36680000 0.10250000 -0.33850000
-1.32340000 -1.56650000 0.30580000
0.40960000 -1.43630000 0.32670000
0.41930000 -1.48440000 0.33000000
-2.36510000 -0.24390000 0.01780000
0.42300000 -1.33420000 0.33200000
-2.37840000 -0.09630000 -0.02050000
-2.37270000 -0.12750000 -0.09850000
1.11540000 0.06500000 -0.36930000
-1.41770000 -1.59790000 0.28610000
-2.35600000 -0.07290000 0.09410000
-2.37240000 -0.12270000 0.05020000
0.37230000 -1.56180000 0.33460000
0.99320000 0.04680000 -0.37000000
1.00720000 -0.06050000 -0.36940000
-1.45810000 -1.50750000 0.29920000
0.38480000 -1.52160000 0.34860000
1.14970000 0.12340000 -0.35530000
0.34100000 -1.50810000 0.34350000
-2.37410000 -0.01110000 0.03560000
0.27820000 -1.49740000 0.34410000
0.37550000 -1.47080000 0.33820000
-1.83630000 0.57860000 -0.31490000
0.25570000 -1.43740000 0.33230000
-2.01380000 0.43900000 -0.29760000
-1.95120000 0.60400000 -0.30020000
0.88890000 -0.45780000 -0.35970000
-0.66660000 -0.57040000 0.37580000
0.22700000 -1.39310000 0.33970000
0.38520000 -1.38810000 0.33600000
0.17860000 -1.53940000 0.34910000
0.15820000 -1.47750000 0.34670000
-2.33330000 0.01000000 0.13490000
0.37490000 -1.34830000 0.34610000
-0.75010000 -0.48540000 0.37940000
-0.81370000 -0.54810000 0.37550000
-2.33000000 0.12840000 0.13730000
0.36210000 -1.29270000 0.34050000
0.31490000 -1.34530000 0.34710000
-0.88680000 -0.57450000 0.37540000
-2.13250000 0.43840000 -0.27590000
0.19010000 -1.34760000 0.35450000
0.22160000 -1.30440000 0.35330000
0.29060000 -1.26140000 0.33640000
0.14260000 -1.28480000 0.34530000
0.12620000 -1.24690000 0.33880000
-1.60900000 -1.72560000 -0.10550000
0.89530000 -0.15860000 -0.36660000
-0.63420000 -0.41570000 0.37510000
-1.64740000 -1.67130000 -0.13780000
-0.07020000 -1.51400000 0.35540000
-1.44710000 0.23630000 0.34970000
-1.64650000 -1.71110000 0.07240000
-1.64680000 -1.72440000 -0.00880000
0.02890000 -1.48060000 0.35320000
-1.67910000 -1.68300000 0.03840000
-1.55860000 0.18920000 0.35430000
-1.50970000 0.22640000 0.35870000
-0.56740000 -0.29830000 0.36380000
-0.60460000 -0.30710000 0.37290000
-0.05210000 -1.44620000 0.34050000
0.06500000 -1.41360000 0.33290000
-1.68890000 -1.67370000 -0.04030000
0.08450000 -1.37630000 0.33920000
-1.54780000 0.24970000 0.34610000
-1.70510000 -1.64170000 -0.10040000
-0.59740000 -0.17870000 0.36010000
-1.59000000 0.19760000 0.34100000
-0.07690000 -1.40090000 0.34130000
-1.63250000 0.22350000 0.34520000
0.02740000 -1.38760000 0.34320000
-1.70460000 -1.66930000 0.00960000
-1.73450000 -1.62530000 -0.05730000
-1.67770000 0.20400000 0.35500000
-0.00480000 -1.36730000 0.35700000
-1.76770000 -1.59150000 0.00180000
-0.09430000 -1.35760000 0.35730000
-1.67480000 -1.61790000 -0.15180000
-1.66550000 -1.57000000 -0.19960000
-1.67000000 0.27270000 0.34040000
0.06440000 -1.32390000 0.35100000
0.60910000 -0.39990000 -0.36270000
-1.72060000 0.20850000 0.34310000
0.01900000 -1.32840000 0.35810000
-0.78060000 -0.33790000 0.37240000
-0.01950000 -1.29890000 0.35230000
-0.03780000 -1.26070000 0.33970000
-0.07300000 -1.22340000 0.34630000
-0.93620000 -0.47680000 0.37590000
0.08070000 -1.21740000 0.34600000
-1.73620000 -1.55920000 -0.15560000
0.62740000 -0.29710000 -0.35480000
0.69070000 -0.25180000 -0.36630000
0.61110000 -0.24330000 -0.33370000
-0.21370000 -1.47550000 0.34760000
-1.42680000 0.44160000 -0.30570000
-1.77030000 -1.56480000 -0.10560000
-1.77690000 -1.59090000 -0.05900000
-0.31140000 -1.46810000 0.34580000
-0.23060000 -1.42280000 0.33600000
-1.79800000 -1.47540000 -0.16500000
0.68800000 -0.17320000 -0.36320000
-0.84550000 -0.34710000 0.37550000
-0.19110000 -1.38700000 0.34960000
-0.21440000 -1.34330000 0.35720000
-1.80750000 -1.51290000 -0.12270000
-1.83160000 -1.50460000 -0.06460000
-0.25560000 -1.37900000 0.34110000
-0.96760000 -0.24170000 0.37120000
-1.48140000 0.65230000 -0.30190000
-0.30050000 -1.33210000 0.35580000
-0.15450000 -1.29590000 0.35400000
-1.38320000 0.72980000 -0.30800000
-0.32660000 -1.23610000 0.34040000
-0.29800000 -1.29150000 0.35640000
-0.31760000 -1.26260000 0.34410000
-1.31190000 0.75990000 -0.32260000
-1.65930000 -1.65570000 0.14490000
-0.26900000 -1.18110000 0.34980000
-1.36200000 0.77600000 -0.31630000
-1.73510000 -1.60360000 0.10710000
-1.33840000 0.85810000 -0.31560000
-1.78510000 -1.57070000 0.05840000
0.73000000 -0.04470000 -0.36900000
0.68310000 -0.05200000 -0.34950000
-0.33570000 -1.35300000 0.33940000
-0.36300000 -1.31100000 0.33730000
0.66040000 -0.15030000 -0.34320000
-1.41800000 0.81800000 -0.30360000
-1.65560000 -1.59560000 0.19100000
-1.49140000 0.83600000 -0.30160000
-0.56790000 -1.37280000 0.33880000
-0.87140000 -0.20320000 0.37730000
0.63700000 -0.05240000 -0.32890000
-0.78170000 -0.09400000 0.37310000
-1.73970000 -1.56350000 0.14870000
-1.81330000 -1.50260000 0.12520000
-1.79360000 -1.44100000 0.19060000
-1.73900000 0.53420000 -0.29850000
-1.75570000 0.57870000 -0.31260000
-0.86270000 -0.08540000 0.37570000
-1.70400000 0.61830000 -0.29450000
1.04200000 0.21490000 -0.37330000
-1.85470000 -1.47910000 0.09410000
0.81480000 0.12080000 -0.36920000
-1.84790000 -1.42520000 0.15230000
-1.82790000 -1.53540000 -0.00530000
-1.82180000 -1.53100000 -0.04630000
-1.85400000 -1.48690000 -0.08660000
-1.87540000 -1.45350000 -0.04780000
-1.86690000 -1.48430000 0.00850000
-1.84880000 -1.49300000 0.04870000
-2.36830000 -0.04190000 -0.12170000
-1.88040000 -1.45840000 -0.00560000
-2.35080000 0.02400000 -0.16810000
-1.85590000 -1.45690000 -0.11590000
-2.38180000 -0.00800000 -0.04860000
-1.89280000 -1.43200000 -0.06750000
0.69000000 0.06700000 -0.35340000
1.05320000 -1.67390000 -0.29820000
-2.36920000 0.05980000 -0.12800000
0.73350000 0.11260000 -0.36820000
-2.32440000 0.19090000 -0.18740000
-1.04470000 -0.46790000 0.37320000
0.86970000 -1.66390000 -0.30830000
-1.15800000 -0.41780000 0.35120000
1.03950000 -1.54400000 -0.31140000
0.73810000 -1.66940000 -0.29880000
0.66180000 0.12420000 -0.34110000
0.69830000 0.17700000 -0.36380000
-1.01140000 -0.42480000 0.36770000
-0.98870000 -0.34810000 0.37130000
0.56280000 -1.64380000 -0.28660000
-2.37790000 0.05660000 -0.06240000
-2.37950000 0.12210000 0.01540000
-1.08800000 -0.25860000 0.37190000
-1.60250000 0.62060000 -0.29900000
-2.35000000 0.18690000 -0.15340000
-2.37800000 0.14940000 -0.07520000
-1.15060000 -0.26500000 0.36480000
-2.36840000 0.17090000 -0.12130000
1.45640000 -0.12270000 0.31070000
1.49980000 -0.13090000 0.32240000
0.46050000 -1.63950000 -0.29090000
-1.59050000 0.70710000 -0.29610000
1.50530000 -0.08290000 0.31360000
1.50980000 -0.04570000 0.29990000
-1.94520000 -1.36050000 -0.05220000
-1.92640000 -1.38550000 -0.00280000
1.48220000 -0.02270000 0.30940000
1.38220000 -0.10990000 0.32270000
-1.59820000 0.82650000 -0.29500000
-1.87590000 -1.45230000 0.05700000
1.38730000 -0.05860000 0.31360000
-1.65840000 0.69950000 -0.29320000
-2.33350000 0.33000000 -0.16530000
1.32710000 -0.13720000 0.32620000
-1.66170000 0.78730000 -0.31070000
-2.36720000 0.25630000 -0.07310000
-2.36090000 0.27270000 -0.12040000
-1.91330000 -1.38780000 0.09960000
1.22970000 -1.55430000 -0.29970000
1.28880000 -0.11430000 0.32330000
1.31710000 -0.03020000 0.31790000
-1.94100000 -1.36930000 0.05000000
1.40520000 0.12560000 0.31180000
-1.73080000 0.72960000 -0.32060000
-1.64970000 0.77390000 -0.29830000
1.25220000 -0.05200000 0.31620000
-1.64510000 0.86800000 -0.32030000
1.22270000 0.09660000 0.31720000
-1.27670000 -0.37110000 0.36170000
-1.29200000 -0.43260000 0.35040000
-1.22830000 -0.34030000 0.35240000
-2.36860000 0.14370000 0.07310000
1.18960000 0.11990000 0.32940000
-1.70790000 0.91270000 -0.31770000
1.08860000 -1.57900000 -0.30820000
-1.44390000 0.85530000 -0.30800000
-1.32630000 -0.34310000 0.35780000
-1.63450000 -1.49970000 0.24870000
1.15720000 -0.03460000 0.34020000
-1.53130000 0.92730000 -0.30060000
-2.36520000 0.29750000 0.01430000
-1.57140000 0.93640000 -0.30640000
-1.25940000 -0.27390000 0.35820000
-2.36020000 0.28430000 0.06030000
1.48270000 0.05920000 -0.33190000
-2.23600000 0.23470000 0.23480000
-1.21120000 -0.18910000 0.35350000
-2.28840000 0.28320000 0.17530000
1.19440000 -1.45570000 -0.31190000
1.44860000 0.08740000 -0.32650000
-1.65870000 -1.40340000 0.27150000
-1.74730000 -1.42830000 0.22520000
1.26690000 -1.35700000 -0.31200000
-2.33220000 0.33360000 0.10950000
-1.87980000 0.29300000 0.32960000
1.46700000 0.18110000 -0.34000000
-1.30680000 -0.23410000 0.36460000
1.41620000 0.09530000 -0.32830000
-1.24740000 -0.10860000 0.35290000
1.16870000 -1.38740000 -0.30570000
1.13170000 -1.45130000 -0.31310000
1.41790000 0.24520000 -0.33270000
-2.33980000 0.42560000 -0.11090000
1.39440000 0.20420000 -0.33190000
-2.36280000 0.35540000 -0.05250000
1.22960000 -1.29890000 -0.29630000
1.34970000 0.22250000 -0.34870000
1.23750000 -1.25990000 -0.29600000
1.50700000 0.26470000 -0.34440000
1.14180000 -1.36040000 -0.29700000
1.18030000 -1.28810000 -0.30370000
-0.95400000 -0.11810000 0.37220000
1.35550000 0.27490000 -0.33910000
1.11900000 -1.26650000 -0.32000000
-2.31370000 0.45510000 -0.15760000
1.54650000 0.34200000 -0.33120000
1.43660000 0.30760000 -0.33830000
-2.32860000 0.50670000 -0.06160000
-2.09840000 0.26110000 0.29880000
1.48580000 0.38290000 -0.33580000
-0.98660000 0.01250000 0.37440000
-2.13710000 0.28420000 0.28130000
-1.03650000 -0.13480000 0.37530000
0.98330000 -1.50180000 -0.29510000
1.03590000 -1.49030000 -0.30340000
-2.35550000 0.39850000 0.01030000
-2.18430000 0.28240000 0.26310000
-2.33520000 0.44050000 0.07170000
-1.08400000 -0.03340000 0.36910000
-1.13160000 -0.09900000 0.37130000
-2.33590000 0.48270000 0.03040000
0.98090000 -1.44620000 -0.29400000
-2.24390000 0.31570000 0.21590000
1.36490000 0.34030000 -0.33070000
1.06730000 -1.43120000 -0.29470000
-2.31400000 0.58490000 -0.00130000
1.41770000 0.42880000 -0.32900000
1.01300000 -1.36900000 -0.31070000
-2.26890000 0.45300000 0.16970000
1.34210000 0.46630000 -0.33400000
-1.85370000 -1.30650000 0.21760000
-1.92900000 -1.33990000 0.13180000
1.19580000 0.18920000 -0.33110000
1.08750000 -1.35390000 -0.30910000
1.26680000 0.18030000 -0.34030000
-1.92820000 -1.28950000 0.17250000
1.05090000 -1.29370000 -0.32140000
-2.28550000 0.52930000 0.13320000
-1.97430000 -1.24690000 0.14180000
-1.16500000 -0.00280000 0.36540000
1.30970000 0.25780000 -0.35310000
1.23300000 0.27450000 -0.33030000
-2.29780000 0.59550000 0.07120000
1.14480000 0.23400000 -0.35070000
-2.17770000 0.44530000 0.24590000
1.10570000 0.18220000 -0.36680000
-2.22790000 0.42920000 0.21910000
0.98050000 -1.26140000 -0.30240000
-1.30730000 -0.11530000 0.36780000
-2.24990000 0.69850000 0.11000000
-1.30100000 -0.06120000 0.36230000
-1.27650000 -0.04400000 0.35100000
1.27020000 0.30590000 -0.34520000
-1.94460000 -1.20510000 0.20420000
-2.24800000 0.63770000 -0.18590000
-2.23860000 0.52220000 -0.22290000
1.09150000 0.30380000 -0.37050000
1.08810000 0.43330000 -0.35040000
1.31630000 0.37690000 -0.33900000
1.27630000 0.39970000 -0.33640000
-2.30560000 0.55880000 -0.11650000
-1.79730000 0.53830000 -0.31760000
-2.26650000 0.67430000 -0.13590000
1.18990000 0.39160000 -0.32760000
1.14610000 0.36540000 -0.33420000
-0.50380000 -0.36480000 -0.30900000
-0.55600000 -0.38350000 -0.31700000
-0.62860000 -0.32200000 -0.33130000
-2.29310000 0.65920000 -0.05960000
-2.28130000 0.70760000 0.00640000
-2.24580000 0.77780000 -0.10210000
-0.50200000 -0.20340000 -0.31270000
1.11660000 0.50020000 -0.33340000
-0.57850000 -0.27590000 -0.31190000
-2.22390000 0.79680000 -0.14860000
-2.25830000 0.76320000 -0.03410000
1.33190000 0.53850000 -0.32880000
-2.24640000 0.77890000 0.05930000
-2.24140000 0.81060000 0.02100000
1.11640000 0.60640000 -0.32960000
-0.67250000 -0.17800000 -0.32590000
-0.54980000 -0.07820000 -0.31160000
-0.62660000 -0.11780000 -0.31560000
0.97340000 0.07740000 0.34660000
-0.72330000 -0.26700000 -0.35240000
0.68070000 0.09000000 0.34900000
0.64230000 0.02440000 0.34150000
-0.69830000 -0.23010000 -0.34600000
0.83300000 0.31770000 -0.36990000
-1.86710000 0.87990000 -0.30270000
-2.02720000 0.77540000 -0.28060000
-1.88010000 1.01460000 -0.29030000
1.00710000 0.31170000 -0.37010000
-2.05230000 0.62300000 -0.28230000
-0.74460000 -0.12770000 -0.35230000
-2.12490000 0.58450000 -0.26610000
1.02830000 0.47100000 -0.36890000
-2.18210000 0.58120000 -0.24640000
-0.68930000 0.02790000 -0.32680000
-0.73060000 -0.00650000 -0.34560000
0.96130000 0.50060000 -0.37450000
0.98070000 0.65100000 -0.35180000
0.87100000 0.41870000 -0.37140000
-2.19680000 0.71090000 -0.21520000
-2.11480000 0.79830000 -0.24740000
0.65130000 0.24060000 -0.34960000
0.68630000 0.28840000 -0.36850000
-2.00920000 -1.20450000 0.13590000
-1.97070000 0.99720000 -0.26860000
-2.03390000 1.04790000 -0.23010000
-2.16470000 0.87500000 -0.18900000
-2.10360000 0.94500000 -0.21790000
-2.14840000 0.96810000 -0.15880000
0.28010000 -1.22550000 0.33390000
0.23670000 -1.18800000 0.34660000
1.51810000 0.02470000 0.32400000
-0.64260000 -1.36180000 0.33690000
1.45450000 0.06320000 0.30870000
1.47880000 0.08870000 0.31900000
0.05250000 -1.18130000 0.36420000
1.52640000 0.10160000 0.32130000
-0.62910000 -1.26830000 0.34020000
1.38500000 0.02750000 0.31820000
0.38230000 -1.10000000 0.35840000
-0.74260000 -1.37210000 0.33990000
1.34280000 0.04220000 0.32770000
-0.79270000 -1.35910000 0.35100000
-0.72630000 -1.32060000 0.34830000
1.33960000 0.14720000 0.32650000
-0.76480000 -1.30310000 0.35300000
0.23910000 -1.13260000 0.36220000
0.31790000 -1.04040000 0.35910000
-0.72020000 -1.25790000 0.34290000
-0.64660000 -1.22520000 0.35580000
-0.63970000 -1.18380000 0.35710000
1.54320000 0.22930000 0.31640000
-0.70850000 -1.19690000 0.35670000
0.28990000 -0.96590000 0.36340000
0.23940000 -0.96170000 0.36050000
1.48980000 0.29610000 0.31700000
1.45740000 0.29540000 0.31270000
-0.77180000 -1.20900000 0.34430000
0.38230000 -0.91850000 0.36040000
1.53220000 0.37200000 0.30060000
-0.83620000 -1.37070000 0.33810000
1.42880000 0.28370000 0.30780000
-0.89850000 -1.35390000 0.33740000
-0.81310000 -1.30440000 0.35050000
1.36540000 0.26720000 0.32290000
-0.89360000 -1.29770000 0.35000000
-0.83040000 -1.25910000 0.35420000
-0.90560000 -1.25700000 0.35870000
1.34360000 0.35810000 0.31310000
1.30100000 0.10320000 0.32550000
1.26160000 0.17740000 0.31660000
0.12450000 -1.09010000 0.36300000
-0.91620000 -1.19680000 0.35630000
0.13620000 -0.91650000 0.36720000
1.08940000 0.15530000 0.34060000
-0.09270000 -1.08450000 0.36710000
1.13920000 0.19460000 0.34200000
0.07310000 -0.94850000 0.37130000
-0.09040000 -1.00590000 0.37200000
1.30330000 0.28560000 0.32520000
0.03590000 -0.88310000 0.36840000
-0.07010000 -0.94560000 0.36900000
1.25740000 0.37770000 0.31240000
0.10070000 -0.85860000 0.37400000
1.15760000 0.29420000 0.33260000
-0.07020000 -0.87630000 0.37360000
1.21020000 0.34340000 0.31230000
1.15520000 0.42800000 0.31840000
0.27770000 -0.59800000 -0.32780000
1.08060000 0.29810000 0.33830000
1.10610000 0.37200000 0.34170000
1.09120000 0.53070000 0.32970000
1.45180000 0.42610000 0.30150000
-0.21000000 -1.15070000 0.36550000
1.35770000 0.45270000 0.30190000
1.38740000 0.69800000 0.30060000
-0.33550000 -1.06700000 0.36600000
-0.22590000 -1.04260000 0.36540000
-0.24750000 -0.92940000 0.36920000
1.29660000 0.53640000 0.30610000
1.19080000 0.48920000 0.31020000
1.26030000 0.64300000 0.30510000
1.13400000 0.60220000 0.30970000
1.15860000 0.70370000 0.31310000
1.27520000 0.75990000 0.30360000
1.24400000 0.72890000 0.31040000
1.19160000 0.77920000 0.32030000
1.18090000 0.74660000 0.32730000
0.86440000 0.08200000 0.35260000
0.87130000 0.18100000 0.34850000
0.75840000 0.11730000 0.35130000
0.99360000 0.25010000 0.34210000
0.93090000 0.34700000 0.34280000
1.06920000 0.47510000 0.33990000
0.98330000 0.56030000 0.33950000
1.07340000 0.63840000 0.31500000
0.88250000 0.52530000 0.34460000
1.06110000 0.73050000 0.31190000
0.98950000 0.65560000 0.33820000
1.11360000 0.75530000 0.32690000
1.03340000 0.78330000 0.31610000
0.99490000 0.77700000 0.31610000
-0.62680000 1.26480000 -0.31850000
-0.59530000 1.39380000 -0.31990000
-0.43830000 1.29780000 -0.32290000
1.46990000 1.73370000 0.21050000
1.31280000 1.82100000 0.22950000
1.37530000 1.73930000 0.23780000
0.47690000 1.10910000 -0.34200000
0.41830000 1.16700000 -0.33290000
0.59910000 1.14710000 -0.33110000
0.49190000 1.22910000 -0.33110000
1.48570000 1.80480000 0.15640000
1.35820000 1.86470000 0.18840000
-0.51750000 1.49300000 -0.32060000
-0.35740000 1.40900000 -0.32560000
1.45090000 1.87730000 0.11670000
-1.77840000 1.26900000 -0.27690000
-1.63370000 1.47900000 -0.27430000
-1.67860000 1.28500000 -0.29470000
0.59890000 1.03000000 -0.35100000
0.47890000 1.05580000 -0.36770000
1.38110000 1.89360000 0.15680000
-1.81070000 1.34940000 -0.25040000
0.44050000 1.01630000 -0.37640000
0.24470000 1.12730000 -0.36800000
1.50710000 1.09980000 -0.35170000
1.44280000 1.21900000 -0.35100000
0.17900000 1.06390000 -0.37140000
0.32300000 1.15190000 -0.35050000
1.26070000 1.88750000 0.21740000
1.51620000 1.22140000 -0.34640000
1.26750000 1.92740000 0.19160000
1.26050000 1.97840000 0.15290000
1.36140000 1.95940000 0.09760000
1.40540000 1.17390000 -0.34230000
1.43070000 1.09030000 -0.33520000
1.48190000 1.07250000 -0.34080000
-1.93120000 1.16070000 -0.25000000
-0.65530000 1.51280000 -0.31000000
1.59240000 0.79460000 -0.32480000
1.48310000 0.83820000 -0.32810000
-1.94560000 1.24810000 -0.21650000
-1.84930000 1.38330000 -0.21870000
-1.94740000 1.31240000 -0.17630000
0.19870000 1.17980000 -0.34740000
0.27970000 1.22500000 -0.32990000
-1.70820000 1.53900000 -0.22460000
1.37830000 1.09460000 -0.33860000
1.37460000 1.15870000 -0.33350000
-0.19720000 1.56080000 -0.33860000
-0.11500000 1.50310000 -0.34120000
-0.29800000 1.51490000 -0.34190000
-0.21550000 1.59670000 -0.32810000
1.36350000 1.24810000 -0.34570000
1.30240000 1.15020000 -0.34610000
-0.38390000 1.55580000 -0.32950000
1.33000000 1.07810000 -0.34750000
-0.34580000 1.62000000 -0.32260000
1.30390000 1.19490000 -0.33680000
1.29920000 1.25590000 -0.33260000
-1.85600000 1.44460000 -0.17260000
0.64980000 1.19420000 -0.34410000
0.70360000 1.21810000 -0.33930000
0.70220000 1.17620000 -0.33930000
1.56800000 0.88850000 -0.33140000
-1.85180000 1.48020000 -0.13990000
0.52880000 1.31760000 -0.33380000
0.71580000 1.30810000 -0.33600000
1.36000000 1.38940000 -0.34870000
-0.10740000 1.69870000 -0.34340000
-0.16460000 1.63760000 -0.32810000
-0.28450000 1.67710000 -0.33680000
0.62410000 1.23200000 -0.33500000
-0.20580000 1.72100000 -0.34360000
0.62010000 1.18290000 -0.34060000
-1.78970000 1.50040000 -0.19280000
-0.28630000 1.72770000 -0.33610000
1.31280000 1.02410000 -0.34020000
1.21280000 1.16580000 -0.35050000
1.21000000 1.07660000 -0.33860000
-0.36180000 1.68080000 -0.31920000
0.79780000 1.36050000 -0.34110000
0.76800000 1.33270000 -0.34640000
1.17680000 1.25070000 -0.34850000
0.60250000 1.42580000 -0.33420000
1.23070000 1.27660000 -0.33440000
1.22540000 0.62110000 -0.33060000
-0.47500000 1.59820000 -0.31510000
1.29120000 1.35040000 -0.35080000
-2.03760000 1.20660000 -0.14230000
-2.04900000 1.12100000 -0.18940000
-0.23820000 1.76480000 -0.32560000
-0.25060000 1.79800000 -0.31980000
-0.15150000 1.79490000 -0.32020000
-0.31100000 1.75480000 -0.31980000
-0.11130000 1.83230000 -0.32840000
-0.31450000 1.82270000 -0.33450000
-0.12480000 1.86810000 -0.34260000
-0.34030000 1.87610000 -0.33840000
-0.43850000 1.72970000 -0.31120000
-0.39190000 1.77340000 -0.31730000
0.33030000 1.30900000 -0.33110000
1.24170000 0.83740000 -0.33740000
1.32300000 0.81700000 -0.33280000
-2.04250000 1.23350000 -0.08970000
1.44760000 1.42430000 -0.33510000
-0.48870000 1.80710000 -0.33680000
-0.46640000 1.78230000 -0.32900000
-0.53270000 1.87970000 -0.33180000
1.18210000 0.71830000 -0.33470000
-1.96010000 1.34440000 -0.12370000
-1.97310000 1.34980000 -0.04400000
-2.01940000 1.27670000 -0.04280000
1.16610000 0.83200000 -0.33930000
1.14250000 0.75600000 -0.34340000
-0.63570000 1.63810000 -0.30810000
1.28170000 0.90770000 -0.34490000
1.54920000 1.56820000 -0.29370000
0.35410000 1.45540000 -0.33010000
0.28180000 1.34920000 -0.33860000
0.25110000 1.40700000 -0.33650000
1.21400000 0.92820000 -0.34440000
0.69560000 1.45140000 -0.33240000
-0.56400000 1.72310000 -0.31270000
0.73100000 0.65170000 -0.37590000
1.46450000 1.56910000 -0.31510000
-1.91120000 1.42750000 -0.06620000
0.47330000 1.53880000 -0.33230000
-0.68500000 1.68840000 -0.31220000
-0.61380000 1.75030000 -0.32900000
1.05070000 0.65540000 -0.33080000
0.62670000 1.59000000 -0.32860000
0.79560000 1.53810000 -0.33240000
-1.84110000 1.45530000 0.11350000
0.97200000 0.60800000 -0.36810000
0.90950000 0.64590000 -0.37550000
1.24180000 1.34670000 -0.33560000
-0.68470000 1.77920000 -0.33140000
1.22660000 1.38500000 -0.34440000
-1.77050000 1.48310000 0.16480000
0.68560000 1.68920000 -0.32840000
0.95730000 0.73510000 -0.34830000
0.89330000 0.72550000 -0.37040000
0.84920000 0.84690000 -0.34660000
-1.82660000 1.53400000 -0.10230000
-0.78840000 1.12660000 -0.33210000
-0.77120000 1.18740000 -0.32190000
-0.70660000 1.14910000 -0.33100000
1.07940000 0.76290000 -0.34170000
1.18160000 1.53250000 -0.34990000
0.57500000 1.79490000 -0.35170000
0.80300000 1.73560000 -0.35080000
0.73940000 1.70760000 -0.34450000
1.11800000 0.80930000 -0.34210000
0.53440000 1.75520000 -0.33260000
-1.84150000 1.52690000 -0.02850000
-1.91770000 1.42460000 -0.00050000
1.02170000 0.75960000 -0.33270000
-0.79730000 1.28060000 -0.31800000
-0.84570000 1.18120000 -0.32060000
1.08130000 0.82980000 -0.35240000
1.02280000 0.82900000 -0.34780000
-0.87250000 1.22110000 -0.32960000
-0.87960000 1.27800000 -0.32980000
-1.76820000 1.60610000 -0.08190000
0.96310000 0.77560000 -0.33390000
-1.71230000 1.64470000 -0.14110000
0.49700000 1.72280000 -0.32560000
-0.84750000 1.33400000 -0.31380000
1.28700000 1.57310000 -0.33570000
0.97000000 0.83380000 -0.33840000
0.41040000 1.80070000 -0.33780000
-0.93510000 1.13810000 -0.32390000
-1.67630000 1.70700000 -0.06390000
-1.75840000 1.62790000 -0.03310000
-0.92470000 1.21550000 -0.33010000
0.92040000 0.84380000 -0.33310000
-0.98270000 1.18390000 -0.33640000
-0.96280000 1.25540000 -0.32410000
-1.74130000 1.63540000 0.02170000
-1.79240000 1.57560000 0.00940000
-1.83840000 1.52030000 0.02550000
-1.89730000 1.43840000 0.04550000
-1.85330000 1.47700000 0.06380000
1.30920000 1.76600000 -0.29130000
1.08270000 0.89610000 -0.34450000
1.08780000 0.95360000 -0.34200000
0.26100000 1.50670000 -0.34060000
0.16920000 1.46150000 -0.33440000
-0.88830000 1.34120000 -0.31430000
1.00260000 0.92020000 -0.35120000
-1.77470000 1.57620000 0.07990000
-0.92970000 1.36830000 -0.31380000
-0.96810000 1.30490000 -0.31520000
0.93810000 0.91720000 -0.35080000
0.91780000 0.89270000 -0.33830000
1.26230000 1.69380000 -0.32440000
-1.05150000 1.16520000 -0.32640000
-1.04340000 1.24120000 -0.31650000
-1.11300000 1.19730000 -0.31350000
0.82870000 0.68270000 -0.37850000
0.30290000 1.57470000 -0.33380000
0.34460000 1.67150000 -0.32790000
1.13110000 1.74110000 -0.32660000
0.23570000 1.55790000 -0.34420000
-1.97980000 1.30170000 0.07200000
1.10860000 1.01060000 -0.34990000
-1.03200000 1.30000000 -0.32200000
-1.98550000 1.32190000 0.02270000
-0.98940000 1.38240000 -0.32930000
0.82120000 0.80800000 -0.37010000
-1.06200000 1.34000000 -0.32790000
-1.11010000 1.25500000 -0.32660000
-1.18370000 1.23800000 -0.30590000
1.18540000 1.02950000 -0.34870000
1.07830000 1.11100000 -0.34770000
-1.14750000 1.14480000 -0.31300000
-1.22870000 1.20680000 -0.30100000
1.11740000 1.73760000 0.28150000
1.34550000 1.57320000 0.27320000
1.27960000 1.73710000 0.25820000
-1.16650000 1.28490000 -0.31810000
-1.12180000 1.34810000 -0.31560000
0.91370000 1.05400000 -0.34360000
0.52620000 0.79810000 -0.37610000
0.95250000 1.07890000 -0.34240000
0.68930000 0.86810000 -0.37700000
1.17090000 1.86640000 0.24840000
-1.21690000 1.30710000 -0.30260000
-1.20390000 1.35370000 -0.30560000
-1.10890000 1.40410000 -0.30520000
0.94640000 1.16360000 -0.35220000
-1.13410000 1.43160000 -0.31070000
-0.77790000 1.40520000 -0.31560000
-0.77190000 1.54320000 -0.30780000
0.32510000 1.78210000 -0.32520000
-0.79460000 1.46320000 -0.30720000
0.29060000 1.74440000 -0.33460000
0.87970000 1.01520000 -0.35230000
0.86290000 0.95150000 -0.34330000
0.99290000 1.88860000 0.26980000
0.85030000 0.90750000 -0.33450000
0.77800000 0.99980000 -0.33710000
0.79670000 1.03090000 -0.34810000
-1.57270000 1.60510000 -0.25790000
0.04500000 1.15190000 -0.36980000
0.80760000 1.08920000 -0.35040000
0.05530000 1.18820000 -0.34970000
0.76350000 0.93700000 -0.34920000
1.16950000 1.94720000 0.21420000
0.83380000 1.19330000 -0.34250000
0.08260000 1.24890000 -0.32930000
-0.92480000 1.44840000 -0.30730000
-0.90660000 1.51970000 -0.30420000
0.61990000 0.96420000 -0.36990000
-1.65250000 1.64400000 -0.19710000
-0.97580000 1.43210000 -0.31670000
1.20280000 2.05800000 0.10030000
0.69180000 1.04120000 -0.33390000
1.08750000 2.04620000 0.17920000
0.72630000 1.07600000 -0.34450000
1.12770000 2.06530000 0.14210000
0.96920000 1.99880000 0.24050000
-1.56390000 1.78870000 -0.13730000
-1.68310000 1.69610000 -0.10660000
-1.03020000 1.42060000 -0.32410000
0.71430000 1.13350000 -0.35070000
0.76770000 1.17020000 -0.34950000
-0.06310000 1.16090000 -0.36460000
-1.03570000 1.46800000 -0.30620000
-0.17150000 1.10940000 -0.36830000
-0.10280000 1.18710000 -0.34370000
0.93760000 1.23160000 -0.35150000
1.15060000 1.18200000 -0.34560000
-1.00580000 1.49650000 -0.30410000
-0.97880000 1.54700000 -0.31600000
-1.67230000 1.71260000 0.01010000
1.13570000 1.23450000 -0.35040000
-0.09760000 1.22750000 -0.32980000
-1.05730000 1.50360000 -0.31740000
1.05100000 1.20630000 -0.34250000
-0.90400000 1.57670000 -0.30730000
-0.05640000 1.28780000 -0.32520000
0.93460000 2.07740000 0.21170000
1.09750000 1.25430000 -0.34000000
-1.05920000 1.55930000 -0.32710000
-0.15320000 1.27770000 -0.33090000
-0.92480000 1.61040000 -0.32830000
-0.18210000 1.15410000 -0.35620000
-0.90200000 1.67160000 -0.33030000
-1.05800000 1.65750000 -0.32420000
-0.27520000 1.11810000 -0.36380000
-0.35970000 1.13950000 -0.33760000
-0.23910000 1.21210000 -0.33070000
-1.12140000 1.47610000 -0.32420000
-0.19770000 1.24260000 -0.32360000
-1.31300000 1.39920000 0.32320000
1.09610000 1.39500000 -0.33690000
1.07050000 1.33530000 -0.33830000
-1.17530000 1.48710000 -0.32560000
0.80790000 1.86130000 0.29290000
0.99270000 1.70740000 0.29470000
-1.40210000 1.39860000 0.32370000
-1.17820000 1.36480000 0.32250000
-1.13740000 1.35900000 0.31770000
-1.18740000 1.42060000 0.32850000
0.12270000 1.29520000 -0.33530000
0.93330000 1.63140000 0.29960000
0.72070000 1.81720000 0.30110000
0.70860000 1.73840000 0.30240000
-1.22820000 1.55790000 -0.31920000
1.02010000 1.28810000 -0.33670000
-1.15320000 1.58250000 0.31350000
0.19270000 1.35340000 -0.34620000
-1.10440000 1.49930000 0.32520000
0.98420000 1.34020000 -0.34580000
0.10930000 1.36680000 -0.34560000
-0.79960000 1.61630000 -0.30650000
-1.30680000 1.49800000 0.31740000
-1.23840000 1.58420000 0.31400000
0.04800000 1.40230000 -0.33650000
-0.81370000 1.65770000 -0.32250000
0.00990000 1.30670000 -0.32830000
0.82900000 1.27090000 -0.34730000
-1.38160000 1.52990000 0.30080000
-0.04790000 1.32480000 -0.33480000
0.90750000 1.33020000 -0.34530000
-0.73810000 1.72080000 -0.32990000
0.87370000 1.36320000 -0.33750000
-0.85110000 1.81050000 -0.31950000
-1.27900000 1.64010000 0.29460000
-1.37490000 1.62900000 0.28480000
-0.10860000 1.37490000 -0.33660000
-0.87000000 1.77060000 -0.32570000
0.27270000 0.79460000 -0.37120000
0.72760000 1.98630000 0.27790000
0.83150000 2.03320000 0.25430000
-0.21920000 1.30230000 -0.33900000
-1.52230000 1.34140000 0.31460000
-1.48450000 1.38960000 0.30830000
0.20800000 0.70980000 -0.36540000
-1.00220000 1.75620000 -0.31460000
-0.09900000 1.44010000 -0.33180000
-1.48890000 1.48360000 0.29930000
1.14340000 1.41000000 -0.33540000
-1.60990000 1.36310000 0.29710000
1.13260000 1.48830000 -0.34980000
-0.76000000 1.93000000 -0.31120000
-1.57640000 1.48710000 0.27340000
0.35830000 0.95410000 -0.37220000
-0.20030000 1.35050000 -0.34160000
1.01800000 1.42040000 -0.34360000
0.22510000 0.66660000 -0.34510000
-1.64520000 1.40020000 0.27970000
-0.26130000 1.45730000 -0.33360000
-1.68480000 1.42880000 0.25390000
-0.29900000 1.44050000 -0.32750000
-0.01850000 0.78930000 -0.36790000
-1.64720000 1.51160000 0.23420000
-0.88420000 1.92840000 -0.30120000
-1.42970000 1.54750000 0.29270000
0.12630000 1.49480000 -0.34280000
0.13770000 1.52800000 -0.35070000
-1.47480000 1.57130000 0.27820000
0.99810000 1.51300000 -0.33240000
-1.52890000 1.59260000 0.24810000
0.00820000 1.54230000 -0.34630000
0.94720000 1.48200000 -0.33630000
-1.16580000 1.72410000 -0.30620000
1.01100000 1.56690000 -0.34550000
0.26260000 1.68050000 -0.33720000
-1.59090000 1.57680000 0.23570000
0.20320000 1.67050000 -0.33300000
0.09520000 1.61600000 -0.33270000
-0.97300000 1.84040000 -0.31090000
-1.47160000 1.62690000 0.25520000
-1.36950000 1.74800000 0.24070000
0.06960000 1.57760000 -0.34330000
1.04800000 1.74620000 -0.33730000
-1.50630000 1.65570000 0.23610000
-1.44570000 1.71410000 0.22870000
0.07030000 1.66990000 -0.33780000
-1.54050000 1.66150000 0.20630000
-1.50250000 1.75430000 0.16420000
0.95210000 1.64620000 -0.35180000
-1.37770000 1.82390000 0.19150000
1.03810000 1.67810000 -0.34820000
-0.94470000 1.88680000 -0.29950000
-1.70410000 1.50410000 0.20460000
0.03290000 0.70560000 -0.34540000
-1.61530000 1.64380000 0.17840000
0.20190000 1.75160000 -0.33900000
0.16710000 1.71340000 -0.34610000
-0.99710000 1.96490000 -0.27830000
0.91710000 1.41260000 -0.34830000
0.13840000 1.80400000 -0.32600000
-1.06990000 1.86880000 -0.29480000
-0.03210000 0.74530000 -0.36340000
0.13970000 1.83200000 -0.33210000
0.83420000 1.42230000 -0.33530000
0.85830000 1.45780000 -0.34460000
-1.60000000 1.73600000 0.09940000
-1.20640000 1.80090000 -0.28940000
0.07680000 1.71700000 -0.35080000
0.09060000 1.75310000 -0.34600000
-0.01330000 0.96280000 -0.37110000
-1.20570000 1.86690000 -0.27360000
0.87860000 1.50140000 -0.33960000
-1.19320000 1.93450000 -0.24890000
-1.14660000 1.73030000 0.29480000
0.01120000 1.77870000 -0.33110000
-0.19430000 1.21940000 0.33540000
-0.26960000 1.24540000 0.33030000
-0.36060000 1.25780000 0.32980000
0.83290000 1.59300000 -0.32670000
-0.18190000 1.27930000 0.33380000
-0.32570000 1.29560000 0.34870000
-0.29140000 1.33000000 0.35290000
-0.21450000 1.32520000 0.35440000
-1.19670000 1.77710000 0.27400000
-1.09830000 1.82770000 0.27870000
-0.33630000 1.33350000 0.35730000
0.85520000 1.62700000 -0.33540000
-0.14970000 1.35740000 0.35320000
-0.25340000 1.37450000 0.34910000
-1.31390000 1.73260000 0.26570000
-0.34610000 1.38030000 0.33940000
-0.23240000 1.41670000 0.33210000
0.87180000 1.65070000 -0.35020000
-0.38700000 1.30220000 0.34190000
0.94060000 1.72400000 -0.34370000
-0.39910000 1.34390000 0.33950000
-0.38860000 1.42180000 0.32850000
1.33860000 1.99910000 0.04660000
1.26120000 2.04560000 0.06340000
1.26390000 2.04550000 0.02530000
1.14880000 2.10620000 0.03600000
-1.21510000 1.84330000 0.25140000
-0.47340000 1.42310000 0.32910000
-1.28210000 1.86550000 0.21250000
1.18680000 2.09060000 -0.01960000
-0.06390000 1.74770000 -0.34210000
-0.62140000 1.35800000 0.33090000
1.12300000 2.11520000 0.07260000
1.06640000 2.12760000 0.10860000
1.49100000 1.04990000 0.28010000
-0.24060000 0.72200000 -0.36340000
-1.13920000 2.01290000 -0.22120000
-1.27680000 1.94160000 -0.21360000
1.46880000 1.00590000 0.28960000
1.42260000 1.00310000 0.30500000
1.08960000 2.14470000 -0.00900000
-1.21120000 2.02100000 -0.17880000
-1.06890000 2.07070000 -0.21030000
0.97870000 2.17130000 0.09570000
1.02970000 2.16880000 0.03550000
0.94590000 2.14940000 0.15260000
1.02920000 2.16690000 -0.01340000
-1.37300000 1.91670000 -0.16900000
-1.37590000 1.88440000 -0.20270000
0.66300000 1.14730000 0.32060000
-0.33650000 0.75380000 -0.36160000
-0.36760000 0.91220000 -0.36570000
-0.25750000 0.96620000 -0.36570000
0.54310000 1.15030000 0.32020000
-1.34360000 1.96050000 -0.13620000
0.68420000 1.24630000 0.31760000
0.70560000 1.16820000 0.32880000
0.77580000 1.19220000 0.32680000
-1.11170000 2.09260000 -0.15050000
-0.74620000 1.39470000 0.32550000
-0.56860000 1.50190000 0.31740000
-0.60980000 1.57350000 0.31520000
1.47390000 1.14660000 0.28900000
0.80430000 1.22770000 0.31480000
-0.15420000 1.38990000 0.34620000
0.96920000 2.19170000 -0.06630000
0.90300000 2.21630000 0.04150000
1.42730000 1.05180000 0.30000000
-1.16160000 2.08530000 -0.11940000
0.75390000 1.29600000 0.31550000
1.43760000 1.08720000 0.28940000
0.65020000 1.40690000 0.31070000
-0.33750000 1.45370000 0.33520000
0.81700000 2.25400000 -0.03670000
0.85220000 2.23200000 -0.08970000
-0.23140000 1.45700000 0.33030000
-0.30890000 1.50360000 0.34220000
0.76190000 2.26830000 0.00260000
-0.39300000 1.47750000 0.33160000
-0.34810000 1.49030000 0.35000000
0.87850000 2.21840000 0.08800000
-0.45690000 1.53200000 0.32310000
0.42170000 1.15350000 0.33360000
-0.21760000 1.50840000 0.34710000
-0.17930000 1.48170000 0.34060000
-1.32010000 1.99560000 -0.09090000
-1.39310000 1.95220000 -0.04250000
-1.27820000 2.03160000 -0.03530000
-1.20740000 2.07160000 -0.06650000
0.51690000 1.34930000 0.31570000
0.36940000 1.20500000 0.32230000
-1.30460000 2.00830000 0.01050000
-1.37160000 1.96870000 0.00850000
-1.32470000 1.97980000 0.04740000
-1.37670000 1.92730000 0.07300000
-0.29470000 1.56560000 0.33390000
-0.21330000 1.54590000 0.34810000
-0.19480000 1.57500000 0.33960000
-0.20680000 1.60270000 0.32260000
1.37930000 1.02660000 0.30210000
0.85060000 2.20340000 0.13230000
-0.37840000 1.59980000 0.31860000
0.79210000 2.16760000 0.19200000
1.28070000 1.02580000 0.29720000
-0.31450000 1.64240000 0.31540000
-0.11400000 1.62200000 0.31920000
-0.38940000 1.53200000 0.33160000
-0.34570000 1.53830000 0.34420000
0.41180000 1.27470000 0.32430000
-1.56220000 1.81040000 -0.02820000
-1.54670000 1.82240000 -0.09420000
1.34500000 1.05750000 0.30690000
1.33260000 1.11240000 0.30880000
1.36530000 1.15700000 0.29170000
0.28950000 1.24780000 0.32360000
-1.49610000 1.86970000 0.00420000
-1.60880000 1.76430000 0.04750000
1.40020000 1.17650000 0.28170000
1.38600000 1.26460000 0.28950000
-0.20510000 1.64910000 0.32700000
-0.06050000 1.68900000 0.33580000
-0.21990000 1.68300000 0.33400000
1.30330000 1.19310000 0.30290000
-0.26950000 1.71630000 0.31420000
1.28320000 1.26870000 0.28880000
-0.21740000 1.71980000 0.33260000
1.27630000 1.08370000 0.30330000
0.22080000 1.18320000 0.34710000
-0.14780000 1.71730000 0.33820000
-0.18920000 1.75140000 0.32790000
1.23170000 1.17600000 0.31020000
0.08610000 1.24910000 0.32950000
1.20780000 1.10830000 0.30200000
1.17500000 1.08940000 0.30460000
-0.45030000 1.67280000 0.30890000
0.24030000 1.29380000 0.33100000
0.40470000 1.32510000 0.32620000
0.33070000 1.32330000 0.33660000
0.19960000 1.31580000 0.34090000
-1.44990000 1.89550000 0.04300000
1.20740000 1.26630000 0.30830000
0.79090000 1.34010000 0.31650000
0.72020000 1.45970000 0.30420000
-1.52680000 1.82500000 0.06180000
-1.49530000 1.81480000 0.10450000
1.55010000 1.36450000 0.27250000
0.82450000 1.41950000 0.30540000
0.66640000 1.61720000 0.29950000
1.66430000 1.47300000 0.23110000
0.51380000 1.48010000 0.31350000
-0.75250000 1.46930000 0.31580000
-0.80290000 1.50390000 0.31540000
1.53470000 1.53580000 0.24700000
-0.39110000 1.04950000 -0.36560000
-0.53510000 0.98630000 -0.36190000
-0.65080000 1.67530000 0.30730000
1.45950000 1.32680000 0.28540000
-0.35900000 1.77960000 0.30830000
-0.57290000 1.73710000 0.31190000
-0.42600000 1.08100000 -0.35740000
-1.19300000 1.92060000 0.21260000
0.47170000 1.59410000 0.30720000
0.50260000 1.64850000 0.30900000
-1.17940000 2.03870000 0.11540000
-1.26750000 1.98340000 0.11850000
-1.22240000 1.95590000 0.17990000
-0.48070000 1.80170000 0.31890000
-0.72840000 1.70270000 0.31970000
0.37800000 1.37350000 0.32690000
-0.55670000 1.09980000 -0.32510000
-0.22380000 1.78080000 0.30800000
-0.20940000 1.80730000 0.30620000
0.24320000 1.37670000 0.33930000
-1.32640000 1.90480000 0.15880000
-0.22820000 1.84290000 0.31520000
0.26830000 1.40450000 0.32670000
-0.67230000 0.91240000 -0.35900000
-1.34920000 1.93110000 0.10940000
1.34420000 1.37310000 0.29360000
0.40100000 1.44140000 0.31820000
-1.28080000 2.00100000 0.08520000
-0.39600000 1.85660000 0.31740000
0.42160000 1.48850000 0.31940000
-0.61480000 0.97010000 -0.36060000
0.41890000 1.54270000 0.31590000
-0.49300000 1.88800000 0.30750000
1.31700000 1.32210000 0.28950000
1.28260000 1.33190000 0.28440000
0.21220000 1.44940000 0.32300000
-1.11400000 1.88140000 0.25660000
0.66790000 1.78580000 0.30600000
-1.07920000 1.95800000 0.22750000
0.36010000 1.47340000 0.33570000
1.19060000 1.39490000 0.28690000
-0.80080000 0.81530000 -0.35840000
-0.81250000 0.87150000 -0.33850000
0.36460000 1.51250000 0.34300000
0.22560000 1.48900000 0.33810000
-0.55990000 1.93050000 0.30020000
-1.13910000 1.99110000 0.18840000
-0.70950000 1.79190000 0.31360000
0.20790000 1.53060000 0.34630000
-0.63910000 1.00660000 -0.34230000
1.24000000 1.41770000 0.29520000
-1.03720000 2.03340000 0.19930000
-1.12020000 2.06450000 0.13340000
1.21650000 1.55220000 0.29040000
0.57750000 1.75660000 0.29390000
0.55630000 1.79970000 0.30740000
-0.81020000 1.32040000 0.33150000
0.36800000 1.54510000 0.33090000
-1.22860000 2.05020000 0.05810000
0.49360000 1.88570000 0.30220000
-0.72280000 1.01630000 -0.32290000
0.33590000 1.56170000 0.32340000
-1.10190000 2.11010000 0.08010000
-0.85690000 1.35550000 0.32250000
-1.17500000 2.08990000 0.02930000
0.24340000 1.61960000 0.31450000
0.37980000 1.64680000 0.31590000
-1.07370000 2.14620000 -0.05820000
0.25910000 1.58330000 0.31620000
0.22530000 1.66420000 0.32390000
-1.07890000 2.14240000 0.01800000
0.42510000 1.68910000 0.30980000
0.38080000 1.68650000 0.32580000
0.18980000 1.70820000 0.33090000
1.60660000 1.67100000 -0.21520000
1.55900000 1.66710000 -0.24890000
-0.66280000 1.07560000 -0.31540000
-0.62380000 1.13510000 -0.32020000
-0.92860000 1.29190000 0.33310000
-0.73230000 1.09570000 -0.32830000
0.79820000 1.65520000 0.29220000
0.62340000 1.69770000 0.29460000
-0.75830000 1.02920000 -0.32220000
-0.90880000 1.42670000 0.32230000
-0.91550000 1.38860000 0.33060000
-0.98290000 1.32530000 0.33350000
0.74050000 2.12900000 0.23460000
0.63810000 2.06200000 0.26890000
1.42520000 1.75570000 -0.26130000
0.62070000 2.13030000 0.24810000
0.48950000 1.71450000 0.30000000
-0.93800000 1.48790000 0.31320000
-0.84610000 1.56460000 0.30980000
-1.05460000 1.32790000 0.33990000
-1.11140000 1.29950000 0.34310000
0.39130000 1.74590000 0.30410000
0.35880000 1.72420000 0.32080000
0.31350000 1.78830000 0.29630000
0.29000000 1.75100000 0.30900000
0.57890000 2.20340000 0.21260000
1.61080000 1.74050000 -0.13610000
-0.98360000 1.38650000 0.33720000
0.25710000 1.83630000 0.30470000
-1.04300000 1.38500000 0.33630000
-0.83990000 0.90980000 -0.32190000
-0.95800000 1.44380000 0.33210000
1.45220000 1.82710000 -0.19930000
-0.98630000 1.44960000 0.32660000
-1.02270000 0.84290000 -0.32930000
1.52050000 1.80230000 -0.15870000
-0.89730000 1.57740000 0.31440000
-0.88730000 0.92150000 -0.31880000
-1.05730000 1.45740000 0.31490000
-1.03870000 1.42930000 0.31950000
-0.97040000 0.90150000 -0.32290000
-1.03740000 0.90950000 -0.31980000
-0.89450000 1.62730000 0.32040000
0.01640000 1.21960000 0.34130000
-0.92320000 0.99830000 -0.32840000
-0.88710000 0.96840000 -0.32970000
-1.09770000 1.35040000 0.33060000
-0.95510000 1.03250000 -0.31970000
0.18630000 1.88800000 0.31060000
-0.79120000 0.98360000 -0.31610000
-0.05510000 1.25530000 0.32850000
0.00260000 1.29820000 0.33730000
-0.81890000 1.01360000 -0.32860000
0.27970000 1.98130000 0.29800000
0.47110000 1.98330000 0.29400000
0.07080000 1.32870000 0.34130000
-0.85010000 1.02730000 -0.33940000
-0.87170000 1.08510000 -0.32920000
-1.69100000 1.60520000 0.14530000
1.68450000 1.54840000 0.19770000
1.65870000 1.62210000 0.16740000
-0.81420000 1.07560000 -0.33870000
0.33280000 2.06780000 0.28230000
-0.02090000 1.34220000 0.35150000
1.72450000 1.66710000 0.06350000
0.04870000 1.36540000 0.33850000
0.40550000 2.16080000 0.25500000
-1.70190000 1.66850000 0.05830000
1.58340000 1.61400000 0.21410000
-1.68860000 1.65140000 0.09760000
0.40170000 2.21140000 0.23100000
-1.07270000 0.86630000 -0.31890000
0.17570000 1.35350000 0.34510000
-1.10960000 0.91640000 -0.31770000
1.50370000 1.60970000 0.24330000
0.05800000 1.41510000 0.33080000
-1.01050000 1.02960000 -0.31930000
1.55510000 1.70970000 0.18020000
-0.87180000 1.81110000 0.30320000
-0.98850000 1.64100000 0.31650000
1.57020000 1.76680000 0.12380000
0.14210000 1.80770000 0.30050000
-1.19350000 0.89770000 -0.32960000
-1.26260000 0.85790000 -0.32860000
-1.25250000 0.93200000 -0.32590000
-0.10260000 1.95590000 0.30740000
-0.11310000 1.87820000 0.31600000
1.68080000 1.72580000 -0.04860000
-1.19130000 1.00280000 -0.32400000
1.65570000 1.74270000 -0.00090000
-1.09620000 1.05370000 -0.33370000
-1.04520000 1.07120000 -0.33290000
1.68030000 1.70860000 0.05860000
0.07290000 1.50620000 0.34410000
-0.00980000 1.55660000 0.34370000
1.60770000 1.78680000 0.04210000
0.20590000 1.57950000 0.32860000
1.60060000 1.78760000 -0.08460000
1.54060000 1.84840000 -0.03050000
0.04210000 2.01940000 0.29930000
1.52210000 1.84830000 -0.08630000
-1.20320000 1.07270000 -0.31370000
-1.02220000 1.78240000 0.29310000
0.01160000 1.58330000 0.33010000
0.09140000 1.60270000 0.31790000
-0.00550000 1.64860000 0.32300000
1.59660000 1.78130000 0.07880000
0.14190000 2.18950000 0.25420000
0.13340000 2.25060000 0.22590000
-0.34560000 1.98810000 0.29990000
-0.02750000 1.39170000 0.34190000
-0.06760000 1.43830000 0.32550000
-1.19980000 1.14050000 -0.31530000
0.00860000 2.10510000 0.27910000
1.51240000 1.87050000 0.02760000
-0.03400000 1.82840000 0.30240000
-0.05890000 1.48050000 0.33060000
-0.16880000 2.07580000 0.28860000
-1.33750000 0.92540000 -0.30740000
-0.22810000 2.14670000 0.26920000
-0.35520000 2.11220000 0.27370000
-0.08000000 1.52300000 0.34450000
-1.04580000 2.01680000 -0.24810000
-1.26060000 1.05740000 -0.31480000
-1.37190000 0.94100000 -0.31150000
-1.34550000 1.00390000 -0.32270000
-0.08980000 2.20760000 0.24750000
-1.43590000 0.93400000 -0.31740000
-1.49320000 0.91520000 -0.31010000
-0.28990000 2.20440000 0.24550000
-0.74350000 1.92350000 0.29180000
-0.23850000 2.26020000 0.21240000
-0.09170000 2.26330000 0.21620000
-1.45500000 0.98480000 -0.31080000
-1.37550000 1.05110000 -0.32550000
-0.88320000 1.94320000 0.27150000
-1.28920000 1.09590000 -0.32660000
-0.03070000 1.73630000 0.33390000
-0.47570000 2.20680000 0.22590000
-0.40510000 2.25820000 0.19700000
-0.69160000 2.07880000 0.24890000
-1.32580000 1.12950000 -0.31870000
-0.79560000 2.25360000 0.07710000
-0.85070000 2.24430000 0.06320000
-0.76300000 2.22250000 0.13600000
-0.42120000 2.03080000 0.29280000
-1.41780000 1.07040000 -0.30710000
-1.46570000 1.05430000 -0.30010000
1.43770000 1.93380000 0.00490000
-1.47320000 1.12590000 -0.31670000
-1.39960000 1.13450000 -0.30250000
-0.57480000 2.05910000 0.27260000
-1.25710000 1.16100000 -0.32410000
1.44900000 1.91630000 0.06420000
-1.25250000 1.19200000 -0.30940000
0.14730000 1.75610000 0.32050000
-1.31590000 1.19560000 -0.30370000
-1.36500000 1.21640000 -0.30860000
-0.61030000 1.96820000 0.28810000
-0.91040000 1.99220000 0.25230000
-0.87440000 2.06150000 0.22520000
0.12320000 1.77780000 0.30830000
-1.38700000 1.24010000 -0.32090000
1.02790000 1.07420000 0.30850000
-1.38610000 1.31730000 -0.32070000
-0.44170000 2.14900000 0.26010000
-0.04120000 1.79310000 0.30490000
-0.07060000 1.76880000 0.31690000
1.14050000 1.18190000 0.30090000
1.06480000 1.11540000 0.30650000
1.07810000 1.18180000 0.30740000
-1.49820000 1.02570000 -0.30320000
0.71910000 2.27710000 0.06030000
-0.63740000 2.13980000 0.23590000
-1.57610000 1.01710000 -0.32250000
1.11160000 1.25760000 0.30350000
-1.52590000 1.04440000 -0.31600000
0.58370000 1.89620000 -0.34170000
0.66420000 2.30210000 0.00710000
1.00350000 1.10800000 0.30720000
-1.00270000 2.18440000 -0.02060000
0.57260000 2.32140000 0.04170000
1.03670000 1.13320000 0.32490000
0.52580000 2.33390000 -0.01090000
-0.65460000 2.19520000 0.19830000
-0.54720000 2.25680000 0.17750000
0.97400000 1.14060000 0.32180000
0.33390000 1.90510000 -0.34590000
-0.64710000 2.29220000 0.09930000
0.69200000 2.23370000 0.15880000
1.00240000 1.22420000 0.31930000
-0.82910000 2.16800000 0.16630000
-1.00100000 2.10060000 0.15720000
0.96690000 1.19600000 0.32480000
-1.54960000 1.25170000 -0.31150000
0.17470000 1.85810000 -0.34620000
-1.72570000 1.07540000 -0.30760000
0.74650000 2.26110000 0.09630000
1.00970000 1.27560000 0.30620000
-0.97000000 2.16020000 0.10300000
0.13940000 1.89510000 -0.35000000
-0.92170000 2.21030000 0.06740000
-1.52870000 1.13120000 -0.31980000
-0.06580000 1.91550000 -0.34280000
0.91270000 1.11280000 0.31390000
0.86250000 1.09450000 0.33190000
0.89440000 1.17430000 0.31790000
-0.22210000 1.98060000 -0.33260000
0.61190000 2.29600000 0.10210000
0.83560000 1.15370000 0.32220000
0.83870000 1.18290000 0.31510000
0.56790000 2.27850000 0.14490000
0.75150000 1.89540000 -0.33520000
0.71800000 2.28320000 -0.08500000
0.85250000 1.24210000 0.32350000
0.83150000 1.91840000 -0.33000000
0.84700000 1.84010000 -0.33370000
0.89230000 1.25120000 0.33130000
0.68470000 1.99320000 -0.32460000
0.86190000 1.97380000 -0.31050000
0.54340000 2.31860000 -0.11900000
0.56060000 2.32700000 -0.05020000
0.79040000 1.15460000 0.33640000
0.45160000 2.35400000 0.02860000
0.45400000 2.25930000 0.18930000
0.69770000 2.04660000 -0.31130000
-1.01460000 2.17650000 0.04420000
-0.93630000 2.20980000 0.02250000
0.81030000 2.06870000 -0.28560000
-0.81470000 2.13870000 0.18910000
0.47470000 2.32780000 0.08900000
1.12400000 1.29670000 0.31540000
1.03980000 1.31250000 0.30710000
-0.72220000 2.27620000 0.08720000
0.46250000 2.09090000 -0.31120000
1.16560000 1.34790000 0.29760000
0.31430000 2.28360000 0.18930000
0.34740000 2.31750000 0.14300000
1.13550000 1.33940000 0.31490000
0.51390000 2.12710000 -0.29870000
0.59350000 2.14880000 -0.28210000
1.10580000 1.39080000 0.30850000
-0.39050000 2.02200000 -0.32080000
1.12350000 1.41650000 0.29260000
0.22980000 2.36380000 0.08360000
1.17870000 1.48850000 0.29390000
0.32010000 2.37120000 0.03020000
