-1.89560000 -3.76040000 -0.01530000
-1.90950000 -3.75010000 -0.14800000
-1.86970000 -3.59720000 -0.36360000
-1.86080000 -3.49960000 -0.36220000
-1.86430000 -3.40990000 -0.36010000
-1.89290000 -3.54490000 -0.36170000
-1.90490000 -3.49890000 -0.35590000
-1.89590000 -3.43720000 -0.35860000
-1.92470000 -3.45960000 -0.34420000
-1.93610000 -3.48110000 -0.32320000
-1.94200000 -3.43300000 -0.29570000
-1.91070000 -3.59470000 -0.35610000
-1.88440000 -3.64910000 -0.36190000
-1.93390000 -3.63970000 -0.29960000
-1.93440000 -3.68890000 -0.18530000
-1.93740000 -3.67160000 0.01780000
-1.94320000 -3.47770000 -0.24800000
-1.91080000 -3.66900000 -0.35020000
-1.92330000 -3.68470000 -0.32960000
-1.92770000 -3.71260000 -0.28830000
-1.92720000 -3.61190000 -0.33670000
-1.92080000 -3.54100000 -0.34750000
-1.93680000 -3.54930000 -0.31590000
-1.92680000 -3.73460000 -0.02690000
-1.92780000 -3.72210000 -0.17760000
-1.91960000 -3.74490000 0.01370000
-1.93230000 -3.71280000 0.02130000
-1.94580000 -3.43980000 -0.01040000
-1.90010000 -3.36640000 -0.36050000
-1.91430000 -3.30440000 -0.34850000
-1.93150000 -3.35300000 -0.34230000
-1.94630000 -3.32550000 -0.29790000
-1.92190000 -3.40090000 -0.35250000
-1.93760000 -3.40290000 -0.32740000
-1.95340000 -3.14650000 -0.25650000
-1.40620000 -3.76540000 0.30580000
-1.40860000 -3.76070000 0.34110000
-1.45390000 -3.74350000 0.36170000
-1.47640000 -3.71910000 0.37360000
-1.45520000 -3.75880000 0.33150000
-1.56720000 -3.67610000 0.37700000
-1.51380000 -3.75590000 0.33960000
-1.54960000 -3.76050000 0.31020000
-1.52240000 -3.73350000 0.36640000
-1.56490000 -3.72010000 0.36930000
-1.56610000 -3.74590000 0.35300000
-1.72080000 -3.57010000 0.38040000
-1.62520000 -3.75650000 0.33130000
-1.67740000 -3.76180000 0.29410000
-1.62240000 -3.72900000 0.36330000
-1.68590000 -3.69150000 0.37300000
-1.67600000 -3.72430000 0.36290000
-1.75210000 -3.66350000 0.37650000
-1.67790000 -3.74940000 0.34490000
-1.73450000 -3.73230000 0.35550000
-1.73740000 -3.75740000 0.32320000
-1.82390000 -3.76310000 0.28910000
-1.86400000 -3.76270000 0.21400000
-1.88340000 -3.76050000 0.09830000
-1.77100000 -3.70420000 0.36650000
-1.78950000 -3.75140000 0.33490000
-1.79890000 -3.72540000 0.35660000
-1.83250000 -3.75700000 0.31970000
-1.86790000 -3.47040000 0.38410000
-1.85300000 -3.36060000 0.38750000
-1.88930000 -3.26710000 0.38700000
-1.85940000 -3.13450000 0.39030000
-1.89690000 -3.37100000 0.38280000
-1.90800000 -3.43780000 0.37640000
-1.93490000 -3.40990000 0.35430000
-1.91890000 -3.29320000 0.37710000
-1.91660000 -3.20200000 0.38090000
-1.93800000 -3.20990000 0.36190000
-1.93590000 -3.31250000 0.36130000
-1.91840000 -3.35620000 0.37650000
-1.94120000 -3.34900000 0.34640000
-1.94410000 -3.27420000 0.34230000
-1.94790000 -3.26910000 0.32170000
-1.88750000 -3.75770000 0.27030000
-1.90230000 -3.75670000 0.20430000
-1.92450000 -3.73870000 0.24150000
-1.92830000 -3.72880000 0.14630000
-1.93820000 -3.70610000 0.21920000
-1.94220000 -3.66090000 0.24320000
-1.92870000 -3.71070000 0.28480000
-1.93870000 -3.65700000 0.29030000
-1.94570000 -3.50500000 0.19380000
-1.95310000 -3.23490000 0.14230000
-1.94100000 -3.54860000 0.31320000
-1.83830000 -3.67810000 0.37370000
-1.83260000 -3.62910000 0.38010000
-1.88000000 -3.64280000 0.37410000
-1.84570000 -3.73460000 0.34520000
-1.86300000 -3.69420000 0.36540000
-1.88570000 -3.70810000 0.35170000
-1.91090000 -3.67100000 0.35570000
-1.88640000 -3.54610000 0.38110000
-1.90320000 -3.57320000 0.37480000
-1.92450000 -3.55400000 0.36270000
-1.91020000 -3.61660000 0.36480000
-1.92810000 -3.62770000 0.34270000
-1.87530000 -3.75190000 0.31070000
-1.89650000 -3.73070000 0.32700000
-1.91070000 -3.73670000 0.29840000
-1.91390000 -3.70660000 0.33130000
-1.93160000 -3.66090000 0.32560000
-1.91930000 -3.47820000 0.37070000
-1.94480000 -3.40060000 0.31040000
-1.93820000 -3.48460000 0.34090000
-1.91070000 -3.74890000 0.11340000
-1.89160000 -2.56570000 -0.36470000
-1.90220000 -2.75680000 -0.36320000
-1.92100000 -2.68260000 -0.36380000
-1.89210000 -2.63480000 -0.36520000
-1.94420000 -2.66640000 -0.34970000
-1.92390000 -2.61970000 -0.35880000
-1.93980000 -2.58720000 -0.35020000
-1.92760000 -2.54080000 -0.35940000
-1.95470000 -2.60410000 -0.32930000
-1.95740000 -2.67720000 -0.32470000
-1.96240000 -2.55070000 -0.29790000
-1.95950000 -2.73660000 -0.28230000
-1.86690000 -2.98200000 -0.36310000
-1.87390000 -2.86560000 -0.36410000
-1.90510000 -2.91010000 -0.36500000
-1.92900000 -2.87310000 -0.35790000
-1.90580000 -2.83750000 -0.36290000
-1.92030000 -2.95830000 -0.35830000
-1.90260000 -3.01460000 -0.36060000
-1.94120000 -2.91780000 -0.34620000
-1.95370000 -2.86190000 -0.32710000
-1.95190000 -2.93530000 -0.32090000
-1.95740000 -2.83290000 -0.29950000
-1.95480000 -2.97120000 -0.30110000
-1.95880000 -2.88740000 -0.24980000
-1.91870000 -3.04970000 -0.35320000
-1.93830000 -3.06490000 -0.33360000
-1.93570000 -3.00020000 -0.34650000
-1.94700000 -3.08680000 -0.31000000
-1.95320000 -3.04420000 -0.29480000
-1.95200000 -3.01200000 -0.31680000
-1.92370000 -2.79570000 -0.35610000
-1.92860000 -2.72510000 -0.35980000
-1.94430000 -2.73890000 -0.34390000
-1.95410000 -2.75070000 -0.31800000
-1.94540000 -2.81280000 -0.33960000
-1.95570000 -2.99970000 0.32310000
-1.92630000 -2.43000000 -0.35740000
-1.87230000 -2.42220000 -0.36520000
-1.90990000 -2.48210000 -0.36360000
-1.90400000 -2.29900000 -0.36260000
-1.93970000 -2.25580000 -0.35600000
-1.92610000 -2.35690000 -0.35930000
-1.94980000 -2.39570000 -0.34330000
-1.95800000 -2.34550000 -0.33200000
-1.96510000 -2.32370000 -0.30920000
-1.94970000 -2.30090000 -0.34560000
-1.94600000 -2.48090000 -0.34760000
-1.95990000 -2.44310000 -0.32190000
-1.95510000 -2.53070000 -0.33490000
-1.91980000 -2.22190000 -0.36910000
-1.94250000 -2.18320000 -0.36380000
-1.95920000 -2.19860000 -0.34340000
-1.96410000 -2.23390000 -0.32490000
-1.90050000 -3.14460000 0.38740000
-1.90590000 -3.06770000 0.38970000
-1.93140000 -3.07770000 0.37770000
-1.93660000 -3.12200000 0.36930000
-1.93240000 -3.00980000 0.38070000
-1.92380000 -2.96750000 0.38510000
-1.95130000 -2.96160000 0.35170000
-1.94880000 -3.03480000 0.35770000
-1.95240000 -3.09350000 0.32830000
-1.94760000 -3.17360000 0.34150000
-1.95510000 -2.90760000 0.33970000
-1.32480000 -1.36200000 -0.38680000
-1.41390000 -1.49630000 -0.38020000
-1.45950000 -1.39870000 -0.38000000
-1.43170000 -1.22690000 -0.38320000
-1.34260000 -1.08060000 -0.38100000
-1.42550000 -1.05530000 -0.38230000
-1.46850000 -1.15590000 -0.38290000
-1.50250000 -1.04960000 -0.37780000
-1.59160000 -1.34880000 -0.38860000
-1.53370000 -1.18180000 -0.37550000
-1.54970000 -1.11060000 -0.37030000
-1.60120000 -1.17460000 -0.36740000
-1.62330000 -1.60840000 -0.38460000
-1.58830000 -1.51230000 -0.37990000
-1.63850000 -1.46610000 -0.38500000
-1.61840000 -1.28160000 -0.38160000
-1.76020000 -1.31020000 -0.37610000
-1.80630000 -1.24070000 -0.37200000
-1.75660000 -1.44150000 -0.38810000
-1.43930000 -0.94730000 -0.37900000
-1.53720000 -0.85670000 -0.37640000
-1.61010000 -0.77720000 -0.36760000
-1.51320000 -0.97540000 -0.37060000
-1.56660000 -0.89240000 -0.37020000
-1.58120000 -0.93660000 -0.36430000
-1.60680000 -0.82910000 -0.37150000
-1.62070000 -1.04050000 -0.36610000
-1.69630000 -0.86500000 -0.36810000
-1.78700000 -1.03150000 -0.37020000
-1.82740000 -0.64000000 -0.37330000
-1.89050000 -1.14620000 -0.37730000
-1.87150000 -1.03350000 -0.37460000
-1.91010000 -1.11200000 -0.37800000
-1.92510000 -1.05880000 -0.37270000
-1.87070000 -0.79320000 -0.37500000
-1.90260000 -0.91220000 -0.37410000
-1.94580000 -0.82560000 -0.37040000
-1.92390000 -0.80970000 -0.37540000
-1.93760000 -0.97070000 -0.36850000
-1.92550000 -0.91690000 -0.37190000
-1.94750000 -1.02950000 -0.36520000
-1.96330000 -1.07180000 -0.35540000
-1.96710000 -0.99000000 -0.35220000
-1.98010000 -0.99880000 -0.32690000
-1.95270000 -0.86770000 -0.36580000
-1.96690000 -0.91580000 -0.35470000
-1.97170000 -0.81050000 -0.35260000
-1.97920000 -0.84450000 -0.33620000
-1.98280000 -0.90200000 -0.32490000
-1.98830000 -0.78940000 -0.29980000
-1.98630000 -1.01840000 -0.29130000
-1.99360000 -0.75590000 -0.19650000
-1.98960000 -1.26510000 -0.15300000
-1.98150000 -1.08050000 -0.32510000
-1.99370000 -0.93730000 -0.03730000
-1.69770000 -1.72180000 -0.38400000
-1.73640000 -1.53180000 -0.38470000
-1.75210000 -1.62140000 -0.38800000
-1.84610000 -1.63560000 -0.38700000
-1.81670000 -1.71590000 -0.39020000
-1.86550000 -1.45640000 -0.38650000
-1.90760000 -1.36280000 -0.37770000
-1.90680000 -1.49450000 -0.38510000
-1.89620000 -1.59710000 -0.38680000
-1.92860000 -1.54680000 -0.38150000
-1.91060000 -1.64770000 -0.38480000
-1.94600000 -1.59500000 -0.37340000
-1.96220000 -1.53530000 -0.36100000
-1.97130000 -1.58580000 -0.34770000
-1.98050000 -1.57930000 -0.31620000
-1.97930000 -1.69350000 -0.30770000
-1.98530000 -1.33680000 -0.26890000
-1.94150000 -1.41380000 -0.37250000
-1.94130000 -1.49200000 -0.37650000
-1.95980000 -1.46310000 -0.36380000
-1.97350000 -1.40960000 -0.34450000
-1.97350000 -1.49090000 -0.34560000
-1.97960000 -1.48990000 -0.32420000
-1.88480000 -1.77210000 -0.39260000
-1.92670000 -1.81230000 -0.38620000
-1.95410000 -1.84540000 -0.36920000
-1.93120000 -1.87880000 -0.38410000
-1.92110000 -1.72510000 -0.38310000
-1.93720000 -1.68180000 -0.37810000
-1.94720000 -1.75180000 -0.37100000
-1.97180000 -1.66630000 -0.34520000
-1.97220000 -1.74120000 -0.33760000
-1.96270000 -1.79450000 -0.35770000
-1.95800000 -1.64200000 -0.36540000
-1.90660000 -1.20020000 -0.37610000
-1.93410000 -1.16560000 -0.37630000
-1.95480000 -1.12650000 -0.36720000
-1.88420000 -1.27610000 -0.37590000
-1.92940000 -1.24560000 -0.37180000
-1.92980000 -1.32390000 -0.37190000
-1.94880000 -1.28750000 -0.36470000
-1.96820000 -1.24770000 -0.35130000
-1.95920000 -1.35050000 -0.36020000
-1.97130000 -1.31970000 -0.34630000
-1.98030000 -1.24820000 -0.32270000
-1.98140000 -1.33800000 -0.32310000
-1.94960000 -1.21410000 -0.36840000
-1.96510000 -1.19160000 -0.35970000
-1.97480000 -1.14150000 -0.34970000
-1.98370000 -1.16030000 -0.32320000
-1.88820000 -0.47010000 -0.37930000
-1.89680000 -0.34440000 -0.38390000
-1.92840000 -0.25180000 -0.38230000
-1.93820000 -0.30490000 -0.37880000
-1.94690000 -0.20090000 -0.37850000
-1.96410000 -0.26890000 -0.37120000
-1.97430000 -0.22050000 -0.36440000
-1.98370000 -0.27070000 -0.35130000
-1.94760000 -0.44050000 -0.37490000
-1.92700000 -0.47190000 -0.37670000
-1.93960000 -0.37930000 -0.37950000
-1.96910000 -0.40480000 -0.36640000
-1.96760000 -0.32850000 -0.36700000
-1.98530000 -0.34380000 -0.34630000
-1.99290000 -0.28140000 -0.32480000
-1.90980000 -0.58820000 -0.37950000
-1.90410000 -0.66730000 -0.37590000
-1.93870000 -0.54460000 -0.37420000
-1.97370000 -0.55260000 -0.35600000
-1.95680000 -0.50330000 -0.36560000
-1.97270000 -0.46880000 -0.35620000
-1.98350000 -0.49060000 -0.33460000
-1.99110000 -0.55210000 -0.31150000
-1.98580000 -0.41610000 -0.34300000
-1.99270000 -0.39120000 -0.31640000
-1.99720000 -0.35700000 -0.27260000
-1.92200000 -0.73510000 -0.37430000
-1.95410000 -0.68730000 -0.36650000
-1.93980000 -0.63610000 -0.37470000
-1.94770000 -0.77190000 -0.36970000
-1.96880000 -0.73130000 -0.35620000
-1.98210000 -0.67530000 -0.33790000
-1.98460000 -0.74850000 -0.33320000
-1.98910000 -0.67790000 -0.30100000
-1.96430000 -0.60020000 -0.36650000
-1.97340000 -0.64450000 -0.35670000
-1.98370000 -0.60170000 -0.34390000
-1.96680000 -0.14220000 -0.36390000
-1.98350000 -0.08530000 -0.34710000
-1.96660000 -0.06920000 -0.36610000
-1.98520000 -0.15800000 -0.34760000
-1.99220000 -0.10460000 -0.32380000
-1.99450000 -0.18700000 -0.32390000
-1.80990000 -1.42890000 0.39800000
-1.85700000 -1.66750000 0.39860000
-1.89170000 -1.84860000 0.39740000
-1.93210000 -1.69430000 0.39400000
-1.93640000 -1.82020000 0.38900000
-1.91670000 -1.92640000 0.39590000
-1.95940000 -1.48610000 0.38320000
-1.93360000 -1.57110000 0.39250000
-1.91220000 -1.53390000 0.39710000
-1.95640000 -1.55390000 0.38150000
-1.97910000 -1.45950000 0.35880000
-1.98370000 -1.67550000 0.32180000
-1.97620000 -1.69530000 0.35890000
-1.96230000 -1.67130000 0.37980000
-1.98120000 -1.76700000 0.33030000
-1.96000000 -1.75550000 0.37890000
-1.97470000 -1.78730000 0.35480000
-1.95940000 -1.61450000 0.38230000
-1.97200000 -1.58380000 0.36820000
-1.97940000 -1.62230000 0.35420000
-1.98260000 -1.56830000 0.33890000
-1.98730000 -1.47160000 0.30910000
-1.98750000 -1.61670000 0.22140000
-1.86260000 -1.17630000 0.39610000
-1.91130000 -1.23400000 0.39600000
-1.93810000 -1.27870000 0.39560000
-1.95280000 -1.24340000 0.38850000
-1.94860000 -1.18670000 0.38760000
-1.97260000 -1.19950000 0.37240000
-1.97000000 -1.27230000 0.37880000
-1.98600000 -1.24780000 0.35170000
-1.91070000 -1.04640000 0.39450000
-1.92970000 -1.09960000 0.39440000
-1.94870000 -1.05710000 0.38940000
-1.91060000 -0.96680000 0.39330000
-1.94720000 -0.89500000 0.38810000
-1.98280000 -0.97230000 0.36000000
-1.97270000 -0.94250000 0.37320000
-1.99560000 -0.94060000 0.32270000
-1.94350000 -0.99800000 0.38650000
-1.96670000 -1.01420000 0.37580000
-1.94760000 -1.12360000 0.38960000
-1.97600000 -1.12450000 0.37180000
-1.97320000 -1.07290000 0.38040000
-1.99060000 -1.08120000 0.35220000
-1.98420000 -1.15350000 0.35570000
-1.99070000 -1.16870000 0.33340000
-1.99380000 -1.03670000 0.31540000
-1.99470000 -1.06770000 0.22580000
-1.98910000 -1.00730000 0.34370000
-1.98230000 -1.04420000 0.36660000
-1.98580000 -1.61060000 0.00390000
-1.98040000 -1.35480000 0.35820000
-1.97880000 -1.30900000 0.36710000
-1.98730000 -1.35050000 0.33970000
-1.99190000 -1.27500000 0.31550000
-1.90020000 -1.36850000 0.39840000
-1.93920000 -1.36260000 0.39200000
-1.94840000 -1.44460000 0.38850000
-1.96450000 -1.37820000 0.37710000
-1.97220000 -1.82750000 -0.33980000
-1.97550000 -1.86790000 -0.31190000
-1.94830000 -1.92920000 -0.37070000
-1.96200000 -1.88520000 -0.35870000
-1.92470000 -2.00180000 0.39600000
-1.94990000 -1.95750000 0.38670000
-1.93800000 -1.91580000 0.39030000
-1.96140000 -2.01890000 0.37370000
-1.96890000 -1.93540000 0.36450000
-1.97750000 -1.90990000 0.33540000
-1.96290000 -1.85720000 0.37210000
-2.00010000 -0.77360000 0.30030000
-1.99590000 -0.76930000 0.33760000
-1.99130000 -0.82340000 0.35210000
-1.97520000 -0.87280000 0.37760000
-1.99700000 -0.86200000 0.33570000
-1.99060000 -0.89650000 0.35850000
-0.16210000 2.71560000 0.15260000
-0.16520000 2.74410000 0.29680000
-0.16370000 2.49560000 0.24350000
-0.19010000 2.60730000 0.37590000
-0.17210000 2.51860000 0.34780000
-0.16760000 2.58620000 0.32570000
-0.17370000 2.62380000 0.35410000
-0.16780000 2.73510000 0.32940000
-0.17450000 2.69460000 0.35590000
-0.19010000 2.68460000 0.37420000
-0.21900000 2.65930000 0.38870000
-0.18990000 2.53450000 0.37450000
-0.21700000 2.56930000 0.38560000
-0.26680000 2.56140000 0.39310000
-0.18120000 3.61200000 0.32720000
-0.20600000 3.66670000 0.33950000
-0.22180000 3.65220000 0.36630000
-0.19560000 3.61240000 0.36010000
-0.21930000 3.71520000 0.31940000
-0.23880000 3.73820000 0.32110000
-0.22460000 3.70760000 0.34850000
-0.25480000 3.70040000 0.36820000
-0.25880000 3.73670000 0.34720000
-0.26270000 3.75750000 0.30280000
-0.16190000 3.25130000 0.28330000
-0.16260000 3.05040000 0.20840000
-0.16410000 3.21220000 0.33360000
-0.16510000 3.31920000 0.32150000
-0.16410000 3.09890000 0.33010000
-0.17030000 3.13790000 0.35840000
-0.17870000 3.07450000 0.36210000
-0.17350000 3.27480000 0.34810000
-0.18620000 3.20010000 0.37020000
-0.21000000 3.23590000 0.38120000
-0.18820000 3.26940000 0.36360000
-0.21660000 3.17540000 0.38730000
-0.18940000 3.13320000 0.37770000
-0.20960000 3.08890000 0.38390000
-0.24470000 3.09600000 0.38930000
-0.24380000 3.26210000 0.38680000
-0.30090000 3.24510000 0.38520000
-0.16280000 2.85180000 0.07380000
-0.16920000 2.95510000 0.34850000
-0.19860000 2.97790000 0.37870000
-0.17920000 2.93170000 0.36480000
-0.16470000 2.87520000 0.31140000
-0.17180000 2.88160000 0.35300000
-0.16680000 2.82450000 0.33260000
-0.16520000 2.98660000 0.33200000
-0.18420000 2.85120000 0.37060000
-0.17580000 2.80870000 0.35720000
-0.19710000 2.82320000 0.37520000
-0.20300000 2.89340000 0.38090000
-0.22740000 2.83770000 0.38460000
-0.22650000 2.92970000 0.38810000
-0.25850000 2.94240000 0.38940000
-0.18130000 2.74390000 0.36390000
-0.21150000 2.72020000 0.38430000
-0.19690000 2.76850000 0.37360000
-0.24530000 2.73260000 0.38990000
-0.25960000 2.84240000 0.38860000
-0.35980000 3.05000000 0.38360000
-0.31470000 2.71760000 0.39100000
-0.18750000 3.02310000 0.36920000
-0.22650000 3.01240000 0.38730000
-0.40390000 2.80980000 0.38500000
-0.52120000 3.08830000 0.37850000
-0.16250000 3.44530000 0.32050000
-0.16840000 3.39780000 0.35090000
-0.18230000 3.34870000 0.36210000
-0.19420000 3.39910000 0.37550000
-0.21930000 3.35830000 0.37890000
-0.16610000 3.55630000 0.30290000
-0.17430000 3.55060000 0.34230000
-0.19150000 3.53990000 0.36460000
-0.17040000 3.47020000 0.34500000
-0.20920000 3.49400000 0.37790000
-0.18640000 3.45480000 0.36660000
-0.22690000 3.53630000 0.38210000
-0.21670000 3.43320000 0.38230000
-0.25470000 3.41120000 0.38400000
-0.26710000 3.49930000 0.38540000
-0.35680000 3.52150000 0.37880000
-0.21150000 3.29970000 0.37690000
-0.22850000 3.60010000 0.37750000
-0.27950000 3.63060000 0.37890000
-0.29290000 3.77040000 0.29520000
-0.30750000 3.74000000 0.36470000
-0.31160000 3.76600000 0.33910000
-0.31310000 3.69770000 0.37580000
-0.37390000 3.73050000 0.36990000
-0.38530000 3.65960000 0.37540000
-0.42870000 3.71070000 0.37040000
-0.46920000 3.52640000 0.37420000
-0.64140000 3.62320000 0.37330000
-0.87490000 3.31330000 0.37720000
-0.16040000 1.85720000 -0.05180000
-0.16020000 1.90600000 0.02300000
-0.15800000 1.80980000 0.01380000
-0.16380000 1.89850000 0.11050000
-0.17350000 2.00290000 -0.27210000
-0.16550000 2.23360000 -0.13780000
-0.16910000 2.09100000 -0.15290000
-0.15690000 2.14520000 -0.08020000
-0.16600000 2.00000000 -0.08190000
-0.16210000 2.09510000 0.00530000
-0.16230000 2.08190000 0.16910000
-0.16630000 1.97840000 0.16280000
-0.16580000 2.01590000 -0.00200000
-0.16540000 1.89420000 -0.08030000
-0.16920000 2.14120000 0.33820000
-0.17340000 2.10770000 0.35770000
-0.16850000 2.04950000 0.33690000
-0.19170000 2.09590000 0.38250000
-0.17450000 2.03420000 0.36270000
-0.21750000 2.08080000 0.39630000
-0.19060000 2.01870000 0.38470000
-0.16650000 1.73270000 0.29200000
-0.17040000 1.62910000 0.32120000
-0.15890000 1.75480000 0.05930000
-0.15790000 1.78740000 0.14350000
-0.16410000 1.72050000 0.14560000
-0.16410000 1.84670000 0.21880000
-0.16820000 1.85240000 0.30880000
-0.16840000 1.79070000 0.33830000
-0.17740000 1.53350000 0.37110000
-0.19200000 1.57460000 0.38210000
-0.18040000 1.62390000 0.36630000
-0.21540000 1.61450000 0.39210000
-0.19070000 1.65410000 0.37910000
-0.20580000 1.52890000 0.39560000
-0.24130000 1.59830000 0.39950000
-0.16960000 1.71900000 0.34400000
-0.17730000 1.70310000 0.36910000
-0.19780000 1.70060000 0.38900000
-0.21360000 1.67110000 0.39070000
-0.17480000 1.77620000 0.36440000
-0.19140000 1.76000000 0.38600000
-0.22250000 1.73740000 0.39780000
-0.25480000 1.70000000 0.39860000
-0.27670000 1.56600000 0.40260000
-0.33000000 1.80910000 0.39840000
-0.19280000 1.91060000 0.37870000
-0.17140000 1.91500000 0.33450000
-0.17620000 1.96150000 0.36790000
-0.17570000 1.84900000 0.35830000
-0.16730000 1.98620000 0.30460000
-0.16950000 1.98330000 0.34480000
-0.22110000 1.99570000 0.39690000
-0.19630000 1.95880000 0.38880000
-0.25390000 2.00940000 0.39900000
-0.19060000 1.83250000 0.38070000
-0.21330000 1.79930000 0.39540000
-0.24090000 1.83860000 0.39930000
-0.21460000 1.87250000 0.39010000
-0.23060000 1.92500000 0.39460000
-0.27600000 1.84910000 0.40150000
-0.28290000 2.14210000 0.39880000
-0.16160000 2.41250000 -0.12580000
-0.15640000 2.47360000 0.04120000
-0.16410000 2.37410000 0.12630000
-0.15720000 2.18380000 0.08800000
-0.16360000 2.25130000 0.17430000
-0.16560000 2.36580000 -0.01760000
-0.15930000 2.44080000 0.16500000
-0.15800000 2.63440000 -0.09120000
-0.15630000 2.75780000 -0.00030000
-0.15600000 2.70650000 0.06950000
-0.15850000 2.53760000 -0.06000000
-0.15470000 2.59060000 0.12000000
-0.16820000 2.41540000 0.32610000
-0.15930000 2.27380000 -0.08830000
-0.16060000 2.28990000 -0.01360000
-0.15450000 2.20820000 -0.00510000
-0.18840000 2.41340000 0.36960000
-0.17340000 2.35180000 0.35060000
-0.16870000 2.30410000 0.32750000
-0.20660000 2.37890000 0.38330000
-0.18670000 2.33490000 0.37310000
-0.17550000 2.29220000 0.36060000
-0.19220000 2.27790000 0.38250000
-0.21960000 2.32750000 0.39480000
-0.17620000 2.21140000 0.36300000
-0.16950000 2.21290000 0.33470000
-0.18550000 2.17870000 0.37790000
-0.23050000 2.18630000 0.39910000
-0.20530000 2.15430000 0.39130000
-0.20530000 2.22870000 0.39290000
-0.23660000 2.28070000 0.40270000
-0.26400000 2.25910000 0.40210000
-0.26930000 2.32900000 0.40110000
-0.30430000 2.32610000 0.39590000
-0.39710000 2.26430000 0.39150000
-0.18210000 2.48370000 0.36850000
-0.20830000 2.48390000 0.38300000
-0.17290000 2.43930000 0.35070000
-0.23360000 2.46530000 0.39040000
-0.25270000 2.37440000 0.39890000
-0.30640000 2.48840000 0.39410000
-0.46780000 2.41960000 0.38470000
-0.48540000 1.89130000 0.38760000
-0.62560000 2.01750000 0.38430000
-0.64580000 2.45440000 0.38330000
-0.17210000 1.68130000 -0.24580000
-0.18250000 1.90220000 -0.37570000
-0.17540000 1.91240000 -0.34150000
-0.18040000 1.79970000 -0.37520000
-0.18460000 1.69450000 -0.38570000
-0.18960000 1.77110000 -0.39510000
-0.20360000 1.82980000 -0.40640000
-0.16850000 1.78510000 -0.20720000
-0.16450000 1.73290000 -0.12370000
-0.16440000 1.72210000 -0.02940000
-0.16580000 1.77910000 -0.10080000
-0.16380000 1.70620000 -0.16200000
-0.17970000 1.99460000 -0.37640000
-0.17690000 2.05150000 -0.34730000
-0.18530000 1.95700000 -0.38790000
-0.20570000 1.93240000 -0.40740000
-0.24160000 1.93650000 -0.41970000
-0.26390000 1.91810000 -0.41870000
-0.23600000 1.83630000 -0.41690000
-0.33980000 2.00830000 -0.40480000
-0.21840000 1.70110000 -0.41390000
-0.19900000 1.65980000 -0.40410000
-0.20320000 1.73540000 -0.40850000
-0.23590000 1.62780000 -0.41570000
-0.26750000 1.71080000 -0.41500000
-0.27390000 1.62590000 -0.41350000
-0.30230000 1.66030000 -0.40640000
-0.22150000 1.77270000 -0.41590000
-0.23780000 1.74340000 -0.41890000
-0.27310000 1.82730000 -0.41570000
-0.32840000 1.74990000 -0.40480000
-0.33950000 1.59790000 -0.40720000
-0.38630000 1.67430000 -0.39760000
-0.41060000 1.79640000 -0.40340000
-0.47180000 1.78330000 -0.39710000
-0.46360000 1.69180000 -0.39680000
-0.44030000 1.63760000 -0.40320000
-0.33860000 1.90560000 -0.40140000
-0.38770000 1.85260000 -0.39860000
-0.43560000 2.04500000 -0.39250000
-0.45420000 1.93870000 -0.39060000
-0.47390000 1.85980000 -0.40210000
-0.56730000 1.78500000 -0.39270000
-0.55060000 1.96140000 -0.39240000
-0.61740000 1.87670000 -0.39740000
-0.35630000 1.60670000 0.39920000
-0.42980000 1.54650000 0.39810000
-0.42580000 1.72500000 0.39640000
-0.47840000 1.67460000 0.39050000
-0.53110000 1.54930000 0.39140000
-0.68850000 1.68010000 0.38810000
-0.55730000 2.09790000 -0.39080000
-0.68010000 1.97920000 -0.39040000
-0.66950000 2.06840000 -0.38600000
-0.74930000 2.27160000 -0.38950000
-0.68060000 2.26070000 -0.39460000
-0.78080000 2.12400000 -0.38220000
-0.80160000 2.28080000 -0.38300000
-0.93450000 2.34900000 -0.37840000
-0.72890000 1.85780000 0.38580000
-0.77710000 1.95310000 0.38400000
-0.75670000 2.25760000 0.38300000
-0.77610000 2.09180000 0.38480000
-0.90190000 1.95910000 0.38200000
-0.86070000 2.16070000 0.37900000
-0.90670000 2.20370000 0.37450000
-0.92780000 2.05730000 0.38200000
-0.83680000 1.79280000 0.38420000
-0.82810000 1.89870000 0.37790000
-0.88780000 1.87070000 0.37620000
-1.00550000 2.11490000 0.37440000
-1.02090000 2.03060000 0.37420000
-1.03310000 1.91950000 0.37780000
-1.08740000 2.04000000 0.37650000
-0.50600000 1.42750000 0.39220000
-0.56360000 1.35620000 0.38980000
-0.64690000 1.52680000 0.39010000
-0.57910000 1.41260000 0.39320000
-0.73740000 1.37200000 0.38940000
-0.72950000 1.49550000 0.38350000
-0.81940000 1.62730000 0.38350000
-0.83170000 1.54900000 0.37950000
-0.77320000 1.42840000 0.38370000
-0.82200000 1.46670000 0.37560000
-0.79390000 1.50120000 0.37450000
-0.89830000 1.71680000 0.38270000
-0.90770000 1.62300000 0.37600000
-0.95060000 1.85030000 0.37880000
-0.96930000 1.77820000 0.38450000
-1.02270000 1.77220000 0.38030000
-1.13920000 1.90770000 0.37590000
-0.60280000 2.72030000 0.38240000
-0.68450000 2.84380000 0.38110000
-0.68780000 2.74420000 0.37900000
-0.77120000 2.66510000 0.37940000
-0.80640000 2.59300000 0.38230000
-0.76900000 2.72010000 0.37040000
-0.79130000 2.85810000 0.37950000
-0.79380000 2.75860000 0.36900000
-0.80700000 2.81880000 0.37390000
-0.92840000 2.72670000 0.36860000
-0.91900000 2.78230000 0.36930000
-1.02020000 2.66940000 0.37670000
-1.08790000 3.03510000 0.38120000
-0.90860000 2.83870000 0.37890000
-1.10290000 2.83530000 0.38320000
-0.86010000 2.57600000 -0.39720000
-0.83330000 2.46470000 -0.39630000
-0.91400000 2.58810000 -0.38970000
-0.97150000 2.52010000 -0.38090000
-0.92050000 2.66060000 -0.38160000
-0.99500000 2.60380000 -0.38050000
-1.08190000 2.66040000 -0.37800000
-1.06590000 2.79320000 -0.38110000
-0.88650000 2.27340000 0.38000000
-0.99470000 2.42830000 0.38070000
-1.10800000 2.61010000 0.38110000
-1.30930000 2.51800000 0.38340000
-1.06640000 2.13890000 0.37470000
-1.12960000 2.21110000 0.38050000
-1.31550000 2.25210000 0.38580000
-1.17870000 2.10550000 0.37490000
-1.54050000 2.31190000 0.38660000
-1.32600000 2.73480000 -0.37940000
-1.18630000 2.75510000 0.37900000
-1.11730000 2.71810000 0.36920000
-1.19350000 2.64870000 0.37220000
-1.26570000 2.69650000 0.37040000
-1.44860000 2.73120000 0.38150000
-1.31480000 2.63200000 0.36810000
-1.38400000 2.56110000 0.37780000
-1.40150000 2.64920000 0.37170000
-1.49220000 2.52340000 0.38420000
-1.47960000 2.60750000 0.38130000
-1.44980000 3.16780000 0.37990000
-1.54200000 2.65410000 0.38520000
-1.65840000 2.64770000 0.38560000
-1.23210000 2.02090000 0.38350000
-1.26100000 2.15290000 0.38230000
-0.34640000 3.77630000 0.31550000
-0.36210000 3.76010000 0.35770000
-0.41490000 3.77660000 0.30690000
-0.40170000 3.76940000 0.34560000
-0.44770000 3.77430000 0.32610000
-0.42950000 3.74720000 0.36330000
-0.45200000 3.76080000 0.35330000
-0.55220000 3.77240000 0.31180000
-0.52810000 3.70140000 0.36950000
-0.48610000 3.74480000 0.36200000
-0.49560000 3.76820000 0.34010000
-0.52070000 3.75620000 0.35420000
-0.56950000 3.72270000 0.36920000
-0.56270000 3.76380000 0.34760000
-0.60870000 3.77020000 0.33310000
-0.59530000 3.74440000 0.36500000
-0.66020000 3.71930000 0.37070000
-0.63600000 3.75460000 0.35900000
-0.68030000 3.77370000 0.30850000
-0.67260000 3.76880000 0.34300000
-0.68190000 3.75200000 0.36110000
-0.76900000 3.77180000 0.28130000
-0.72950000 3.77250000 0.32340000
-0.72390000 3.76000000 0.35470000
-0.73330000 3.73620000 0.36830000
-0.95970000 3.70370000 0.37160000
-0.83540000 3.73040000 0.36940000
-0.77020000 3.76860000 0.34090000
-0.84840000 3.77340000 0.31270000
-0.81770000 3.75480000 0.36040000
-0.85490000 3.76780000 0.34340000
-0.88530000 3.75310000 0.36050000
-0.95040000 3.77500000 0.31310000
-0.94060000 3.76670000 0.34530000
-0.92480000 3.73340000 0.36830000
-0.95560000 3.74550000 0.36450000
-1.00730000 3.73060000 0.36830000
-0.98520000 3.77380000 0.33160000
-1.01690000 3.76260000 0.34960000
-1.08080000 3.77220000 0.27030000
-1.03290000 3.77430000 0.29800000
-1.09130000 3.74860000 0.36020000
-1.07890000 3.77150000 0.33010000
-1.10780000 3.76220000 0.34990000
-1.12230000 3.77380000 0.31660000
-1.14700000 3.76960000 0.33830000
-1.22880000 3.77030000 0.28290000
-1.16780000 3.73030000 0.36670000
-1.17770000 3.75700000 0.35250000
-1.39010000 3.76700000 0.23600000
-1.54430000 3.68020000 0.37080000
-1.19520000 3.76980000 0.32060000
-1.22890000 3.73970000 0.36340000
-1.25230000 3.76730000 0.33260000
-1.29000000 3.75740000 0.34900000
-1.30570000 3.71390000 0.36830000
-1.31560000 3.77100000 0.31060000
-1.35180000 3.76680000 0.32970000
-1.34300000 3.74060000 0.36020000
-1.38060000 3.75720000 0.34930000
-1.39880000 3.73580000 0.36270000
-1.40270000 3.76900000 0.31200000
-1.42010000 3.76520000 0.33790000
-1.45130000 3.75200000 0.35290000
-1.47670000 3.76610000 0.31730000
-1.62130000 3.76280000 0.29580000
-1.54980000 3.75900000 0.33860000
-1.60690000 3.34680000 0.37540000
-1.47140000 3.72170000 0.36680000
-1.52300000 3.74110000 0.35910000
-1.55980000 3.71590000 0.36790000
-1.83820000 2.94720000 0.38430000
-1.83630000 3.27280000 0.37800000
-1.75440000 3.75680000 0.21160000
-1.88030000 3.75290000 0.04900000
-1.87180000 3.75140000 0.15360000
-1.95040000 3.75180000 -0.08440000
-1.95490000 3.75060000 0.07490000
-1.97650000 3.75080000 0.00570000
-1.94550000 3.74220000 0.13480000
-1.93220000 3.73700000 0.18880000
-1.90300000 3.74680000 0.19550000
-1.96320000 3.72380000 0.15520000
-1.99060000 3.71950000 0.13950000
-1.98460000 3.74560000 0.07060000
-1.98760000 3.73670000 0.11710000
-2.00680000 3.72990000 0.09040000
-2.01410000 3.70570000 0.12670000
-1.63740000 3.73960000 0.35910000
-1.67110000 3.71700000 0.36720000
-1.65920000 3.76050000 0.32230000
-1.67380000 3.75350000 0.34170000
-1.72420000 3.74600000 0.35050000
-1.75920000 3.75860000 0.31490000
-1.77620000 3.72970000 0.36230000
-1.79000000 3.75360000 0.33290000
-1.81670000 3.74140000 0.35370000
-1.80670000 3.69670000 0.36970000
-1.88150000 3.52020000 0.37340000
-1.84960000 3.71880000 0.36590000
-1.85800000 3.75650000 0.30080000
-1.87240000 3.75050000 0.33530000
-1.94900000 3.35720000 0.37930000
-1.97930000 3.43670000 0.37350000
-1.95480000 3.53690000 0.37450000
-1.88900000 3.68850000 0.37060000
-1.94330000 3.63210000 0.37340000
-1.89210000 3.75170000 0.26930000
-1.92060000 3.74630000 0.31580000
-1.92190000 3.74330000 0.26310000
-1.94310000 3.72730000 0.24910000
-1.94090000 3.73540000 0.30050000
-1.96210000 3.70590000 0.30180000
-1.88940000 3.72880000 0.35920000
-1.92130000 3.70430000 0.36770000
-1.92650000 3.73570000 0.34360000
-1.94940000 3.72530000 0.32660000
-1.94990000 3.69300000 0.35990000
-1.97100000 3.67380000 0.34270000
-1.96310000 3.64390000 0.36600000
-1.97220000 3.58980000 0.37040000
-1.98360000 3.62630000 0.34970000
-2.00360000 3.58830000 0.32580000
-1.98220000 3.64980000 0.31320000
-1.99610000 3.57750000 0.35690000
-2.01810000 3.55720000 0.25820000
-1.97470000 3.67120000 0.25050000
-2.00470000 3.60280000 0.21270000
-2.00990000 3.54380000 0.34840000
-2.02320000 3.53220000 0.31160000
-1.95120000 3.71660000 0.20790000
-1.96820000 3.69400000 0.19790000
-1.99340000 3.64910000 0.18280000
-1.99840000 3.67680000 0.15740000
-1.98860000 3.52830000 0.36780000
-2.01150000 3.48480000 0.35380000
-0.52860000 1.60040000 -0.39350000
-0.59090000 1.73440000 -0.39740000
-0.56960000 1.67540000 -0.40140000
-0.60530000 1.57230000 -0.39450000
-0.61340000 1.64790000 -0.39740000
-0.60130000 1.39640000 -0.39600000
-0.61100000 1.45680000 -0.40040000
-0.67830000 1.56160000 -0.39100000
-0.71030000 1.80330000 -0.39310000
-0.70960000 1.71610000 -0.39660000
-0.74380000 1.62910000 -0.39220000
-0.78600000 1.78100000 -0.38500000
-0.81970000 1.73050000 -0.38840000
-0.66400000 1.40350000 -0.38560000
-0.72630000 1.37090000 -0.38010000
-0.72390000 1.50070000 -0.38640000
-0.80490000 1.46730000 -0.39100000
-0.85410000 1.27870000 -0.38250000
-0.88730000 1.35380000 -0.39190000
-0.84140000 1.62200000 -0.39490000
-0.90250000 1.48650000 -0.39310000
-0.98110000 1.64780000 -0.39020000
-1.00160000 1.40570000 -0.38820000
-1.06010000 1.50570000 -0.38990000
-0.71350000 1.90150000 -0.39610000
-0.75630000 2.05890000 -0.38930000
-0.80420000 1.99320000 -0.38780000
-0.85540000 2.07520000 -0.39290000
-0.79870000 1.88630000 -0.39140000
-0.80200000 1.82500000 -0.38550000
-0.99550000 1.91210000 -0.39010000
-0.90770000 1.82140000 -0.38430000
-0.94970000 1.98590000 -0.38310000
-0.87140000 2.01510000 -0.38140000
-0.86670000 2.12050000 -0.38990000
-1.06280000 2.27830000 -0.37730000
-0.99320000 2.20120000 -0.37930000
-0.92370000 2.06170000 -0.38480000
-0.96890000 2.15560000 -0.38900000
-1.09350000 2.13310000 -0.38930000
-1.18520000 2.17260000 -0.38940000
-1.08790000 2.07220000 -0.38320000
-0.93760000 1.74490000 -0.38990000
-1.01810000 1.76740000 -0.38890000
-0.99900000 1.88270000 -0.38860000
-1.01320000 1.81570000 -0.38180000
-1.06170000 1.84860000 -0.37930000
-1.17860000 1.64000000 -0.38730000
-1.17590000 1.71880000 -0.38070000
-1.42340000 1.67770000 -0.37630000
-1.22840000 1.98740000 -0.38960000
-1.13300000 1.88130000 -0.37710000
-1.18050000 1.93470000 -0.38480000
-1.32160000 1.87520000 -0.37600000
-1.33350000 1.92470000 -0.38370000
-1.03440000 1.13110000 -0.37990000
-1.02110000 1.25210000 -0.39510000
-1.09940000 1.35700000 -0.39040000
-1.01870000 1.18190000 -0.38800000
-1.22060000 1.00630000 -0.37270000
-1.15480000 1.20880000 -0.39190000
-1.16700000 1.28740000 -0.38740000
-1.25420000 1.26670000 -0.38810000
-1.27150000 1.46070000 -0.38610000
-1.22560000 1.03660000 -0.37540000
-1.19890000 1.12800000 -0.39170000
-1.16790000 1.10200000 -0.38690000
-1.28920000 1.14720000 -0.38950000
-1.31730000 1.05380000 -0.38170000
-1.39580000 1.08040000 -0.38040000
-1.39540000 1.20550000 -0.38020000
-1.43590000 1.37550000 -0.37780000
-1.40150000 1.96480000 -0.39160000
-1.38550000 1.56470000 -0.37790000
-1.64230000 1.75920000 -0.37860000
-1.47200000 1.92990000 -0.38240000
-0.89620000 1.22630000 0.39010000
-0.94100000 1.11480000 0.38140000
-1.02980000 1.23350000 0.38840000
-0.87120000 1.43520000 0.38230000
-1.02560000 1.41260000 0.38540000
-0.89160000 1.49640000 0.37610000
-0.93030000 1.55590000 0.37810000
-1.05300000 1.49480000 0.37660000
-1.22700000 1.31010000 0.38760000
-0.96110000 0.99870000 0.37520000
-1.00380000 1.06250000 0.38190000
-1.12010000 1.07090000 0.38520000
-1.11690000 0.90810000 0.38240000
-1.22880000 1.16830000 0.38590000
-1.19040000 1.04530000 0.37970000
-0.98610000 1.62770000 0.38060000
-1.00590000 1.67190000 0.37780000
-1.01770000 1.54060000 0.38090000
-1.09310000 1.56700000 0.38010000
-1.12490000 1.63400000 0.37870000
-1.07680000 1.80030000 0.37860000
-1.23620000 1.49360000 0.37730000
-1.16930000 1.73090000 0.38310000
-1.27430000 1.62880000 0.38160000
-1.18100000 1.79980000 0.38430000
-1.27670000 1.90540000 0.38420000
-1.26970000 1.82320000 0.37730000
-1.30690000 1.75540000 0.38420000
-1.23810000 1.44160000 0.37890000
-1.29860000 1.53260000 0.38280000
-1.40090000 1.37400000 0.38540000
-1.43650000 1.29440000 0.39160000
-1.40080000 1.44590000 0.37770000
-1.42590000 1.48280000 0.38350000
-1.38530000 1.64350000 0.38860000
-1.38230000 1.74220000 0.38520000
-1.45500000 1.85750000 0.38900000
-1.51480000 1.49620000 0.38960000
-1.18860000 0.92790000 0.37890000
-1.22320000 0.86220000 0.37880000
-1.28410000 0.93270000 0.38300000
-1.32060000 1.13370000 0.38550000
-1.38170000 1.02730000 0.38940000
-1.32700000 0.81670000 0.38360000
-1.54280000 1.12930000 0.39190000
-1.48970000 0.94490000 0.39050000
-1.29850000 0.75310000 0.39000000
-1.39980000 0.81040000 0.39000000
-1.49040000 0.72990000 0.38970000
-1.60500000 0.82380000 0.38920000
-1.57940000 0.59240000 0.39110000
-1.69110000 1.01150000 0.38870000
-1.80550000 0.85340000 0.38480000
-1.54630000 1.38290000 0.39050000
-1.76820000 1.42330000 0.38930000
-1.67890000 1.99920000 0.39080000
-1.91080000 1.30810000 0.38900000
-1.83520000 1.08710000 0.38790000
-1.87060000 1.55760000 0.38950000
-1.94580000 1.45190000 0.38940000
-1.95130000 1.37510000 0.38550000
-1.97190000 1.44290000 0.38270000
-1.97840000 1.32810000 0.37970000
-1.94690000 1.26780000 0.38670000
-1.98580000 1.38060000 0.37160000
-1.99580000 1.42970000 0.36740000
-2.00800000 1.38150000 0.34660000
-1.23350000 2.21160000 -0.38200000
-1.28950000 2.26710000 -0.37650000
-1.27560000 2.13130000 -0.38740000
-1.40640000 2.07620000 -0.38740000
-1.49170000 2.20410000 -0.37940000
-1.44600000 2.12260000 -0.39040000
-1.45460000 2.16200000 -0.38600000
-1.60650000 2.46470000 -0.37970000
-1.63590000 2.94560000 -0.38310000
-1.49920000 2.00820000 -0.39020000
-1.66170000 1.87160000 -0.38840000
-1.68160000 2.00970000 -0.39030000
-1.67860000 2.08410000 -0.38230000
-1.67150000 2.21520000 -0.37840000
-1.80590000 1.86430000 -0.39470000
-1.77250000 1.78900000 -0.38870000
-1.83240000 1.73550000 -0.38240000
-1.86770000 1.88520000 -0.39100000
-1.80580000 1.95500000 -0.38600000
-1.85480000 2.00620000 -0.38200000
-1.84940000 2.20780000 -0.38050000
-1.91190000 2.02260000 -0.38430000
-1.94580000 2.05960000 -0.38350000
-1.96980000 2.09740000 -0.37900000
-1.94430000 2.15240000 -0.38310000
-2.02570000 2.20230000 -0.05130000
-2.02050000 1.95920000 -0.27120000
-2.02280000 1.58780000 0.03330000
-1.86100000 2.72630000 -0.38440000
-1.90590000 2.47140000 -0.38440000
-1.94270000 2.46810000 -0.38400000
-1.94880000 2.59970000 -0.38660000
-1.94010000 2.75970000 -0.38770000
-1.96780000 2.59530000 -0.38400000
-1.98860000 2.63500000 -0.37650000
-1.98000000 2.70590000 -0.38150000
-1.99970000 2.68520000 -0.36970000
-2.01610000 2.64080000 -0.33680000
-2.00680000 2.61750000 -0.35950000
-1.94870000 2.32410000 -0.38490000
-1.91380000 2.22200000 -0.38330000
-1.96910000 2.41950000 -0.38050000
-1.97760000 2.34920000 -0.37960000
-1.99510000 2.40920000 -0.36840000
-1.99100000 2.48660000 -0.37090000
-1.97690000 2.53340000 -0.38030000
-2.00910000 2.54470000 -0.35570000
-2.01730000 2.48150000 -0.32550000
-2.00640000 2.47300000 -0.35620000
-1.99530000 2.57460000 -0.37190000
-2.02250000 2.69700000 -0.24760000
-2.02490000 2.30060000 -0.17910000
-2.03040000 2.48170000 -0.02840000
-2.02400000 2.52030000 -0.25580000
-2.02520000 2.61550000 -0.06480000
-2.02940000 2.56560000 -0.06740000
-2.02560000 2.45960000 0.13590000
-2.02520000 2.70300000 -0.02040000
-2.02330000 2.64370000 0.28130000
-2.02450000 2.33530000 0.10100000
-1.94230000 2.25470000 -0.38240000
-2.00670000 2.35890000 -0.35800000
-1.97830000 2.20320000 -0.37510000
-1.99860000 2.24110000 -0.36670000
-1.96940000 2.26320000 -0.38060000
-2.00940000 2.21250000 -0.34780000
-1.99300000 2.15280000 -0.36710000
-2.00010000 2.09600000 -0.36150000
-2.01150000 2.13910000 -0.34310000
-2.01780000 2.20190000 -0.30300000
-2.01640000 2.10780000 -0.32550000
-2.01720000 2.03410000 -0.31800000
-1.99140000 2.30210000 -0.37380000
-2.00990000 2.28600000 -0.35340000
-2.01710000 2.27510000 -0.32630000
-2.01510000 2.38180000 -0.33510000
-2.02220000 2.36260000 -0.26960000
-1.27380000 2.10310000 0.37950000
-1.34830000 2.07350000 0.38660000
-1.85950000 2.00630000 0.39150000
-1.80710000 2.59390000 0.38680000
-1.92250000 2.19390000 0.39050000
-1.93760000 2.36650000 0.39090000
-1.96570000 2.30680000 0.38530000
-1.97720000 2.61550000 0.38330000
-1.95490000 2.54120000 0.38850000
-1.91710000 2.56960000 0.39020000
-1.95390000 2.45650000 0.38900000
-1.99360000 2.37450000 0.37620000
-1.98010000 2.42560000 0.38390000
-2.01230000 2.43870000 0.35850000
-1.98920000 2.57570000 0.37780000
-2.01130000 2.60810000 0.35670000
-2.00710000 2.54450000 0.36200000
-2.01330000 2.51150000 0.35200000
-2.01890000 2.51800000 0.33740000
-1.98360000 2.50070000 0.37920000
-2.00220000 2.47180000 0.36870000
-1.90180000 1.76000000 0.39250000
-1.93870000 1.75030000 0.39300000
-1.95360000 1.87760000 0.39300000
-1.97030000 1.79320000 0.38630000
-1.99130000 1.83500000 0.37860000
-1.96440000 1.98940000 0.38920000
-1.93010000 2.05910000 0.39400000
-1.98200000 1.90970000 0.38590000
-2.00440000 1.86310000 0.36960000
-2.01460000 1.90800000 0.35410000
-2.02020000 2.05330000 0.32370000
-2.02000000 1.94190000 0.33230000
-2.01490000 1.99090000 0.35230000
-1.99740000 1.97800000 0.37490000
-1.93040000 1.58530000 0.39070000
-1.96160000 1.55160000 0.38590000
-1.95900000 1.67200000 0.39210000
-1.98710000 1.72690000 0.38300000
-1.98230000 1.64780000 0.38300000
-1.99300000 1.61430000 0.37280000
-2.01720000 1.71340000 0.34320000
-2.01410000 1.64080000 0.34900000
-2.00330000 1.69830000 0.37330000
-1.99980000 1.57110000 0.36550000
-1.97640000 1.51360000 0.38490000
-1.99930000 1.49890000 0.37220000
-2.01610000 1.52930000 0.33670000
-2.01850000 1.56510000 0.31370000
-2.02190000 1.76110000 0.29590000
-2.02070000 1.32510000 0.21900000
-2.01270000 1.47520000 0.35210000
-2.01580000 1.40230000 0.31360000
-2.02330000 2.03880000 0.21230000
-2.01760000 1.78700000 0.33740000
-2.02070000 1.86120000 0.33000000
-2.00420000 1.77100000 0.36660000
-1.96020000 2.22200000 0.38750000
-1.99640000 2.23620000 0.37390000
-2.00460000 2.28740000 0.36430000
-2.01290000 2.17520000 0.35320000
-2.01630000 2.23870000 0.34770000
-2.01940000 2.28350000 0.32810000
-2.01910000 2.16510000 0.33110000
-2.02190000 2.29340000 0.28030000
-1.97770000 2.16550000 0.38200000
-1.99350000 2.13310000 0.37500000
-1.96560000 2.07070000 0.39060000
-2.01650000 2.06740000 0.34880000
-2.00810000 2.02880000 0.36510000
-1.99150000 2.05980000 0.38040000
-2.01060000 2.10180000 0.35920000
-2.01300000 2.34100000 0.35130000
-2.01920000 2.37940000 0.33280000
-1.40240000 1.00800000 -0.37480000
-1.53850000 1.02470000 -0.37630000
-1.78100000 0.95690000 -0.38000000
-1.71560000 1.33170000 -0.37940000
-1.90690000 1.00480000 -0.38680000
-1.90940000 0.83200000 -0.38530000
-1.82640000 1.59000000 -0.37960000
-1.90670000 1.45900000 -0.38520000
-1.84320000 1.26840000 -0.38210000
-1.89260000 1.57700000 -0.38380000
-1.94170000 1.52520000 -0.38320000
-1.90850000 1.16740000 -0.38520000
-1.94880000 1.26980000 -0.38140000
-1.89400000 1.31650000 -0.38540000
-1.94450000 1.13300000 -0.38370000
-1.94960000 1.00990000 -0.38220000
-1.93990000 1.06280000 -0.38420000
-1.96520000 1.10890000 -0.37930000
-1.97510000 1.04620000 -0.37320000
-1.98490000 1.09480000 -0.36720000
-1.99480000 1.04390000 -0.35450000
-1.96500000 1.21870000 -0.37530000
-1.98000000 1.17260000 -0.36840000
-1.99680000 1.22950000 -0.35110000
-2.00540000 1.16700000 -0.32770000
-1.99570000 1.15790000 -0.35410000
-1.94430000 1.34450000 -0.38430000
-1.96470000 1.40280000 -0.37710000
-1.97790000 1.31990000 -0.37470000
-1.99340000 1.38290000 -0.36080000
-2.00720000 1.36500000 -0.33630000
-1.99730000 1.30270000 -0.35690000
-2.00660000 1.29170000 -0.33060000
-2.01200000 1.40320000 -0.30160000
-1.95990000 1.47070000 -0.37880000
-1.99180000 1.45330000 -0.36270000
-1.98950000 1.51310000 -0.36890000
-1.96920000 1.54660000 -0.37730000
-2.00600000 1.48300000 -0.34100000
-1.98390000 1.25980000 -0.36860000
-1.95160000 0.93530000 -0.38430000
-1.97970000 0.98680000 -0.37080000
-1.80310000 0.66110000 0.38600000
-1.94410000 0.84720000 0.38320000
-1.98680000 0.86460000 0.37210000
-1.97290000 0.77380000 0.37610000
-1.95790000 0.72950000 0.37980000
-1.92640000 0.62790000 0.38360000
-1.95360000 0.49300000 0.38130000
-1.96810000 0.38680000 0.37870000
-1.99070000 0.29290000 0.36840000
-1.99470000 0.36560000 0.36420000
-1.98700000 0.47740000 0.37180000
-1.97890000 0.55720000 0.37340000
-2.00320000 0.54440000 0.35830000
-2.00830000 0.50020000 0.35110000
-2.01270000 0.38230000 0.33210000
-2.01570000 0.49820000 0.32840000
-2.00630000 0.42610000 0.35110000
-2.01960000 0.65180000 0.26290000
-2.00020000 0.78630000 0.36120000
-2.00890000 0.85740000 0.35270000
-2.01800000 0.80630000 0.31800000
-2.01220000 0.77150000 0.34470000
-2.01660000 0.68370000 0.32780000
-2.01980000 1.01080000 0.14450000
-1.97200000 0.67300000 0.37800000
-1.96960000 0.61350000 0.37600000
-2.00310000 0.60160000 0.35670000
-1.99530000 0.65860000 0.36560000
-2.01120000 0.64650000 0.34470000
-1.99780000 0.72990000 0.36300000
-2.00990000 0.69770000 0.35020000
-2.01350000 0.58650000 0.33790000
-2.01710000 1.21640000 0.30030000
-2.01020000 0.93090000 -0.27410000
-2.01630000 1.50830000 -0.24900000
-2.00450000 1.03330000 -0.32820000
-2.01720000 1.23840000 -0.13970000
-1.89860000 1.02340000 0.38790000
-1.93990000 0.98370000 0.38450000
-1.94340000 1.16910000 0.38730000
-1.95480000 1.08600000 0.38760000
-1.97910000 1.07050000 0.37990000
-1.97690000 1.12800000 0.38350000
-2.00210000 1.09050000 0.36500000
-1.97060000 0.95710000 0.38010000
-2.02050000 0.99820000 0.31160000
-2.01890000 0.90040000 0.32860000
-2.01280000 0.95950000 0.35460000
-1.99930000 0.95340000 0.36820000
-1.98910000 1.02920000 0.37270000
-2.00900000 1.01690000 0.35590000
-2.01580000 1.08570000 0.33290000
-1.97440000 1.25990000 0.38080000
-1.99840000 1.23790000 0.36470000
-1.97210000 1.18500000 0.38210000
-2.00850000 1.21450000 0.34830000
-1.99530000 1.16460000 0.36950000
-2.01320000 1.27010000 0.33820000
-2.01090000 1.15540000 0.34270000
-2.01640000 1.31740000 0.31850000
-2.00080000 1.31330000 0.36630000
-1.82530000 0.70290000 -0.38180000
-1.88780000 0.66000000 -0.39500000
-1.89100000 0.60680000 -0.38840000
-1.87900000 0.74320000 -0.38500000
-1.93280000 0.47520000 -0.38200000
-1.93080000 0.54570000 -0.38420000
-1.96290000 0.53170000 -0.37740000
-1.95200000 0.60380000 -0.37900000
-1.93650000 0.65270000 -0.38950000
-1.98170000 0.65210000 -0.36820000
-2.00300000 0.44230000 -0.31240000
-2.00290000 0.53300000 -0.31800000
-1.98690000 0.56750000 -0.36050000
-1.99520000 0.62470000 -0.34760000
-2.00300000 0.60490000 -0.32120000
-1.99530000 0.53550000 -0.34830000
-1.93900000 0.72900000 -0.38960000
-1.95260000 0.82850000 -0.38000000
-1.97490000 0.89960000 -0.37530000
-1.99060000 0.92250000 -0.36380000
-1.99310000 0.86520000 -0.35370000
-1.97380000 0.82630000 -0.37080000
-1.99570000 0.79420000 -0.34990000
-2.00330000 0.82520000 -0.32570000
-2.00500000 0.92450000 -0.33140000
-2.01160000 0.57880000 -0.20600000
-1.96220000 0.68960000 -0.38700000
-1.98260000 0.73040000 -0.37200000
-1.99830000 0.71280000 -0.34850000
-2.00210000 0.68240000 -0.32760000
-1.95300000 0.42010000 -0.37830000
-1.98230000 0.39890000 -0.36440000
-1.98080000 0.47180000 -0.36600000
-1.99530000 0.45450000 -0.34570000
-1.99850000 0.38110000 -0.34140000
-2.01420000 0.26780000 0.32980000
-2.00970000 0.30610000 0.34620000
-1.99850000 0.97090000 -0.35030000
-1.91780000 1.72330000 -0.38420000
-1.90210000 1.81570000 -0.39320000
-1.93960000 1.85760000 -0.38630000
-1.95410000 1.75960000 -0.38090000
-1.97460000 1.83660000 -0.37570000
-1.94620000 1.63640000 -0.38020000
-1.97940000 1.68680000 -0.36960000
-1.99180000 1.74970000 -0.36480000
-1.99700000 1.81940000 -0.36100000
-2.00780000 1.77740000 -0.34630000
-1.96360000 1.58710000 -0.37660000
-1.99740000 1.56070000 -0.35870000
-1.99120000 1.63990000 -0.36020000
-2.00600000 1.62270000 -0.33770000
-2.01220000 1.65450000 -0.31120000
-2.00580000 1.69640000 -0.34300000
-2.01430000 1.75740000 -0.31540000
-1.97160000 1.90310000 -0.37740000
-1.99160000 1.97040000 -0.36730000
-1.96170000 1.99300000 -0.38010000
-1.99460000 1.89250000 -0.36470000
-2.00720000 1.88350000 -0.34660000
-2.01580000 1.90820000 -0.31950000
-2.00920000 1.95470000 -0.34590000
-1.99080000 2.04490000 -0.37000000
-2.00850000 2.02800000 -0.35120000
-1.81980000 3.31390000 -0.38610000
-1.83450000 3.07180000 -0.38750000
-1.92990000 2.96240000 -0.39020000
-1.93530000 3.34430000 -0.39120000
-1.90140000 3.45130000 -0.39120000
-1.94520000 3.10810000 -0.39310000
-1.92250000 3.16090000 -0.39210000
-1.96760000 3.11060000 -0.39090000
-1.98990000 3.14930000 -0.38370000
-1.95990000 3.27110000 -0.38960000
-1.98360000 3.24570000 -0.38500000
-1.99940000 3.27420000 -0.37700000
-1.98030000 3.19780000 -0.38730000
-2.00890000 3.20700000 -0.36920000
-2.00730000 3.13530000 -0.36940000
-2.01710000 3.11820000 -0.34750000
-2.01840000 3.26910000 -0.34860000
-2.02240000 3.15200000 -0.31450000
-2.02940000 3.38380000 0.01960000
-2.02710000 3.20560000 -0.23520000
-2.02820000 3.14330000 0.02510000
-2.03020000 3.01360000 -0.11590000
-1.93540000 3.11660000 0.38580000
-1.95360000 3.19360000 0.38330000
-1.91340000 2.98850000 0.38770000
-1.98030000 3.16050000 0.37900000
-1.96480000 3.01860000 0.38600000
-1.94900000 2.93740000 0.38870000
-1.98050000 2.94270000 0.38340000
-2.00280000 2.99290000 0.37070000
-1.98430000 3.01800000 0.38020000
-2.01420000 2.99650000 0.35750000
-2.00430000 2.92960000 0.36820000
-2.02740000 2.93800000 0.01340000
-2.02620000 3.18700000 0.32350000
-2.02520000 3.07600000 0.31700000
-1.98530000 3.08570000 0.37870000
-2.00720000 3.07080000 0.36460000
-2.01090000 3.15790000 0.36070000
-2.02280000 3.12150000 0.34020000
-2.02000000 3.04860000 0.34550000
-2.02350000 2.94550000 0.32970000
-2.02110000 2.70660000 0.32720000
