0.88050000 2.45690000 -0.38680000
0.88960000 2.49770000 -0.36630000
0.49150000 -3.06770000 -0.44650000
0.13280000 -1.88310000 0.42810000
0.49990000 -3.12930000 -0.44640000
0.85850000 2.42130000 -0.40290000
0.17980000 -1.92820000 0.42590000
0.88580000 2.36900000 -0.34120000
-0.52490000 -1.29860000 -0.44250000
0.53090000 -3.15140000 -0.44230000
0.03000000 1.85490000 -0.41480000
-0.49110000 -1.36420000 -0.45140000
0.25050000 -1.93560000 0.42510000
-0.44970000 -1.30160000 -0.45330000
-0.38380000 -1.32780000 -0.44550000
-0.41470000 -1.40610000 -0.44660000
0.31800000 -1.95770000 0.41990000
0.62860000 -3.14950000 -0.41850000
-0.37770000 0.08610000 0.42960000
-0.45510000 -1.45130000 -0.45220000
0.13350000 -1.05910000 0.42710000
0.50720000 -3.21290000 -0.43840000
-0.38490000 -0.00290000 0.42530000
0.87730000 2.23890000 -0.30220000
0.03020000 1.75330000 -0.41640000
0.53250000 -3.29270000 -0.44150000
0.13460000 1.66350000 -0.42210000
-0.34490000 -1.41460000 -0.44210000
0.86250000 2.32350000 -0.39500000
0.16860000 -1.11660000 0.42840000
0.57470000 -3.17690000 -0.44330000
0.06080000 -1.12770000 0.43340000
0.11060000 -1.14990000 0.42310000
0.61260000 -3.19370000 -0.43810000
0.15290000 -1.16800000 0.42330000
0.21810000 1.85180000 -0.42930000
0.58920000 -3.23960000 -0.44420000
-0.33040000 -1.45750000 -0.44660000
0.16730000 -1.26040000 0.42680000
-0.32640000 -1.26120000 -0.44460000
0.61330000 -3.27190000 -0.42790000
-0.33120000 -1.34630000 -0.44850000
-0.29500000 -1.31330000 -0.45220000
0.62050000 -3.32360000 -0.39140000
0.23520000 -1.23650000 0.42730000
0.85850000 3.09420000 -0.39100000
-0.26130000 -1.33850000 -0.44270000
0.31160000 -1.15660000 0.42400000
0.28580000 -1.27170000 0.42370000
0.27200000 1.77820000 -0.43990000
-0.87210000 0.68450000 -0.13380000
0.88850000 3.07850000 -0.37480000
-0.23940000 -1.38000000 -0.43900000
0.90580000 3.10480000 -0.34640000
-0.86900000 0.40360000 -0.16440000
-0.87610000 0.74830000 -0.00910000
-0.26720000 -1.43020000 -0.44820000
0.03030000 1.68390000 -0.41790000
0.53390000 -3.36610000 -0.43780000
-0.20850000 -1.42060000 -0.44170000
0.58290000 -3.32530000 -0.44290000
0.59070000 -3.38810000 -0.43590000
0.38830000 -1.10380000 0.43070000
0.20890000 1.43610000 -0.43230000
0.61200000 -3.38250000 -0.41500000
0.62950000 -3.28750000 -0.23810000
-0.54490000 -1.58300000 -0.44360000
-0.47850000 -1.59350000 -0.45310000
0.46720000 -1.20380000 0.43110000
0.56350000 -3.44140000 -0.43190000
-0.46930000 -1.69210000 -0.45260000
0.58690000 -3.44050000 -0.42500000
0.60390000 -3.43520000 -0.40590000
-0.50740000 -1.72040000 -0.44910000
0.16780000 -1.32350000 0.42370000
-0.09270000 1.86470000 0.44200000
-0.87120000 0.35780000 -0.00960000
0.21760000 -1.35180000 0.42720000
-0.00490000 1.91270000 0.44160000
0.16990000 -1.38880000 0.42800000
0.01570000 1.81780000 0.44190000
0.56010000 0.08320000 0.44740000
-0.01370000 1.77020000 0.43970000
-0.07330000 1.76700000 0.44590000
0.03000000 1.85180000 0.44320000
-0.47420000 -1.83650000 -0.45380000
-0.43440000 -1.79740000 -0.44790000
0.03000000 1.82590000 0.44180000
-0.50580000 -1.89480000 -0.45190000
-0.15720000 1.40410000 -0.42370000
0.64670000 0.06600000 0.43600000
0.26600000 -1.46860000 0.42650000
0.30050000 -1.38900000 0.42440000
-0.52900000 -2.00020000 -0.45430000
-0.49450000 -2.00510000 -0.45540000
-0.03970000 1.70570000 0.44280000
0.34670000 -1.34100000 0.42220000
0.02950000 1.68660000 0.44250000
-0.44260000 -1.90620000 -0.44820000
0.66380000 -0.17900000 0.42730000
-0.44750000 -2.04880000 -0.45090000
0.35640000 -1.41100000 0.42240000
0.32690000 -1.44670000 0.41890000
-0.42810000 -1.96350000 -0.44490000
0.70260000 0.00870000 0.42240000
0.36750000 -1.25710000 0.42490000
0.03010000 1.80940000 0.44190000
0.03020000 1.73370000 0.43900000
0.03010000 1.79300000 0.44120000
0.09630000 1.67850000 0.43790000
0.03030000 1.68650000 0.44250000
0.70740000 -0.18870000 0.41410000
-0.34430000 -1.91120000 -0.44460000
0.13450000 1.74800000 0.44130000
0.09720000 1.86370000 0.44130000
-0.44630000 -1.54740000 -0.44920000
0.13570000 1.91510000 0.44080000
0.73440000 0.00780000 0.41050000
0.74550000 0.15490000 0.40660000
0.15290000 1.82850000 0.43690000
-0.08320000 1.27770000 -0.42080000
0.21920000 1.82250000 0.44040000
0.76300000 0.00110000 0.39000000
0.77850000 0.14700000 0.38140000
0.77780000 -0.00520000 0.36250000
-0.37590000 -1.63550000 -0.44380000
-0.33320000 -1.50010000 -0.44470000
0.19460000 1.75380000 0.44460000
-0.34740000 -1.59120000 -0.44360000
0.74210000 -0.21330000 0.39510000
0.76770000 -0.16200000 0.37110000
-0.29130000 -1.54250000 -0.44440000
-0.28610000 -1.57180000 -0.44880000
0.41250000 -1.40360000 0.42770000
-0.42430000 -1.69340000 -0.44790000
-0.04830000 1.63990000 0.44290000
0.03030000 1.62780000 0.44390000
0.03030000 1.67730000 0.44270000
0.77570000 -0.13530000 0.34620000
0.77880000 -0.12690000 0.30830000
0.03030000 1.62650000 0.44410000
-0.08910000 1.60410000 0.44920000
0.50780000 -1.40330000 0.42650000
0.03430000 1.62720000 0.44390000
0.03040000 1.61860000 0.44350000
0.03460000 1.23880000 -0.42040000
0.03090000 1.25900000 -0.42020000
0.03080000 1.33660000 -0.41980000
0.53980000 -1.28500000 0.42520000
0.00050000 1.55220000 0.44020000
0.03040000 1.57330000 0.44010000
0.44980000 -1.45740000 0.42740000
0.68170000 -0.29840000 0.41830000
-0.30710000 -1.70070000 -0.44630000
-0.28810000 -1.61850000 -0.44600000
0.15460000 1.66330000 0.44270000
0.08960000 1.61500000 0.43990000
0.54150000 -1.04600000 0.42730000
0.71220000 -0.29930000 0.40880000
0.03090000 1.24000000 -0.42040000
0.16240000 1.60060000 0.44100000
-0.87000000 0.79070000 -0.25190000
-0.24340000 -1.67470000 -0.44120000
-0.28240000 -1.48460000 -0.44680000
0.57230000 -1.39320000 0.41810000
-0.23490000 -1.50960000 -0.43870000
0.65740000 -0.37320000 0.42850000
-0.21660000 -1.46760000 -0.43800000
0.70380000 -0.42060000 0.41180000
0.01860000 1.46940000 0.44610000
0.03060000 1.46620000 0.44440000
0.03050000 1.50010000 0.44220000
0.02740000 1.50330000 0.44250000
0.03040000 1.56110000 0.44040000
0.12180000 1.12450000 -0.42620000
0.03050000 1.54050000 0.43980000
0.10590000 1.51090000 0.43880000
0.03050000 1.50360000 0.44240000
0.07520000 1.45420000 0.43810000
0.74700000 -0.35150000 0.38380000
0.73260000 -0.41670000 0.39450000
0.16600000 1.54700000 0.43920000
0.23880000 1.55280000 0.43810000
0.64830000 -1.05590000 0.41060000
0.77030000 -0.25080000 0.34560000
0.77410000 -0.32510000 0.12760000
0.13850000 1.49300000 0.44530000
0.17680000 1.49330000 0.44660000
0.22290000 1.47910000 0.44180000
0.75990000 -0.28660000 0.37030000
0.60850000 -1.14050000 0.41710000
-0.21380000 -1.60990000 -0.43690000
0.75870000 -0.45360000 0.35040000
0.76600000 -0.35700000 0.31120000
0.23310000 1.67200000 0.44390000
-0.86290000 0.53530000 -0.31450000
0.03090000 1.23630000 -0.42050000
-0.16130000 -1.71860000 -0.43600000
-0.07600000 1.03790000 -0.42390000
0.27140000 1.78390000 0.44210000
0.71010000 -0.96550000 0.39110000
0.32710000 1.72570000 0.45170000
-0.84390000 0.79190000 -0.41620000
-0.85890000 0.76390000 -0.39630000
0.73260000 -0.99600000 0.36290000
0.03090000 1.23210000 -0.42050000
0.79120000 0.13350000 0.28300000
0.78620000 0.07820000 0.32040000
0.78150000 -0.11960000 0.18180000
-0.86320000 0.69530000 -0.36350000
-0.32560000 -1.80670000 -0.44470000
-0.86100000 0.58170000 -0.36640000
-0.36660000 -1.82040000 -0.44090000
0.69730000 -1.04120000 0.39520000
-0.86250000 0.66230000 -0.38640000
0.68290000 -1.13320000 0.40430000
0.70440000 -1.09690000 0.39050000
-0.85250000 0.69730000 -0.40840000
0.72040000 -1.03160000 0.38210000
-0.82680000 0.73280000 -0.41980000
-0.84180000 0.63870000 -0.41520000
0.28640000 1.58470000 0.44360000
-0.81640000 0.65170000 -0.42050000
0.72330000 -1.09150000 0.36700000
-0.28560000 -1.79900000 -0.45130000
0.73170000 -1.09850000 0.32620000
0.32640000 1.56180000 0.45210000
0.61350000 -1.28120000 0.41170000
-0.27710000 -1.92690000 -0.44830000
-0.34500000 -1.96300000 -0.44590000
-0.26780000 -1.86040000 -0.44580000
0.66620000 -1.17420000 0.40050000
0.62530000 -1.22810000 0.41320000
0.27190000 1.43100000 0.43880000
-0.23440000 -1.77400000 -0.44310000
0.66670000 -1.21240000 0.39910000
0.67440000 -1.26140000 0.40340000
-0.18850000 -1.83130000 -0.43600000
0.78920000 -0.06030000 0.01970000
0.80330000 0.36040000 0.14340000
0.61690000 -1.34010000 0.41170000
-0.18880000 -1.88540000 -0.43940000
-0.26030000 -1.96030000 -0.44000000
0.39410000 1.46080000 0.45840000
0.19270000 0.76950000 -0.43570000
0.68550000 -1.32250000 0.39540000
-0.09070000 -1.75580000 -0.43370000
0.71390000 -1.17820000 0.37810000
-0.82570000 0.55820000 -0.42330000
0.69520000 -1.22150000 0.39120000
-0.79210000 0.60030000 -0.41650000
-0.73250000 0.66390000 -0.41470000
0.71890000 -1.24490000 0.36490000
0.72450000 -1.19170000 0.34600000
0.48080000 1.86290000 0.46300000
0.72630000 -1.22620000 0.26520000
-0.80260000 0.50470000 -0.42460000
0.79120000 0.19880000 0.36390000
0.29040000 1.58000000 -0.44240000
0.25490000 1.37870000 -0.44140000
0.71810000 -1.35450000 0.34030000
-0.72520000 0.49390000 -0.41920000
0.70850000 -1.27990000 0.38660000
-0.79280000 0.36110000 -0.42470000
-0.75890000 0.23030000 -0.42080000
0.71010000 -1.33950000 0.37250000
0.41730000 1.71570000 0.46260000
0.31130000 1.37350000 -0.44150000
0.29070000 -1.64500000 0.42420000
0.32500000 -1.51780000 0.42380000
0.32340000 -1.56480000 0.42080000
0.38150000 -1.48680000 0.42170000
-0.83490000 -2.99050000 -0.01390000
-0.83950000 -2.83380000 -0.01370000
0.28020000 1.11790000 -0.44400000
0.39240000 -1.55800000 0.42430000
-0.33690000 0.64980000 0.43210000
-0.84110000 -2.76890000 0.04530000
-0.84100000 -2.77340000 -0.01360000
0.76820000 -0.38020000 0.14170000
-0.83140000 -3.06970000 -0.01400000
0.65390000 1.78320000 0.45640000
0.37960000 -1.61670000 0.42210000
0.25160000 1.03260000 -0.44270000
0.42840000 -1.68160000 0.42350000
0.60450000 1.62000000 0.45980000
0.34520000 1.11120000 -0.43730000
0.39020000 1.27640000 -0.42980000
-0.83670000 -2.37960000 0.33870000
-0.82380000 -2.32780000 0.37090000
-0.83540000 -2.23060000 0.34270000
-0.75850000 -2.33060000 0.41010000
-0.76610000 -2.27640000 0.39910000
-0.80240000 -2.29530000 0.38830000
-0.78970000 -2.44990000 0.39260000
-0.76530000 -2.41530000 0.40490000
-0.83370000 0.82490000 -0.42010000
-0.35740000 0.50440000 0.43040000
-0.72970000 -2.42600000 0.41370000
-0.74120000 0.82220000 -0.41580000
-0.79600000 0.80640000 -0.42000000
0.50960000 -1.51720000 0.42360000
-0.83780000 -2.51870000 0.32300000
-0.84330000 -2.54970000 0.22520000
-0.84100000 -2.65210000 0.26830000
-0.81720000 -2.44670000 0.37680000
0.57350000 -1.51610000 0.41060000
-0.84190000 -2.36080000 0.28110000
-0.83390000 -2.46270000 0.35350000
0.52950000 1.46980000 0.46100000
0.50230000 -1.58970000 0.42020000
-0.81030000 -2.53880000 0.37920000
0.47760000 -1.64190000 0.42460000
-0.63610000 0.84990000 -0.41680000
0.77850000 -0.30490000 -0.01040000
0.78600000 -0.14510000 -0.01020000
-0.70540000 0.77890000 -0.41250000
-0.73610000 -2.54590000 0.40880000
0.52600000 -1.65530000 0.41980000
0.56690000 -1.57840000 0.41740000
0.56020000 -1.64800000 0.41080000
0.78020000 -0.29710000 -0.06380000
0.77040000 -0.45190000 -0.01060000
0.31720000 -1.71730000 0.42010000
-0.26540000 0.49130000 0.42510000
-0.67400000 -2.56430000 0.41860000
-0.67420000 -2.45830000 0.41760000
-0.80640000 -2.65750000 0.38840000
-0.82890000 -2.61830000 0.36260000
-0.76660000 -2.60240000 0.40360000
0.34870000 -1.77080000 0.42220000
0.76900000 -0.47960000 -0.01070000
0.76280000 -0.64010000 -0.04290000
0.77740000 -0.27570000 -0.13750000
0.76970000 -0.46210000 -0.00710000
-0.65290000 0.73420000 -0.41620000
-0.83510000 -2.71640000 0.34110000
-0.65640000 0.66540000 -0.41350000
0.43570000 -1.79320000 0.42470000
0.50500000 -1.82800000 0.41960000
-0.72570000 -2.65960000 0.41360000
-0.57550000 0.88200000 -0.43300000
0.35850000 -1.83990000 0.41880000
0.75140000 -0.84590000 -0.06490000
0.75930000 -0.70990000 -0.01100000
0.75260000 -0.83280000 -0.01110000
-0.59820000 0.79640000 -0.42430000
-0.55400000 0.82460000 -0.43180000
0.38610000 -1.96310000 0.42170000
-0.84510000 -2.06100000 0.25420000
-0.84050000 -2.12530000 0.29860000
-0.57740000 0.61250000 -0.42970000
-0.51720000 0.69580000 -0.43150000
0.45410000 -1.94540000 0.42270000
0.77870000 1.75420000 0.43610000
0.75960000 1.90200000 0.44220000
-0.51630000 0.91640000 -0.43460000
0.74790000 -0.92740000 -0.19790000
0.49660000 -1.71860000 0.42180000
-0.49380000 0.84180000 -0.43300000
0.71470000 1.37950000 0.44160000
0.54470000 -1.69440000 0.42410000
-0.44780000 0.78450000 -0.43880000
0.53800000 -1.77520000 0.41370000
0.55320000 -1.73940000 0.41920000
-0.43750000 0.66300000 -0.43950000
0.77910000 1.49220000 0.43070000
0.58460000 -1.79490000 0.40810000
0.03060000 1.42800000 0.44010000
0.03070000 1.41920000 0.44060000
0.09140000 1.41570000 0.44020000
0.01700000 1.42000000 0.44070000
0.03070000 1.40870000 0.43720000
-0.68560000 0.57580000 -0.41580000
0.57880000 -1.85930000 0.40990000
0.54400000 -1.90820000 0.41190000
0.04750000 1.35430000 0.43660000
0.07700000 1.35890000 0.44390000
0.04190000 1.39950000 0.43430000
0.12330000 1.38430000 0.44860000
-0.87050000 0.28050000 -0.00970000
-0.61740000 0.59690000 -0.42250000
0.72130000 -0.51810000 0.40180000
0.75510000 -0.44020000 0.36720000
0.74420000 -0.49020000 0.38470000
0.18120000 1.34660000 0.44420000
0.70480000 -0.57710000 0.40930000
0.69670000 -1.84730000 0.27690000
0.69530000 -1.89380000 0.10700000
0.70100000 -1.69990000 0.23460000
-0.65700000 0.44840000 -0.42580000
-0.69320000 0.38780000 -0.42020000
0.25860000 1.34440000 0.43790000
-0.65400000 0.52030000 -0.41590000
0.07440000 1.29990000 0.44820000
0.73970000 -0.62920000 0.38430000
0.74780000 -0.55700000 0.37040000
0.58720000 -1.47450000 0.41500000
-0.59840000 0.50880000 -0.42670000
0.07920000 1.23620000 0.44710000
0.75720000 -0.52800000 0.32250000
0.16490000 1.22180000 0.44370000
-0.76340000 -2.21610000 0.40260000
-0.76760000 -2.14690000 0.39910000
-0.81340000 -2.13070000 0.37920000
0.75310000 -0.62370000 0.35730000
-0.83110000 -2.16200000 0.36020000
-0.57920000 0.45970000 -0.43560000
0.75690000 -0.57240000 0.27270000
0.61530000 -1.61820000 0.40830000
-0.52520000 0.51940000 -0.43380000
0.23340000 1.25810000 0.43910000
0.76630000 -0.42910000 0.21990000
0.59200000 -1.68780000 0.40810000
0.62120000 -1.65380000 0.40050000
-0.73580000 -2.18790000 0.41420000
-0.51810000 0.59320000 -0.42970000
0.07210000 1.18780000 0.43890000
-0.73600000 -2.06250000 0.41060000
-0.69840000 -2.16570000 0.41730000
0.59540000 -1.73350000 0.41080000
0.63290000 -1.69390000 0.39330000
0.63940000 -1.75490000 0.40130000
0.10770000 1.12760000 0.43550000
0.18230000 1.11780000 0.44150000
-0.71010000 -2.27600000 0.41730000
-0.51570000 0.43720000 -0.43450000
-0.65230000 -2.18540000 0.42400000
-0.68460000 -2.06540000 0.42170000
0.62670000 -1.81800000 0.39470000
0.62640000 -1.90240000 0.39400000
0.65400000 -1.88070000 0.38340000
0.26260000 1.12140000 0.44080000
-0.45660000 0.61290000 -0.43440000
0.18150000 1.02640000 0.43470000
0.25600000 1.02880000 0.43420000
0.65580000 -1.42190000 0.40120000
0.64990000 -1.47700000 0.40410000
-0.44930000 0.46190000 -0.44070000
0.70030000 -1.42670000 0.38120000
-0.39760000 0.52800000 -0.44660000
-0.66930000 -2.30790000 0.41990000
0.67970000 -1.47020000 0.39270000
-0.69470000 -2.37030000 0.42020000
0.70540000 -1.49330000 0.36800000
0.72760000 -0.69420000 0.39690000
-0.60570000 -2.27890000 0.42380000
0.64920000 -1.57450000 0.39530000
0.66850000 -1.53340000 0.39070000
-0.44230000 0.86870000 -0.43370000
0.74860000 -0.71780000 0.36840000
0.33320000 1.41190000 0.44980000
-0.41310000 0.91300000 -0.43810000
0.75210000 -0.72720000 0.33720000
0.67770000 -1.62380000 0.39040000
0.75810000 -0.63160000 0.22580000
0.68880000 -1.52900000 0.38470000
0.74850000 -0.83190000 0.22860000
0.70760000 -1.54510000 0.34040000
-0.38550000 0.88440000 -0.44510000
0.68930000 -1.57310000 0.37370000
0.69470000 -1.64780000 0.35870000
0.73710000 -0.78280000 0.38150000
0.71380000 -1.42120000 0.35430000
0.74820000 -0.80710000 0.34560000
-0.84640000 -2.50590000 0.10070000
-0.33630000 0.87270000 -0.44660000
0.74110000 -0.85110000 0.36410000
0.71650000 -1.46830000 0.21700000
-0.38120000 0.67480000 -0.44740000
0.75430000 -0.74210000 0.14400000
0.32970000 1.23240000 0.44880000
-0.33460000 0.61330000 -0.44600000
0.41290000 1.15910000 0.45720000
0.48460000 1.27780000 0.45900000
0.67760000 -1.68350000 0.37490000
-0.69860000 0.18320000 -0.41920000
-0.64900000 0.30840000 -0.42220000
0.65460000 -1.71900000 0.38440000
0.68550000 -1.74240000 0.36600000
0.70060000 -1.66540000 0.32330000
0.33790000 1.04190000 0.44960000
0.75360000 -0.82040000 0.03950000
0.69700000 -1.75990000 0.33570000
0.66700000 -1.78180000 0.38350000
0.69120000 -1.83020000 0.34780000
0.67830000 -1.87410000 0.36530000
0.76380000 -0.45760000 0.11040000
-0.84600000 -2.60130000 -0.11220000
-0.84290000 -2.70630000 -0.01350000
-0.84620000 -2.55700000 -0.01330000
-0.74800000 0.03990000 -0.42160000
-0.59740000 -2.44250000 0.42230000
-0.61030000 -2.54950000 0.42080000
0.76770000 -0.52490000 0.08100000
-0.61060000 0.23890000 -0.42800000
-0.58190000 0.14790000 -0.43180000
-0.59050000 0.06310000 -0.42980000
-0.56260000 -2.15710000 0.42390000
-0.62330000 -1.98210000 0.42560000
-0.23600000 0.59020000 -0.43410000
0.76230000 -0.63900000 -0.01090000
0.76410000 -0.61030000 -0.01080000
-0.05530000 -2.06400000 0.43510000
-0.01820000 -2.16880000 0.43030000
-0.18490000 0.50130000 -0.43360000
0.54320000 1.12840000 0.45810000
0.47790000 0.98100000 0.45730000
-0.00980000 -2.26530000 0.42630000
0.03600000 -2.14860000 0.42110000
0.03600000 -2.14710000 0.42110000
-0.17370000 0.79020000 -0.42860000
-0.05860000 -2.30660000 0.43060000
0.02770000 -2.41530000 0.42000000
0.06600000 -2.35930000 0.41840000
0.03630000 -2.32240000 0.42150000
0.03640000 -2.40260000 0.41960000
-0.52570000 -2.21970000 0.41870000
-0.05170000 0.74660000 -0.42570000
-0.51280000 -2.10610000 0.42080000
-0.46820000 -2.20970000 0.42550000
-0.04450000 -2.42200000 0.42820000
0.01400000 -2.47990000 0.42050000
-0.32050000 0.28720000 0.42350000
0.08410000 -2.44370000 0.41860000
-0.27690000 0.36670000 0.42250000
-0.38160000 -2.32460000 0.42790000
-0.25970000 0.28280000 0.41920000
0.03670000 -2.14690000 0.42100000
0.03600000 -2.14320000 0.42120000
-0.28970000 0.20680000 0.42380000
0.08360000 -2.10620000 0.41890000
0.03580000 -2.03130000 0.42530000
-0.54040000 -2.30720000 0.42240000
-0.45470000 -2.39220000 0.42560000
0.76140000 -0.65750000 -0.01090000
0.12040000 -2.13230000 0.42570000
0.16410000 -2.04630000 0.42980000
-0.24620000 0.24150000 0.42610000
0.16980000 -2.12900000 0.42700000
-0.25910000 0.05680000 0.41710000
0.51300000 0.05960000 -0.42490000
0.06860000 -2.22800000 0.42040000
0.03610000 -2.24350000 0.42280000
0.54580000 0.18110000 -0.42740000
0.62620000 0.12270000 -0.42600000
-0.52970000 -2.42240000 0.42170000
-0.20180000 0.01280000 0.41810000
0.62730000 0.05890000 -0.42760000
0.17880000 -2.26300000 0.42790000
-0.10610000 0.52860000 -0.42800000
0.25700000 -2.23920000 0.42300000
0.52950000 -0.08700000 -0.42470000
-0.48940000 3.27920000 0.45900000
-0.54160000 -2.57680000 0.41550000
-0.51500000 -2.48810000 0.41870000
0.59060000 -0.02940000 -0.42370000
-0.50000000 3.08590000 0.46380000
-0.48390000 -2.60560000 0.42000000
-0.43390000 -2.59030000 0.42600000
0.25830000 -2.12790000 0.42330000
0.79250000 1.33730000 0.42310000
0.80450000 1.43550000 0.42270000
0.81880000 1.34730000 0.41120000
-0.43220000 2.95390000 0.45580000
0.59560000 1.20790000 0.45370000
0.32510000 -2.12620000 0.41790000
-0.44490000 2.69160000 0.46060000
0.69670000 1.17140000 0.44270000
0.78870000 -0.06700000 -0.01010000
0.78950000 -0.04780000 -0.01010000
0.36350000 -2.19560000 0.41940000
0.59910000 1.06020000 0.45360000
0.11560000 -2.28310000 0.42420000
-0.34690000 -2.56020000 0.42590000
0.66410000 1.00460000 0.44370000
0.12290000 -2.33760000 0.42730000
-0.30020000 -2.46600000 0.42410000
-0.31660000 -2.29180000 0.42680000
-0.35440000 2.73910000 0.44860000
-0.26790000 -2.54800000 0.41840000
0.56620000 -0.22590000 -0.42580000
0.74230000 0.99360000 0.42820000
0.66580000 -0.05360000 -0.42780000
0.26300000 -2.34990000 0.42460000
0.12290000 -2.39290000 0.42400000
0.64250000 -0.15020000 -0.42590000
-0.83860000 -2.78030000 0.25040000
-0.83610000 -2.88340000 0.30580000
0.16740000 -2.47350000 0.42420000
-0.83140000 -2.86810000 0.35430000
-0.33730000 2.66370000 0.44830000
0.76620000 1.20540000 0.42600000
0.23280000 -2.44090000 0.42340000
0.81020000 1.22330000 0.40780000
-0.32720000 2.57930000 0.44710000
-0.58510000 0.38160000 -0.43410000
0.82980000 1.25510000 0.38750000
0.77500000 1.09600000 0.42380000
0.61200000 -0.30710000 -0.42480000
-0.51610000 0.36420000 -0.43770000
0.64280000 -0.24520000 -0.42640000
-0.81030000 -2.97620000 0.38120000
-0.82190000 -2.79230000 0.37580000
-0.79570000 -2.82280000 0.39510000
0.80220000 1.09860000 0.41190000
0.82930000 1.12730000 0.36970000
0.82000000 1.13430000 0.39620000
0.30920000 1.95040000 -0.44020000
-0.52810000 0.29360000 -0.43370000
-0.34280000 2.41950000 0.45100000
0.32090000 -2.32330000 0.41720000
-0.77490000 -2.72670000 0.40490000
0.34180000 -2.38410000 0.41840000
0.78810000 -0.07480000 -0.01010000
0.30000000 -2.48560000 0.41760000
-0.50330000 0.24490000 -0.43410000
0.78580000 -0.10670000 -0.18430000
0.78360000 -0.13220000 -0.12810000
-0.64480000 -2.71830000 0.41850000
0.39820000 -2.35630000 0.41880000
-0.29530000 2.44800000 0.44010000
0.33470000 1.75390000 -0.43740000
-0.70830000 -2.85460000 0.41560000
-0.43110000 0.37330000 -0.44550000
0.46490000 -2.28280000 0.42130000
0.44220000 -2.19310000 0.42190000
-0.74800000 -2.79390000 0.40660000
-0.35240000 2.30460000 0.45120000
-0.37710000 0.42240000 -0.45220000
0.38920000 -2.48530000 0.41740000
-0.76220000 -2.88060000 0.40580000
-0.36090000 0.35150000 -0.44810000
-0.45830000 0.28950000 -0.43530000
0.48460000 -2.33990000 0.41620000
-0.41000000 0.31570000 -0.44490000
-0.45670000 0.22390000 -0.44190000
0.49710000 -2.41250000 0.41690000
-0.38750000 0.25310000 -0.45050000
0.02870000 -2.54660000 0.42370000
-0.01700000 -2.57810000 0.42290000
0.03660000 -2.58250000 0.42300000
0.03660000 -2.55430000 0.42350000
0.03660000 -2.54220000 0.42240000
0.03650000 -2.49670000 0.41900000
-0.35590000 2.09250000 0.44820000
0.03640000 -2.43690000 0.41930000
0.09930000 -2.49600000 0.42310000
0.07120000 -2.52260000 0.41660000
-0.31190000 0.24580000 -0.44460000
0.10710000 -2.55850000 0.42200000
0.06860000 -2.58520000 0.42300000
0.03670000 -2.62340000 0.41700000
0.05640000 -2.64010000 0.41490000
0.03670000 -2.63800000 0.41620000
-0.82370000 -3.00790000 0.35370000
0.03670000 -2.65120000 0.41750000
-0.01050000 -2.67790000 0.42380000
0.03680000 -2.71060000 0.41980000
-0.83330000 -2.97850000 0.26360000
-0.83920000 -2.89560000 0.24340000
0.11390000 -2.62300000 0.42500000
-0.31360000 2.21480000 0.44320000
-0.51780000 0.14090000 -0.43350000
-0.82600000 -3.11580000 0.32530000
0.17490000 -2.62120000 0.42490000
-0.28870000 2.30410000 0.44150000
0.11420000 -2.67630000 0.42200000
0.06630000 -2.73080000 0.41740000
0.13120000 -2.75450000 0.42270000
0.77480000 -0.27060000 -0.29090000
-0.46480000 0.06740000 -0.44110000
-0.83500000 -2.96550000 0.12220000
0.81780000 1.86980000 0.42910000
0.03690000 -2.76000000 0.41230000
0.04260000 -2.79060000 0.41110000
0.03690000 -2.73790000 0.41370000
0.03300000 -2.73890000 0.41320000
-0.54710000 0.02060000 -0.43660000
0.09310000 -2.79450000 0.41380000
-0.29500000 2.04360000 0.43820000
0.04960000 -2.82610000 0.41800000
0.66920000 0.18690000 -0.42650000
0.12650000 -2.83520000 0.41900000
-0.27110000 2.21710000 0.43780000
-0.82490000 -3.22820000 0.19650000
-0.82700000 -3.17200000 0.28370000
0.19850000 -2.81340000 0.42170000
-0.25280000 2.15700000 0.44420000
-0.82530000 -3.17990000 0.01930000
0.74970000 0.12490000 -0.42910000
-0.44000000 0.12570000 -0.44320000
0.12110000 -2.88710000 0.42020000
0.83700000 1.76260000 0.41600000
0.81480000 1.71350000 0.42460000
-0.39590000 0.18010000 -0.44430000
0.69320000 0.02340000 -0.42570000
0.11980000 -2.94310000 0.41480000
0.85410000 1.79280000 0.39820000
0.85640000 1.72590000 0.38270000
-0.78030000 -3.02410000 0.40040000
0.80430000 1.61060000 0.42630000
-0.73670000 -2.99500000 0.41160000
0.82720000 1.65500000 0.41930000
-0.40150000 0.11070000 -0.45030000
0.83630000 1.58870000 0.40930000
0.84410000 1.69070000 0.40290000
0.21010000 -2.94420000 0.41850000
0.85740000 1.72500000 0.35800000
0.84890000 1.61980000 0.38870000
-0.34920000 1.79800000 0.44370000
-0.71860000 -3.04900000 0.41050000
0.75510000 0.06120000 -0.42510000
0.85360000 1.61910000 0.29600000
0.76130000 0.01790000 -0.42730000
-0.31200000 0.09980000 -0.44330000
-0.79640000 -3.16040000 0.38660000
0.74830000 -0.03670000 -0.42960000
0.86560000 1.92710000 0.36550000
0.86020000 1.85080000 0.38300000
-0.72430000 -3.11190000 0.41260000
0.76690000 -0.04200000 -0.42300000
0.74950000 0.23310000 -0.42620000
0.17380000 -2.53540000 0.42730000
-0.65150000 -3.12410000 0.41590000
-0.32400000 1.93670000 0.44010000
0.86820000 1.96050000 0.26720000
0.80180000 0.28930000 -0.22000000
0.79170000 0.06150000 -0.27110000
0.79980000 0.27990000 -0.35610000
0.31320000 -2.62520000 0.41690000
-0.66780000 -3.01040000 0.41590000
-0.24070000 2.07890000 0.44450000
0.79250000 0.12060000 -0.39650000
0.79140000 0.06020000 -0.37580000
-0.61500000 -2.86630000 0.41800000
-0.60700000 -2.96360000 0.41560000
0.86320000 1.75960000 0.16000000
-0.21700000 1.95050000 0.44670000
-0.54640000 -2.80570000 0.41550000
-0.54240000 -2.95100000 0.41120000
-0.21800000 0.16920000 -0.43520000
-0.33580000 0.45100000 -0.44600000
-0.25880000 1.81100000 0.44150000
0.27180000 -2.74840000 0.41780000
-0.59420000 -3.06000000 0.41340000
0.78090000 0.06790000 -0.40870000
0.76910000 0.09350000 -0.42320000
0.78810000 0.02140000 -0.41440000
0.78560000 -0.05010000 -0.37980000
-0.55890000 -3.03090000 0.41140000
0.78090000 -0.04300000 -0.40630000
-0.18450000 0.42500000 -0.43880000
-0.54380000 -3.15820000 0.41020000
-0.16590000 1.90490000 0.44080000
0.77400000 0.22620000 -0.41540000
0.77960000 0.15330000 -0.41630000
0.78690000 0.23530000 -0.39790000
0.36560000 -2.52490000 0.41450000
-0.36010000 1.56880000 0.44590000
0.87030000 1.90620000 0.09260000
-0.84200000 -2.75520000 0.14320000
0.71730000 -0.07150000 -0.42860000
0.49650000 -2.48520000 0.41360000
0.45380000 -2.51670000 0.41830000
-0.19630000 0.32090000 -0.43490000
0.70420000 -0.23030000 -0.42950000
0.76440000 -0.09800000 -0.41480000
0.74410000 -0.11770000 -0.42620000
-0.29930000 1.73650000 0.43720000
0.76380000 -0.17340000 -0.41580000
0.87540000 2.05570000 0.04070000
0.39030000 -2.64300000 0.41660000
0.46620000 -2.61160000 0.41240000
0.73290000 -0.20650000 -0.42730000
0.74000000 -0.28640000 -0.42090000
0.76040000 -0.25990000 -0.40980000
-0.13450000 0.22820000 -0.43460000
0.53090000 -2.52810000 0.41050000
0.52950000 -2.61210000 0.40980000
-0.24060000 1.73720000 0.44330000
-0.30660000 1.59600000 0.43560000
-0.24940000 1.66710000 0.43770000
-0.11320000 0.36930000 -0.43200000
0.77870000 -0.12260000 -0.38880000
0.77690000 -0.17230000 -0.39550000
-0.00120000 0.33050000 -0.43250000
0.35180000 -2.73250000 0.41220000
0.86570000 1.86270000 0.03890000
0.86880000 1.86420000 -0.00760000
-0.19460000 1.83030000 0.44250000
0.77170000 -0.27140000 -0.37270000
-0.20510000 1.70730000 0.43600000
-0.15380000 1.84150000 0.43560000
0.76070000 -0.33340000 -0.39640000
-0.13120000 1.80020000 0.43980000
0.85930000 1.59740000 -0.06710000
0.86290000 1.74580000 -0.00780000
0.85770000 1.63070000 -0.00790000
0.35190000 -2.95080000 0.40680000
0.38530000 -2.89850000 0.41010000
0.02130000 0.39400000 -0.42930000
0.80810000 0.37120000 -0.05710000
0.80700000 0.36870000 -0.00960000
0.79650000 0.10590000 -0.00990000
-0.17430000 1.68140000 0.43970000
-0.11210000 1.73760000 0.45040000
-0.14350000 1.65120000 0.44870000
-0.09600000 1.67920000 0.44860000
0.43650000 -2.79190000 0.41370000
0.47930000 -2.71850000 0.41260000
-0.32970000 1.51920000 0.43050000
0.51330000 -2.70800000 0.40980000
0.85440000 1.65500000 0.22940000
0.85530000 1.58690000 0.18930000
0.56960000 -2.72830000 0.38750000
0.85670000 1.65310000 0.03190000
-0.22910000 1.61020000 0.43210000
-0.27480000 1.57140000 0.42810000
-0.82580000 -3.17760000 -0.01420000
-0.25990000 1.52540000 0.43550000
0.85710000 1.56490000 0.03730000
0.50060000 -2.79490000 0.41030000
-0.20080000 1.57350000 0.44360000
-0.31950000 1.46980000 0.43850000
0.45770000 -2.90980000 0.40920000
-0.02060000 0.20110000 -0.42970000
0.49900000 -2.96130000 0.40340000
0.60710000 -0.38950000 -0.42920000
-0.24660000 1.48270000 0.44460000
0.59000000 -0.42770000 -0.42620000
0.54100000 -2.82210000 0.39570000
-0.30670000 1.31340000 0.43780000
0.56750000 -0.49240000 -0.42530000
-0.51950000 -3.01390000 0.41710000
-0.25820000 1.37020000 0.44300000
-0.48000000 -3.11720000 0.41880000
-0.53000000 -2.65410000 0.41850000
-0.17320000 1.54990000 0.44640000
-0.17990000 1.43560000 0.44940000
-0.46160000 -2.71070000 0.42540000
0.07340000 0.24700000 -0.43200000
0.03230000 0.29290000 -0.43230000
0.03220000 0.36320000 -0.42980000
0.03240000 0.22700000 -0.43100000
0.50950000 -1.95770000 0.41970000
0.49890000 -2.07030000 0.41740000
0.69860000 -0.40430000 -0.42850000
-0.49240000 -2.78210000 0.41920000
0.56390000 -2.01720000 0.41090000
-0.07550000 1.56260000 0.44530000
-0.12590000 1.53630000 0.44120000
0.03260000 0.10260000 -0.42960000
0.03250000 0.15780000 -0.42950000
0.63100000 -0.48960000 -0.42990000
-0.09380000 1.48870000 0.44350000
0.62900000 -0.57610000 -0.42880000
-0.06920000 1.43800000 0.44500000
0.51810000 -2.15150000 0.41670000
-0.43220000 -2.96460000 0.42480000
-0.37930000 -2.79110000 0.42810000
0.68990000 -0.55150000 -0.43080000
0.70770000 -0.50730000 -0.42740000
0.72580000 -0.43030000 -0.41970000
0.55660000 -2.09780000 0.41280000
0.57950000 -1.95860000 0.40710000
0.73230000 -0.53400000 -0.41610000
0.03140000 0.89110000 -0.42490000
0.60890000 -2.06680000 0.39400000
0.03150000 0.83910000 -0.42520000
0.60300000 -2.10670000 0.39780000
0.76420000 -0.55460000 -0.22140000
-0.30390000 -2.64860000 0.42520000
-0.29390000 -2.79400000 0.42340000
0.50680000 -2.24640000 0.41610000
0.53830000 -2.22350000 0.40830000
0.56620000 -2.19900000 0.40670000
0.58160000 -2.16560000 0.40870000
-0.28520000 -2.66620000 0.42010000
-0.24210000 -2.65790000 0.41800000
-0.25230000 -2.72150000 0.42070000
-0.20160000 -2.68000000 0.42290000
0.60540000 -2.23530000 0.38500000
-0.23530000 -2.81370000 0.41900000
0.05250000 0.86240000 -0.42510000
0.53560000 -2.31320000 0.41640000
-0.25270000 1.09090000 0.43980000
-0.49260000 -2.95750000 0.42110000
0.54320000 -2.35340000 0.40860000
-0.28610000 0.97040000 0.43060000
0.58090000 -2.29500000 0.39730000
-0.21750000 1.06660000 0.43910000
-0.22700000 0.99690000 0.42920000
0.58560000 -2.34810000 0.39970000
-0.25780000 0.93030000 0.42400000
-0.20320000 0.91800000 0.42920000
0.62550000 -2.37670000 0.37910000
0.61830000 -2.18710000 0.38730000
0.11920000 0.69190000 -0.42810000
0.64330000 -2.25920000 0.36980000
0.76220000 -0.50460000 -0.34070000
0.75740000 -0.46720000 -0.37750000
0.65570000 -2.32710000 0.36290000
0.67370000 -2.34180000 0.25060000
0.67940000 -2.19940000 0.32580000
0.67080000 -2.33570000 0.34250000
0.67470000 -2.37190000 0.30680000
-0.14920000 1.25490000 0.44730000
0.68680000 -2.07300000 0.28980000
-0.22520000 1.23830000 0.44430000
-0.34510000 -3.01690000 0.42420000
0.27010000 0.79040000 -0.44480000
0.32070000 0.92050000 -0.44090000
0.82370000 1.49390000 0.41270000
-0.31280000 -2.90590000 0.42460000
0.84240000 1.49870000 0.38840000
0.84410000 1.45500000 0.36310000
-0.29040000 -2.85220000 0.42810000
0.83330000 1.41260000 0.40050000
0.62350000 -0.81020000 -0.43260000
0.61450000 -0.70190000 -0.42950000
0.83640000 1.33890000 0.38060000
-0.25510000 -2.92860000 0.41520000
-0.26080000 -3.02290000 0.41680000
-0.10370000 1.16810000 0.44240000
-0.05100000 1.22970000 0.44230000
0.03170000 0.71990000 -0.42690000
0.84480000 1.36460000 0.21990000
-0.06140000 1.37870000 0.44380000
-0.04290000 1.30260000 0.44610000
-0.14080000 -2.83430000 0.42330000
-0.20910000 -2.91300000 0.42070000
0.01160000 1.30830000 0.44450000
0.70920000 -0.68920000 -0.42920000
0.68690000 -0.76480000 -0.43440000
-0.21900000 -2.97920000 0.41270000
0.01010000 1.34320000 0.43760000
0.72240000 -0.62260000 -0.42170000
0.74410000 -0.61110000 -0.40230000
0.75410000 -0.59760000 -0.37500000
0.03070000 1.37960000 0.43550000
0.03080000 1.34940000 0.43700000
0.74740000 -0.52080000 -0.40140000
-0.17810000 -3.02520000 0.41730000
0.03090000 1.22880000 0.44150000
0.03100000 1.20180000 0.44010000
0.74480000 -0.67460000 -0.40910000
0.73690000 -0.66860000 -0.41860000
0.03080000 1.30090000 0.44750000
0.03080000 1.30570000 0.44570000
0.03080000 1.33290000 0.44030000
0.24630000 0.63880000 -0.44310000
0.03090000 1.26240000 0.44670000
0.34450000 0.70720000 -0.43740000
0.66920000 -2.44170000 0.12760000
0.74910000 -0.71410000 -0.39080000
0.75120000 -0.76300000 -0.33380000
0.72660000 -0.80940000 -0.43120000
0.73480000 -0.72850000 -0.42090000
0.74520000 -0.75480000 -0.41550000
0.30750000 0.67190000 -0.44390000
0.83340000 1.15910000 0.33550000
-0.11760000 1.10890000 0.43350000
-0.16860000 1.03800000 0.43350000
0.31170000 0.61090000 -0.44000000
-0.07210000 1.05970000 0.43420000
-0.13900000 0.96680000 0.43290000
-0.16320000 0.93080000 0.43460000
0.84230000 1.22520000 0.12560000
-0.08520000 0.99190000 0.43330000
-0.03230000 1.00310000 0.43070000
-0.81520000 -3.39450000 -0.12950000
-0.81060000 -3.40840000 -0.01440000
-0.81670000 -3.38620000 -0.01440000
-0.79310000 -3.43530000 -0.04170000
-0.80080000 -3.42430000 -0.01450000
-0.06370000 0.94960000 0.43780000
-0.01970000 0.94310000 0.43250000
-0.02900000 1.15600000 0.43480000
0.67440000 -2.35300000 -0.01020000
-0.80560000 -3.42050000 -0.16770000
0.67890000 -2.25020000 -0.01300000
0.69050000 -1.98710000 -0.01260000
0.03100000 1.17490000 0.43720000
-0.81720000 -3.38320000 0.02840000
-0.82140000 -3.32200000 0.02600000
-0.81980000 -3.34080000 -0.01440000
0.01420000 1.10020000 0.43330000
-0.82300000 -3.22820000 -0.01420000
0.03110000 1.12580000 0.43500000
0.40700000 0.90800000 -0.42860000
-0.80010000 -3.43080000 -0.10480000
0.61540000 -1.98980000 0.40280000
-0.82470000 -3.19930000 -0.01420000
0.75790000 -0.60500000 -0.27630000
0.40620000 0.66740000 -0.42840000
0.03110000 1.10520000 0.43370000
0.84530000 1.34440000 0.12070000
0.63900000 -1.96810000 0.38530000
0.66960000 -1.99110000 0.36720000
-0.77310000 -3.44450000 -0.15130000
-0.76260000 -3.44850000 -0.09730000
0.03210000 0.42700000 -0.42920000
0.62260000 -2.03390000 0.39710000
-0.75090000 -3.44920000 -0.05060000
0.63750000 -2.15180000 0.37840000
0.65290000 -2.04040000 0.37760000
0.07290000 1.03290000 0.43780000
0.03120000 1.08070000 0.43460000
0.03120000 1.04060000 0.43680000
0.03120000 1.02110000 0.43500000
0.03220000 0.39410000 -0.42970000
0.66280000 -2.13770000 0.36290000
0.03140000 0.93930000 0.43260000
0.03130000 0.99260000 0.43540000
0.68010000 -2.09860000 0.34430000
0.03920000 0.93870000 0.43270000
0.10430000 0.98060000 0.44060000
-0.81410000 -3.19680000 0.36470000
0.67160000 -2.22640000 0.34700000
0.74230000 -0.43500000 -0.40680000
-0.81610000 -3.30820000 0.33720000
-0.80260000 -3.33240000 0.36810000
0.15410000 0.39530000 -0.43440000
0.85800000 1.57900000 -0.00800000
0.69260000 -1.93320000 0.32600000
0.68630000 -1.94050000 0.35440000
0.68740000 -2.00690000 0.33870000
-0.28240000 0.72070000 0.43040000
-0.26400000 0.85160000 0.42900000
0.25140000 0.46260000 -0.44300000
-0.23070000 0.80230000 0.43600000
-0.81840000 -3.36910000 0.25680000
0.20280000 0.28550000 -0.44050000
-0.17480000 0.85190000 0.43950000
-0.15370000 0.76390000 0.43860000
0.32800000 0.55800000 -0.44070000
0.85720000 1.56510000 -0.00800000
0.85450000 1.46660000 -0.00810000
0.85170000 1.35920000 -0.05790000
0.85000000 1.35510000 -0.00830000
-0.21780000 0.66420000 0.43460000
0.57550000 -2.41240000 0.39600000
0.54770000 -2.45610000 0.41020000
-0.12440000 0.67620000 0.43560000
0.28660000 0.34280000 -0.44320000
0.57380000 -2.59970000 0.39370000
0.34280000 0.50890000 -0.43730000
0.73690000 -1.12700000 0.05990000
0.30890000 0.42670000 -0.44460000
0.35820000 0.43300000 -0.43750000
0.63030000 -2.51840000 0.37120000
-0.22290000 0.59850000 0.42960000
0.74000000 -1.07130000 -0.06980000
0.73860000 -1.09640000 -0.01150000
0.72390000 -1.38380000 -0.01180000
-0.13270000 0.63080000 0.42840000
-0.78520000 -3.29860000 0.39040000
-0.22230000 0.52130000 0.43150000
-0.76690000 -3.18760000 0.40250000
0.48700000 0.47890000 -0.43020000
-0.16910000 0.59360000 0.42590000
0.43450000 0.42260000 -0.43080000
-0.14010000 0.54460000 0.43710000
-0.72590000 -3.24480000 0.40780000
-0.09570000 0.57760000 0.43310000
0.75090000 -0.84340000 -0.01110000
0.74520000 -0.96670000 -0.01130000
-0.03570000 0.61730000 0.43000000
0.65710000 -2.49470000 0.35410000
-0.69390000 -3.32760000 0.40480000
0.66790000 -2.52550000 0.32800000
-0.11670000 0.47540000 0.43540000
-0.75310000 -3.32700000 0.40200000
-0.20300000 0.38510000 0.42980000
0.84920000 1.32300000 -0.00830000
0.84130000 1.16730000 -0.00850000
0.84040000 1.11770000 -0.12330000
0.66440000 -2.61560000 0.23220000
0.66360000 -2.65090000 0.30360000
-0.09430000 0.86750000 0.43510000
0.30900000 0.24180000 -0.44510000
-0.06600000 0.90510000 0.43310000
-0.57910000 -3.23890000 0.40820000
-0.09930000 0.80910000 0.43390000
0.39510000 0.35690000 -0.43310000
0.37530000 0.33100000 -0.43920000
0.64280000 -2.67070000 0.36060000
-0.00580000 0.88410000 0.43360000
-0.59660000 -3.33360000 0.40430000
0.65830000 -2.64390000 0.34300000
-0.03710000 0.75450000 0.43120000
0.62410000 -2.75940000 0.36690000
0.37150000 0.28220000 -0.43670000
0.66030000 -2.75960000 0.32080000
-0.51390000 -3.33970000 0.41010000
-0.51090000 -3.25820000 0.41570000
0.61420000 -2.83640000 0.37020000
0.42820000 0.29360000 -0.42840000
-0.79470000 -3.38510000 0.37230000
-0.81050000 -3.38320000 0.32890000
-0.79260000 -3.41230000 0.34130000
0.64090000 -2.84730000 0.35740000
0.65340000 -2.78960000 0.34320000
0.38370000 0.20040000 -0.43590000
0.43510000 0.24370000 -0.43390000
-0.80770000 -3.41060000 0.26240000
0.03150000 0.85170000 0.42900000
0.03150000 0.86600000 0.42950000
-0.77030000 -3.43050000 0.32830000
0.03160000 0.76740000 0.43340000
-0.78620000 -3.43360000 0.23860000
-0.75380000 -3.44170000 0.26120000
0.06430000 0.77350000 0.43440000
0.03170000 0.71890000 0.43070000
0.02390000 0.70590000 0.42980000
0.03170000 0.70470000 0.43100000
-0.81440000 -3.40440000 0.19950000
0.03140000 0.92920000 0.43280000
-0.80230000 -3.42460000 0.10380000
-0.79540000 -3.43070000 0.17350000
-0.54780000 3.42580000 0.45230000
-0.58340000 3.46310000 0.44070000
-0.54600000 3.46520000 0.42970000
-0.58750000 3.47510000 0.41910000
-0.51320000 3.44370000 0.44550000
0.03900000 0.86230000 0.42870000
-0.55970000 3.48140000 0.38410000
-0.52480000 3.47550000 0.41010000
0.61750000 -1.29810000 -0.42700000
-0.49050000 3.45550000 0.43190000
-0.51670000 3.47750000 0.37860000
0.09410000 0.88000000 0.43190000
-0.46800000 3.45890000 0.39540000
-0.76240000 -3.44470000 0.15010000
0.15660000 0.94490000 0.43560000
0.20020000 0.96880000 0.43140000
-0.49240000 3.40600000 0.45210000
-0.66880000 -3.45040000 0.21890000
0.14790000 0.87340000 0.44040000
0.83480000 1.95510000 0.42480000
0.22640000 0.90970000 0.43720000
-0.68290000 -3.44750000 0.30450000
-0.46670000 3.42280000 0.44420000
0.84660000 1.87420000 0.41320000
0.07790000 0.80770000 0.43820000
-0.43930000 3.37670000 0.44730000
0.84810000 2.03520000 0.41700000
-0.44450000 3.43470000 0.42380000
0.86260000 2.05610000 0.39480000
-0.41950000 3.40130000 0.43600000
-0.75120000 -3.44830000 0.06190000
0.85920000 1.94670000 0.40290000
0.13630000 0.77910000 0.44290000
-0.77600000 -3.38520000 0.38980000
-0.39420000 3.35900000 0.44080000
-0.48050000 3.46690000 0.29790000
-0.52690000 3.47990000 0.25140000
-0.74520000 -3.37880000 0.39840000
0.08510000 0.69620000 0.43940000
-0.76550000 -3.41120000 0.37950000
-0.72250000 -3.40500000 0.39550000
0.19900000 0.82770000 0.43860000
-0.41420000 3.43150000 0.35620000
0.19490000 0.73880000 0.43750000
-0.74560000 -3.43280000 0.35750000
-0.40690000 3.42280000 0.39290000
-0.70780000 -3.43010000 0.38220000
-0.38640000 3.39350000 0.41990000
-0.63520000 -3.38930000 0.40120000
-0.71530000 -3.44110000 0.34510000
-0.42060000 3.43450000 0.28840000
0.24340000 0.70950000 0.43430000
-0.65840000 -3.42630000 0.39490000
-0.65690000 -3.44150000 0.36870000
-0.35050000 3.39360000 0.33050000
0.01060000 0.66480000 0.43220000
-0.61590000 -3.42270000 0.39180000
0.28760000 0.97000000 0.43520000
-0.34430000 3.35370000 0.43370000
-0.35720000 3.38120000 0.40070000
-0.32680000 3.36710000 0.42090000
-0.28400000 3.36450000 0.44040000
-0.32420000 3.38110000 0.36820000
0.28100000 0.90230000 0.44040000
-0.30080000 3.38260000 0.38700000
0.03590000 0.57660000 0.43910000
0.03190000 0.57670000 0.43890000
0.03190000 0.57590000 0.43910000
-0.28670000 3.38190000 0.41740000
0.03190000 0.57400000 0.43900000
-0.57060000 -3.40760000 0.39810000
-0.26260000 3.39410000 0.43400000
0.29580000 0.73910000 0.43830000
0.02980000 0.52920000 0.44160000
0.03200000 0.54580000 0.44080000
-0.26270000 3.40410000 0.38600000
-0.23940000 3.42620000 0.40760000
-0.59780000 -3.44390000 0.36770000
-0.55570000 -3.43430000 0.38640000
-0.23830000 3.36050000 0.44930000
-0.23890000 3.40200000 0.45170000
-0.22890000 3.42950000 0.43610000
-0.45720000 -3.40310000 0.40960000
-0.20360000 3.42050000 0.45370000
-0.18860000 3.38790000 0.45670000
0.02980000 0.47450000 0.44010000
-0.48990000 -3.42440000 0.39990000
0.65770000 -2.76920000 0.08510000
-0.58080000 -3.45270000 0.33120000
0.03180000 0.67370000 0.43420000
0.73920000 -0.97020000 -0.33310000
0.72710000 -1.22120000 -0.31180000
0.33730000 0.96990000 0.44480000
0.03190000 0.57890000 0.43860000
0.03180000 0.62640000 0.43240000
0.03180000 0.65880000 0.43280000
-0.37130000 3.41150000 0.24290000
0.10950000 0.63680000 0.43530000
-0.32150000 3.38330000 0.29300000
-0.35940000 3.42110000 0.15620000
-0.40710000 3.43140000 0.11370000
-0.52920000 -3.45290000 0.35570000
0.39750000 0.89890000 0.45540000
-0.33730000 3.40920000 0.20930000
-0.50560000 -3.44930000 0.37410000
0.06720000 0.50650000 0.43800000
0.34040000 0.84920000 0.44820000
-0.30020000 3.38550000 0.24820000
-0.29020000 3.38250000 0.27880000
-0.30670000 3.38940000 0.20620000
0.13690000 0.59620000 0.43650000
-0.47490000 -3.45880000 0.30110000
-0.28610000 3.38370000 0.32100000
-0.27340000 3.39090000 0.35230000
-0.24410000 3.42210000 0.33700000
0.73970000 -0.96190000 0.34330000
0.74060000 -0.96600000 0.28150000
-0.43090000 -3.45850000 0.34260000
0.35820000 0.69990000 0.44920000
0.14200000 0.50400000 0.44160000
-0.21190000 3.44920000 0.33880000
0.11340000 0.44140000 0.43890000
-0.26050000 3.39240000 0.26490000
0.12260000 0.69230000 0.44150000
-0.23450000 3.42060000 0.25930000
-0.34150000 3.41980000 0.11910000
0.18530000 0.67430000 0.43210000
-0.32010000 3.38690000 0.16100000
0.22240000 0.61240000 0.43340000
-0.26410000 3.39180000 0.20090000
-0.24210000 3.41560000 0.17530000
0.67060000 -2.49140000 -0.01330000
0.66610000 -2.66080000 -0.01700000
-0.20310000 3.44510000 0.12450000
-0.24170000 3.41160000 0.09300000
-0.25060000 3.39950000 0.13880000
-0.15330000 3.47550000 0.22030000
-0.19670000 3.45400000 0.25490000
-0.17620000 3.47080000 0.34230000
0.18800000 0.47810000 0.43760000
0.18600000 0.56620000 0.43950000
0.66490000 -2.62690000 -0.18840000
0.23510000 0.52970000 0.43560000
-0.80940000 -3.41200000 0.01580000
-0.78260000 -3.44100000 0.04200000
0.57120000 0.88430000 0.45530000
-0.20630000 3.45130000 0.40560000
0.48430000 0.81080000 0.45660000
-0.18070000 3.44620000 0.44250000
-0.16240000 3.46990000 0.42100000
-0.11670000 3.45480000 0.45830000
-0.12710000 3.47070000 0.44890000
0.30400000 0.56870000 0.44200000
-0.78970000 -3.43710000 -0.01450000
-0.16070000 3.42710000 0.45300000
0.30100000 0.52810000 0.43840000
0.66300000 -2.72640000 -0.01360000
0.65630000 -2.86760000 -0.00610000
0.65740000 -2.83670000 -0.11450000
-0.11290000 3.41460000 0.46280000
-0.78210000 -3.43870000 -0.01450000
-0.75100000 -3.44900000 -0.01450000
-0.14540000 3.48180000 0.39850000
-0.67930000 -3.45240000 -0.01450000
-0.49490000 -3.46060000 0.07840000
-0.12960000 3.48880000 0.35430000
-0.11120000 3.48890000 0.42720000
-0.07160000 3.49480000 0.40150000
-0.21450000 0.30120000 0.42570000
0.65640000 -2.82830000 -0.23310000
-0.06570000 3.48670000 0.44300000
-0.06000000 3.46540000 0.45830000
-0.16470000 0.26240000 0.43140000
-0.19660000 0.14700000 0.42320000
-0.01810000 3.47360000 0.45770000
-0.17950000 0.20820000 0.42370000
-0.02640000 3.39420000 0.46740000
0.61890000 0.77240000 0.44980000
-0.00130000 3.44500000 0.46330000
0.02770000 3.39400000 0.46690000
0.02760000 3.42730000 0.46440000
-0.06520000 0.41260000 0.43350000
-0.11550000 3.48540000 0.21850000
-0.09450000 3.49340000 0.33440000
-0.05820000 0.36850000 0.42740000
-0.12380000 0.30200000 0.43050000
-0.05070000 3.49140000 0.27750000
0.66580000 -2.66460000 -0.01350000
0.43680000 0.62460000 0.45540000
-0.02640000 3.49470000 0.41750000
0.00630000 3.49290000 0.30230000
0.02690000 3.49340000 0.39010000
0.00500000 3.48410000 0.43940000
0.02760000 3.48560000 0.42670000
0.02750000 3.49270000 0.39320000
0.02750000 3.45980000 0.45560000
0.02760000 3.45960000 0.45560000
-0.00830000 0.34030000 0.42800000
0.03350000 3.48590000 0.42340000
0.02760000 3.46020000 0.45500000
0.52590000 0.55980000 0.45370000
0.35760000 0.49900000 0.44780000
0.08580000 3.48420000 0.35050000
0.02760000 3.49060000 0.31520000
0.02750000 3.49330000 0.38970000
-0.07320000 0.25640000 0.43060000
0.06960000 3.46350000 0.44850000
-0.05310000 0.21770000 0.42730000
0.08250000 3.39380000 0.46630000
0.12390000 3.41560000 0.45850000
0.08520000 3.48320000 0.42440000
0.11910000 3.45190000 0.44290000
0.12840000 3.46980000 0.40250000
-0.01160000 0.29770000 0.43420000
0.15800000 3.44650000 0.43320000
0.12500000 -3.18120000 0.41220000
-0.41940000 3.16020000 0.45350000
0.10970000 -3.01800000 0.41660000
-0.36820000 3.31260000 0.44270000
-0.38210000 -3.46550000 0.28930000
-0.35930000 3.15710000 0.44270000
-0.11850000 0.12750000 0.42610000
0.18220000 -3.09800000 0.41530000
0.27830000 -2.99240000 0.41230000
0.64430000 0.70870000 0.44340000
0.62920000 0.44730000 0.44230000
-0.31000000 3.23510000 0.44180000
-0.29920000 2.98930000 0.44390000
0.00670000 0.15550000 0.43110000
-0.28040000 3.33360000 0.44570000
0.24320000 -3.20520000 0.40770000
0.67770000 0.62340000 0.43680000
-0.04720000 0.08250000 0.43010000
0.02240000 0.19850000 0.43510000
0.03270000 0.08350000 0.43120000
0.03260000 0.13300000 0.43140000
-0.42200000 -3.18770000 0.42230000
-0.42870000 -3.31670000 0.41690000
-0.23430000 3.04230000 0.45280000
0.23570000 -3.38690000 0.39710000
0.72090000 -1.44140000 -0.00110000
-0.17200000 3.22910000 0.46140000
0.03270000 0.02990000 0.43300000
0.03960000 0.02540000 0.43320000
0.08860000 0.08420000 0.43200000
0.69230000 0.86230000 0.43940000
-0.38130000 -3.38920000 0.41160000
0.03280000 0.01470000 0.43270000
-0.46110000 -3.44550000 0.38680000
-0.43010000 -3.44300000 0.39960000
-0.39400000 -3.45390000 0.38020000
0.74180000 0.84050000 0.42690000
-0.37410000 -3.43370000 0.40140000
0.36920000 -3.27250000 0.39370000
0.33320000 -3.13290000 0.40240000
0.32580000 -3.35120000 0.39040000
0.78090000 0.87920000 0.41640000
-0.12110000 3.07030000 0.46550000
0.78900000 1.00390000 0.41260000
0.81200000 1.01220000 0.39730000
0.03230000 0.30110000 0.43400000
0.03230000 0.32250000 0.43090000
0.03230000 0.29060000 0.43290000
0.07420000 0.30420000 0.43380000
0.03240000 0.27580000 0.43170000
0.82480000 1.05320000 0.37970000
0.06450000 0.40620000 0.43170000
0.03220000 0.40780000 0.43210000
0.03220000 0.39630000 0.43060000
0.03220000 0.36710000 0.43130000
0.09740000 0.36610000 0.43410000
0.03230000 0.35020000 0.43040000
0.82280000 0.96260000 0.35050000
0.03210000 0.42830000 0.43640000
0.03210000 0.47360000 0.44010000
0.82670000 0.94720000 0.25930000
0.81830000 0.84180000 0.35140000
-0.34680000 2.86340000 0.44480000
0.80000000 0.92250000 0.40370000
0.81670000 0.92840000 0.37930000
0.80800000 0.85620000 0.39280000
0.20060000 0.35340000 0.43440000
