0.29150000 4.06020000 3.53090000
0.10250000 3.55610000 3.27940000
-0.52010000 1.13380000 2.42940000
-0.50420000 2.23370000 2.39440000
0.10110000 4.31790000 3.24020000
-0.60290000 1.70810000 2.24310000
-0.42040000 2.26290000 2.51100000
-0.61820000 2.96120000 2.12260000
0.38810000 3.71550000 3.64490000
0.32890000 3.80250000 3.58500000
0.65060000 3.63760000 3.61540000
0.76320000 3.68680000 3.51220000
0.89210000 3.40860000 3.42670000
0.57160000 3.62960000 3.66810000
0.50280000 4.37140000 2.30100000
1.00060000 4.08040000 3.35900000
0.88270000 4.07400000 3.43710000
0.28640000 0.23840000 3.58050000
0.21170000 0.89290000 3.47980000
0.44690000 3.72130000 3.67400000
0.50770000 3.72770000 3.67960000
0.58240000 3.82120000 3.66580000
0.76920000 4.17740000 3.51810000
0.66550000 4.05110000 3.61510000
-0.35410000 2.72920000 2.60560000
-0.83090000 1.05920000 1.75300000
0.53160000 3.88190000 3.67930000
0.41460000 3.92750000 3.65810000
-0.48520000 3.12400000 2.37000000
0.36160000 4.11090000 3.61810000
0.61190000 3.93520000 3.65590000
0.49210000 4.02880000 3.67810000
1.13980000 1.71130000 3.24440000
1.16140000 1.70980000 3.16930000
1.13240000 1.77320000 3.10640000
0.57730000 4.05990000 3.67310000
1.16170000 1.78660000 3.20080000
0.56480000 4.17480000 3.67390000
1.08160000 1.92770000 3.29930000
1.13810000 1.89140000 3.24550000
1.16250000 1.89650000 3.17540000
1.12590000 1.95020000 3.09720000
0.43380000 4.21640000 3.66380000
0.49250000 4.21980000 3.67600000
1.15130000 1.99940000 3.13040000
1.16390000 2.03030000 3.18940000
1.16380000 2.10510000 3.15560000
1.14470000 2.16560000 3.11430000
-0.67780000 1.41040000 2.11200000
-0.78960000 1.49680000 1.82280000
1.11510000 4.11500000 3.26750000
1.16540000 4.13740000 3.19100000
1.16340000 4.20010000 3.14310000
1.14630000 4.26910000 3.23420000
1.12690000 4.30850000 3.08910000
1.09450000 4.49200000 3.28440000
0.63410000 4.23700000 3.64730000
-0.77480000 1.75750000 1.86460000
0.71940000 4.47230000 3.56230000
0.64010000 4.38450000 3.64540000
0.97430000 2.27840000 3.38170000
0.57400000 4.31250000 3.67400000
0.51170000 4.36830000 3.67680000
0.38920000 4.37040000 3.63610000
0.44840000 4.43000000 3.66530000
0.35360000 4.59480000 3.61620000
0.53950000 4.46440000 3.67740000
1.10290000 2.15890000 3.28160000
0.42150000 4.53430000 3.66130000
0.91190000 4.59680000 3.41880000
0.62110000 4.49760000 3.65930000
0.53850000 4.63680000 3.68200000
1.14570000 2.09530000 3.23670000
0.57630000 4.73330000 3.67310000
-0.11080000 1.87180000 1.06300000
0.64650000 4.76990000 3.63450000
1.16550000 2.18280000 3.19390000
1.14510000 2.21460000 3.23830000
0.31480000 4.64070000 3.56940000
1.12640000 2.38130000 3.09660000
1.16250000 2.30110000 3.15360000
1.16190000 2.28820000 3.19940000
1.13480000 2.37120000 3.24950000
0.45460000 4.66020000 3.67940000
0.47900000 4.84050000 3.69470000
1.08370000 2.68460000 3.05150000
0.40890000 4.78110000 3.67640000
0.63330000 2.32590000 3.64960000
0.74710000 2.50050000 3.54890000
0.38030000 4.93370000 3.66390000
0.31080000 5.24580000 3.56900000
0.43240000 2.43650000 3.69200000
0.57790000 2.40850000 3.67920000
0.61890000 2.58090000 3.65520000
0.03390000 3.21000000 1.40520000
1.16940000 4.27600000 3.17470000
1.15900000 4.47030000 3.20950000
1.16050000 4.41990000 3.13830000
1.16240000 4.55850000 3.15180000
1.13040000 4.53680000 3.09190000
1.15760000 4.68850000 3.14060000
1.15730000 4.70600000 3.21460000
0.91350000 5.54370000 3.43270000
1.16270000 2.48320000 3.19520000
1.16500000 4.80630000 3.18520000
1.15790000 2.55230000 3.13920000
1.13170000 4.95090000 3.25020000
1.09450000 2.64190000 3.28700000
1.15000000 2.72230000 3.22880000
1.16450000 2.67250000 3.18170000
1.14420000 4.81300000 3.10930000
1.08280000 5.20350000 3.04130000
1.13230000 2.65970000 3.10020000
0.78790000 4.71060000 3.50170000
0.73070000 4.83450000 3.55720000
0.78530000 -0.25950000 3.49510000
0.76430000 5.19270000 3.54220000
0.67960000 -0.00170000 3.59510000
1.16180000 2.78490000 3.15670000
1.16820000 4.91820000 3.15980000
1.15460000 4.98770000 3.12820000
1.15950000 4.96200000 3.20820000
1.15830000 5.18030000 3.13640000
1.15470000 2.86370000 3.12840000
1.11580000 2.94220000 3.08130000
1.11350000 2.92890000 3.27010000
1.16470000 2.91810000 3.18850000
1.09330000 3.16280000 3.05890000
1.16620000 5.08840000 3.18930000
1.15950000 5.22700000 3.20390000
1.14100000 5.36060000 3.23910000
0.66610000 4.59900000 2.53840000
0.91050000 2.95390000 3.42850000
0.45100000 0.06320000 3.68270000
0.61050000 0.01080000 3.66540000
0.55070000 0.02510000 3.69290000
1.16640000 5.35910000 3.15400000
1.16370000 5.34680000 3.19870000
1.13140000 5.35490000 3.09090000
0.36810000 0.06030000 3.65780000
1.16060000 5.51640000 3.20390000
0.32530000 0.10480000 3.63310000
1.15960000 5.55500000 3.13160000
1.13590000 5.68880000 3.09350000
1.10870000 5.61990000 3.27110000
0.52190000 0.17550000 3.69460000
0.46530000 0.23190000 3.68600000
0.61060000 0.20730000 3.66660000
0.59140000 0.26970000 3.67930000
0.36530000 0.25950000 3.65920000
0.54050000 4.99160000 3.67810000
0.44430000 4.99320000 3.69780000
0.53470000 0.32130000 3.69430000
0.63420000 5.17260000 3.64290000
0.38690000 0.41060000 3.66640000
0.57900000 5.18620000 3.67130000
0.42580000 5.09720000 3.69610000
0.38140000 5.12810000 3.66940000
0.48030000 5.16310000 3.70030000
0.41780000 5.21340000 3.69510000
0.36700000 5.23100000 3.65210000
0.30830000 0.38630000 3.61400000
0.28480000 0.55860000 3.57230000
1.15500000 0.25070000 3.20590000
1.13050000 0.27770000 3.25720000
1.10010000 0.40630000 3.28750000
1.14400000 0.31880000 3.14410000
1.05990000 0.64570000 3.32070000
0.45850000 5.26320000 3.70260000
0.51370000 5.47530000 3.69580000
0.58300000 5.47190000 3.67550000
0.39220000 5.36620000 3.67650000
0.45070000 5.41110000 3.70130000
0.36060000 5.64530000 3.63530000
0.41590000 5.54400000 3.69000000
0.59550000 0.46560000 3.67720000
0.51910000 0.49460000 3.69140000
0.43950000 0.63460000 3.67670000
0.61280000 5.61490000 3.66000000
0.72210000 5.68740000 3.57720000
0.65700000 5.72710000 3.63300000
0.56440000 0.70430000 3.68370000
0.34210000 0.63500000 3.64550000
0.46880000 5.65700000 3.70460000
0.32440000 0.82630000 3.61630000
1.16240000 2.99470000 3.20850000
0.38510000 0.83600000 3.66670000
1.15030000 3.05420000 3.12250000
0.41700000 5.74080000 3.69230000
0.27980000 0.78580000 3.55150000
0.52310000 5.74900000 3.69940000
1.16540000 3.10390000 3.18600000
0.45360000 5.83190000 3.70910000
0.57290000 5.82440000 3.68370000
0.28700000 0.96090000 3.56980000
0.63480000 5.93560000 3.65180000
0.51690000 5.90570000 3.69940000
0.69670000 6.12530000 3.60760000
1.13860000 3.11440000 3.24530000
1.10140000 3.32510000 3.27980000
0.38050000 5.90020000 2.06820000
1.14420000 5.62950000 3.23440000
1.16930000 5.63100000 3.17520000
1.16760000 3.26340000 3.16940000
1.15080000 3.27630000 3.22660000
1.16770000 5.70080000 3.14960000
0.34530000 0.92760000 3.64920000
1.16440000 5.77140000 3.20130000
1.15520000 5.83510000 3.11900000
1.15600000 3.23790000 3.12860000
0.23750000 4.09810000 1.83520000
1.16930000 5.91470000 3.15730000
1.15630000 5.91500000 3.22300000
1.15480000 0.42940000 3.20150000
1.14580000 0.54780000 3.14420000
1.14350000 0.56010000 3.24020000
1.11890000 5.97770000 3.26420000
1.15900000 0.57910000 3.19400000
1.12750000 3.36510000 3.08800000
1.16020000 3.42600000 3.13680000
0.89510000 6.69080000 3.45240000
1.08050000 6.23730000 3.30010000
1.16050000 3.44670000 3.20790000
1.16580000 3.55860000 3.16120000
1.11350000 0.64820000 3.10230000
1.15180000 0.64840000 3.15790000
1.09320000 3.61550000 3.28520000
1.14500000 3.56160000 3.23650000
1.16680000 3.63500000 3.19090000
1.14880000 3.69780000 3.22950000
1.15200000 0.71920000 3.21590000
1.11370000 0.72420000 3.27450000
1.15120000 0.74820000 3.15490000
1.15770000 0.82450000 3.18980000
1.14110000 0.86700000 3.13610000
1.14260000 0.87060000 3.23620000
0.05250000 5.56410000 3.15180000
-0.20320000 10.36950000 2.57760000
-0.06790000 11.18600000 2.76990000
-0.08890000 11.81210000 2.70580000
0.79200000 12.36550000 2.57630000
0.69980000 8.95310000 2.52510000
0.57730000 9.83370000 2.32100000
-0.29590000 5.63130000 2.57590000
-0.39000000 5.47150000 2.43250000
-0.30750000 2.05660000 -0.17430000
-0.97660000 4.57130000 0.97840000
-0.92230000 4.38970000 1.20650000
-0.90100000 5.63370000 1.14300000
-0.82810000 4.75740000 1.45800000
-0.81910000 5.47290000 1.41580000
-0.97070000 5.43690000 0.86950000
-0.67980000 5.34590000 1.80580000
-0.22800000 2.92210000 0.50520000
-0.29220000 11.91330000 2.32170000
1.20700000 10.68530000 3.16870000
1.18190000 10.60010000 3.21310000
1.20460000 10.60840000 3.13380000
1.19100000 10.74670000 3.20270000
1.11840000 10.59690000 3.26750000
1.17640000 10.51590000 3.08020000
1.17670000 10.87080000 3.07270000
1.15820000 11.00180000 3.05100000
1.20160000 10.78270000 3.11680000
-1.01640000 5.74090000 0.51090000
-0.93890000 6.05620000 0.87360000
1.17220000 10.85910000 3.23030000
1.20350000 10.84330000 3.17820000
1.21010000 10.91930000 3.14960000
1.21180000 11.05840000 3.12880000
-0.29010000 2.43300000 0.08180000
-0.75640000 5.79730000 1.59060000
1.15540000 11.15280000 3.24920000
0.94180000 11.28190000 3.42450000
1.20280000 11.10040000 3.19880000
-0.79150000 6.13570000 1.44650000
1.21360000 11.24470000 3.17800000
-1.04020000 5.34260000 0.46970000
-0.96140000 6.54120000 0.70180000
-1.03570000 5.94280000 0.18870000
1.20650000 11.34710000 3.09940000
-0.71600000 7.64960000 1.57430000
-0.76930000 6.87580000 1.47370000
-0.63290000 7.99530000 1.77830000
-1.17420000 1.82370000 -0.71830000
1.22070000 11.32270000 3.15440000
1.18340000 11.37140000 3.23010000
1.21170000 11.44580000 3.19870000
1.20120000 11.52280000 3.09070000
1.22530000 11.47210000 3.14670000
1.17600000 12.20400000 3.04130000
0.96020000 11.19910000 2.82580000
1.17770000 11.58080000 3.23900000
-0.43910000 6.69030000 2.28290000
-0.35120000 6.84710000 2.44230000
-0.39990000 8.35990000 2.28420000
1.22050000 11.54300000 3.18000000
1.22460000 11.62540000 3.13420000
1.21030000 11.73970000 3.09260000
1.22200000 11.65320000 3.18930000
1.22960000 11.71580000 3.14470000
-0.27150000 8.28890000 2.52460000
-0.12240000 7.74930000 2.79180000
1.20040000 11.77260000 3.22490000
1.22660000 11.83600000 3.18920000
-0.55590000 7.08910000 2.01830000
1.23320000 11.86610000 3.13480000
1.21160000 11.96620000 3.08790000
-0.63140000 6.88810000 1.84540000
-0.18580000 3.39880000 -1.27070000
-0.26310000 3.87270000 -0.70230000
-0.48120000 9.54950000 2.06080000
-0.80640000 8.38220000 1.22730000
-0.89810000 6.99260000 0.97770000
-0.75870000 7.84930000 1.41650000
-1.06060000 2.86000000 0.78680000
1.23480000 11.99250000 3.17510000
1.23750000 12.05920000 3.13660000
-0.17550000 2.09580000 0.82210000
-0.90280000 8.39910000 0.80470000
-0.82080000 9.51170000 1.08700000
0.44720000 6.59910000 3.70820000
0.45920000 6.45150000 3.71350000
0.50130000 6.51450000 3.71260000
0.39980000 6.47490000 3.67710000
0.39980000 6.80610000 3.67550000
0.35910000 6.43900000 3.62270000
0.52170000 6.69720000 3.70540000
0.59680000 6.44110000 3.67520000
0.57960000 6.77060000 3.68320000
0.46350000 6.74950000 3.71130000
0.46130000 6.89260000 3.71280000
0.63200000 6.96890000 3.65480000
0.66320000 6.66810000 3.62890000
-0.13000000 7.61930000 0.67760000
-0.13280000 4.93730000 0.81420000
-0.20940000 5.88900000 0.34750000
0.51530000 6.86430000 3.71130000
0.68010000 7.16560000 3.60670000
0.53880000 6.99400000 3.70490000
0.37350000 7.02630000 3.63800000
-0.20390000 8.68870000 -0.57830000
-0.12570000 12.20070000 -0.60860000
-0.19200000 9.82490000 -0.31480000
0.06300000 7.13540000 3.12680000
0.43470000 7.01640000 3.70220000
0.47770000 7.05920000 3.71370000
0.45680000 7.16010000 3.71190000
0.41290000 7.19920000 3.68630000
0.39970000 7.37180000 3.66880000
-1.15690000 2.09850000 0.14060000
-1.02620000 6.23580000 0.24390000
-1.05020000 6.14090000 -0.12230000
0.55520000 7.14000000 3.69700000
0.51480000 7.23570000 3.71550000
0.46740000 7.31330000 3.71460000
0.56480000 7.30250000 3.69730000
0.44800000 7.40480000 3.70840000
0.53540000 7.38670000 3.71240000
-1.01880000 7.15850000 0.04090000
-1.05710000 6.36950000 -0.35240000
0.36190000 7.73280000 3.60830000
-1.15550000 3.00680000 -0.22200000
-0.01240000 9.44980000 -1.65400000
0.09610000 10.39470000 -1.94190000
0.09620000 12.05970000 -1.79200000
0.29950000 11.53020000 -2.37350000
0.20830000 12.03600000 -2.11230000
-0.02720000 11.53080000 -1.39270000
-0.07960000 11.76580000 -1.07510000
-0.12310000 8.37000000 -1.24220000
-0.49850000 11.00380000 -2.61370000
-0.50360000 10.42810000 -2.62230000
-0.63830000 10.39600000 -2.29800000
-0.59070000 11.64590000 -2.31350000
-0.72920000 11.15370000 -1.93040000
1.16450000 6.98060000 3.21040000
1.14950000 6.82090000 3.23500000
1.17320000 6.82130000 3.16130000
1.17440000 7.05000000 3.16590000
1.15130000 6.90470000 3.10400000
-0.22890000 6.92940000 0.00060000
-0.25590000 5.56210000 -0.40540000
-0.84750000 9.67000000 -1.62380000
-0.81300000 11.38010000 -1.59690000
1.14030000 7.24270000 3.24700000
1.07700000 6.67320000 3.30390000
1.16130000 7.14970000 3.21800000
1.14580000 7.27300000 3.09120000
1.06890000 6.90470000 3.01110000
0.90070000 7.43670000 3.44150000
0.82280000 6.83390000 3.49480000
1.16940000 7.19080000 3.13310000
1.17750000 7.28230000 3.17160000
0.60670000 5.07650000 -3.06020000
-0.27670000 11.24180000 -3.04550000
-0.40300000 10.85520000 -2.82960000
-0.40810000 11.88330000 -2.73760000
1.17530000 7.40760000 3.13380000
1.16590000 7.46140000 3.21690000
1.15140000 7.53310000 3.09170000
-0.48240000 12.27910000 -2.52490000
1.09890000 7.52930000 3.28420000
1.18120000 7.48360000 3.17420000
1.17640000 7.55140000 3.13730000
1.10140000 7.72840000 3.03820000
1.17780000 7.58820000 3.18010000
1.15320000 7.67200000 3.23130000
1.17410000 7.65230000 3.13080000
1.17710000 7.78260000 3.17550000
1.15070000 7.71390000 3.09100000
1.12840000 7.93830000 3.25600000
1.17220000 7.84780000 3.12870000
1.16880000 7.99910000 3.20640000
1.18070000 7.97320000 3.16270000
-0.89660000 10.24550000 -1.33480000
-0.89180000 11.23350000 -1.23660000
0.65320000 4.99410000 -3.15730000
0.63580000 5.04230000 -3.10100000
0.64460000 5.11350000 -3.20680000
0.59680000 5.33280000 -3.27100000
0.65390000 5.14660000 -3.15380000
0.65200000 5.26310000 -3.19380000
0.64590000 5.23160000 -3.12160000
0.84020000 8.08070000 2.72700000
0.64010000 5.41870000 -3.22220000
0.65520000 5.42580000 -3.14650000
-0.95710000 10.43780000 -0.88150000
-0.91480000 11.68480000 -0.98270000
0.58300000 6.25850000 -3.02160000
1.10570000 8.41690000 3.03490000
0.63770000 5.58090000 -3.09970000
0.65890000 5.54140000 -3.16960000
0.63600000 5.59580000 -3.23320000
1.14590000 7.96050000 3.08260000
0.60210000 5.79000000 -3.27230000
-0.95740000 10.99400000 -0.63220000
1.16750000 8.10030000 3.11290000
-0.06050000 4.92440000 -3.59200000
-0.01570000 5.02680000 -3.63220000
-0.05110000 5.11750000 -3.60150000
-0.06840000 5.30130000 -3.58100000
0.05940000 5.11890000 -3.64340000
-0.01920000 5.20570000 -3.63050000
0.01960000 5.20130000 -3.64900000
0.08360000 5.27870000 -3.64170000
0.00240000 5.31170000 -3.64250000
-0.15540000 9.66440000 -0.88870000
0.05150000 5.36450000 -3.64820000
-0.00220000 5.42270000 -3.63980000
-0.13940000 5.72910000 -3.47500000
-0.04110000 5.46260000 -3.61240000
-0.05490000 5.68540000 -3.58930000
-0.44390000 5.04100000 -2.98410000
-0.35490000 5.90140000 -3.11950000
-0.51750000 5.42800000 -2.83000000
-0.12190000 12.63800000 -0.37500000
0.13010000 5.45880000 -3.62390000
-0.82580000 12.07770000 -1.43560000
0.07530000 5.52440000 -3.64290000
0.01460000 5.56870000 -3.64060000
0.08370000 5.66790000 -3.64320000
0.15930000 5.78400000 -3.61400000
0.09380000 5.79990000 -3.64250000
-0.01040000 5.69230000 -3.63060000
0.03140000 5.71450000 -3.64630000
-0.69750000 12.45830000 -1.85780000
0.06150000 5.88890000 -3.64650000
-0.00230000 5.94960000 -3.63130000
-1.10480000 1.51800000 -1.19430000
0.12430000 6.08010000 -3.63510000
0.03600000 6.04260000 -3.64660000
-0.85670000 12.30190000 -1.22300000
-0.21160000 6.93820000 -3.33420000
-0.05190000 6.25670000 -3.58810000
-0.00840000 6.13270000 -3.63240000
-1.14360000 2.29710000 -0.91110000
-1.01980000 2.02580000 -1.53660000
0.38870000 10.29700000 -2.61990000
0.36120000 12.36110000 -2.43010000
-0.02510000 7.06060000 -1.75850000
-0.09780000 3.64720000 -1.63090000
0.06070000 5.51430000 -2.06410000
-1.08870000 1.84210000 -1.21760000
-0.81810000 5.68910000 -2.08620000
-0.81110000 5.96230000 -2.08910000
-0.70030000 5.56240000 -2.42610000
-0.69330000 9.54150000 1.51710000
-1.08040000 2.29670000 -1.26660000
-0.52680000 5.26060000 -2.78350000
-0.60840000 5.38020000 -2.64570000
-0.46120000 5.70980000 -2.90970000
-0.59500000 5.73500000 -2.62510000
-0.64670000 5.48510000 -2.53830000
-0.57250000 6.09740000 -2.62840000
-0.71030000 5.93720000 -2.32140000
-0.08780000 12.76130000 -0.77800000
0.06070000 10.21590000 1.23570000
0.19490000 10.81630000 1.55250000
0.11220000 6.82550000 1.48220000
-1.01560000 2.71850000 -1.52320000
-0.71050000 6.46460000 -2.31010000
-0.02690000 5.58050000 1.14750000
-0.42960000 6.18360000 -2.94000000
-0.03830000 12.99150000 -1.06530000
-0.34310000 6.54000000 -3.11960000
-0.43620000 6.49780000 -2.94280000
-0.56760000 12.36790000 -2.29280000
-0.50020000 6.54830000 -2.78240000
-0.61060000 6.44370000 -2.54150000
0.77130000 7.10070000 3.52440000
0.75730000 7.47540000 3.52990000
0.69190000 7.47620000 3.59560000
0.82690000 7.56880000 3.48770000
0.60420000 7.58140000 3.67310000
0.50240000 7.54060000 3.71520000
0.54430000 7.71130000 3.70550000
0.71280000 7.83950000 3.57770000
0.43290000 7.58470000 3.69690000
0.65950000 5.63440000 -3.16500000
0.64450000 5.75640000 -3.22460000
0.65940000 5.74840000 -3.15170000
0.41210000 7.75300000 3.67950000
0.63250000 5.92610000 -3.08730000
0.47390000 7.76590000 3.71680000
0.65650000 6.02020000 -3.13190000
0.65830000 5.89100000 -3.18880000
0.65900000 5.99110000 -3.19500000
0.50330000 7.92270000 3.71910000
0.46290000 7.97470000 3.71080000
0.53860000 8.05280000 3.70840000
0.38370000 7.86220000 -2.69740000
-0.74270000 12.78660000 -1.62820000
-0.82860000 12.81630000 -1.21620000
0.82290000 8.13410000 3.50340000
0.60660000 6.03760000 -3.27330000
0.37080000 7.10870000 -3.47760000
0.65970000 8.15060000 3.62560000
0.64360000 6.07280000 -3.23130000
0.66130000 6.18240000 -3.18950000
0.64390000 6.41250000 -3.23730000
0.59830000 6.32800000 -3.28400000
0.65140000 6.35750000 -3.11650000
0.03620000 12.87390000 -1.45430000
0.07050000 6.16220000 -3.65580000
0.14930000 6.39510000 -3.62940000
0.09880000 6.29830000 -3.65240000
0.03420000 6.27530000 -3.65450000
0.41440000 7.99440000 3.67340000
-0.00290000 6.39430000 -3.63800000
0.06740000 6.42660000 -3.65890000
-0.03330000 6.49740000 -3.60600000
-0.69020000 13.01300000 -1.72830000
-0.77520000 12.94350000 -1.41890000
0.40160000 8.13760000 3.65810000
0.04630000 6.50580000 -3.66110000
0.19200000 6.82870000 -3.61050000
0.01010000 6.53870000 -3.64520000
-0.03320000 6.77740000 -3.60220000
0.09190000 6.64770000 -3.65610000
-0.06230000 10.62610000 0.79090000
-0.13590000 9.83600000 0.45840000
-0.07680000 11.76760000 0.59880000
0.03220000 6.67750000 -3.65350000
0.66430000 6.31230000 -3.16600000
0.66590000 6.47910000 -3.18100000
0.60400000 6.76770000 -3.28480000
0.66570000 6.65630000 -3.16170000
0.64690000 6.83060000 -3.10560000
0.64770000 6.73030000 -3.23870000
0.11720000 12.52900000 1.25530000
0.50330000 8.16420000 3.71700000
0.66790000 6.87860000 -3.18380000
0.65200000 6.90130000 -3.23210000
0.44640000 8.16900000 3.70010000
0.59490000 8.25160000 3.68190000
0.62550000 7.08320000 -3.27000000
0.48050000 8.26490000 3.71340000
0.44080000 8.36050000 3.69490000
0.39980000 8.39090000 3.65160000
0.54730000 8.30560000 3.70870000
0.49470000 8.41350000 3.71680000
0.25330000 8.64580000 3.40630000
0.71820000 8.56690000 3.58840000
0.13420000 6.89640000 -3.64500000
0.56210000 8.47320000 3.70070000
0.57890000 8.66650000 3.68230000
0.03060000 11.37110000 1.08650000
-0.05200000 8.69270000 0.94950000
0.01890000 12.42810000 0.94600000
0.47290000 8.51310000 3.70860000
0.52780000 8.58490000 3.70930000
0.43550000 8.55330000 3.68540000
0.39320000 8.63070000 3.63500000
0.47460000 8.63210000 3.70530000
0.44420000 8.69850000 3.68680000
0.51820000 8.71400000 3.70410000
0.41160000 8.80690000 3.65370000
0.36660000 8.92400000 3.59340000
0.31460000 9.27840000 3.48740000
1.17880000 8.12610000 3.15220000
1.17030000 8.15750000 3.20370000
-1.06220000 2.86600000 -1.29150000
1.17910000 8.21900000 3.15810000
1.15970000 8.33300000 3.09790000
1.14360000 8.26770000 3.23800000
1.17610000 8.29680000 3.19110000
1.17930000 8.40520000 3.16540000
1.15490000 8.41510000 3.22580000
-1.11120000 3.12470000 -1.02460000
1.06740000 8.59850000 3.30450000
1.16700000 8.50220000 3.11360000
-0.84900000 11.97540000 0.65050000
-0.89750000 11.58820000 0.35320000
-0.88440000 10.55200000 0.66410000
1.17820000 8.53990000 3.17850000
1.15550000 8.60500000 3.22170000
1.17990000 8.61480000 3.14450000
1.16870000 8.72410000 3.11270000
1.17580000 8.74370000 3.18260000
1.15140000 8.80660000 3.22660000
-1.12440000 3.79020000 -0.81250000
-0.13960000 11.27970000 0.22260000
-0.39900000 7.28120000 -2.98760000
1.08960000 9.72480000 2.99920000
-0.63740000 7.14180000 -2.45640000
0.67780000 8.96510000 3.61240000
-0.49160000 7.15460000 -2.79800000
0.59050000 6.94140000 -3.02800000
0.80920000 9.25100000 3.50890000
-0.11340000 12.64430000 0.07260000
-0.17600000 10.65200000 -0.09520000
1.15050000 8.91140000 3.07740000
0.51230000 7.86710000 -2.90990000
1.18040000 8.85980000 3.14110000
1.18230000 8.93610000 3.17180000
1.18320000 9.01050000 3.13040000
1.14160000 9.07770000 3.06520000
1.10580000 9.05180000 3.26900000
1.15400000 9.02620000 3.22530000
0.09390000 8.00760000 -2.06960000
0.25340000 8.20170000 -2.44000000
1.18450000 9.08270000 3.16570000
1.17000000 9.10880000 3.20570000
1.16720000 9.30160000 3.20800000
1.17810000 9.11690000 3.11800000
1.15860000 9.26940000 3.08180000
1.18300000 9.21780000 3.14410000
0.05700000 6.88870000 -3.66290000
0.01280000 6.83980000 -3.64490000
1.18560000 9.36650000 3.14470000
0.08290000 6.99610000 -3.66900000
0.14820000 7.14120000 -3.64640000
-0.08180000 7.05280000 -3.53080000
1.00070000 9.70430000 3.34930000
0.00900000 7.02100000 -3.64550000
-0.02380000 7.06560000 -3.60990000
0.55600000 8.84160000 3.68950000
0.47830000 8.80970000 3.69880000
0.45510000 8.99230000 3.68910000
0.06310000 7.09430000 -3.67030000
0.02160000 7.16890000 -3.65000000
0.09170000 7.19430000 -3.66340000
-0.01910000 7.25480000 -3.60990000
0.51720000 8.95650000 3.70350000
0.13160000 7.31070000 -3.65490000
0.58790000 9.01390000 3.68110000
-0.93820000 4.49840000 -1.72460000
0.04300000 7.32490000 -3.66130000
0.01980000 7.41560000 -3.65270000
-0.09060000 7.67630000 -3.50920000
-0.02350000 7.46730000 -3.60220000
-1.04190000 3.44760000 -1.36490000
0.50370000 9.06900000 3.70920000
0.56860000 9.15230000 3.69550000
0.41830000 9.08690000 3.65770000
0.37080000 9.24470000 3.58810000
0.67270000 9.42930000 3.59930000
0.47190000 9.15150000 3.70140000
-1.07130000 3.48040000 -1.18760000
-0.28540000 7.92450000 -3.19260000
0.45480000 9.25410000 3.69170000
0.51910000 9.27750000 3.71160000
0.58680000 9.27710000 3.68020000
0.41740000 9.37570000 3.65190000
0.47210000 9.40950000 3.70230000
-1.08800000 3.73020000 -1.12400000
-0.50450000 11.85380000 1.86870000
-0.95910000 5.73520000 -1.56150000
-0.89160000 6.15850000 -1.81090000
-0.82790000 6.26770000 -1.99370000
-0.63920000 12.07450000 1.49720000
-0.72170000 10.82090000 1.34540000
-0.61180000 10.17980000 1.70430000
0.59270000 9.52780000 3.67840000
0.54190000 9.41810000 3.70970000
0.55770000 9.56490000 3.70600000
0.79400000 9.74400000 3.51960000
-0.96160000 6.30680000 -1.47590000
0.69400000 9.87680000 3.58850000
-1.00330000 5.83690000 -1.33680000
0.44530000 9.51950000 3.68430000
0.51370000 9.52430000 3.71740000
-1.01790000 6.26580000 -1.21270000
-1.05070000 5.94470000 -1.03420000
0.49070000 9.68160000 3.71130000
0.53010000 9.67070000 3.71530000
0.36410000 10.12370000 3.55700000
0.42380000 9.68930000 3.65650000
-0.76580000 12.01940000 1.06640000
-0.83640000 10.69050000 0.90600000
0.58360000 9.78240000 3.69230000
0.46720000 9.80620000 3.69830000
0.54090000 9.82200000 3.71310000
0.43330000 9.89010000 3.66340000
0.60260000 9.91450000 3.68030000
0.50100000 9.89790000 3.71310000
0.55880000 9.96700000 3.71220000
-0.93700000 6.48210000 -1.59760000
-0.97690000 6.51760000 -1.38970000
0.50510000 10.01510000 3.71680000
0.46120000 10.05460000 3.69140000
-0.08790000 7.85300000 -1.47440000
-0.97810000 2.16050000 1.22680000
-0.92130000 1.93350000 1.43290000
-0.69950000 2.47180000 1.99600000
-0.82540000 2.06860000 1.69050000
-0.81030000 6.56430000 -2.01830000
-0.74860000 6.76000000 -2.20040000
-0.85390000 6.63110000 -1.90360000
-0.79060000 6.88620000 -2.09560000
-0.94340000 6.77750000 -1.57290000
-0.97930000 6.61910000 -1.29320000
-0.69820000 12.74510000 1.22120000
-0.87590000 6.96120000 -1.81430000
-0.92440000 7.08830000 -1.61550000
-0.12670000 12.57460000 -0.13940000
-1.07490000 5.94550000 -0.77630000
-1.03390000 6.21150000 -1.02870000
-1.06530000 6.06980000 -0.67640000
-0.33150000 9.75050000 2.36150000
-1.08310000 5.81820000 -0.36170000
-0.15580000 9.82690000 2.66730000
-1.03810000 7.26340000 -0.59620000
-1.04110000 6.75940000 -0.79240000
-1.02430000 6.42770000 -1.06520000
-1.01900000 8.00010000 -0.29630000
-0.84640000 2.42980000 1.57970000
-0.06370000 12.95920000 0.44690000
-0.89520000 2.57860000 1.45830000
-0.96960000 6.81670000 -1.37720000
-1.01970000 6.88280000 -0.96350000
-0.97250000 6.97870000 -1.26480000
0.21300000 12.83470000 1.48770000
-0.99140000 7.24820000 -1.10710000
-0.94960000 7.09740000 -1.45900000
0.57160000 12.84850000 2.22740000
0.44090000 10.22080000 2.08280000
0.39250000 13.05430000 1.87750000
0.36750000 11.30730000 1.90760000
0.25200000 8.60160000 1.75520000
-0.76200000 13.02070000 0.90230000
-1.11170000 3.28800000 0.31970000
-0.00960000 12.97970000 0.75990000
-0.93110000 11.97980000 -0.40770000
-0.97550000 10.24660000 -0.32520000
-0.79420000 2.63340000 1.72850000
-0.77370000 7.18510000 -2.08850000
-0.80550000 7.36490000 -1.99230000
-0.87970000 7.24820000 -1.73060000
-0.80880000 7.74510000 -1.92980000
-0.92030000 11.90860000 -0.03720000
-0.95320000 10.32060000 0.05660000
-0.78840000 3.02670000 1.71080000
-0.90250000 2.86760000 1.39640000
-0.76830000 3.40880000 1.72340000
-0.83430000 3.38430000 1.55170000
-0.91830000 12.21530000 -0.71820000
-0.60420000 7.52450000 -2.52860000
-0.69940000 3.22320000 1.94000000
-0.67370000 8.06520000 -2.32230000
-0.54350000 7.79390000 -2.64350000
-0.95080000 3.40020000 1.19890000
-0.89410000 3.31860000 1.36710000
-0.87050000 12.88150000 0.15560000
-0.87810000 12.70050000 -0.90910000
-0.83250000 12.86530000 0.53800000
-1.13390000 3.38890000 0.03450000
0.43260000 10.14650000 3.65540000
-0.99140000 8.13930000 -0.99150000
-0.89520000 12.80990000 -0.28790000
0.16130000 10.81460000 3.18560000
-1.12430000 4.24980000 -0.54370000
-0.20860000 6.24610000 -0.91160000
-0.92220000 7.30580000 -1.51210000
-0.94190000 7.91040000 -1.31710000
-0.87970000 7.92780000 -1.63650000
-0.88960000 12.91840000 -0.56660000
-0.79310000 13.22680000 -1.26720000
-0.84330000 13.19410000 -0.93810000
-0.70650000 13.28770000 -1.61170000
-0.77320000 13.30070000 -1.33620000
-0.73040000 13.33710000 -1.45480000
-0.79740000 13.34000000 -1.07420000
-0.74480000 13.37230000 -1.17770000
-0.71370000 9.36140000 -2.14090000
-0.87180000 13.26540000 -0.49250000
-0.83410000 13.30540000 -0.91400000
-0.85960000 13.34210000 -0.43090000
-0.81160000 13.37350000 -0.73740000
-0.85590000 4.62380000 -2.00610000
-0.74620000 13.39880000 -0.64390000
-0.79610000 9.21690000 -1.86160000
-0.98370000 7.70110000 0.30550000
-1.00290000 8.51230000 -0.79580000
-0.36800000 8.04110000 -3.02850000
-0.99720000 9.20860000 -0.63070000
0.66590000 7.15900000 -3.21250000
0.66700000 7.10380000 -3.14740000
0.64990000 7.20140000 -3.10500000
0.61120000 8.06620000 -3.04060000
-0.86090000 13.31040000 -0.06580000
-0.84410000 13.29280000 0.26230000
0.58720000 7.30620000 -3.30910000
0.67040000 7.27970000 -3.14790000
0.67050000 7.30900000 -3.21010000
0.63960000 7.41310000 -3.26300000
0.67410000 7.42140000 -3.15760000
0.67040000 7.45700000 -3.21610000
0.63540000 7.74500000 -3.27470000
0.65450000 7.49900000 -3.10680000
-0.78990000 13.28760000 0.69540000
-0.71870000 13.41150000 0.15170000
-0.73480000 13.40830000 0.65320000
-0.65740000 13.42340000 0.85960000
-0.78290000 13.35450000 0.66610000
-0.71750000 13.39110000 0.91010000
-0.94530000 9.27720000 0.39360000
-0.94710000 7.97380000 0.59180000
-0.83560000 13.36060000 0.14100000
-0.78740000 13.40250000 0.17540000
0.67240000 7.55070000 -3.20650000
0.67950000 7.62930000 -3.18780000
0.68030000 7.76080000 -3.15740000
0.66580000 7.89200000 -3.11700000
0.67060000 7.76310000 -3.23080000
0.68520000 7.97770000 -3.19340000
0.62110000 8.45130000 -3.30060000
0.66970000 8.04720000 -3.24170000
0.68620000 8.15540000 -3.16870000
0.66250000 8.20470000 -3.10850000
0.19930000 7.36800000 -3.61890000
-0.80580000 13.39850000 -0.34690000
0.09380000 7.38870000 -3.67470000
0.14840000 7.46000000 -3.65430000
0.07280000 7.48820000 -3.67320000
0.12500000 7.55950000 -3.66060000
0.18850000 7.72080000 -3.63340000
0.03470000 7.56380000 -3.65220000
-0.02230000 7.63290000 -3.59800000
0.11070000 7.65620000 -3.66430000
0.04990000 7.70770000 -3.66580000
0.02570000 7.79410000 -3.65600000
0.10440000 7.78160000 -3.68100000
0.14450000 7.89370000 -3.66780000
0.01160000 7.89730000 -3.64230000
0.08250000 7.88130000 -3.68940000
0.05520000 7.97840000 -3.67990000
0.00540000 8.01760000 -3.63480000
-0.02900000 8.43820000 -3.57940000
-0.22290000 8.83960000 -3.26030000
0.29030000 8.99660000 -3.58280000
0.10000000 8.02980000 -3.68260000
0.19140000 8.13420000 -3.64010000
0.47390000 12.24780000 -2.65180000
0.38080000 13.05740000 -2.39080000
0.14600000 8.10780000 -3.66720000
0.06020000 8.10350000 -3.67520000
0.01990000 8.14300000 -3.64780000
0.13010000 8.20220000 -3.67440000
0.07550000 8.25050000 -3.68200000
0.04050000 8.28250000 -3.66900000
0.04130000 8.42810000 -3.66070000
0.57340000 13.07190000 -2.74560000
0.57940000 11.81610000 -2.85830000
0.70910000 12.67320000 -2.98620000
0.20620000 8.44660000 -3.63710000
0.13870000 8.33530000 -3.67520000
0.08880000 8.39960000 -3.68320000
0.14500000 8.51130000 -3.67090000
0.09440000 8.59610000 -3.68110000
0.46280000 13.16520000 -2.54090000
0.02790000 8.58060000 -3.64730000
0.40200000 13.24010000 -2.42990000
0.35360000 13.27880000 -2.37240000
0.32550000 13.19890000 -2.25130000
0.66570000 8.25980000 -3.25140000
0.68500000 8.27910000 -3.21130000
0.68850000 8.34420000 -3.16690000
0.69040000 8.41840000 -3.20230000
0.67520000 8.49780000 -3.24430000
0.12120000 13.04900000 -1.72680000
0.67300000 8.40830000 -3.12030000
0.66600000 8.63510000 -3.10420000
0.68640000 8.52570000 -3.14760000
0.69660000 8.66950000 -3.18410000
0.24450000 13.04060000 -2.08690000
0.68070000 8.80210000 -3.24530000
0.68540000 8.85450000 -3.12430000
0.13740000 13.19990000 -1.75190000
0.14660000 8.69120000 -3.67830000
0.19530000 8.90450000 -3.65480000
0.06650000 8.74170000 -3.68420000
0.03460000 8.78370000 -3.65780000
0.00950000 8.88070000 -3.62130000
0.12260000 8.83240000 -3.68660000
-1.09910000 4.01690000 -1.01500000
-0.01880000 13.21060000 -1.10250000
0.01930000 13.25520000 -1.31010000
0.06970000 13.26890000 -1.54170000
0.01150000 13.30480000 -1.36050000
0.70090000 8.92640000 -3.20150000
0.64750000 9.22360000 -3.29160000
-1.00660000 4.63430000 -1.45340000
0.08180000 8.96980000 -3.68200000
0.13600000 9.07210000 -3.68610000
-1.04230000 4.70310000 -1.25310000
0.01890000 13.33010000 -1.54300000
-0.04270000 13.33870000 -1.29560000
-0.05230000 13.34660000 -1.50470000
0.02250000 13.33910000 -2.08150000
-0.33640000 13.36530000 -2.14790000
-0.49150000 13.37550000 -1.00880000
-0.91920000 9.17650000 -1.32190000
0.23760000 13.16370000 -2.04500000
0.24600000 13.22870000 -2.07070000
0.30990000 13.25700000 -2.24320000
0.25230000 13.31440000 -2.28200000
0.23860000 13.28370000 -2.11180000
0.25680000 13.30060000 -2.20110000
0.19110000 13.23330000 -1.92120000
0.15260000 13.24700000 -1.81400000
0.13990000 13.29670000 -1.85360000
0.19130000 13.28790000 -1.98210000
0.13140000 13.32000000 -1.91760000
0.17390000 13.32040000 -2.07970000
0.07550000 13.33430000 -1.90460000
0.09940000 13.30280000 -1.72830000
0.05890000 13.33160000 -1.78290000
0.08290000 13.29340000 -1.63890000
-0.94530000 10.03140000 -1.06860000
0.00050000 13.24070000 0.75640000
0.20850000 13.26570000 1.44220000
0.24370000 13.29860000 1.53590000
0.13860000 13.31670000 1.26600000
0.07210000 13.27940000 1.04270000
0.19520000 13.32920000 1.42730000
0.13410000 13.36950000 1.33010000
0.11540000 13.39370000 1.41640000
0.01060000 13.36460000 0.93150000
0.08260000 13.34190000 1.11710000
-0.00750000 13.32660000 0.76000000
-0.05890000 13.38560000 0.72120000
-0.03520000 13.37870000 0.82670000
-0.04480000 13.39720000 0.99640000
0.01900000 13.38640000 1.06990000
-0.13620000 13.39670000 0.62030000
-0.09980000 13.40000000 1.03030000
0.07770000 13.38740000 1.23620000
0.05480000 13.40080000 1.41560000
0.18580000 13.36170000 1.45580000
-0.09890000 13.25280000 -0.15980000
-0.09400000 13.26760000 -0.48480000
-0.07010000 13.20290000 -0.75340000
-0.08300000 13.29740000 -0.72760000
-0.11210000 13.33080000 -0.55700000
-0.15150000 13.36060000 -0.36430000
-0.11950000 13.33230000 -0.24130000
-0.03120000 13.29290000 -1.09420000
-0.04780000 13.33110000 -1.16780000
-0.07220000 13.33610000 -1.03840000
-0.10220000 13.35440000 -1.14790000
-0.27480000 13.36960000 -0.81660000
-0.05570000 13.27300000 -0.90450000
-0.07890000 13.32400000 -0.89030000
-0.10990000 13.35420000 -0.97490000
-0.12600000 13.34980000 -0.73000000
-0.18230000 13.36830000 -0.60510000
-0.17670000 13.36550000 -0.99680000
-0.54820000 13.37670000 -1.69710000
-0.67270000 13.36430000 -1.54910000
-0.67770000 13.38090000 -1.40410000
-0.68510000 13.38920000 -0.99800000
-0.56600000 13.40730000 0.51670000
-0.08720000 13.28620000 0.13030000
-0.05590000 13.26030000 0.40860000
-0.04970000 13.32860000 0.52770000
-0.09850000 13.34830000 0.25650000
-0.51930000 8.10900000 -2.69900000
-0.09460000 13.37670000 0.51210000
-0.05330000 13.36160000 0.61550000
-0.20810000 13.38380000 0.11110000
-0.13550000 13.37150000 0.19360000
-0.29300000 13.39640000 0.67240000
-0.35310000 8.94120000 -3.02470000
-0.55250000 8.45320000 -2.61830000
-0.26680000 13.40520000 1.37570000
-0.44260000 8.66470000 -2.84070000
-0.62200000 8.88880000 -2.41880000
-0.07730000 9.23750000 -3.48660000
0.11990000 10.91590000 -3.68280000
0.14790000 11.08460000 -3.69760000
0.17840000 10.93630000 -3.70060000
0.19760000 11.12060000 -3.70050000
0.08990000 11.04560000 -3.64580000
-0.08570000 10.82730000 -3.39880000
0.06040000 11.36080000 -3.58530000
-0.52890000 9.10640000 -2.63560000
-0.22840000 12.25240000 -3.04820000
0.16840000 11.22700000 -3.70390000
0.12720000 11.28940000 -3.67700000
0.23710000 11.26920000 -3.68380000
0.27940000 11.02990000 -3.64390000
0.20260000 11.33450000 -3.70090000
0.28820000 11.45190000 -3.64780000
0.13510000 11.42520000 -3.68090000
0.17570000 11.42200000 -3.70160000
-0.45030000 9.51780000 -2.80540000
0.21610000 11.47290000 -3.70110000
0.15190000 11.52360000 -3.69580000
0.25270000 11.57940000 -3.68190000
0.20620000 11.58710000 -3.70000000
0.51270000 12.21680000 -3.47580000
0.12760000 11.58270000 -3.66830000
0.11830000 11.69950000 -3.65010000
0.16820000 11.67050000 -3.69860000
0.22430000 11.74130000 -3.69700000
0.17020000 11.78970000 -3.69640000
0.13490000 11.83000000 -3.66520000
0.11870000 12.00920000 -3.63170000
0.28600000 11.80550000 -3.66300000
0.22730000 11.85940000 -3.69790000
0.17060000 11.91020000 -3.69540000
0.14880000 11.97550000 -3.67150000
0.26170000 11.95270000 -3.68490000
0.28460000 12.07000000 -3.67490000
0.21780000 11.98840000 -3.70300000
0.20250000 12.08240000 -3.70680000
0.02520000 12.45300000 -3.45030000
0.26390000 12.18920000 -3.69740000
0.30590000 12.35770000 -3.66470000
0.18610000 12.21840000 -3.69810000
0.14000000 12.31120000 -3.63920000
0.23920000 12.33180000 -3.70250000
0.19840000 12.40900000 -3.69510000
0.52500000 12.68320000 -3.48350000
0.67070000 9.31610000 -3.09420000
0.78570000 12.41200000 -3.23740000
0.76480000 12.24860000 -3.25140000
0.76990000 12.55130000 -3.26350000
0.73300000 12.64230000 -3.30360000
0.54360000 9.63760000 -2.90830000
-0.47930000 3.88490000 2.33220000
0.27270000 12.46320000 -3.69880000
0.18450000 12.51510000 -3.68130000
0.22720000 12.50290000 -3.71440000
0.32260000 12.65130000 -3.66390000
0.26570000 12.59240000 -3.69860000
0.22610000 12.58530000 -3.70050000
0.17200000 12.64010000 -3.65000000
-0.73380000 3.65670000 1.80930000
0.21390000 12.67510000 -3.68720000
-0.05990000 12.69010000 -3.28450000
0.00210000 12.83670000 -3.33840000
0.26720000 12.74790000 -3.68120000
0.25400000 10.01970000 -2.36570000
0.30860000 12.85380000 -3.66450000
0.37530000 12.95520000 -3.62510000
0.23080000 12.83140000 -3.65900000
0.17700000 12.85250000 -3.60340000
0.19930000 13.01110000 -3.61280000
0.28150000 12.94060000 -3.66770000
-0.62180000 4.04240000 2.04410000
0.80190000 12.64580000 -3.21350000
0.70110000 9.09800000 -3.16130000
0.69420000 9.15450000 -3.23200000
0.81340000 12.85840000 -3.18300000
0.80840000 12.70330000 -3.15000000
0.79470000 12.88420000 -3.09200000
0.79340000 12.88040000 -3.24110000
0.75020000 12.98170000 -3.29160000
0.80980000 13.01510000 -3.20250000
0.70540000 9.28450000 -3.18980000
0.68790000 9.34270000 -3.12210000
0.48320000 13.10890000 -3.53290000
0.33660000 13.01500000 -3.65280000
0.25250000 13.03550000 -3.65750000
0.31570000 13.11480000 -3.65650000
0.37270000 13.12660000 -3.62840000
0.68740000 9.35010000 -3.25050000
0.70730000 9.37710000 -3.19530000
0.67330000 9.65940000 -3.27560000
0.06040000 9.07440000 -3.67160000
0.02340000 9.10530000 -3.63630000
0.11090000 9.18460000 -3.69580000
0.07100000 9.21930000 -3.68450000
0.01420000 9.42670000 -3.61520000
-0.31030000 9.71970000 -3.08540000
-0.85470000 3.88680000 1.47090000
0.16520000 9.29850000 -3.68840000
0.10480000 9.31010000 -3.70880000
0.14470000 9.40000000 -3.69470000
0.22720000 9.50360000 -3.64440000
0.08400000 9.37000000 -3.69020000
0.06330000 9.51140000 -3.67090000
0.09360000 9.48230000 -3.68990000
0.13040000 9.52960000 -3.69620000
-0.74010000 4.39090000 1.71750000
-0.45650000 12.73910000 -2.51250000
-0.67450000 4.32720000 1.90700000
-0.29020000 12.72670000 -2.87980000
0.19060000 9.61900000 -3.67300000
-0.34040000 12.95260000 -2.71440000
0.10950000 9.62900000 -3.69360000
0.15070000 9.68020000 -3.69080000
0.07230000 9.70390000 -3.67540000
-0.22430000 12.86510000 -2.95930000
0.04120000 9.74580000 -3.64240000
-0.02510000 9.90980000 -3.54030000
0.21850000 9.82940000 -3.65940000
0.12540000 9.77580000 -3.69450000
0.17810000 9.84700000 -3.68330000
0.08780000 9.85010000 -3.68160000
0.05320000 9.89170000 -3.65040000
-0.57280000 12.86480000 -2.16840000
-0.45550000 12.98810000 -2.45020000
-0.30390000 10.29260000 -3.06450000
0.03490000 10.05940000 -3.62080000
-0.59010000 13.13630000 -2.04310000
-0.54310000 9.99950000 -2.57090000
-0.08550000 13.12440000 -3.15790000
-0.03820000 13.23620000 -3.22980000
0.10390000 13.21660000 -3.45050000
-0.10760000 13.25220000 -3.11070000
-0.08240000 13.30010000 -3.11180000
-0.23100000 13.26340000 -2.88950000
-0.15860000 13.29480000 -2.99570000
-0.19500000 13.32970000 -2.87010000
-0.25290000 13.31020000 -2.80680000
-0.11420000 13.33680000 -2.96640000
-0.15910000 13.35110000 -2.76990000
0.81390000 13.01190000 -3.13470000
0.81000000 13.17190000 -3.14920000
0.73990000 13.13700000 -2.98410000
0.80510000 13.14280000 -3.08960000
0.76600000 13.18880000 -3.02250000
0.61860000 13.18450000 -3.41150000
0.76090000 13.11360000 -3.27920000
0.79120000 13.17260000 -3.22220000
0.73820000 13.21260000 -3.28300000
0.65050000 13.25400000 -3.35560000
0.64500000 13.19820000 -2.85090000
0.69450000 13.23740000 -2.93780000
0.58070000 13.27810000 -2.81560000
0.54330000 13.30280000 -2.87570000
0.68280000 13.28150000 -2.98010000
0.46580000 13.31820000 -3.23680000
0.25290000 13.32470000 -2.99370000
0.66190000 13.30630000 -3.07620000
0.23090000 13.10850000 -3.63660000
0.20490000 13.22320000 -3.58660000
0.34800000 13.21480000 -3.63420000
0.26640000 13.19740000 -3.64060000
0.28750000 13.26230000 -3.62420000
0.13310000 13.28790000 -3.45030000
0.24740000 13.30440000 -3.56150000
0.03340000 13.25800000 -3.33930000
0.03450000 13.30560000 -3.28730000
0.17940000 13.32420000 -3.41740000
0.09540000 13.33210000 -3.24500000
0.44390000 13.21280000 -3.56520000
0.49640000 13.27230000 -3.49120000
0.46720000 13.31630000 -3.44580000
0.36550000 13.27880000 -3.59630000
0.32840000 13.32450000 -3.54870000
0.31330000 13.33440000 -3.46550000
0.49080000 13.31920000 -3.34930000
0.31230000 13.31870000 -2.52360000
0.57850000 13.23130000 -2.75220000
0.50920000 13.20890000 -2.62770000
0.50660000 13.27360000 -2.67250000
0.47150000 13.30480000 -2.71180000
0.44970000 13.26090000 -2.54930000
0.41960000 13.30080000 -2.58740000
0.35290000 13.30210000 -2.44800000
-0.40970000 10.16790000 -2.85250000
-0.04680000 13.34290000 -3.00490000
-0.01340000 13.32210000 -3.16990000
-0.52460000 13.27490000 -2.22010000
-0.42960000 13.25390000 -2.47550000
-0.48450000 13.30650000 -2.30540000
-0.40670000 13.30590000 -2.49230000
-0.44900000 13.35700000 -2.25110000
-0.25510000 13.35880000 -2.55160000
-0.37360000 13.35960000 -2.39890000
-0.41530000 13.37060000 -2.14360000
-0.32000000 13.28260000 -2.69860000
-0.27650000 13.34410000 -2.66090000
-0.35120000 13.33230000 -2.56630000
-0.59800000 13.27830000 -1.99690000
-0.58020000 13.33140000 -1.98140000
-0.51570000 13.34850000 -2.12080000
-0.65050000 13.32800000 -1.75010000
-0.60540000 13.36360000 -1.74730000
-0.53240000 13.36880000 -1.92940000
0.76560000 13.25570000 -3.06880000
0.76770000 13.25620000 -3.19250000
0.74560000 13.28690000 -3.11220000
0.69810000 13.30170000 -3.18990000
0.68130000 13.28700000 -3.27560000
0.44650000 10.46970000 3.66100000
0.51470000 10.40860000 3.70260000
0.49380000 10.50720000 3.69370000
0.58550000 10.50600000 3.69680000
0.54700000 10.58120000 3.70600000
0.47800000 10.66140000 3.68670000
0.42590000 10.72460000 3.63740000
0.40070000 10.95740000 3.58800000
0.60130000 10.65270000 3.69090000
0.68060000 10.80530000 3.63940000
0.54370000 10.70480000 3.70190000
0.60260000 10.84250000 3.68620000
0.50520000 10.81880000 3.68740000
0.53190000 10.94790000 3.69350000
0.46370000 10.94160000 3.66190000
0.61740000 11.04130000 3.68100000
0.51870000 11.04960000 3.68790000
0.47470000 11.08810000 3.66200000
0.57350000 11.12070000 3.69530000
0.51020000 11.18180000 3.68590000
0.63570000 11.27240000 3.67440000
0.57080000 11.24390000 3.69360000
0.27310000 11.01500000 3.35300000
0.34920000 11.22230000 3.43700000
0.19270000 11.28690000 3.17380000
0.28600000 11.36330000 3.29370000
0.48330000 11.22660000 3.65890000
0.38150000 11.14480000 3.53650000
0.48810000 11.31200000 3.62690000
0.46300000 11.33300000 3.57230000
0.37870000 11.42640000 3.41720000
0.14840000 11.53980000 3.07450000
0.01540000 11.76040000 2.87560000
0.08840000 12.10250000 2.98310000
0.71470000 11.37470000 3.62280000
0.54360000 11.34730000 3.66970000
0.61270000 11.42650000 3.66980000
0.48660000 11.52230000 3.56850000
0.57840000 11.47660000 3.65930000
0.53760000 11.51110000 3.62820000
0.36730000 11.63920000 3.41970000
0.47680000 11.64450000 3.56900000
0.67430000 11.59360000 3.64880000
0.62280000 11.55790000 3.66080000
0.72500000 11.85620000 3.62140000
0.58800000 11.62900000 3.65680000
0.54560000 11.67190000 3.63990000
0.64170000 11.74240000 3.66070000
0.57530000 11.82060000 3.66170000
0.49990000 11.94580000 3.61180000
0.35100000 11.90440000 3.41870000
0.53590000 11.89120000 3.64850000
0.44480000 12.00420000 3.51100000
1.20830000 12.04770000 3.22370000
-1.11180000 4.76670000 -0.25530000
0.67180000 11.87620000 3.65470000
0.63420000 12.01170000 3.67460000
0.58450000 12.05300000 3.67520000
-1.08710000 3.82450000 0.45860000
0.47640000 12.15590000 3.53450000
0.70170000 12.12710000 3.64480000
0.56660000 12.13760000 3.66680000
0.52770000 12.16810000 3.63160000
-1.11350000 3.90700000 0.13610000
0.65230000 12.21690000 3.67090000
0.61740000 12.24850000 3.67880000
0.56430000 12.24890000 3.66760000
0.60020000 12.34480000 3.68320000
-0.59920000 5.94970000 1.98190000
-0.66890000 6.23450000 1.79240000
0.67040000 12.49280000 3.67300000
0.27280000 11.58280000 3.26450000
0.27470000 11.83080000 3.28140000
0.22070000 11.93220000 3.17930000
0.21180000 11.76760000 3.15100000
0.34350000 12.09410000 3.34640000
0.19100000 12.34690000 3.12880000
-1.09780000 4.24340000 0.14550000
0.02370000 12.49120000 2.86340000
-0.04360000 12.63180000 2.73270000
0.35280000 12.31140000 3.34020000
0.44090000 12.32470000 3.47450000
0.50490000 12.32960000 3.62530000
0.46140000 12.38300000 3.53720000
0.55140000 12.38490000 3.67560000
0.51980000 12.45280000 3.66270000
0.61010000 12.49740000 3.68970000
0.46760000 12.49600000 3.59640000
0.34180000 12.45080000 3.33930000
0.39460000 12.57180000 3.45210000
0.32280000 5.93200000 3.57660000
0.35230000 12.63300000 3.34520000
0.39890000 5.84380000 3.67950000
0.12610000 12.62800000 3.01880000
0.45430000 5.95190000 3.70560000
0.26820000 12.60690000 3.21590000
0.41070000 5.98780000 3.68760000
0.54190000 6.03380000 3.69140000
-0.01240000 6.53130000 3.00950000
0.39340000 6.09140000 3.67230000
0.44760000 6.07860000 3.70710000
0.50460000 6.14230000 3.70410000
0.44990000 6.20590000 3.70530000
0.40480000 6.23500000 3.68080000
-1.08860000 5.07780000 -0.00230000
0.26830000 12.81770000 3.20560000
0.14910000 12.83450000 3.01060000
0.55270000 12.54820000 3.68160000
0.48540000 12.57630000 3.62840000
0.43270000 12.63670000 3.53570000
1.18160000 12.19540000 3.25320000
1.00140000 12.75550000 3.41900000
1.21010000 12.21280000 3.07670000
1.24350000 12.18520000 3.16900000
1.22510000 12.23210000 3.21370000
1.24090000 12.26040000 3.12180000
1.24980000 12.33480000 3.16530000
1.23350000 12.36760000 3.21050000
0.69940000 9.51030000 -3.23740000
0.70880000 9.50840000 -3.16440000
0.71510000 9.72910000 -3.20670000
0.71680000 9.79060000 -3.16500000
1.13740000 12.92730000 2.97920000
-0.27590000 6.32600000 2.59110000
0.66380000 10.04580000 -3.29390000
1.23970000 12.37430000 3.11480000
0.71260000 9.97630000 -3.14280000
1.24780000 12.47270000 3.18370000
1.24810000 12.50160000 3.12440000
0.70250000 9.90060000 -3.24990000
0.72040000 9.98710000 -3.21090000
1.21440000 12.55260000 3.23790000
-1.08300000 4.93090000 -0.98290000
0.69110000 10.26370000 -3.09160000
-0.50150000 5.74640000 2.20160000
0.72960000 10.18840000 -3.17780000
0.71720000 10.31640000 -3.23890000
0.72030000 10.36820000 -3.13220000
0.59850000 10.84620000 -2.94070000
0.74290000 12.79760000 3.63190000
0.73200000 10.42430000 -3.19360000
0.69620000 10.80130000 -3.07580000
0.26320000 10.19500000 -3.63280000
0.14150000 9.92230000 -3.69800000
0.36770000 12.78990000 3.34490000
0.18590000 9.97590000 -3.68560000
0.57820000 11.06380000 -3.38790000
0.19280000 13.05360000 3.09860000
0.10670000 10.00580000 -3.69370000
0.15510000 10.06360000 -3.69540000
1.25250000 12.61460000 3.17360000
1.23330000 12.63490000 3.09520000
1.19070000 12.82010000 3.27040000
1.25990000 12.72770000 3.15130000
1.23350000 12.78950000 3.08770000
1.25130000 12.77070000 3.19790000
1.23250000 12.82440000 3.23190000
0.07530000 10.06380000 -3.66910000
0.11990000 10.14370000 -3.68650000
0.06400000 10.21440000 -3.64930000
0.18580000 10.20600000 -3.68150000
0.10360000 10.27960000 -3.67930000
1.20900000 12.96900000 3.05150000
1.25720000 12.87470000 3.12960000
0.01440000 10.38750000 -3.57580000
1.26050000 12.89700000 3.18290000
1.26390000 12.97090000 3.14870000
1.24440000 13.01440000 3.09560000
0.96270000 13.08730000 2.77600000
0.17820000 10.41370000 -3.68870000
0.07810000 10.47400000 -3.65510000
0.25970000 10.48560000 -3.64230000
0.81330000 13.23830000 2.57630000
0.14230000 10.44560000 -3.69090000
0.13190000 10.53500000 -3.69790000
0.06220000 10.69110000 -3.62940000
0.99420000 13.23040000 2.80600000
0.86590000 13.29050000 2.65230000
0.69660000 10.55130000 -3.27520000
-1.03890000 4.51430000 0.65580000
1.24080000 12.96160000 3.22740000
0.73500000 10.49620000 -3.16790000
1.21420000 13.09530000 3.25840000
0.73450000 10.55650000 -3.21500000
0.73020000 10.66970000 -3.13260000
