24.51130000 70.56570000 -3.16210000
24.56540000 70.71150000 -3.14610000
-20.65100000 -83.04600000 -8.40010000
-20.78320000 -82.94760000 -8.41110000
-20.90850000 -82.82950000 -8.39480000
-20.91640000 -82.59930000 -8.38970000
-23.81370000 -22.80820000 -1.40340000
-23.58210000 -23.23970000 -1.20220000
-23.27220000 -23.08010000 -0.94030000
-4.37170000 48.09870000 -1.24080000
-4.06110000 47.94490000 -1.20530000
-4.55350000 48.86350000 -1.26150000
-4.80790000 49.85610000 -1.29740000
2.71420000 92.82300000 5.49740000
2.91590000 92.84070000 5.68510000
2.39860000 92.80820000 5.55140000
2.00290000 92.80670000 5.70720000
-19.45300000 21.54530000 -8.20260000
-19.57860000 21.88150000 -8.28210000
-19.74060000 22.06340000 -8.35760000
-19.89360000 22.00230000 -8.42180000
-25.10060000 -65.67210000 -2.26560000
-24.96750000 -65.36790000 -2.13130000
-25.26820000 -65.88810000 -2.44290000
-25.26720000 -65.71020000 -2.43690000
-20.94930000 -82.26340000 -8.39430000
-21.09900000 -81.96130000 -8.35330000
-21.25460000 -81.52290000 -8.27100000
-21.27870000 -81.10740000 -8.25750000
-14.97270000 -41.58410000 4.22270000
-14.41510000 -40.40190000 4.47960000
-15.50860000 -41.61670000 3.96740000
-25.15520000 -57.29780000 -2.45570000
-25.53710000 -57.12350000 -2.83750000
-25.70280000 -57.04970000 -3.02780000
-25.69490000 -56.84730000 -3.04410000
22.03900000 90.51860000 -0.84470000
21.62330000 90.05300000 -0.55120000
21.02060000 89.91540000 -0.14620000
-20.00400000 21.77880000 -8.43860000
-20.02520000 21.94190000 -8.45310000
-20.19770000 21.78530000 -8.46570000
-20.17220000 21.98560000 -8.47630000
-20.34220000 21.73390000 -8.45250000
-20.29570000 21.90590000 -8.46430000
-20.32350000 22.00110000 -8.45480000
17.18610000 53.00300000 -6.53760000
17.56790000 52.67250000 -6.79270000
18.11020000 52.30910000 -7.16550000
-20.36040000 -79.73240000 1.88180000
-20.37200000 -78.82880000 1.83690000
-20.75960000 -80.63300000 1.67180000
-7.76420000 -52.96430000 -1.55120000
-7.79480000 -51.80360000 -1.55760000
-7.73500000 -54.06900000 -1.53370000
-16.37310000 30.92420000 2.89450000
-16.03970000 30.48000000 3.06910000
-15.86700000 29.90220000 3.15900000
-20.01660000 21.62100000 -8.44650000
-20.16140000 21.58450000 -8.46790000
-20.28710000 21.58500000 -8.45760000
12.20340000 69.72980000 -3.92230000
12.49640000 70.29690000 -4.04580000
13.15260000 70.23460000 -4.33610000
13.68420000 69.75460000 -4.59090000
23.97320000 0.11420000 -1.98390000
24.07520000 0.69940000 -2.06030000
24.10720000 -0.96300000 -2.09430000
23.97520000 -0.69040000 -1.97990000
-15.62310000 -38.65820000 -5.05080000
-15.65950000 -36.94950000 -5.08160000
-15.69160000 -39.64260000 -5.08830000
23.61430000 14.92050000 -1.75380000
23.61400000 15.43560000 -1.75730000
23.83160000 14.66660000 -1.91930000
24.02010000 14.61440000 -2.06490000
-14.61510000 -92.30450000 5.36210000
-14.51290000 -92.26160000 5.56960000
-14.42400000 -92.21450000 5.69840000
-12.38170000 -73.54930000 5.84220000
-12.46230000 -72.94740000 5.80080000
-12.92330000 -72.05930000 5.60490000
-12.71360000 -72.30050000 5.69360000
23.21630000 91.59560000 -1.77640000
23.10070000 91.78980000 -1.68570000
23.48700000 91.51510000 -2.00010000
23.76590000 91.45560000 -2.21460000
1.32160000 -83.84720000 -0.64560000
0.97000000 -83.64460000 -0.61940000
0.57890000 -83.37600000 -0.60380000
-12.23450000 -71.99560000 5.88070000
-11.95170000 -71.44450000 5.97670000
-12.48720000 -72.43570000 5.78630000
-8.73840000 92.56770000 1.67010000
-9.10980000 92.60230000 2.24300000
-8.94170000 92.63400000 2.85320000
-8.33890000 92.54950000 1.49900000
3.76470000 -42.05900000 7.36990000
4.19610000 -41.66670000 7.29600000
4.73840000 -41.27500000 7.19380000
-15.13320000 -85.39870000 -4.68710000
-14.78020000 -84.91940000 -4.47710000
-15.45180000 -85.74960000 -4.88130000
24.39810000 38.52200000 -2.78580000
24.37790000 38.42930000 -2.90930000
24.37600000 38.65640000 -2.91160000
24.39040000 38.78190000 -2.81950000
24.37800000 38.49960000 -2.66660000
24.37620000 38.71270000 -2.71740000
16.42580000 88.37790000 -6.12050000
16.41820000 89.28350000 -6.11690000
16.64000000 90.04160000 -6.26310000
14.49430000 -92.31790000 4.74580000
14.63650000 -92.24310000 4.69310000
15.07860000 -92.43110000 4.41030000
15.00380000 -92.29530000 4.50550000
6.44860000 -43.88890000 6.85540000
6.35600000 -43.37650000 6.87160000
5.92460000 -43.24250000 6.96330000
5.41470000 -43.03730000 7.06540000
-8.86860000 92.64950000 3.14080000
-9.24730000 92.66890000 3.54210000
-9.47870000 92.67410000 3.84340000
24.41210000 38.30990000 -2.85540000
24.43550000 38.34870000 -2.74930000
24.41220000 38.36610000 -2.66120000
14.77160000 -92.03980000 4.62430000
14.71660000 -91.87430000 4.62860000
14.46020000 -91.72400000 4.73290000
14.81760000 -92.18770000 4.61190000
-7.94430000 -47.37280000 -1.56540000
-7.97630000 -46.33880000 -1.56330000
-8.30590000 -44.78250000 -1.63370000
-8.63720000 -44.24660000 -1.72450000
-19.64900000 -92.48840000 -7.18880000
-19.71840000 -92.49390000 -7.00800000
-19.85610000 -92.51160000 -6.88840000
-10.73580000 92.70780000 3.61150000
-10.82710000 92.71540000 3.79210000
-11.37530000 92.71950000 3.54530000
-11.26130000 92.72350000 3.80900000
-11.71080000 92.71580000 3.75360000
-11.56150000 92.72040000 3.85840000
-14.23840000 -92.57320000 -3.94580000
-14.09270000 -92.56540000 -3.86610000
-14.25140000 -92.54820000 -4.10350000
-14.26960000 -92.49810000 -4.27660000
-8.11300000 -91.68320000 -2.12990000
-7.88310000 -91.21630000 -2.00500000
-7.94830000 -90.90370000 -1.97420000
-8.10870000 -91.92860000 -2.14860000
-8.29150000 -92.01410000 -2.19490000
-25.52150000 -83.80340000 -1.85690000
-24.98970000 -84.04360000 -1.35020000
-25.78050000 -83.65000000 -2.11760000
-25.73520000 -83.14250000 -2.11440000
5.74160000 22.58460000 6.52790000
6.11440000 23.17230000 6.44320000
6.48840000 23.50170000 6.35570000
-11.44840000 92.70130000 3.22400000
-10.95320000 92.69800000 3.35760000
-11.80550000 92.70110000 3.25640000
-11.86020000 92.70960000 3.47750000
-7.98530000 -45.29020000 -1.55110000
-7.67380000 -44.81500000 -1.46030000
-7.37440000 -44.51440000 -1.37910000
-7.35660000 -43.73230000 -1.36500000
-13.93340000 -92.59590000 -3.58500000
-13.92910000 -92.57560000 -3.77080000
-14.00330000 -92.59640000 -3.35910000
-19.35280000 33.49220000 -8.19070000
-19.30230000 33.83870000 -8.16350000
-19.12630000 33.84240000 -8.02810000
-18.86930000 33.89060000 -7.82150000
1.66150000 29.38780000 -1.12470000
1.37660000 27.90560000 -1.09430000
0.91070000 25.35840000 -1.05110000
1.05180000 26.94020000 -1.06740000
-20.97030000 -50.96650000 -8.45420000
-20.86790000 -50.70660000 -8.48820000
-21.07830000 -50.76680000 -8.41180000
-21.18490000 -50.63930000 -8.35400000
18.52610000 71.13900000 -7.41320000
18.76730000 71.57680000 -7.58540000
19.04580000 71.84430000 -7.78630000
-5.45140000 59.32470000 -1.35710000
-5.10120000 59.11400000 -1.29570000
-5.82870000 60.43170000 -1.42880000
-5.88530000 61.27080000 -1.43840000
-5.12880000 83.33990000 6.56160000
-5.33190000 84.29280000 6.52790000
-4.86140000 82.87560000 6.60250000
9.63300000 -81.01740000 -2.75230000
9.87090000 -81.21190000 -2.83510000
10.17550000 -81.14810000 -2.94560000
-3.26100000 31.12120000 -1.08980000
-3.35000000 32.38020000 -1.10600000
-3.22020000 33.59450000 -1.10200000
17.34200000 92.29820000 -4.86240000
17.47370000 92.31520000 -4.68640000
17.92290000 92.32210000 -4.57880000
17.28010000 92.33620000 -4.55700000
18.53080000 92.35050000 -4.46800000
-7.37950000 -85.90250000 -1.37360000
-7.85610000 -86.04060000 -1.49300000
-8.29200000 -86.11310000 -1.61510000
19.90980000 13.46360000 -8.15890000
19.79130000 13.69210000 -8.15780000
19.79810000 13.88090000 -8.15390000
19.68930000 13.62280000 -8.15230000
19.56240000 14.09720000 -8.11680000
20.02290000 13.28500000 -8.13830000
-5.52480000 60.89620000 -1.37030000
-5.86620000 61.53500000 -1.43460000
-5.24510000 60.98680000 -1.32560000
-1.92530000 33.34030000 -1.02820000
-1.63740000 34.67610000 -1.02610000
-2.27220000 32.69720000 -1.04190000
23.11820000 -7.19670000 -4.56120000
23.39220000 -7.39700000 -4.18140000
22.79580000 -6.90300000 -4.99160000
22.71780000 -6.32670000 -5.09120000
-25.57110000 -29.31510000 -3.09280000
-25.60230000 -29.51050000 -3.16250000
-25.62570000 -29.59420000 -3.23970000
-5.66890000 -77.76140000 7.76160000
-5.54010000 -77.12700000 7.76050000
-5.76070000 -78.36780000 7.77140000
11.75460000 -83.69250000 5.61480000
12.10250000 -82.92790000 5.46220000
11.43470000 -84.27020000 5.74740000
-25.57880000 -41.01210000 -4.02500000
-25.66820000 -40.91890000 -3.91880000
-25.48760000 -41.37210000 -4.12790000
7.31320000 5.03940000 -2.12500000
6.96120000 6.60810000 -2.03610000
6.54710000 7.68640000 -1.93430000
0.09450000 -17.39050000 7.53190000
0.46030000 -18.04700000 7.52930000
0.89410000 -19.16530000 7.52090000
0.77520000 -18.33790000 7.52200000
1.31540000 -18.59340000 7.49600000
1.05950000 -17.70410000 7.50330000
21.21750000 -4.89790000 0.11540000
20.80660000 -4.74180000 0.38690000
20.36990000 -4.91450000 0.66290000
8.31350000 -66.61120000 6.59760000
9.14810000 -66.94790000 6.32040000
7.85810000 -65.64320000 6.72720000
7.72880000 -64.83250000 6.75840000
-25.87530000 -40.98040000 -3.56290000
-25.86880000 -40.83650000 -3.57270000
-25.85960000 -41.11950000 -3.56620000
-11.87030000 24.75700000 -3.25650000
-11.57200000 26.31090000 -3.12970000
-12.21840000 24.03960000 -3.41070000
0.43250000 -8.95620000 7.45380000
0.46910000 -8.14170000 7.44760000
0.17810000 -7.16510000 7.44690000
0.82780000 -8.08760000 7.43800000
1.11630000 -8.03470000 7.42460000
1.19500000 -7.28020000 7.40980000
1.15200000 -19.63690000 7.50590000
1.53060000 -19.32790000 7.48310000
1.71570000 -18.23940000 7.46640000
1.43250000 -17.59720000 7.47840000
21.76110000 -12.26230000 -6.31540000
21.91910000 -11.66140000 -6.12290000
22.19230000 -14.84380000 -5.78630000
22.15050000 -14.04850000 -5.83690000
21.91900000 -13.46870000 -6.12340000
2.37730000 51.76290000 -1.23910000
1.97450000 52.04660000 -1.19440000
2.78790000 51.39750000 -1.29130000
-23.51640000 -79.11490000 -0.35260000
-23.19480000 -78.78000000 -0.11690000
-24.07300000 -80.50050000 -0.74560000
-24.12200000 -79.98270000 -0.82400000
-23.92350000 -79.51430000 -0.68000000
12.28110000 -43.25540000 -3.83680000
12.20790000 -42.35440000 -3.80960000
12.15150000 -40.50600000 -3.79050000
12.37710000 -39.10790000 -3.89880000
2.22510000 -21.27670000 7.42870000
2.26940000 -20.21590000 7.41880000
2.04080000 -19.10130000 7.44090000
1.80930000 -18.89620000 7.46230000
7.12530000 -66.27800000 6.93660000
7.55420000 -66.18290000 6.82470000
7.87790000 -66.18780000 6.73140000
20.46720000 -13.52340000 -7.78810000
20.64100000 -13.70220000 -7.60810000
20.47880000 -13.30760000 -7.77480000
20.75160000 -13.34300000 -7.49660000
20.95790000 -13.93500000 -7.25050000
21.16270000 -13.76080000 -7.02440000
-1.33490000 1.51230000 7.34500000
-0.97070000 1.29250000 7.35610000
-0.54040000 1.24140000 7.35730000
-21.82000000 -92.26340000 1.32730000
-22.08540000 -92.19870000 1.29010000
-22.46580000 -92.16170000 1.12180000
-22.32790000 -92.15180000 1.24410000
22.25460000 -93.10490000 -1.58210000
22.11090000 -93.09950000 -1.45890000
22.03180000 -93.09290000 -1.24320000
-25.16490000 32.98680000 -3.65550000
-25.21740000 32.81560000 -3.56390000
-25.23090000 32.52790000 -3.55730000
-25.28740000 -13.97260000 -4.19020000
-25.41300000 -13.71400000 -4.07370000
-25.54120000 -13.47950000 -3.96810000
-25.51790000 -13.30960000 -3.99320000
2.92260000 -18.96380000 7.33620000
2.55880000 -19.05910000 7.38580000
2.27990000 -19.37430000 7.41730000
21.82740000 -3.77430000 -0.28330000
22.08950000 -2.96000000 -0.47510000
21.80850000 -4.41900000 -0.27030000
-20.69400000 -6.20440000 -8.37600000
-20.68900000 -5.82150000 -8.37390000
-20.77870000 -6.44570000 -8.33530000
-20.90120000 -6.68140000 -8.26020000
-21.02790000 -6.66150000 -8.17730000
-25.78660000 -10.30200000 -3.44660000
-25.78650000 -10.16660000 -3.37760000
-25.74700000 -10.09350000 -3.29230000
-25.01800000 -13.27200000 -4.45490000
-25.26350000 -13.26560000 -4.20470000
-25.45900000 -13.20630000 -4.03280000
-11.79280000 14.27570000 -3.14970000
-12.08390000 14.56600000 -3.29080000
-12.36020000 14.09910000 -3.42230000
-12.65180000 10.47930000 -3.54470000
-12.55810000 12.54690000 -3.51320000
-8.09160000 -92.26760000 7.63260000
-7.77620000 -92.24330000 7.72750000
-7.61850000 -92.15610000 7.83570000
-7.32570000 -92.01320000 7.92950000
-6.92400000 -91.96850000 7.99970000
-20.78130000 -14.12460000 -8.35720000
-20.64390000 -14.02090000 -8.40430000
-20.51080000 -13.90880000 -8.41960000
-11.12310000 -23.70500000 -2.63720000
-11.28130000 -22.70950000 -2.71070000
-11.42190000 -21.48120000 -2.77270000
-19.11170000 -53.46020000 -7.60600000
-18.90730000 -52.83760000 -7.44500000
-19.33620000 -53.84770000 -7.77470000
-6.76800000 -92.21880000 7.92310000
-6.73280000 -92.13050000 7.98130000
-6.69210000 -91.99380000 8.02620000
-5.04130000 -92.30180000 -1.40190000
-4.95590000 -92.21910000 -1.44680000
-4.42730000 -92.30360000 -1.32870000
-4.28520000 -92.29990000 -1.30350000
-4.57990000 -92.22850000 -1.39690000
-10.77140000 14.31750000 -2.71280000
-10.93430000 14.85270000 -2.78300000
-11.16670000 13.72440000 -2.87130000
-11.27300000 14.54420000 -2.92030000
-11.54750000 13.31740000 -3.03500000
-11.55510000 14.05260000 -3.04080000
7.72820000 92.83290000 5.36020000
7.90400000 92.80590000 5.46500000
8.10020000 92.75970000 5.51570000
-14.71850000 75.42970000 -4.84090000
-14.48860000 75.80210000 -4.70170000
-14.15450000 76.60430000 -4.50360000
-21.03890000 8.12580000 0.48700000
-21.18460000 9.41180000 0.37480000
-20.95890000 7.23640000 0.54620000
-19.75630000 -17.22720000 -8.13430000
-19.78610000 -16.88150000 -8.15720000
-19.93400000 -16.41610000 -8.25370000
-20.06650000 -16.23910000 -8.32430000
-20.14970000 -16.06500000 -8.35710000
-4.76640000 -92.07400000 -1.46180000
-4.64810000 -91.94340000 -1.44690000
-4.78800000 -92.17080000 -1.44930000
-11.12840000 12.79990000 -2.84330000
-11.43930000 12.65720000 -2.97920000
-10.81850000 13.45720000 -2.72140000
-2.31260000 5.71760000 -0.92240000
-2.22830000 6.61110000 -0.92110000
-1.88280000 6.86890000 -0.90960000
-1.48890000 7.12970000 -0.90290000
-1.41530000 7.86330000 -0.90410000
-2.89220000 -89.75510000 8.36060000
-2.99840000 -89.34450000 8.33630000
-2.68150000 -88.70920000 8.33750000
-2.55350000 -87.83880000 8.32340000
-2.21730000 -87.48360000 8.33900000
-20.94880000 -0.18180000 -8.20800000
-20.78140000 -0.07160000 -8.31650000
-20.64200000 -0.03070000 -8.38050000
-20.24840000 -15.81990000 -8.37310000
-20.23800000 -15.68100000 -8.37780000
-20.44510000 -15.77360000 -8.42300000
-20.37810000 -15.61260000 -8.41510000
-20.50870000 -15.63070000 -8.42490000
-20.58680000 -15.75710000 -8.43190000
-3.39820000 -90.88480000 8.39480000
-3.22490000 -90.48440000 8.37650000
-2.85010000 -90.06980000 8.37970000
-4.02310000 -92.40420000 -1.23200000
-4.16640000 -92.31620000 -1.29650000
-3.79670000 -92.46090000 -1.15420000
12.46880000 92.44590000 -2.51400000
12.74170000 92.46390000 -2.42260000
12.94190000 92.46100000 -2.38930000
-3.31300000 -12.55700000 -0.85810000
-3.72170000 -13.26650000 -0.88740000
-2.94820000 -11.74970000 -0.84040000
-20.53860000 -15.89280000 -8.43550000
-20.41560000 -15.94020000 -8.42840000
-20.26790000 -15.94310000 -8.38850000
-0.02200000 0.35720000 -0.88920000
-0.33530000 1.43710000 -0.88670000
-0.38240000 2.26820000 -0.89230000
0.19050000 -2.53120000 -0.87850000
0.41590000 -3.70210000 -0.88260000
20.48620000 76.37890000 -8.02040000
20.40360000 76.59500000 -8.08290000
20.16840000 76.65490000 -8.20450000
20.28450000 76.71950000 -8.14550000
17.00710000 83.68820000 2.30810000
17.06550000 82.59220000 2.28370000
16.50950000 84.91260000 2.56130000
16.31480000 83.86700000 2.66980000
15.69140000 84.57910000 2.97590000
15.99140000 85.24560000 2.82070000
22.58510000 57.13910000 -5.60820000
22.37070000 58.08320000 -5.87700000
22.15920000 58.62220000 -6.13180000
-20.00620000 -16.94950000 -8.28940000
-20.18450000 -16.75100000 -8.35880000
-20.29790000 -16.83260000 -8.40060000
-19.82880000 -17.28700000 -8.18430000
22.98400000 91.89670000 -1.60380000
22.70710000 91.92630000 -1.37740000
22.41180000 92.00750000 -1.13720000
-19.51090000 -1.15800000 -8.04420000
-19.14990000 -0.65740000 -7.77080000
-19.72440000 -1.27870000 -8.19410000
-19.79810000 -1.04640000 -8.23860000
-0.78260000 3.75560000 -0.88930000
-1.11000000 4.35970000 -0.89100000
-1.35750000 3.53710000 -0.88470000
-0.43050000 3.30200000 -0.89590000
16.00010000 82.93800000 2.82670000
15.76000000 83.39210000 2.94550000
16.43170000 82.84160000 2.61130000
16.92720000 82.19410000 2.35660000
-25.61570000 -45.98800000 -3.03170000
-25.75160000 -46.28890000 -3.18310000
-25.81060000 -46.49080000 -3.30470000
-21.38440000 -34.77790000 -8.14880000
-21.45460000 -34.19360000 -8.08560000
-21.27520000 -35.74140000 -8.23270000
-21.28630000 -35.20800000 -8.22380000
-6.95410000 -0.02110000 -1.42920000
-7.01280000 0.68580000 -1.44720000
-7.18680000 -0.53420000 -1.48000000
-7.43120000 0.30980000 -1.54180000
-7.68110000 -0.91880000 -1.59710000
-7.98810000 -0.65100000 -1.67930000
-7.99090000 0.20130000 -1.68710000
-6.06410000 42.02180000 -1.50050000
-6.27800000 42.69600000 -1.54150000
-6.53310000 43.45560000 -1.59410000
-6.57330000 44.52420000 -1.60380000
-19.91200000 -0.90560000 -8.29450000
-20.08800000 -0.92620000 -8.37010000
-20.25620000 -0.94330000 -8.39800000
-24.49890000 76.54510000 -3.84380000
-24.61810000 76.43150000 -3.67900000
-24.68190000 76.50800000 -3.53700000
-24.68680000 76.66920000 -3.49890000
-5.65860000 -25.56240000 7.14000000
-5.56730000 -24.57460000 7.15000000
-5.40700000 -27.49280000 7.18610000
-7.24680000 1.32870000 -1.51130000
-7.61180000 1.34870000 -1.60000000
-7.96640000 1.00170000 -1.68860000
-21.11360000 -36.42150000 -8.36780000
-21.00580000 -36.37290000 -8.41830000
-21.19420000 -36.21920000 -8.31240000
-20.88660000 -36.28730000 -8.45720000
22.37550000 -71.24630000 -0.46970000
21.96290000 -71.05730000 -0.14820000
22.57080000 -71.00940000 -0.62360000
21.51250000 -71.15680000 0.17930000
21.65240000 -70.90770000 0.08110000
19.31550000 13.61690000 -7.98560000
19.50610000 13.36940000 -8.09040000
19.25660000 14.15180000 -7.95410000
19.62520000 13.29210000 -8.13880000
-6.74070000 -5.20730000 -1.35340000
-6.67930000 -4.01740000 -1.34630000
-6.51820000 -2.89110000 -1.32320000
-6.23530000 -2.62330000 -1.27130000
5.22390000 82.15860000 6.50440000
4.80580000 82.45780000 6.57960000
5.46920000 82.41780000 6.45760000
4.36240000 82.35260000 6.65570000
24.25890000 62.99980000 -3.54830000
24.22600000 63.22850000 -3.59260000
24.13370000 63.34400000 -3.72330000
24.10930000 62.48360000 -3.73870000
24.22190000 62.63260000 -3.59940000
-24.22160000 66.41250000 -4.34840000
-24.21030000 67.07990000 -4.34950000
-24.21170000 67.63650000 -4.33340000
-21.43300000 -36.18580000 -8.12260000
-21.28310000 -36.05980000 -8.24050000
-21.71230000 -36.72590000 -7.87170000
-21.66170000 -36.41780000 -7.91420000
-7.44050000 -1.90290000 -1.53590000
-7.43710000 -1.13080000 -1.53710000
-7.35770000 -2.57420000 -1.50980000
-11.33060000 -31.89700000 -2.70550000
-11.15750000 -31.18260000 -2.63220000
-11.61210000 -31.53070000 -2.82970000
-12.05350000 -32.54470000 -3.03750000
-11.89890000 -31.40180000 -2.96450000
24.46890000 62.58850000 -3.14790000
24.40610000 62.64600000 -3.30860000
24.30480000 62.75700000 -3.48280000
20.23600000 51.59490000 -8.09770000
20.36330000 51.68330000 -8.01040000
20.45020000 51.50190000 -7.94470000
20.37340000 51.86530000 -7.99650000
20.11120000 51.44940000 -8.14450000
22.65770000 -5.69920000 -5.17190000
22.34850000 -5.31580000 -5.57850000
22.07780000 -4.94810000 -5.92480000
21.86030000 -5.26690000 -6.20050000
-25.55200000 7.12140000 -3.38500000
-25.56990000 7.27360000 -3.43900000
-25.58150000 7.35440000 -3.55410000
-25.56770000 7.42250000 -3.64840000
-25.01430000 48.29110000 -3.66590000
-25.03690000 48.21980000 -3.55980000
-25.01200000 48.32900000 -3.43840000
-22.45560000 -5.41060000 -6.90570000
-22.20330000 -4.87410000 -7.13530000
-22.98310000 -5.50230000 -6.41310000
-23.35410000 -5.97980000 -6.06380000
-10.08800000 -34.54270000 -2.18380000
-10.06260000 -33.73520000 -2.17960000
-10.23920000 -33.41230000 -2.24940000
-10.41670000 -33.19530000 -2.32140000
-10.37230000 -32.42490000 -2.31120000
8.19790000 56.51190000 -2.45690000
8.24200000 57.31660000 -2.47680000
8.71720000 59.11210000 -2.61540000
8.47800000 58.59400000 -2.54340000
-7.02070000 81.10760000 6.15140000
-7.51710000 81.23850000 6.03310000
-7.98830000 81.22930000 5.91710000
19.86520000 -32.38350000 -8.09320000
19.84740000 -31.89410000 -8.09910000
19.91700000 -31.61150000 -8.08270000
20.01680000 -31.37970000 -8.04680000
20.01400000 -30.98930000 -8.04240000
-25.45810000 6.73700000 -3.14150000
-25.53220000 6.89790000 -3.24460000
-25.55740000 6.99350000 -3.35000000
6.74630000 -31.11940000 -1.83060000
7.04420000 -30.75400000 -1.92030000
7.36570000 -30.41490000 -2.01980000
-9.21360000 -35.05210000 -1.88700000
-9.06650000 -34.24660000 -1.84380000
-8.74400000 -34.34930000 -1.74540000
-8.42020000 -34.89800000 -1.64910000
-20.57400000 -28.95550000 -8.47000000
-20.56720000 -28.86120000 -8.47240000
-20.62700000 -28.65040000 -8.47090000
-20.56600000 -28.50840000 -8.46810000
20.00270000 -30.75820000 -8.05410000
19.88080000 -30.58290000 -8.08890000
19.75940000 -30.26570000 -8.09430000
-9.72000000 -35.34930000 -2.05210000
-9.38870000 -35.54230000 -1.94290000
-10.01400000 -35.16080000 -2.15570000
24.52420000 89.49030000 -2.89410000
24.54280000 89.33950000 -3.00170000
24.56780000 89.47860000 -3.04750000
24.55920000 89.62860000 -2.97980000
24.56820000 89.53780000 -3.15070000
24.54360000 89.68600000 -3.27660000
22.30570000 -93.01250000 -4.24620000
22.54370000 -92.92700000 -4.19580000
22.72650000 -92.85050000 -4.07190000
-12.57500000 13.73050000 -3.52830000
-12.85330000 14.15130000 -3.67440000
-13.17560000 14.56980000 -3.84930000
24.14330000 61.00920000 -2.41730000
24.17660000 61.44820000 -2.43510000
24.18150000 60.48650000 -2.43890000
24.67800000 -70.71300000 -2.57420000
24.70930000 -70.55350000 -2.53330000
24.72380000 -70.36570000 -2.50670000
23.11720000 -52.03600000 -4.67010000
22.96340000 -51.69760000 -4.85420000
23.16480000 -51.03440000 -4.61540000
24.52440000 89.73720000 -2.90460000
24.48850000 89.66280000 -2.82300000
24.42190000 89.67770000 -2.74130000
24.39490000 89.95290000 -2.72110000
8.33420000 -77.71180000 6.69370000
8.13770000 -76.74510000 6.74420000
7.65910000 -76.46640000 6.88880000
8.42590000 -76.09760000 6.64620000
7.24880000 -76.29610000 7.00580000
-25.78760000 -62.59200000 -3.66500000
-25.81000000 -62.57880000 -3.55170000
-25.79970000 -62.59280000 -3.41620000
6.18010000 76.46850000 6.31630000
6.13280000 77.31040000 6.32320000
6.34360000 75.92590000 6.28430000
20.27490000 10.34120000 -8.02660000
20.39800000 10.50860000 -7.93170000
20.16500000 10.17000000 -8.08730000
4.53170000 -75.45230000 7.63170000
4.15520000 -75.56770000 7.70340000
3.70030000 -75.40750000 7.77460000
8.05260000 -74.95380000 -2.23930000
8.11050000 -74.48230000 -2.25580000
8.07430000 -75.44670000 -2.24670000
24.47720000 89.39670000 -2.82030000
24.45880000 89.55180000 -2.77700000
24.50220000 89.29310000 -2.91990000
17.20760000 33.71850000 2.28680000
17.37550000 34.51240000 2.20170000
17.19880000 32.74230000 2.29790000
24.35900000 -89.26550000 -2.25320000
24.37520000 -89.24460000 -2.15280000
24.34540000 -89.33570000 -2.06870000
24.30450000 -89.26820000 -2.38790000
24.26470000 -89.18720000 -2.51750000
-13.82920000 82.38900000 -4.29100000
-14.17220000 81.76860000 -4.48980000
-14.54830000 81.91980000 -4.71550000
13.60840000 -79.21360000 4.77790000
13.59430000 -78.49290000 4.79180000
13.41640000 -79.89330000 4.86410000
19.87210000 55.62690000 -8.19680000
19.87950000 55.74660000 -8.18390000
19.73570000 55.49020000 -8.20120000
19.65790000 55.16060000 -8.18490000
19.48560000 -84.73180000 -7.85700000
19.39510000 -85.09630000 -7.88330000
19.13960000 -85.31680000 -7.90440000
18.96970000 -85.24850000 -7.86090000
19.04310000 -85.04280000 -7.86930000
19.19070000 -85.04510000 -7.90280000
24.18650000 -89.14990000 -2.66290000
24.09680000 -89.23010000 -2.79470000
23.71930000 -89.73900000 -3.28570000
23.94290000 -89.51730000 -3.00310000
21.19510000 23.14960000 -0.01070000
21.12140000 23.87320000 0.03450000
21.30700000 24.28910000 -0.08500000
19.13960000 -85.28950000 1.92640000
18.89640000 -84.17490000 2.05900000
19.34650000 -86.36140000 1.81000000
-25.35410000 3.39990000 -3.09260000
-25.41610000 3.42400000 -3.22250000
-25.44500000 3.39220000 -3.34760000
15.42400000 72.42610000 -5.49220000
15.80840000 72.21350000 -5.70820000
16.41100000 71.18860000 -6.06620000
16.21330000 71.85860000 -5.94610000
19.02190000 -85.46630000 -7.87770000
19.16420000 -85.57450000 -7.91320000
19.29050000 -85.48200000 -7.90090000
19.29970000 -85.22960000 -7.90130000
-7.53800000 28.48210000 6.25530000
-8.00480000 28.81070000 6.14670000
-8.74650000 30.03620000 5.94920000
-8.76090000 30.83210000 5.93630000
-8.43260000 29.62670000 6.03560000
23.94820000 -87.12590000 -3.14210000
24.04510000 -86.75070000 -3.03430000
23.93480000 -87.71800000 -3.12590000
19.36900000 -85.86150000 -7.88840000
19.27860000 -85.65310000 -7.90970000
19.46580000 -86.09840000 -7.84390000
2.67420000 36.72650000 6.93350000
2.91680000 37.77390000 6.89940000
3.07660000 38.64740000 6.87750000
17.12640000 70.09000000 -6.49170000
17.47580000 70.00070000 -6.70950000
16.68340000 70.44970000 -6.22650000
23.57370000 -28.86300000 -4.06240000
23.37010000 -28.73960000 -4.33560000
23.10810000 -28.58190000 -4.67210000
24.34680000 25.14090000 -2.74210000
24.35090000 25.35520000 -2.77210000
24.34690000 25.60830000 -2.76700000
-3.03030000 72.49250000 -1.02890000
-2.68220000 72.91370000 -1.00080000
-2.40620000 73.49650000 -0.98080000
-18.20920000 69.34710000 -7.35360000
-18.10510000 70.66150000 -7.26830000
-18.15560000 72.45710000 -7.30290000
15.26510000 -65.94090000 -5.28640000
15.72130000 -65.28250000 -5.55900000
15.96520000 -65.58220000 -5.70640000
15.25520000 -65.01890000 -5.28760000
15.82830000 -64.42700000 -5.62860000
16.48150000 -63.84930000 -6.02880000
14.77350000 -66.24170000 -5.00630000
14.64350000 -65.62600000 -4.93770000
23.76940000 27.25260000 -1.92040000
23.86210000 27.50810000 -2.01240000
23.92530000 26.70270000 -2.04550000
23.79830000 26.87670000 -1.93660000
16.27230000 -55.03660000 3.27000000
16.35860000 -54.22800000 3.22830000
16.23850000 -55.76250000 3.29340000
16.22190000 -66.20650000 -5.86620000
16.65220000 -65.68740000 -6.13650000
17.04070000 -65.15490000 -6.38560000
17.10000000 -63.84610000 -6.42440000
23.25610000 27.30290000 -1.54630000
23.56770000 27.07650000 -1.78860000
23.72200000 27.03430000 -1.88650000
-21.73130000 -82.34880000 -7.87700000
-21.76940000 -83.10970000 -7.82880000
-21.72410000 -83.55310000 -7.87220000
22.69960000 -31.89870000 -5.19290000
22.78990000 -31.23280000 -5.07670000
22.42810000 -32.37710000 -5.53420000
22.18660000 -33.59600000 -5.82700000
22.18190000 -32.92430000 -5.83330000
2.33550000 -24.66520000 7.44000000
1.95050000 -24.40720000 7.47880000
1.58900000 -23.90430000 7.50620000
15.74760000 -63.80950000 -5.58250000
15.98430000 -63.08840000 -5.72770000
15.29810000 -64.09970000 -5.31580000
14.79980000 -64.76880000 -5.02970000
8.51070000 -78.57060000 6.65070000
9.02810000 -78.83740000 6.48740000
9.59530000 -79.18800000 6.29950000
-22.82750000 -82.98250000 -6.80490000
-23.20570000 -82.80510000 -6.42690000
-23.77260000 -82.42280000 -5.84870000
11.89100000 65.80540000 -3.79650000
11.52010000 66.54680000 -3.63500000
10.63240000 68.00100000 -3.27260000
10.99790000 67.63170000 -3.41570000
-24.15030000 -54.05700000 -5.59050000
-23.93140000 -53.12580000 -5.80730000
-23.59930000 -52.67990000 -6.13800000
-23.18140000 -52.18960000 -6.54750000
-23.52560000 -90.07320000 0.46970000
-23.66080000 -89.55630000 0.31070000
-23.62410000 -90.94120000 0.54470000
-23.51140000 -90.63730000 0.56350000
22.94500000 -30.67920000 -4.88260000
23.27360000 -30.57300000 -4.46210000
23.56090000 -30.91760000 -4.08150000
9.17850000 -75.85750000 6.40250000
9.72330000 -76.01060000 6.21980000
9.93670000 -75.28480000 6.13890000
8.67870000 -75.53070000 6.56070000
-14.16180000 4.19140000 4.20000000
-13.32160000 4.41800000 4.58300000
-12.83900000 4.42770000 4.79680000
-19.91330000 64.26300000 -8.37630000
-19.95220000 64.45260000 -8.37810000
-20.04810000 64.46300000 -8.35460000
-20.17810000 64.43990000 -8.29660000
5.21520000 -89.69110000 -1.48420000
5.50970000 -89.89410000 -1.58310000
5.10190000 -89.20640000 -1.40810000
4.87630000 -88.71560000 -1.31650000
6.68350000 29.76930000 6.27520000
6.27710000 29.69710000 6.36550000
7.00160000 29.50310000 6.20000000
7.33360000 29.84800000 6.11830000
-9.39990000 -51.77210000 6.50700000
-8.99960000 -51.67530000 6.61490000
-9.95950000 -52.88620000 6.35080000
-9.84110000 -52.09820000 6.37880000
-19.94830000 -7.15820000 -8.26380000
-20.06150000 -7.33350000 -8.31910000
-20.17240000 -7.38750000 -8.35820000
-9.89000000 -53.54480000 6.38250000
-9.49500000 -53.86800000 6.50690000
-9.18480000 -54.27230000 6.59990000
5.76950000 -90.17300000 -1.68010000
5.82760000 -90.64520000 -1.74340000
5.95700000 -90.94640000 -1.80020000
24.20480000 -61.71250000 -1.91380000
24.03670000 -61.38740000 -1.77020000
24.29730000 -61.99900000 -2.00930000
24.22240000 -62.25680000 -1.96290000
-20.67080000 -75.54780000 -8.46910000
-20.74670000 -75.34700000 -8.47540000
-20.91590000 -75.49740000 -8.45720000
-20.83340000 -75.26040000 -8.47220000
-21.01400000 -75.25700000 -8.43590000
-20.88600000 -75.02370000 -8.45900000
-16.67460000 -92.52600000 -1.67430000
-16.53060000 -92.52100000 -1.89200000
-16.56230000 -92.52800000 -2.49610000
24.44880000 -62.85540000 -2.20460000
24.37630000 -62.76240000 -2.10830000
24.24840000 -62.53790000 -1.98380000
15.58780000 37.44610000 3.08320000
15.65680000 38.82160000 3.04850000
15.72820000 36.69380000 3.02250000
20.93220000 -69.17350000 -6.97000000
21.18400000 -68.90210000 -6.70410000
20.51490000 -68.91950000 -7.41560000
20.28330000 -68.95430000 -7.63460000
-21.42230000 -75.76640000 -8.21290000
-21.29130000 -75.46160000 -8.31440000
-21.03380000 -75.65150000 -8.41780000
-21.13660000 -75.51250000 -8.39100000
19.79280000 0.49030000 -8.11470000
19.68400000 0.52820000 -8.09390000
19.52520000 0.50930000 -8.02720000
19.54460000 0.66350000 -8.03810000
24.34240000 37.08170000 -2.96320000
24.40040000 37.28470000 -2.87490000
24.29510000 36.76740000 -3.04510000
-15.52680000 -92.52920000 -0.88310000
-15.91870000 -92.51470000 -0.61420000
-16.11940000 -92.50550000 0.07750000
13.30230000 34.84550000 4.11140000
13.66330000 35.38790000 3.95830000
14.09920000 35.84830000 3.76550000
-25.44880000 12.43080000 -3.63500000
-25.43930000 12.55650000 -3.69490000
-25.46960000 12.48430000 -3.53270000
-25.46700000 12.57240000 -3.42580000
6.98850000 -22.77510000 6.57280000
6.91520000 -23.85520000 6.59710000
6.80620000 -24.68100000 6.63630000
20.35480000 91.43480000 -7.91270000
20.32870000 91.58990000 -7.83910000
20.27230000 91.42240000 -7.96750000
20.32670000 91.72440000 -7.72160000
20.22230000 91.82620000 -7.68960000
7.60930000 -92.67060000 6.77370000
7.80480000 -92.64890000 6.80610000
7.99920000 -92.61290000 6.83820000
14.51030000 25.10950000 3.62740000
14.89230000 25.32190000 3.45360000
15.35900000 25.32350000 3.23350000
6.92430000 -44.35970000 6.74440000
6.52880000 -44.25810000 6.83960000
7.35140000 -44.75360000 6.63110000
-13.80560000 -92.50690000 1.19250000
-13.81410000 -92.49020000 1.87420000
-13.46820000 -92.52880000 0.28310000
-13.04320000 -92.54810000 -1.44730000
-13.26720000 -92.54460000 -0.81150000
19.85030000 91.61020000 -8.02560000
20.03250000 91.55610000 -8.02560000
20.17770000 91.42960000 -8.02320000
-16.75360000 -34.63450000 3.31910000
-16.28660000 -34.50600000 3.54940000
-15.41150000 -34.61560000 3.97120000
0.56570000 -89.45880000 8.43000000
0.63010000 -88.88820000 8.40380000
0.59760000 -88.39530000 8.39700000
-6.08340000 34.84790000 6.52330000
-5.75500000 35.35760000 6.57890000
-5.65600000 36.28480000 6.58590000
-6.48480000 34.47560000 6.44210000
19.32930000 -3.81130000 -7.94220000
19.41480000 -3.58260000 -7.98220000
19.33150000 -4.36310000 -7.95110000
-12.63920000 -92.56870000 -0.83200000
-12.29870000 -92.57640000 -0.97630000
-12.00550000 -92.58430000 -0.82370000
-12.42510000 -92.57130000 -0.07260000
-12.68120000 -92.56190000 -0.17150000
-12.39010000 -92.56200000 0.23100000
18.79970000 -30.44300000 1.71980000
18.76610000 -29.72130000 1.75200000
19.05330000 -31.16510000 1.56790000
8.24210000 91.75620000 5.86000000
8.40400000 91.97890000 5.79010000
8.00170000 91.45320000 5.93450000
-8.59890000 -92.50760000 4.03590000
-9.15900000 -92.49270000 4.56580000
-8.05690000 -92.53320000 3.40870000
-12.82210000 -92.55650000 -0.45840000
-13.02640000 -92.54340000 -0.37010000
-13.26400000 -92.53950000 -0.32010000
-19.87040000 15.18960000 -8.37660000
-20.03470000 15.50560000 -8.43220000
-19.96000000 15.78770000 -8.41940000
-19.83290000 15.79830000 -8.37030000
-20.19150000 15.87720000 -8.46100000
-20.02710000 16.14530000 -8.43600000
-19.61490000 15.50730000 -8.23900000
-19.67960000 15.83260000 -8.28190000
12.00950000 -68.87800000 5.33310000
11.73780000 -68.42500000 5.43360000
12.30330000 -69.34660000 5.22040000
19.89600000 -59.35130000 -7.94620000
20.01900000 -59.62830000 -7.91230000
20.13100000 -59.84900000 -7.85530000
20.18480000 -59.52050000 -7.82000000
-20.69550000 65.35810000 -7.94410000
-20.93360000 65.89060000 -7.71540000
-21.42500000 66.49040000 -7.23120000
-24.95820000 49.92710000 -3.68670000
-24.91680000 49.72650000 -3.80070000
-24.92230000 50.19020000 -3.69960000
-24.78820000 49.45050000 -3.97490000
-10.78330000 -92.58290000 -0.41080000
-11.39990000 -92.57900000 -0.54420000
-11.81580000 -92.58130000 -0.60970000
-20.36760000 15.17720000 -8.45400000
-20.53490000 14.85040000 -8.40880000
-20.56940000 15.22160000 -8.40020000
-20.48560000 15.57640000 -8.42980000
-20.59240000 16.89330000 -8.36400000
-20.46600000 16.71600000 -8.42430000
19.49250000 -60.34450000 -7.92680000
19.59290000 -60.37230000 -7.95190000
19.36600000 -60.01320000 -7.88270000
19.22690000 -59.96300000 -7.80910000
2.12610000 -7.94540000 7.33780000
1.82350000 -7.19710000 7.35920000
1.44170000 -6.79990000 7.38400000
3.25110000 92.46050000 -0.16380000
3.25510000 92.48190000 0.06650000
2.44110000 92.43480000 -0.11280000
2.74830000 92.47510000 0.17780000
3.09780000 92.43470000 -0.31390000
2.57290000 92.40820000 -0.32350000
-24.92030000 50.36120000 -3.70310000
-24.93700000 50.40740000 -3.59980000
-24.92350000 50.40460000 -3.47680000
-20.38350000 16.04040000 -8.44430000
-20.36500000 16.44020000 -8.45280000
-20.24640000 16.51890000 -8.46660000
-20.11610000 16.52770000 -8.45200000
-12.30700000 -92.55480000 0.54130000
-12.00190000 -92.56470000 0.49390000
-11.81020000 -92.56710000 0.32850000
4.12640000 -92.72260000 -1.02130000
3.90220000 -92.77660000 -0.83380000
3.76760000 -92.80740000 -0.67640000
19.79520000 -60.73000000 -7.96710000
19.68740000 -60.41100000 -7.96280000
19.89050000 -60.72140000 -7.94950000
-8.24150000 -77.34680000 -1.72070000
-7.88480000 -77.52750000 -1.62340000
-8.34340000 -76.80140000 -1.74550000
-7.84350000 -76.70400000 -1.60480000
-7.50080000 -77.52930000 -1.52500000
-7.33440000 -77.00950000 -1.47820000
5.56090000 92.56000000 0.07360000
5.69210000 92.59290000 0.48390000
5.45650000 92.60740000 0.84230000
5.55200000 92.52370000 -0.24910000
-10.26980000 36.91270000 5.43600000
-10.26290000 37.66030000 5.43660000
-10.31760000 36.31280000 5.43040000
-23.05920000 92.07380000 -4.09090000
-22.89910000 92.10830000 -4.03520000
-22.72310000 92.13250000 -3.97380000
-25.23780000 -6.24090000 -2.79070000
-25.30020000 -5.73480000 -2.85430000
-25.14430000 -6.22600000 -2.69650000
-25.35970000 -5.08480000 -2.92080000
-17.08590000 -21.75990000 3.04310000
-16.94560000 -21.23650000 3.10940000
-16.92170000 -20.55060000 3.12300000
20.06220000 14.20120000 -8.13560000
20.06860000 14.53140000 -8.12980000
19.94770000 14.06350000 -8.16400000
19.86650000 14.55580000 -8.17670000
19.81940000 14.06290000 -8.16350000
19.72040000 14.30930000 -8.15750000
-7.68840000 -73.50080000 -1.51050000
-7.45380000 -73.33440000 -1.44550000
-7.88940000 -73.29170000 -1.56320000
-8.20200000 -73.08630000 -1.65060000
-25.00100000 -7.44360000 -2.55070000
-24.97640000 -6.80990000 -2.53200000
-25.02680000 -6.27000000 -2.58120000
24.34390000 44.49260000 -2.69390000
24.36070000 44.55560000 -2.81760000
24.32340000 44.74750000 -2.99120000
-3.94110000 44.54020000 6.77410000
-3.43620000 44.98710000 6.82940000
-4.47670000 43.38900000 6.70950000
19.57670000 15.68520000 -8.11500000
19.46430000 16.02590000 -8.06690000
19.66960000 14.82600000 -8.13990000
19.67970000 15.28380000 -8.14730000
19.77310000 15.39270000 -8.17140000
-8.94690000 12.05230000 -2.04710000
-8.87900000 13.27830000 -2.03660000
-9.31030000 10.88690000 -2.15270000
-9.69450000 10.09580000 -2.27900000
-9.94620000 10.31670000 -2.36600000
-6.69680000 -76.05480000 -1.31350000
-6.99690000 -76.28530000 -1.38530000
-7.28440000 -76.44820000 -1.45770000
-7.56200000 -76.06920000 -1.52240000
-6.37250000 -3.97200000 6.83090000
-6.04270000 -3.80180000 6.89010000
-5.78720000 -4.19380000 6.93920000
-6.74280000 -3.98270000 6.75320000
20.05870000 14.89030000 -8.13720000
19.95400000 15.10710000 -8.16870000
19.85870000 15.48090000 -8.17590000
19.85550000 16.00150000 -8.17100000
20.11850000 69.41710000 -8.18050000
20.23140000 69.25290000 -8.13660000
20.34990000 69.01360000 -8.06020000
-8.81270000 14.72330000 -2.02680000
-8.46700000 16.05570000 -1.93370000
-8.13280000 16.90950000 -1.84340000
-22.92420000 -11.07740000 -0.73590000
-22.57270000 -10.69030000 -0.46400000
-21.85750000 -10.45920000 0.06190000
-22.13490000 -10.25550000 -0.14380000
-17.74010000 18.78670000 2.28680000
-17.90080000 19.35710000 2.19940000
-17.76010000 18.05370000 2.28230000
-8.35790000 -76.34580000 -1.74370000
-8.08000000 -76.10370000 -1.66170000
-7.81580000 -75.83830000 -1.58640000
24.25670000 -44.00730000 -3.19450000
24.30370000 -44.13460000 -3.09430000
24.37110000 -44.26340000 -2.88860000
24.34040000 -44.08120000 -2.97710000
-1.24270000 -48.96110000 7.74510000
-1.61650000 -48.97310000 7.72420000
-2.02410000 -48.90750000 7.69430000
-2.06900000 -48.34070000 7.68560000
-9.91380000 80.56730000 5.36200000
-9.56960000 80.79980000 5.47410000
-10.28240000 80.14070000 5.23870000
11.88570000 61.16020000 4.61280000
11.78980000 62.01460000 4.64910000
12.16870000 60.26440000 4.50560000
-9.10270000 -7.91080000 6.23100000
-9.49430000 -8.24580000 6.12780000
-9.81340000 -8.11820000 6.03200000
-23.22600000 -74.97340000 -0.29100000
-23.22430000 -74.23570000 -0.30940000
-23.14790000 -73.30250000 -0.27350000
-20.19070000 86.26100000 -8.02900000
-20.06810000 86.55210000 -8.08430000
-19.95230000 86.55430000 -8.11990000
-19.85090000 86.62590000 -8.14140000
20.00400000 6.44880000 -8.11840000
19.88300000 7.02870000 -8.14540000
19.76240000 7.39550000 -8.13920000
19.68120000 7.24070000 -8.11900000
24.44400000 -45.14400000 -2.80150000
24.48070000 -45.22430000 -2.66110000
24.49020000 -45.19470000 -2.51520000
24.51830000 59.98360000 -2.88880000
24.51310000 59.74440000 -2.90140000
24.54980000 59.21380000 -2.80460000
24.54150000 59.40020000 -2.85470000
14.05860000 -51.38740000 4.31570000
14.48850000 -50.58200000 4.11700000
14.91750000 -49.78080000 3.91070000
-11.63200000 -90.00170000 6.74940000
-11.23880000 -90.14520000 6.89300000
-10.87780000 -90.25860000 7.01060000
24.39730000 -44.30520000 -2.77480000
24.41290000 -44.06640000 -2.63040000
24.40580000 -43.91830000 -2.49890000
24.38630000 -43.76870000 -2.48440000
-26.02540000 -81.20220000 -2.66860000
-26.09480000 -81.19290000 -2.80490000
-26.13460000 -81.18080000 -2.92880000
-26.12830000 -81.03850000 -2.97020000
9.04760000 8.78230000 5.74450000
9.46840000 9.20540000 5.61240000
9.84300000 9.55240000 5.49210000
-24.63020000 79.69490000 -3.58710000
-24.57360000 79.88030000 -3.69710000
-24.49720000 79.92380000 -3.81000000
17.21080000 91.87210000 -6.40790000
17.39280000 91.89820000 -6.51100000
17.01210000 91.89770000 -6.26370000
-23.23870000 -87.10240000 0.37730000
-23.47610000 -86.88450000 0.17910000
-22.91460000 -87.23200000 0.61630000
24.06040000 -44.26030000 -1.81110000
24.24990000 -44.25300000 -1.99160000
24.34610000 -44.25000000 -2.16930000
-20.58960000 -32.52960000 -8.50440000
-20.68000000 -32.38230000 -8.49860000
-20.74300000 -32.18220000 -8.48680000
-13.59600000 -92.32970000 -4.21220000
-13.54500000 -92.24060000 -4.24700000
-13.70620000 -92.39830000 -4.17600000
-3.16450000 37.13760000 -1.11480000
-2.79220000 37.88870000 -1.08910000
-3.66800000 36.75560000 -1.16190000
-21.73630000 -28.99950000 0.28170000
-21.61140000 -28.53970000 0.37120000
-21.87900000 -29.30670000 0.18590000
1.91630000 1.01180000 7.26900000
1.88640000 1.73530000 7.26820000
1.64820000 2.21960000 7.28850000
1.89340000 0.39720000 7.28440000
2.07480000 0.03380000 7.27660000
-15.97050000 45.92840000 -5.68270000
-16.18410000 46.78810000 -5.83240000
-16.52850000 47.42030000 -6.07970000
20.28390000 -59.06250000 -7.75130000
20.42630000 -59.35520000 -7.64270000
20.54960000 -60.10730000 -7.52050000
24.20800000 7.32610000 -3.04200000
24.11790000 7.83830000 -3.13750000
24.05910000 8.82030000 -3.21460000
15.61450000 -77.62590000 -5.54920000
16.06620000 -77.52800000 -5.82970000
15.24950000 -77.33960000 -5.33120000
-13.48170000 -55.74870000 -3.70840000
-13.37260000 -56.65930000 -3.64330000
-13.35110000 -57.95840000 -3.61700000
-20.60900000 -31.60130000 1.06210000
-20.43320000 -31.00300000 1.16560000
-20.75000000 -32.24810000 0.97550000
13.66170000 -92.93460000 -4.23670000
13.59020000 -92.95500000 -3.96560000
13.77600000 -92.90590000 -4.46180000
23.69370000 4.95890000 -3.74390000
23.48100000 5.29770000 -4.06060000
23.31010000 6.17960000 -4.31090000
-8.18150000 -12.91880000 -1.66490000
-8.42210000 -13.82900000 -1.72700000
-8.39330000 -16.69610000 -1.70990000
-8.51950000 -15.21920000 -1.75260000
2.23510000 23.22320000 -1.16810000
2.31230000 23.42930000 -1.17540000
2.69980000 23.53920000 -1.21940000
2.91880000 25.09290000 -1.25290000
-25.58540000 -6.88190000 -3.75210000
-25.65660000 -6.71710000 -3.68430000
-25.70560000 -6.57080000 -3.62510000
-25.73600000 -6.55150000 -3.54890000
-10.57600000 -0.53000000 5.71020000
-10.54740000 0.73130000 5.70860000
-10.51580000 1.58010000 5.71720000
24.45490000 -39.90920000 -2.49240000
24.46520000 -39.78720000 -2.60510000
24.45050000 -39.79240000 -2.72690000
-14.55810000 -66.27140000 -4.19550000
-14.78840000 -65.46310000 -4.33240000
-15.08680000 -64.94720000 -4.52230000
-22.04470000 2.40770000 -0.17030000
-22.09700000 3.28410000 -0.21620000
-22.13020000 4.01080000 -0.25120000
-2.99040000 92.33900000 -0.31660000
-2.68100000 92.35760000 -0.20490000
-2.81700000 92.40450000 -0.00420000
-3.12830000 92.44120000 0.25030000
-20.43390000 46.68790000 0.49780000
-19.62120000 47.25100000 0.97660000
-20.95610000 46.37100000 0.16020000
-24.77300000 65.66800000 -3.22670000
-24.79200000 65.71790000 -3.31630000
-24.78520000 65.77410000 -3.42070000
-23.36540000 -89.26900000 -6.09150000
-22.97700000 -89.27520000 -6.48310000
-22.50460000 -89.02940000 -6.96270000
-3.83030000 92.20570000 -0.68850000
-3.69380000 92.18300000 -0.69170000
-3.81170000 92.27690000 -0.58710000
-3.54060000 92.28650000 -0.53710000
-3.72430000 92.32920000 -0.44480000
-3.50080000 92.34900000 -0.36280000
-18.58040000 42.83230000 -7.63390000
-18.33490000 42.57090000 -7.43690000
-18.07710000 41.96000000 -7.23070000
19.23000000 -55.91990000 1.66010000
19.55030000 -55.63260000 1.44820000
19.04170000 -57.31390000 1.78240000
19.06660000 -56.67800000 1.76960000
-13.65920000 -11.26090000 -3.90290000
-13.43530000 -10.20010000 -3.78390000
-13.96680000 -11.56030000 -4.07320000
-13.26070000 -9.27740000 -3.69480000
-3.63730000 91.97840000 -0.89490000
-3.57760000 92.07420000 -0.83010000
-3.56390000 92.16010000 -0.73070000
-3.40390000 92.20650000 -0.67580000
12.10480000 91.94490000 -3.69110000
11.94360000 91.92490000 -3.63560000
11.74640000 91.81380000 -3.58050000
-22.84720000 -91.42900000 -6.51870000
-22.95610000 -91.11020000 -6.43020000
-22.71170000 -91.79270000 -6.59660000
-22.70880000 -91.63840000 -6.62510000
-3.15900000 92.22990000 -0.63120000
-3.13530000 92.28390000 -0.51760000
-3.21580000 92.33010000 -0.38970000
3.30710000 9.01500000 7.03690000
3.43480000 10.31660000 7.00910000
3.42780000 7.92570000 7.02980000
23.05240000 92.10210000 -4.72260000
23.15040000 92.10770000 -4.57370000
22.89890000 92.13360000 -4.82830000
22.76280000 92.19930000 -4.84300000
12.44640000 92.30040000 -3.36860000
12.23940000 92.26870000 -3.40070000
12.10550000 92.22850000 -3.44410000
-12.30550000 92.68240000 3.74250000
-12.15770000 92.69820000 3.72000000
-11.91580000 92.71000000 3.66080000
-1.12450000 11.72020000 7.24250000
-0.65480000 11.57380000 7.26010000
-0.29120000 11.70970000 7.26130000
9.29100000 36.82800000 5.51140000
8.82230000 36.94660000 5.65990000
9.81820000 36.76340000 5.34010000
8.85780000 44.53380000 -2.68070000
8.50780000 46.43920000 -2.56940000
9.31560000 43.94460000 -2.83070000
-0.80490000 9.06150000 7.28420000
-0.87220000 8.37420000 7.28750000
-0.81670000 7.76020000 7.29820000
-20.54170000 34.35810000 -8.33110000
-20.40800000 34.22010000 -8.40770000
-20.26120000 33.82950000 -8.45660000
-20.30090000 34.11240000 -8.44970000
19.95890000 -42.58750000 -8.01210000
19.94710000 -41.98050000 -8.01380000
19.77630000 -40.88690000 -8.05280000
19.86550000 -41.31410000 -8.04460000
11.81110000 43.76810000 4.65070000
11.34100000 43.76200000 4.82240000
12.08770000 44.32220000 4.54670000
10.68960000 42.72740000 5.04440000
10.86280000 43.51240000 4.98640000
-19.95670000 33.13790000 -8.46450000
-19.83370000 33.24350000 -8.44620000
-20.09680000 33.22800000 -8.48360000
-19.98910000 33.44100000 -8.48160000
-20.22000000 33.34900000 -8.46920000
-20.20790000 33.51170000 -8.46340000
-3.35950000 12.07410000 -1.00810000
-3.02990000 11.27280000 -0.98330000
-2.46490000 9.81690000 -0.95170000
-2.59240000 10.82610000 -0.96050000
19.94450000 -41.58520000 -8.02590000
20.02460000 -41.49640000 -8.01170000
20.11320000 -41.42290000 -7.98250000
20.64600000 -93.18220000 -5.00630000
20.50130000 -93.19120000 -4.79660000
20.33020000 -93.17750000 -4.54430000
11.35860000 92.68490000 4.39700000
11.46640000 92.74100000 4.33490000
11.47930000 92.83800000 4.23440000
11.59500000 92.87940000 4.06730000
21.28550000 12.95570000 -6.95830000
21.61060000 13.55100000 -6.57340000
21.86040000 14.75900000 -6.27350000
10.67080000 41.81390000 5.05440000
10.34000000 41.22370000 5.16590000
10.00370000 40.45280000 5.27600000
-4.23480000 -71.64910000 -0.78260000
-3.92260000 -71.35410000 -0.74170000
-3.60630000 -71.71040000 -0.71810000
-3.21990000 -72.12790000 -0.69330000
-10.90610000 23.91180000 5.34050000
-11.20750000 24.81500000 5.22570000
-10.42700000 23.96550000 5.50880000
-10.23510000 24.78360000 5.56520000
-24.60980000 85.84880000 -3.21620000
-24.62170000 85.60910000 -3.14040000
-24.46200000 84.76560000 -2.92290000
-24.56160000 85.06880000 -3.02970000
-13.75880000 43.71780000 3.99970000
-12.98240000 43.11830000 4.35310000
-12.74960000 42.16210000 4.46470000
19.37970000 63.93340000 -7.97080000
19.12140000 64.01210000 -7.80700000
18.75000000 64.49690000 -7.55820000
-21.15260000 -59.00500000 -8.40900000
-21.27460000 -58.93390000 -8.34580000
-21.42070000 -58.87240000 -8.23930000
-10.55800000 22.61700000 5.46750000
-10.63490000 23.38720000 5.43880000
-10.40790000 21.89390000 5.52710000
11.58400000 -92.47400000 5.82450000
11.89830000 -92.33920000 5.74760000
11.13040000 -92.54060000 5.94510000
2.62180000 -51.54610000 -0.94090000
2.43540000 -50.57860000 -0.92390000
1.75770000 -50.67990000 -0.84910000
2.13610000 -50.12570000 -0.89360000
-20.98970000 -74.92930000 -8.42960000
-21.11140000 -75.08350000 -8.40390000
-21.19020000 -75.32040000 -8.37520000
19.59720000 64.70900000 -8.11420000
19.48560000 64.97770000 -8.04890000
19.10960000 64.92130000 -7.81160000
19.21060000 65.16010000 -7.87790000
-21.66780000 -56.98110000 -8.02880000
-21.76260000 -56.43560000 -7.94370000
-21.73820000 -55.43740000 -7.95210000
-21.68830000 -54.55760000 -7.99580000
10.62990000 -92.76490000 5.41860000
10.99250000 -92.73960000 5.51020000
