0.73450000 4.38830000 2.48690000
0.82590000 11.86230000 2.45500000
0.66450000 11.95220000 2.29060000
0.00400000 6.76210000 1.44520000
-0.02160000 6.68950000 1.38680000
-0.02040000 6.77920000 1.32230000
0.86470000 4.30470000 2.67380000
0.83610000 4.28010000 2.72350000
0.90550000 11.75620000 2.57850000
0.89810000 11.74960000 2.64360000
0.71890000 4.21800000 2.45900000
0.88460000 11.78730000 2.51980000
0.80980000 11.73810000 2.47750000
0.87950000 11.69500000 2.51590000
0.84380000 11.70110000 2.48360000
-0.02060000 6.77500000 1.25160000
-0.12730000 6.74310000 0.89540000
-0.07100000 6.64260000 1.05250000
0.66220000 11.87180000 2.82030000
-0.01360000 6.61080000 1.26180000
0.79950000 11.81850000 2.74530000
-0.01870000 6.47990000 1.34800000
0.53840000 11.86450000 2.87300000
-0.00460000 6.37940000 1.43860000
-0.12310000 6.31030000 0.92260000
0.24230000 4.27500000 3.00720000
0.22270000 11.86840000 2.96140000
0.27560000 11.83680000 2.98080000
0.20250000 11.83000000 2.91600000
0.30680000 11.62600000 2.97820000
-0.64770000 6.42640000 1.84030000
-1.06150000 8.56360000 0.14740000
-0.82500000 6.44290000 1.39580000
-1.07210000 8.50990000 0.04000000
0.85850000 11.87610000 2.72790000
-1.06550000 8.40040000 0.11060000
0.87250000 11.71930000 2.69880000
0.82490000 11.72340000 2.73760000
0.67050000 11.56200000 2.80180000
-0.76210000 6.26810000 1.56880000
0.76680000 11.64280000 2.75290000
0.89540000 11.59480000 2.63530000
0.79080000 11.49470000 2.72490000
0.18600000 3.98090000 2.98060000
-0.59720000 6.50250000 1.91820000
0.43020000 11.41320000 2.92110000
0.29130000 4.01070000 3.00440000
0.85670000 11.62400000 2.48810000
0.21740000 3.88820000 3.00130000
-0.73330000 6.04100000 1.64520000
0.89400000 11.58540000 2.55290000
0.85590000 11.57040000 2.51910000
0.87670000 11.46470000 2.65710000
0.83360000 11.52030000 2.54080000
0.89530000 11.49290000 2.60960000
0.87380000 11.42660000 2.58680000
0.47090000 4.56100000 2.23610000
0.44240000 4.55310000 2.17050000
-0.24170000 6.75380000 0.51380000
0.46350000 4.45450000 2.22360000
0.44150000 4.41990000 2.15880000
0.77500000 11.38170000 2.50200000
0.37810000 4.41280000 2.06200000
0.59040000 10.96040000 2.83890000
-0.20040000 6.60920000 0.61830000
0.47270000 4.30910000 2.17010000
0.41680000 11.16740000 2.93290000
0.49860000 4.35700000 2.23410000
0.56730000 4.27680000 2.28980000
0.40270000 4.20770000 2.07930000
-0.26860000 6.62340000 0.30110000
-0.22820000 6.45810000 0.56840000
-1.07470000 8.31930000 -0.00760000
0.31640000 4.01720000 1.95230000
-0.25400000 6.51080000 0.42560000
-1.05000000 8.26650000 0.10260000
0.62210000 4.13410000 2.33320000
0.54420000 4.13510000 2.26890000
0.69950000 4.02500000 2.41170000
0.61570000 3.99850000 2.33950000
0.50460000 4.05140000 2.20610000
-0.21390000 6.08870000 0.63930000
0.59150000 3.90490000 2.30450000
0.48110000 3.89430000 2.17900000
-0.87040000 6.21060000 1.24930000
0.44050000 3.61090000 2.12530000
0.52650000 3.64430000 2.22520000
-0.80690000 6.28380000 1.41820000
0.08350000 8.70610000 -1.97470000
0.66820000 11.12590000 2.40550000
0.50760000 11.00150000 2.23740000
0.58480000 11.27280000 2.31610000
0.84710000 11.26320000 2.68700000
0.88890000 11.33130000 2.63860000
-0.00970000 8.84190000 -1.75500000
0.11710000 6.06190000 1.67020000
0.87880000 11.25880000 2.59860000
0.81170000 11.19900000 2.54550000
0.87960000 11.09340000 2.65640000
-0.02510000 8.77360000 -1.67940000
0.88380000 10.95880000 2.63280000
-0.02010000 6.03680000 1.29050000
0.83470000 4.21820000 2.61090000
-0.01810000 6.17300000 1.37620000
0.85890000 4.19930000 2.68770000
0.83110000 4.08680000 2.71040000
0.78640000 4.03910000 2.75200000
0.80300000 10.95050000 2.72110000
0.78630000 3.99660000 2.52630000
0.83990000 4.12650000 2.64840000
0.81210000 4.05010000 2.60690000
0.82300000 4.03560000 2.68140000
0.85840000 10.96830000 2.58630000
0.20280000 6.09080000 1.81470000
0.70300000 10.76310000 2.44830000
0.81760000 3.93820000 2.73460000
0.84480000 3.88970000 2.68580000
0.82570000 3.89610000 2.60760000
0.83630000 3.68280000 2.72820000
-0.06650000 8.53840000 -1.58070000
0.85770000 3.75790000 2.71040000
0.87120000 10.80900000 2.66110000
0.26040000 3.74700000 3.00940000
0.86410000 10.81680000 2.59940000
0.33920000 3.58420000 2.97920000
0.85640000 10.74780000 2.68530000
0.83590000 10.67000000 2.57050000
0.81330000 10.66980000 2.71760000
0.87990000 10.66400000 2.61950000
0.88230000 10.69320000 2.64860000
0.85100000 10.55010000 2.69020000
0.86150000 10.49120000 2.59850000
-0.15240000 5.67290000 0.90410000
0.23120000 3.53220000 3.00340000
0.74970000 3.42560000 2.76640000
0.80170000 10.45240000 2.55300000
0.20740000 11.76290000 2.94260000
0.24070000 11.72730000 2.96950000
0.16640000 11.72130000 2.86370000
0.73270000 3.76630000 2.46080000
0.84690000 3.73490000 2.59890000
0.11550000 11.63700000 2.82250000
0.00170000 5.77860000 1.43990000
0.16790000 11.61780000 2.86510000
-0.60780000 8.65460000 -2.30410000
0.26320000 11.58360000 2.98060000
0.21750000 11.62290000 2.95320000
0.53400000 3.74030000 2.25340000
0.16180000 11.49390000 2.87090000
0.64620000 3.72200000 2.35070000
0.60990000 3.63670000 2.33030000
0.18720000 11.39780000 2.92880000
0.07900000 11.52140000 2.78780000
0.70140000 3.60890000 2.41820000
0.05330000 11.45170000 2.74920000
-0.05750000 11.40720000 2.63550000
-0.07340000 11.31100000 2.64710000
0.14500000 11.38930000 2.86070000
0.06400000 11.35930000 2.79630000
-0.05750000 11.22540000 2.68010000
0.87310000 3.71880000 2.65770000
0.23040000 11.44850000 2.96630000
0.29150000 11.37990000 2.98090000
0.82900000 3.62840000 2.55350000
0.25790000 11.28780000 2.98670000
0.74690000 3.57220000 2.47940000
0.87160000 3.63230000 2.61720000
-0.68110000 6.03210000 1.74230000
0.82770000 3.42290000 2.53350000
0.88510000 3.63670000 2.68860000
0.22010000 11.11530000 2.97140000
0.90690000 3.58400000 2.62840000
-0.64640000 6.01000000 1.84350000
0.92710000 3.54490000 2.66390000
0.12230000 10.88230000 2.88330000
0.93240000 3.49470000 2.62000000
0.91970000 3.42440000 2.59840000
0.71520000 3.38700000 2.42780000
0.55380000 3.43980000 2.26090000
0.62160000 3.21420000 2.32890000
0.31640000 11.11220000 2.98230000
-0.89980000 5.91090000 1.15100000
-0.81470000 5.86370000 1.41750000
-0.86180000 5.73080000 1.20970000
-0.89680000 5.75380000 1.13620000
-0.09920000 11.33780000 2.59130000
-0.85630000 5.57650000 1.27150000
0.17360000 3.40490000 2.96760000
-0.44070000 6.08160000 2.18120000
-0.29210000 10.78350000 2.39440000
-0.48090000 5.97090000 2.13830000
-0.56400000 5.81930000 1.99080000
-0.67160000 5.63850000 1.76910000
0.29090000 3.41450000 3.00290000
0.23190000 3.29900000 3.00140000
0.21280000 3.15750000 2.99410000
0.58780000 2.93590000 2.84970000
0.28710000 3.11040000 2.99960000
-0.66950000 5.49310000 1.79310000
0.17300000 3.78440000 1.72570000
0.30290000 3.75670000 1.93670000
-0.80440000 5.59550000 1.44890000
-0.68410000 5.63510000 1.71330000
0.26430000 10.95040000 2.99480000
0.22690000 10.83280000 2.98670000
0.28890000 10.84420000 2.99260000
0.25050000 10.72170000 2.99770000
0.31110000 10.67290000 2.98610000
-0.86010000 5.55940000 1.16670000
-0.85430000 5.34770000 1.30370000
-0.71100000 5.53170000 1.67550000
0.20790000 10.64900000 2.97180000
0.33710000 3.48830000 1.96980000
0.72730000 10.25180000 2.77010000
0.21710000 3.35410000 1.78990000
0.28470000 10.49090000 2.99480000
-0.28790000 6.32350000 0.21520000
0.24330000 10.45510000 2.99750000
-0.27120000 6.34460000 0.38140000
0.17850000 10.28060000 2.95260000
-0.30170000 6.05320000 -0.13330000
-0.24900000 6.03760000 0.49480000
0.24180000 10.23950000 3.00040000
0.20820000 10.12130000 2.98590000
-0.27200000 5.66110000 0.40840000
-0.29890000 5.73180000 -0.01450000
0.87990000 10.53430000 2.65570000
0.88250000 10.45380000 2.63720000
0.87500000 10.40060000 2.66930000
0.87130000 10.34280000 2.60860000
0.08870000 2.34080000 1.53200000
0.84780000 10.27180000 2.69810000
-1.05040000 5.68640000 0.33710000
0.88380000 10.23960000 2.65140000
0.88340000 10.13750000 2.63250000
-1.03900000 5.43880000 0.48890000
0.86700000 10.09670000 2.60100000
0.47500000 3.32520000 2.15190000
0.86970000 10.06510000 2.67930000
0.33400000 3.27040000 1.96440000
0.24570000 2.86910000 1.82540000
0.28280000 10.10060000 2.99400000
0.25050000 10.00110000 2.99660000
0.31310000 2.86880000 1.93780000
0.48290000 3.18370000 2.17500000
0.28900000 9.79550000 2.98350000
0.21410000 9.86340000 2.98660000
0.52990000 3.04480000 2.22780000
0.42310000 2.93070000 2.07950000
0.30740000 10.84550000 1.99300000
0.15390000 10.82950000 1.76230000
0.23440000 11.20340000 1.86020000
0.13570000 11.08400000 1.72550000
-0.03920000 10.80970000 1.40230000
0.06920000 10.85960000 1.62230000
-1.06900000 5.80950000 -0.04570000
-1.05960000 5.75280000 0.02410000
-1.06670000 5.55200000 0.09230000
0.41230000 2.74890000 2.06940000
-1.05910000 5.60100000 0.21950000
-1.05420000 5.54000000 -0.01360000
-1.03490000 5.54750000 0.31240000
-1.04330000 5.49030000 0.36580000
-1.05890000 5.44160000 0.21610000
0.34470000 2.42000000 1.97300000
-0.23320000 5.66030000 0.63140000
0.20370000 2.09400000 1.73960000
-0.29600000 5.47280000 0.15740000
0.93060000 3.43000000 2.67490000
0.94050000 3.37090000 2.62600000
0.91190000 3.30980000 2.68740000
0.94390000 3.24130000 2.64900000
-0.19980000 5.44760000 0.82270000
-0.07090000 5.53700000 1.19180000
-0.11100000 5.45980000 1.13450000
0.91590000 3.22580000 2.59120000
0.87340000 3.03690000 2.56020000
0.77740000 3.11010000 2.48920000
0.93760000 3.20420000 2.61390000
0.91800000 3.16970000 2.68660000
0.93910000 3.10740000 2.66230000
0.93780000 3.08890000 2.61910000
0.94450000 3.00290000 2.62720000
-0.54250000 10.26010000 1.99170000
-0.26080000 5.37340000 0.54860000
0.90650000 3.02780000 2.68870000
0.78860000 3.02570000 2.51030000
0.77910000 2.94470000 2.48610000
0.84050000 2.72150000 2.52700000
0.94330000 2.95020000 2.65680000
0.93610000 2.89320000 2.60740000
0.92110000 2.88700000 2.68130000
0.94610000 2.83740000 2.63460000
0.86920000 2.73640000 2.70540000
0.93940000 2.79020000 2.66250000
0.92860000 2.75270000 2.59530000
0.93940000 2.64630000 2.66160000
0.94690000 2.70070000 2.62650000
0.85620000 2.33820000 2.70950000
-0.66550000 10.39580000 1.72630000
0.33060000 1.98730000 2.97630000
-0.61740000 10.30820000 1.85860000
-0.66360000 10.26180000 1.74560000
0.63530000 2.87350000 2.33070000
-0.74270000 10.19950000 1.59960000
-0.67570000 10.15070000 1.77150000
0.69360000 2.66310000 2.38850000
-0.76900000 10.10080000 1.51520000
-0.72900000 9.98100000 1.63470000
-0.67660000 10.00060000 1.74820000
0.48530000 2.51140000 2.16220000
0.92990000 2.60030000 2.59610000
-0.92010000 5.46960000 1.07280000
0.92330000 2.47390000 2.67620000
0.92250000 2.47960000 2.58920000
0.85260000 2.37050000 2.53360000
0.52080000 2.30920000 2.18540000
-1.05620000 5.20300000 0.26880000
-0.89210000 5.51610000 1.12550000
0.28560000 2.27220000 1.87230000
-0.84910000 5.41380000 1.22090000
-0.87390000 5.39680000 1.16570000
0.41910000 2.21910000 2.06710000
-0.88710000 5.29270000 1.18800000
0.27390000 2.08120000 1.85830000
0.37200000 1.92330000 1.99150000
0.94830000 2.54460000 2.62880000
0.94670000 2.44500000 2.64830000
0.94680000 2.37800000 2.61630000
0.93690000 2.31010000 2.60480000
0.94030000 2.29090000 2.66340000
0.70230000 1.81110000 2.79000000
0.92430000 2.16200000 2.59000000
0.93220000 2.17850000 2.67190000
0.95130000 2.19550000 2.63720000
0.69120000 1.54470000 2.35710000
0.85220000 1.73100000 2.52720000
0.95340000 2.12240000 2.63580000
0.90430000 2.11030000 2.69000000
0.94200000 2.08370000 2.66580000
0.93680000 2.04850000 2.60070000
0.95180000 2.01840000 2.63220000
0.92610000 1.99250000 2.67870000
0.94710000 1.92560000 2.65640000
0.95140000 1.91390000 2.62070000
0.93580000 1.80690000 2.59530000
0.92690000 1.78330000 2.68560000
0.95800000 1.78730000 2.64530000
0.85810000 1.62580000 2.71510000
0.93850000 1.65560000 2.59900000
0.52600000 1.38390000 2.16670000
-0.18190000 1.56080000 0.73080000
-0.25120000 0.94680000 -0.17170000
-0.11300000 1.15620000 0.97700000
-1.04250000 1.52550000 -0.24880000
-1.04460000 4.82140000 0.41330000
-1.05980000 4.95170000 0.20170000
-1.03500000 4.74000000 0.37170000
-1.03830000 1.63520000 -0.37190000
-1.00510000 1.89960000 -0.85630000
-0.97280000 1.93820000 -0.97840000
-0.99150000 1.81820000 -0.94770000
0.29220000 5.76020000 1.96340000
0.17990000 5.55940000 1.77560000
-0.99620000 0.97260000 -0.86000000
0.37510000 5.66130000 2.12450000
-1.02510000 1.37480000 -0.62160000
0.34120000 5.56970000 2.05860000
0.34160000 5.52440000 2.03430000
-0.00810000 5.49970000 1.40240000
0.63180000 5.54970000 2.36800000
0.06580000 1.50770000 1.45930000
-0.19950000 -1.19560000 0.27890000
0.15580000 1.92660000 2.94040000
0.21700000 1.61970000 2.98920000
0.24390000 1.94180000 2.99890000
-1.02490000 1.54510000 0.24480000
-1.03060000 0.79140000 0.13700000
-1.02470000 1.65160000 0.32630000
-0.94590000 1.42910000 0.85690000
0.27010000 1.74580000 2.99880000
-0.51970000 0.54090000 1.97430000
-0.50050000 0.00280000 2.01320000
-0.52500000 0.72110000 1.99270000
-1.02140000 1.01110000 0.27880000
-0.77780000 0.58230000 1.41310000
-0.79160000 0.26280000 1.34450000
-0.70310000 0.66110000 1.61980000
-0.99510000 1.09850000 0.53880000
-0.68190000 -0.37110000 1.63550000
-0.40200000 0.61310000 2.20040000
-1.00980000 1.05060000 0.43790000
-0.54790000 0.60290000 1.92690000
-0.55950000 0.22590000 1.90730000
0.13630000 2.97270000 2.92570000
-0.51630000 0.15690000 1.96240000
0.35460000 1.05960000 2.97840000
-0.62050000 0.50820000 1.80310000
-1.00360000 0.96510000 0.35520000
-0.99890000 0.57420000 0.36570000
-0.99080000 0.31950000 0.50700000
0.18310000 1.35500000 2.96230000
0.27470000 1.44800000 3.00250000
0.01430000 0.71920000 2.76740000
0.23840000 1.12200000 2.99730000
0.29530000 1.12310000 3.00210000
-0.43820000 2.71830000 2.18620000
-1.03000000 0.95210000 0.05610000
0.35770000 1.44490000 1.94820000
0.24260000 1.70560000 1.78970000
-1.03730000 0.87870000 -0.07700000
-1.02170000 1.28860000 -0.47580000
-1.03500000 1.20640000 -0.46020000
-1.04080000 1.33350000 -0.39050000
-1.03390000 0.81460000 -0.30040000
-1.02180000 0.77340000 -0.56990000
-0.57020000 2.75910000 1.94980000
-1.02710000 0.75880000 -0.40000000
-0.17420000 -1.06910000 0.51030000
-0.13390000 -1.29220000 0.70780000
-1.01860000 0.65380000 -0.33280000
-1.00910000 0.44220000 0.30020000
-0.86550000 0.82590000 1.14360000
-0.87800000 1.00870000 1.07830000
-0.89820000 0.64900000 0.99930000
0.20690000 1.23470000 1.71900000
-0.84340000 0.62210000 1.15070000
-0.83580000 0.66480000 1.21580000
-0.83020000 0.36700000 1.23460000
-0.79360000 0.69530000 1.31060000
-0.85400000 0.52230000 1.06630000
-0.89580000 0.45340000 0.99250000
-0.86430000 0.42220000 1.11410000
-0.58430000 1.85150000 1.91080000
-0.70440000 1.91100000 1.66060000
-0.64750000 1.47620000 1.77080000
-0.89350000 -0.06720000 0.99160000
-0.45870000 1.58210000 2.12910000
-0.58570000 1.38410000 1.89540000
-0.78290000 1.64470000 1.44460000
-0.68630000 1.15140000 1.68020000
-0.94320000 -0.55470000 0.72110000
-0.60500000 1.41630000 1.82930000
-0.62600000 1.18210000 1.80360000
-0.49190000 1.11830000 2.05410000
-0.47160000 1.25570000 2.09980000
-0.40710000 1.10500000 2.20790000
-0.44550000 1.12160000 2.11910000
-0.22020000 0.75960000 2.47490000
-0.58620000 1.23000000 1.87680000
-0.48170000 0.96140000 2.07660000
-0.48850000 2.30880000 2.09280000
-0.38920000 2.21060000 2.24820000
-0.37950000 2.03650000 2.26220000
-0.46060000 2.24760000 2.11990000
-0.41410000 2.18180000 2.16380000
-0.02530000 0.78260000 1.21660000
-0.51110000 2.10970000 2.04310000
-0.49270000 2.17540000 2.05380000
-0.68960000 2.15390000 1.69570000
-1.03330000 0.37140000 -0.21790000
0.23200000 2.97420000 3.00080000
0.18980000 2.85750000 2.97810000
0.27200000 2.82900000 3.00130000
-0.80860000 1.44780000 1.34480000
-0.78910000 1.28210000 1.40040000
0.22650000 2.68820000 2.99740000
-0.79260000 1.28460000 1.32650000
-0.82280000 1.39500000 1.27790000
-0.79440000 1.16210000 1.32390000
-0.84090000 1.20500000 1.23500000
-0.74820000 1.22350000 1.51590000
-0.99380000 0.09080000 0.40640000
0.17600000 2.52720000 2.96390000
-0.76940000 1.05790000 1.45450000
-0.87940000 1.45840000 1.12430000
0.28420000 2.33150000 2.99590000
0.25330000 2.51110000 3.00260000
-0.81830000 0.95140000 1.26790000
-0.78650000 0.92520000 1.35570000
-0.78250000 2.07330000 1.44280000
-0.99880000 -0.29540000 0.33760000
-0.99020000 -0.12010000 0.34630000
-0.68070000 0.89500000 1.67520000
-0.87470000 1.91340000 1.15030000
-0.77870000 1.96520000 1.41920000
-0.82910000 1.90260000 1.24760000
-0.81030000 1.85740000 1.34700000
-0.61990000 0.79510000 1.81410000
-0.63970000 0.84780000 1.72790000
-0.11330000 -0.21220000 0.88180000
0.22850000 2.23310000 2.99490000
0.19330000 2.07150000 2.97570000
-0.06590000 0.09930000 1.05890000
0.06630000 -0.27690000 1.38290000
-0.79660000 0.39890000 1.29270000
0.26790000 0.79050000 1.79440000
0.12480000 0.62610000 1.54240000
0.43980000 -0.00090000 2.02670000
-0.42450000 0.71300000 2.15210000
-0.18030000 -3.10670000 -0.12120000
-1.02850000 1.41420000 -0.52410000
-0.79800000 -0.47670000 1.29890000
-0.64550000 0.74480000 1.73000000
-0.04560000 4.45010000 -3.10840000
-0.86380000 1.74130000 -1.51400000
-0.10650000 4.45160000 -3.09290000
0.67770000 0.50340000 -2.75030000
0.69960000 0.59150000 -2.80450000
0.60650000 0.61850000 -2.66790000
0.68920000 0.68630000 -2.77200000
0.70130000 0.46680000 -2.79580000
0.68880000 0.46020000 -2.83540000
0.65310000 0.39130000 -2.85890000
0.67610000 0.68930000 -2.84110000
0.53780000 0.06450000 -2.57530000
0.69890000 0.25980000 -2.78090000
0.13800000 3.70180000 -3.03680000
0.67190000 0.20450000 -2.73920000
-0.61320000 1.87940000 -2.22830000
-0.67020000 1.88670000 -2.08580000
-0.09140000 4.25970000 -3.10610000
-0.04460000 4.16570000 -3.10920000
-0.11620000 1.43580000 -3.05530000
-0.13980000 2.20210000 -3.03700000
-0.09120000 1.70390000 -3.08050000
0.12100000 1.65970000 -3.04200000
-0.03710000 1.70750000 -3.09140000
-0.00290000 2.07140000 -3.08230000
0.55960000 0.01730000 -2.89280000
0.49560000 1.18280000 -2.91260000
-0.01480000 1.41740000 -3.08770000
0.57500000 1.95390000 -2.88000000
0.35540000 2.36120000 -2.95680000
0.62810000 1.78380000 -2.86440000
-0.92060000 1.79400000 -1.29720000
0.65390000 1.65520000 -2.85330000
-0.06310000 4.01490000 -3.11170000
-0.11730000 3.91260000 -3.08310000
-0.00570000 -0.09700000 -3.08200000
-0.04430000 0.01820000 -3.08800000
0.00420000 0.51520000 -3.08190000
-0.08510000 2.23830000 -3.08980000
-0.09820000 2.50900000 -3.08270000
-0.04550000 2.49710000 -3.09420000
-0.33470000 2.02350000 -2.75790000
-0.17670000 3.19560000 -3.00030000
0.09090000 -0.22020000 -3.04840000
-0.06020000 2.11860000 -3.09520000
-0.09670000 2.08520000 -3.08020000
-0.08860000 3.77370000 -3.10150000
-0.03800000 3.76250000 -3.10530000
-0.34710000 0.35790000 -2.70630000
-0.39010000 1.67650000 -2.65890000
0.70200000 0.30800000 -2.81450000
-0.48220000 1.58400000 -2.49100000
-0.44670000 1.63100000 -2.53610000
0.68280000 0.14620000 -2.84410000
-0.06060000 1.92690000 -3.09230000
-0.46180000 1.15480000 -2.53160000
0.69360000 -0.03120000 -2.76410000
0.70630000 0.05560000 -2.80880000
-0.10140000 3.53750000 -3.09290000
-0.06050000 3.57340000 -3.10950000
0.67700000 2.62170000 -2.81190000
0.66310000 2.73130000 -2.77310000
0.67020000 2.48760000 -2.77940000
0.54660000 2.51180000 -2.62250000
0.66990000 2.50780000 -2.83070000
0.64470000 2.56620000 -2.85220000
0.69240000 -0.03170000 -2.83250000
0.70570000 -0.08410000 -2.79970000
0.52870000 3.94200000 -2.89170000
0.68460000 -0.15490000 -2.84080000
0.63650000 2.42300000 -2.85470000
0.67820000 2.40150000 -2.81800000
0.64970000 3.97990000 -2.84140000
0.61620000 3.94250000 -2.86250000
0.66470000 3.92400000 -2.80280000
0.65920000 3.88030000 -2.82820000
0.65600000 2.29990000 -2.84330000
0.67610000 2.30040000 -2.78960000
-0.07700000 1.48150000 -3.08550000
0.58350000 3.63120000 -2.87270000
0.62880000 3.84500000 -2.85570000
0.67620000 2.22730000 -2.82270000
0.67360000 2.19720000 -2.77700000
0.64840000 2.09560000 -2.73840000
0.66300000 3.79460000 -2.79160000
0.41320000 2.96560000 -2.93780000
0.65610000 3.77970000 -2.83540000
0.64410000 2.15530000 -2.85200000
0.66810000 2.11740000 -2.83070000
-0.17200000 0.88290000 -2.97410000
0.66160000 3.69630000 -2.79540000
0.67920000 2.08190000 -2.79730000
0.64180000 3.66440000 -2.84890000
0.65780000 3.52340000 -2.77980000
0.66860000 3.63530000 -2.81520000
0.64920000 3.50930000 -2.84150000
-0.04700000 1.30960000 -3.09450000
-0.07090000 1.21690000 -3.09030000
0.17130000 -1.01240000 -3.02770000
-0.01930000 1.00440000 -3.08920000
-0.09870000 0.99830000 -3.06760000
0.34860000 1.03290000 -2.33870000
-0.05890000 1.02360000 -3.08660000
0.63420000 -0.19590000 -2.68970000
0.71080000 -0.23630000 -2.80150000
0.70280000 -0.28260000 -2.76940000
0.69050000 -0.39270000 -2.75050000
-0.09640000 0.33350000 -3.06100000
0.66280000 1.45950000 -2.84920000
0.68100000 1.62120000 -2.82590000
0.66420000 -0.67220000 -2.71840000
0.68760000 1.46550000 -2.81190000
0.67550000 1.62330000 -2.76900000
0.66920000 1.42100000 -2.75490000
0.67550000 -0.29730000 -2.84820000
0.61050000 -0.72000000 -2.87370000
0.69130000 1.30880000 -2.78820000
0.68550000 1.25250000 -2.82170000
0.65080000 1.21180000 -2.85340000
0.66060000 -0.56950000 -2.85660000
0.66770000 3.44880000 -2.81480000
0.71230000 -0.33350000 -2.81140000
0.71350000 -0.40090000 -2.78960000
0.70210000 -0.41130000 -2.83000000
0.70790000 -0.50670000 -2.82040000
0.64190000 3.38000000 -2.85110000
0.71090000 -0.57840000 -2.78140000
0.56010000 1.29520000 -2.61920000
0.67790000 1.20150000 -2.76180000
-0.02900000 3.35180000 -3.09810000
0.69790000 -0.76450000 -2.83440000
-0.06830000 3.35710000 -3.10920000
-0.09640000 3.28840000 -3.09540000
0.62770000 0.90990000 -2.69750000
0.69300000 1.12940000 -2.81380000
0.71260000 -0.73120000 -2.79410000
0.69240000 1.09030000 -2.78420000
0.68770000 -0.96140000 -2.74360000
-0.11290000 3.01880000 -3.07440000
0.71310000 -0.86570000 -2.79600000
0.67630000 1.05390000 -2.83930000
0.68470000 0.93070000 -2.76730000
-0.04800000 3.14190000 -3.09960000
0.69630000 0.96760000 -2.80620000
-0.07350000 2.85880000 -3.09690000
0.08120000 0.04040000 -1.80090000
-0.01900000 2.85170000 -3.08950000
0.65160000 0.93270000 -2.85430000
0.68360000 0.86590000 -2.83220000
0.69660000 0.78530000 -2.80020000
0.66090000 3.35540000 -2.78070000
0.63780000 3.14390000 -2.74830000
0.50900000 2.17070000 -2.56940000
0.66980000 3.32620000 -2.81150000
0.61740000 3.25170000 -2.86430000
0.16610000 -1.27280000 -1.95100000
0.66680000 3.24900000 -2.82790000
0.64710000 3.13060000 -2.84920000
0.67090000 3.12250000 -2.79420000
0.65710000 2.98770000 -2.76960000
0.61620000 2.93270000 -2.86830000
0.43960000 1.59220000 -2.47290000
0.59170000 1.72520000 -2.66490000
0.66340000 3.02280000 -2.83930000
-0.06330000 0.75330000 -3.08790000
0.67530000 2.98630000 -2.80930000
0.66930000 2.87670000 -2.83070000
0.67240000 2.74810000 -2.82040000
0.65840000 1.99830000 -2.82350000
0.66890000 2.00390000 -2.77120000
0.65310000 1.86850000 -2.74820000
0.66480000 1.88930000 -2.79030000
0.65320000 1.88540000 -2.83540000
0.68390000 1.74180000 -2.82250000
0.68730000 1.70100000 -2.79610000
-0.04850000 0.33620000 -3.08910000
-0.50410000 1.88010000 -2.45930000
-0.42660000 1.87230000 -2.59920000
0.64140000 2.68960000 -2.85760000
-0.07370000 -0.29410000 -3.06770000
-0.53510000 1.21790000 -2.37930000
-0.57350000 3.46750000 -2.33780000
-0.51150000 1.02090000 -2.41000000
-0.58320000 1.00940000 -2.27690000
-0.59130000 0.70260000 -2.24650000
-0.65850000 0.96690000 -2.08960000
-0.56880000 3.34670000 -2.32550000
-0.58690000 3.22690000 -2.30980000
-0.43830000 0.30150000 -2.54690000
-0.53530000 0.71380000 -2.35290000
0.28110000 -0.65690000 -2.19150000
-0.60020000 0.38100000 -2.21220000
-0.58420000 2.73840000 -2.31400000
-0.66170000 0.68200000 -2.05200000
-0.68120000 0.35890000 -2.02870000
-0.71940000 1.02520000 -1.94860000
-0.75380000 -0.24130000 -1.79520000
-0.63340000 0.55460000 -2.15030000
-0.93590000 0.12650000 -1.14950000
-0.65630000 0.40110000 -2.06050000
-0.46660000 -1.52370000 -2.43350000
-0.58890000 -1.06840000 -2.19810000
-0.62400000 0.40770000 -2.11040000
-0.66630000 -1.35270000 -1.99620000
0.09230000 -2.52030000 -1.72010000
-0.11750000 -0.41590000 -3.01950000
0.43960000 -4.09210000 -2.36660000
0.59530000 -1.93780000 -2.61360000
-0.51000000 2.26560000 -2.44700000
-0.02570000 -0.44740000 -3.08370000
0.01630000 -0.64620000 -3.07620000
-0.05030000 -0.62110000 -3.08150000
-0.84190000 -1.11740000 -1.46080000
-0.25470000 -1.64540000 -2.80070000
-0.02460000 -0.84310000 -3.08520000
-0.06710000 -0.84560000 -3.06630000
0.42420000 -1.29380000 -2.94760000
0.02400000 -1.02680000 -3.07470000
-0.09410000 -1.39150000 -3.02970000
-0.05960000 -1.06950000 -3.07110000
-0.01840000 -1.13100000 -3.08420000
0.01170000 -1.36850000 -3.08030000
-0.04760000 -1.41040000 -3.07310000
0.66940000 -0.99820000 -2.85040000
0.70030000 -0.98200000 -2.82400000
0.64680000 -1.41880000 -2.86360000
0.56670000 -1.66310000 -2.89860000
-0.52750000 -1.32720000 -2.30990000
0.12580000 -2.28010000 -3.05350000
0.01250000 -1.68980000 -3.08480000
-0.04490000 -1.70370000 -3.07520000
-1.01130000 -0.72700000 -0.26320000
-1.02550000 -0.17010000 -0.19200000
-1.00880000 -0.62880000 -0.36660000
-1.01320000 -0.30310000 -0.54490000
-1.00240000 -0.69070000 -0.43650000
-1.00730000 -0.87120000 -0.48690000
-0.98910000 -0.73790000 -0.35940000
-1.00840000 -0.86910000 -0.34600000
-0.98690000 -0.49500000 -0.79350000
-1.00120000 -1.23490000 0.03460000
-1.00930000 -1.19870000 -0.20600000
-1.02540000 0.41960000 -0.43440000
-1.01960000 0.42270000 -0.35550000
-0.99410000 -1.15960000 -0.55410000
-0.98100000 -1.26000000 -0.67860000
-0.96570000 -1.33530000 -0.83970000
-1.00360000 -1.25180000 -0.40560000
-0.98140000 -1.25550000 -0.47530000
-0.96750000 -1.31020000 -0.60310000
-0.97620000 -1.35920000 -0.47640000
-0.97730000 -1.37480000 -0.58680000
-0.96090000 -1.38390000 -0.74840000
-0.98080000 -1.57470000 -0.69130000
-0.95880000 -0.95990000 0.54490000
-0.98790000 -0.77720000 0.35950000
-0.93920000 -2.96870000 -0.87040000
-0.94850000 -1.17190000 0.53090000
-0.99940000 -0.99080000 0.15230000
-0.85330000 -3.38400000 -1.28300000
-0.53120000 -1.78940000 -2.28520000
0.95800000 1.62880000 2.65220000
0.92650000 1.57750000 2.68360000
0.95490000 1.52210000 2.62050000
0.92430000 -2.16070000 2.76190000
0.48260000 -1.68000000 2.95510000
0.68340000 -2.72050000 2.87730000
0.87630000 -1.39230000 2.77020000
0.35900000 -0.70340000 2.99450000
0.94530000 1.49390000 2.67050000
0.24600000 -1.10180000 2.99300000
0.29150000 -1.23650000 3.01320000
0.32330000 -1.09200000 3.01430000
0.33950000 -1.35840000 3.01240000
0.38610000 -2.67970000 3.00930000
0.34640000 -2.17080000 3.01990000
0.83880000 1.06930000 2.50040000
0.94110000 1.42330000 2.59610000
-0.14650000 -2.67450000 2.52300000
0.93500000 -2.68860000 2.55190000
0.72340000 -0.63040000 2.35930000
0.96650000 -1.95840000 2.58960000
1.01890000 -2.17880000 2.64190000
1.02620000 -2.01090000 2.65520000
1.03320000 -2.09110000 2.67230000
0.96430000 1.43870000 2.64200000
1.02890000 -2.13430000 2.69870000
0.82530000 -4.08020000 2.42820000
0.94410000 1.38320000 2.67400000
-0.46220000 -0.85210000 2.06120000
-0.31800000 -1.02210000 2.29320000
-0.36080000 -0.53630000 2.24350000
-0.22800000 -1.77160000 2.42230000
0.86380000 1.18170000 2.72130000
0.96330000 1.33910000 2.63430000
0.95350000 1.24960000 2.60820000
-0.28270000 -1.50860000 2.33520000
-0.00440000 -0.77370000 1.18100000
0.22320000 -1.58240000 2.97100000
0.09380000 -1.47910000 2.83320000
1.03480000 -2.22500000 2.68860000
1.01250000 -2.21620000 2.71610000
1.03260000 -2.30500000 2.65920000
1.01960000 -2.44690000 2.63790000
1.02940000 -2.36150000 2.70440000
0.91930000 -2.53790000 2.77040000
1.02390000 -2.52890000 2.71760000
1.04290000 -2.50460000 2.68270000
1.03880000 -2.59470000 2.67000000
1.02290000 -2.69210000 2.63800000
0.21250000 -1.99400000 1.61160000
0.96170000 1.27220000 2.65410000
0.93200000 1.22990000 2.68450000
0.96670000 1.18080000 2.64120000
0.95820000 1.09640000 2.66700000
0.95730000 1.08260000 2.60960000
0.95810000 0.88010000 2.60110000
0.94880000 0.95880000 2.68050000
0.97380000 0.95960000 2.63650000
0.96690000 0.88340000 2.66730000
0.17230000 -4.02510000 2.91040000
0.21130000 -2.59290000 2.95460000
0.31480000 -2.65000000 3.02130000
0.27050000 -2.16340000 3.00460000
0.91010000 0.79130000 2.70550000
0.79890000 0.43290000 2.76660000
0.91620000 0.55500000 2.56290000
1.01440000 -1.32080000 2.67510000
0.99030000 -1.30530000 2.71010000
1.00620000 -1.44350000 2.69820000
1.00440000 -1.37900000 2.63650000
1.00260000 -1.57190000 2.70900000
1.02100000 -1.55120000 2.65680000
0.21160000 0.87390000 2.98110000
0.90120000 -1.71810000 2.76480000
0.28600000 0.81910000 3.00560000
0.18660000 0.59570000 2.95850000
0.92780000 -0.85660000 2.56600000
1.00460000 -1.74460000 2.63110000
1.02290000 -1.63790000 2.68580000
1.00100000 -1.79800000 2.71820000
1.02540000 -1.71280000 2.66740000
0.32680000 -1.59610000 1.82200000
0.22890000 0.09530000 1.70450000
0.40670000 -4.72250000 1.89360000
0.42650000 -1.40210000 1.97690000
0.30000000 -4.92250000 1.71470000
0.27340000 -1.46310000 3.00470000
0.37930000 0.51800000 2.96870000
0.36380000 -1.78690000 3.00780000
0.32890000 0.71820000 2.99940000
0.30210000 -1.80710000 3.01590000
0.23310000 0.62480000 2.99410000
0.28720000 0.61720000 3.00830000
0.32190000 0.51930000 2.99750000
0.24410000 0.43730000 2.99650000
0.97370000 0.80430000 2.64120000
0.95750000 0.74680000 2.67970000
0.97050000 0.58830000 2.61390000
0.97670000 0.67950000 2.65220000
0.94940000 0.51670000 2.69180000
0.52190000 -5.49450000 2.05840000
0.58530000 -1.70280000 2.18680000
0.97400000 0.52460000 2.66380000
1.01090000 -2.69430000 2.72650000
0.96800000 0.39020000 2.61180000
0.98340000 0.41670000 2.65010000
1.04230000 -2.70970000 2.68380000
1.00340000 -2.80550000 2.73240000
1.04440000 -2.76880000 2.70040000
0.97360000 0.33930000 2.67950000
1.04500000 -2.80260000 2.66930000
1.01360000 -2.85060000 2.62710000
0.94550000 0.12840000 2.70250000
0.98210000 0.26570000 2.65120000
0.96450000 0.20710000 2.69120000
1.04260000 -2.86760000 2.70640000
1.04400000 -2.91170000 2.66730000
-0.02200000 -3.39350000 0.99930000
1.01920000 -2.91960000 2.72230000
0.83570000 -3.63450000 2.81820000
0.27010000 0.27210000 3.00220000
1.03710000 -3.08250000 2.65170000
0.29860000 0.13040000 3.00380000
1.05060000 -3.04390000 2.69180000
1.02630000 -3.06210000 2.72430000
0.21750000 0.16130000 2.98080000
0.78750000 -0.28830000 2.78460000
0.32360000 -0.08730000 3.00000000
-0.54320000 -0.48700000 1.90780000
-0.56500000 -0.33690000 1.87820000
-0.58250000 -0.43130000 1.85160000
-0.51780000 -0.33040000 1.92410000
1.05040000 -3.17410000 2.69190000
1.02680000 -3.27100000 2.72590000
1.01500000 -3.33310000 2.62440000
1.04760000 -3.24350000 2.70090000
1.04800000 -3.30190000 2.66770000
-0.49160000 -0.42630000 2.02730000
0.99960000 -3.46040000 2.74440000
1.05180000 -3.42330000 2.70300000
-0.32500000 -1.10650000 2.25730000
-0.30340000 -1.50340000 2.27930000
-0.60540000 -1.45130000 1.75310000
-0.29840000 -1.76460000 2.27820000
-0.46890000 -1.31680000 2.03730000
-0.50000000 -1.89740000 1.97180000
-0.41610000 -1.53590000 2.12630000
-0.35350000 -1.68020000 2.22390000
0.91230000 -3.48620000 2.52140000
-0.86420000 -1.15830000 1.03710000
-0.30580000 -1.91150000 2.29170000
-0.78710000 -1.00030000 1.27720000
-0.76820000 -1.06260000 1.35520000
-0.82350000 -1.36410000 1.17240000
-0.36220000 -2.09170000 2.20300000
-0.72860000 -1.49200000 1.45290000
-0.77100000 -1.18130000 1.28760000
-0.30390000 -2.71630000 2.29570000
1.05110000 -3.47470000 2.66910000
1.04120000 -3.47960000 2.72330000
1.00910000 -3.54200000 2.62260000
1.01950000 -3.61400000 2.65790000
-0.78880000 -1.42920000 1.23610000
1.04030000 -3.54470000 2.69300000
1.01400000 -3.55640000 2.73290000
0.09960000 -3.27780000 1.33340000
1.01420000 -3.62760000 2.70480000
0.98240000 -3.68040000 2.75160000
1.01680000 -3.71570000 2.71760000
-0.53560000 -1.37340000 1.91230000
-0.65810000 -1.76650000 1.64350000
1.00570000 -3.69180000 2.62680000
1.02300000 -3.83050000 2.63020000
1.04500000 -3.79930000 2.69430000
1.03300000 -3.86580000 2.73170000
1.01760000 -3.98350000 2.74350000
-0.37800000 -1.14520000 2.19540000
1.05710000 -3.89200000 2.67260000
1.06110000 -3.94360000 2.71210000
-0.49650000 -1.40910000 1.96170000
-0.59150000 -2.17100000 1.78470000
1.06100000 -4.01050000 2.67620000
0.96660000 0.20520000 2.60950000
1.04500000 -4.14820000 2.65100000
1.06330000 -4.08600000 2.69690000
1.03650000 -4.18460000 2.73590000
1.06490000 -4.22730000 2.69600000
0.98690000 0.13190000 2.66250000
0.92980000 0.03940000 2.57460000
-0.61180000 -1.80300000 1.72880000
1.02990000 -4.46180000 2.63360000
-0.75350000 -2.39410000 1.35070000
1.06010000 -4.33040000 2.71540000
1.06120000 -4.39940000 2.67160000
-0.76870000 -1.65680000 1.33620000
0.26280000 -2.98030000 2.99870000
-0.77110000 -1.43400000 1.30550000
0.99080000 -0.00540000 2.65480000
0.00260000 -4.54910000 2.71100000
-0.52050000 -2.45850000 1.91650000
0.98080000 -0.04360000 2.62400000
-0.77980000 -1.63550000 1.23590000
-0.83460000 -1.73640000 1.10410000
-0.78790000 -1.79840000 1.23010000
0.34390000 -2.96250000 3.02680000
0.31640000 -3.13620000 3.02380000
0.98400000 -0.07220000 2.67690000
0.99020000 -0.14000000 2.64560000
0.96160000 -0.15550000 2.69710000
0.98220000 -0.29560000 2.62130000
0.99100000 -0.22440000 2.67440000
0.99880000 -0.40300000 2.65730000
0.97100000 -0.34120000 2.69750000
-0.44870000 -2.98390000 2.03710000
-0.41820000 -3.22420000 2.09060000
0.98330000 -0.48980000 2.69490000
0.96950000 -0.61260000 2.70620000
0.98530000 -0.58790000 2.62280000
0.99970000 -0.57120000 2.65740000
1.00150000 -0.65510000 2.66440000
0.90450000 -0.88330000 2.74450000
1.00080000 -0.75150000 2.67130000
0.98780000 -0.80270000 2.62510000
0.99020000 -0.83940000 2.69680000
0.36680000 -3.41690000 3.02380000
0.30290000 -3.45300000 3.02350000
0.23950000 -3.47190000 2.98120000
0.44420000 -3.64090000 2.99280000
0.99930000 -0.96580000 2.63750000
1.01180000 -0.92930000 2.66960000
0.98180000 -0.94920000 2.70760000
0.99940000 -1.04090000 2.69360000
1.01250000 -1.06300000 2.65940000
1.00460000 -1.11920000 2.64350000
1.00310000 -1.13410000 2.69540000
-0.52780000 -0.09530000 1.93120000
-0.16810000 -3.76220000 2.48770000
-0.11820000 -5.76360000 2.55710000
-0.50560000 -0.31860000 1.96930000
0.31260000 -0.60260000 3.00700000
0.29070000 -0.37650000 3.00890000
0.23170000 -0.31810000 2.98790000
0.23810000 -0.60690000 2.99100000
0.17650000 -0.26790000 2.93960000
0.27230000 -4.01320000 3.01000000
0.33270000 -3.69440000 3.03210000
0.32870000 -4.04190000 3.03430000
0.27180000 -0.73860000 3.00550000
0.21400000 -0.88570000 2.96780000
0.37390000 -4.10950000 3.03020000
0.29250000 -0.91070000 3.00980000
-0.53920000 -2.80630000 1.86920000
0.25290000 -0.11140000 2.99860000
-0.46240000 -2.71390000 2.02370000
-0.49050000 -2.65710000 1.94190000
-0.52530000 -3.07980000 1.87260000
0.46590000 -4.48630000 2.99460000
0.93870000 -4.56280000 2.78530000
1.02940000 -1.89520000 2.68810000
1.03880000 -4.41080000 2.73970000
1.01100000 -2.01080000 2.71530000
0.89110000 -5.14350000 2.81550000
0.30470000 -4.37860000 3.03190000
0.33340000 -4.47900000 3.04150000
0.26090000 -4.79760000 3.00450000
0.37360000 -4.55430000 3.03850000
0.31720000 -4.66860000 3.04070000
0.38690000 -4.76230000 3.03740000
0.47230000 -5.37830000 3.00490000
0.33720000 -4.89340000 3.04970000
1.06750000 -4.48890000 2.70890000
1.06980000 -4.55250000 2.68770000
1.03220000 -4.58650000 2.74730000
1.06980000 -4.62920000 2.70800000
0.00130000 -2.35930000 -3.08770000
-0.06210000 -2.45020000 -3.04470000
-0.03140000 -2.19130000 -3.07920000
0.72480000 -2.59670000 -2.82110000
0.68620000 -2.74530000 -2.86460000
0.70240000 -2.45840000 -2.84960000
-0.02840000 -2.48010000 -3.07440000
0.03350000 -2.57090000 -3.08360000
0.72880000 -2.79030000 -2.78730000
0.72150000 -2.62840000 -2.75970000
0.71190000 -1.95980000 -2.76120000
0.70840000 -1.67160000 -2.76270000
0.72350000 -1.83090000 -2.78460000
0.72400000 -1.89540000 -2.81550000
0.70640000 -1.81340000 -2.83880000
0.67090000 -1.91380000 -2.86340000
0.70820000 -1.96540000 -2.84020000
0.72380000 -2.04500000 -2.80290000
0.48670000 -2.30830000 -2.93830000
0.65050000 -2.42370000 -2.87970000
0.55480000 -3.43520000 -2.93070000
0.69070000 -1.44100000 -2.83800000
0.71070000 -1.40540000 -2.80180000
0.71510000 -1.56270000 -2.80010000
0.69880000 -1.30270000 -2.75320000
0.70820000 -2.12750000 -2.75440000
0.70340000 -1.67450000 -2.83390000
-0.01200000 -2.72010000 -3.08210000
0.04410000 -2.94750000 -3.08750000
0.72200000 -1.72800000 -2.80160000
0.67580000 -1.75210000 -2.86040000
0.64260000 -3.60490000 -2.64330000
0.66030000 -2.56200000 -2.68310000
0.70800000 -2.95470000 -2.73550000
0.71740000 -2.87790000 -2.82860000
0.65100000 -3.19710000 -2.89180000
0.68460000 -3.03300000 -2.86630000
0.72630000 -3.06510000 -2.78930000
0.71760000 -3.10500000 -2.82660000
-0.01300000 -1.96240000 -3.08640000
-0.05840000 -1.98720000 -3.05700000
0.69530000 -3.26800000 -2.71530000
0.70890000 -0.99310000 -2.78010000
-0.11180000 -3.31800000 -2.95880000
0.67700000 -2.05940000 -2.86530000
0.70800000 -2.08540000 -2.83870000
0.70200000 -1.10420000 -2.81770000
0.73320000 -3.27300000 -2.79520000
0.72390000 -2.18710000 -2.79720000
0.70920000 -2.25010000 -2.83750000
0.71150000 -2.34240000 -2.74860000
0.03380000 -2.15870000 -3.08440000
0.68860000 -1.21430000 -2.83390000
0.72990000 -2.42870000 -2.79270000
0.70900000 -1.26300000 -2.78440000
0.71720000 -3.27120000 -2.85070000
0.74940000 -3.37120000 -2.81700000
0.71070000 -3.44400000 -2.87530000
0.74920000 -3.47720000 -2.78370000
0.75010000 -3.47320000 -2.83760000
0.72640000 -3.59400000 -2.74640000
0.73340000 -3.58060000 -2.85880000
0.76100000 -3.61550000 -2.81950000
0.75450000 -3.69350000 -2.78500000
0.73720000 -3.66140000 -2.86000000
0.75750000 -3.70740000 -2.83210000
0.75210000 -3.99130000 -2.77580000
0.76080000 -3.81740000 -2.80920000
0.70620000 -3.79440000 -2.88020000
0.74340000 -3.83510000 -2.85680000
0.76340000 -3.96160000 -2.82510000
0.08250000 -10.21690000 -3.11580000
0.09680000 -10.34000000 -3.12370000
0.05090000 -10.40990000 -3.09110000
-0.33110000 -6.56410000 2.23430000
-0.44260000 -6.33380000 2.02820000
-0.45620000 -6.83200000 2.01340000
0.03390000 -10.18600000 -3.05050000
0.01420000 -9.98510000 -3.01520000
0.14540000 -10.26420000 -3.11870000
0.06780000 -10.52140000 -3.11190000
-0.39670000 -6.82260000 2.10070000
0.02490000 -10.66780000 -3.02400000
-0.54900000 -6.24170000 1.82740000
0.72220000 -10.36120000 -2.94390000
0.71370000 -9.81870000 -2.94990000
0.76320000 -10.06080000 -2.92720000
-0.52770000 -7.24570000 1.87350000
-0.62850000 -6.31960000 1.63250000
0.80890000 -10.21550000 -2.89840000
0.77960000 -10.30310000 -2.91950000
0.46490000 -10.81110000 -3.02400000
-0.64710000 -6.68450000 1.58400000
-0.62060000 -6.58690000 1.61770000
-0.65480000 -6.45320000 1.55620000
-0.71480000 -6.50200000 1.38730000
-0.60050000 -6.66280000 1.70250000
0.81260000 -10.31900000 -2.89230000
0.82840000 -10.28240000 -2.85890000
0.78010000 -10.54730000 -2.92130000
-0.65640000 -7.06800000 1.54040000
-0.64200000 -7.17580000 1.60010000
0.82850000 -10.38090000 -2.81930000
0.82020000 -10.53660000 -2.87860000
0.79970000 -10.57000000 -2.76390000
0.69600000 -10.81400000 -2.63240000
0.82870000 -10.57040000 -2.82490000
-0.08310000 -9.02790000 -0.81380000
-0.10600000 -7.02060000 -0.67200000
-0.13320000 -7.68280000 -0.37180000
-0.13760000 -11.12910000 -0.46460000
0.71410000 -10.85040000 -2.94720000
0.78600000 -10.78310000 -2.91150000
-0.89230000 -8.97310000 0.67790000
-0.89950000 -7.62530000 0.57620000
-0.90600000 -8.23080000 0.53120000
-0.07790000 -3.57890000 -1.04960000
-0.14260000 -4.40790000 -0.53310000
-0.04370000 -10.76910000 -2.92820000
0.09870000 -10.66020000 -3.12470000
0.17650000 -10.60730000 -3.11230000
0.04800000 -10.75560000 -3.08170000
0.12900000 -11.09300000 -3.12550000
-0.92030000 -8.32170000 0.39070000
-0.92560000 -7.99490000 0.33090000
-0.91680000 -7.93080000 0.28510000
-0.93730000 -8.39310000 0.05370000
-0.94180000 -8.05820000 -0.02720000
0.07150000 -10.89790000 -3.11380000
-0.89650000 -8.33050000 0.49580000
-0.93890000 -8.55300000 0.21570000
0.02260000 -11.37100000 -3.02520000
-0.04030000 -6.53000000 -1.08010000
-0.90590000 -8.43790000 0.53650000
-0.91730000 -8.88840000 0.47720000
0.04240000 -11.22230000 -3.08390000
-0.91800000 -8.34930000 -0.37310000
-0.93590000 -8.46080000 -0.30170000
-0.93570000 -8.22130000 -0.24770000
0.07570000 -11.18550000 -3.12080000
-0.93190000 -8.41080000 -0.44340000
0.20170000 -11.71280000 -3.11170000
-0.92620000 -8.57350000 0.18030000
-0.94440000 -8.71440000 -0.02870000
0.76700000 -10.95780000 -2.71860000
-0.94880000 -9.24030000 -0.08870000
0.82040000 -10.76310000 -2.85930000
0.80720000 -10.81410000 -2.79350000
-0.93150000 -9.09110000 -0.52100000
0.79110000 -10.90420000 -2.86980000
-0.93850000 -8.77660000 0.18640000
-0.92980000 -8.74830000 0.08800000
0.79480000 -11.05500000 -2.77050000
0.79440000 -11.06030000 -2.83700000
-0.91880000 -8.85160000 0.37920000
-0.93020000 -8.93570000 0.35250000
0.75870000 -10.98130000 -2.91820000
0.78230000 -11.14000000 -2.89780000
-0.93720000 -9.53350000 0.28250000
0.72520000 -11.26330000 -2.94190000
0.81570000 -11.31880000 -2.87220000
0.78850000 -11.37670000 -2.91040000
-0.14250000 -6.82080000 -0.03820000
-0.93830000 -1.53060000 0.66460000
-0.97750000 -1.47660000 0.38390000
-0.98730000 -1.31400000 0.20840000
-0.96580000 -1.30610000 0.48180000
-0.88490000 -1.49210000 0.88400000
-0.90920000 -1.50740000 0.80400000
-0.93090000 -1.44390000 0.58570000
-0.93090000 -1.50530000 0.54150000
-0.12870000 -7.99460000 0.24710000
-0.08360000 -7.74190000 0.60790000
-0.13360000 -9.66620000 0.26810000
-0.95720000 -1.55520000 0.49480000
0.53370000 -9.61760000 -2.43410000
0.49150000 -11.44200000 -2.36700000
-0.92940000 -1.61750000 0.60190000
-0.93020000 -1.64180000 0.53930000
-0.96030000 -1.67120000 0.48610000
-0.94130000 -1.82520000 0.58130000
-0.88830000 -1.70850000 0.87850000
-0.88270000 -2.38520000 0.88140000
0.81070000 -11.29470000 -2.77090000
0.77770000 -11.65040000 -2.72170000
-0.06160000 -10.59410000 0.79880000
-0.00470000 -8.15850000 0.95420000
-1.00060000 -1.48410000 -0.04540000
0.82390000 -11.38830000 -2.84100000
-0.98230000 -1.43330000 0.13570000
0.80430000 -11.56760000 -2.77090000
-0.99110000 -1.56490000 0.13330000
0.79720000 -11.60230000 -2.82800000
-0.98380000 -1.51110000 -0.33600000
-1.00240000 -1.47930000 -0.19120000
-0.99280000 -1.44630000 -0.09110000
-0.98990000 -1.48490000 -0.39160000
-0.99310000 -1.72730000 -0.35830000
-0.15040000 -10.06340000 -0.09540000
0.62760000 -11.68760000 -2.97170000
-0.97500000 -1.75700000 0.33490000
-0.95340000 -1.78430000 0.44910000
0.10130000 -11.54230000 -3.13100000
0.05430000 -11.52330000 -3.10500000
0.02810000 -11.70790000 -3.02640000
0.76420000 -4.52740000 -2.78870000
0.76600000 -4.41060000 -2.81220000
0.73120000 -4.56360000 -2.73640000
0.03820000 -11.74510000 -3.08340000
0.76620000 -4.57460000 -2.81450000
0.74720000 -4.49790000 -2.86140000
0.06850000 -11.66070000 -3.12150000
0.74500000 -4.62620000 -2.85900000
0.63900000 -4.72780000 -2.91810000
0.69570000 -4.44900000 -2.89130000
0.12930000 -11.72370000 -3.12920000
-0.99010000 -2.15700000 0.03920000
0.75280000 -4.67880000 -2.77970000
0.71000000 -11.57250000 -2.94050000
0.69360000 -4.73180000 -2.89540000
0.74380000 -4.75470000 -2.83590000
0.71800000 -4.79660000 -2.87940000
0.77380000 -11.58340000 -2.89250000
0.72330000 -4.84640000 -2.73660000
0.66640000 -5.17510000 -2.64870000
0.68050000 -4.28570000 -2.67850000
0.74170000 -11.71690000 -2.92290000
0.73370000 -4.99300000 -2.80270000
-0.93760000 -1.81000000 0.50480000
0.71600000 -4.94270000 -2.88410000
0.67460000 -5.04390000 -2.91050000
0.73180000 -5.00530000 -2.85360000
0.43400000 -4.59330000 -2.98700000
0.42010000 -11.90030000 -3.03910000
0.71160000 -5.17260000 -2.72970000
0.64800000 -11.91560000 -2.96760000
0.71400000 -5.05880000 -2.88760000
0.37830000 -12.07320000 -3.05120000
-0.87000000 -1.63420000 0.95970000
0.72870000 -5.15710000 -2.85930000
0.60450000 -5.65230000 -2.94600000
-0.87220000 -1.61200000 0.88870000
0.69650000 -5.22880000 -2.90310000
0.73850000 -5.44330000 -2.81270000
0.72640000 -5.35000000 -2.87280000
-0.80410000 -1.85010000 1.13150000
-0.86120000 -1.96690000 0.98580000
-0.43750000 -10.71430000 -2.29580000
-0.31030000 -9.99310000 -2.54040000
-0.37240000 -12.91410000 -2.42300000
-0.23450000 -11.38190000 -2.65840000
-0.94670000 -2.48120000 0.51360000
-0.81260000 -1.98070000 1.09840000
-0.82680000 -2.06290000 1.12500000
-0.84520000 -2.05830000 1.02960000
-0.80180000 -2.81810000 1.16950000
0.70560000 -5.93330000 -2.69350000
0.67600000 -5.56480000 -2.91790000
-0.96370000 -2.00490000 0.41070000
0.72930000 -5.69040000 -2.75560000
0.54620000 -6.85780000 -2.46990000
0.30160000 -10.85870000 1.74370000
0.24190000 -8.81740000 1.60000000
0.40060000 -8.25880000 1.87880000
0.18310000 -4.61140000 -1.87160000
0.07690000 -6.26860000 -1.54410000
-0.54310000 -11.27750000 -2.04560000
-0.51940000 -10.57090000 -2.11310000
-0.96040000 -2.45600000 0.36380000
-0.96700000 -2.70900000 0.27870000
-0.94230000 -2.58750000 0.37420000
-0.94200000 -2.69900000 0.40340000
-0.95340000 -2.99150000 0.40390000
-0.07120000 -12.50470000 -2.87300000
-0.59740000 -13.44360000 -1.94960000
-0.57640000 -10.87280000 -1.97450000
-0.67780000 -5.38140000 -1.76770000
-0.68820000 -6.58740000 -1.71590000
-0.75850000 -4.68890000 -1.55850000
-0.29920000 -5.21060000 -2.63510000
-0.35020000 -5.61920000 -2.52740000
-0.37280000 -5.35130000 -2.48110000
-0.36580000 -5.74540000 -2.45590000
-0.43930000 -5.68300000 -2.35190000
-0.40740000 -5.80150000 -2.38710000
-0.61480000 -5.46030000 -1.95290000
-0.63990000 -4.96450000 -1.89600000
-0.56630000 -5.45700000 -2.07490000
-0.66010000 -5.58420000 -1.81000000
-0.50440000 -4.65190000 -2.24400000
-0.48330000 -13.21670000 -2.20540000
-0.62840000 -6.05570000 -1.90490000
0.01000000 -4.34580000 -1.38590000
-0.01150000 -11.94250000 -2.95600000
-0.54250000 -6.44520000 -2.10260000
-0.36860000 -6.28110000 -2.47890000
0.07270000 -11.83720000 -3.12470000
0.02940000 -12.03610000 -3.05270000
0.04050000 -12.02130000 -3.10230000
0.14350000 -8.46870000 -1.70440000
0.10790000 -11.93360000 -3.13270000
0.14310000 -12.21370000 -3.12910000
0.01230000 -10.34160000 1.06500000
0.24880000 -7.18740000 -1.96250000
0.32440000 -5.21340000 -2.14410000
0.06660000 -12.10410000 -3.12750000
0.04920000 -12.28770000 -3.10740000
0.09810000 -12.26380000 -3.13480000
0.02780000 -12.45450000 -3.00990000
-0.13810000 -11.21770000 0.39900000
0.32360000 -8.41690000 -2.10090000
0.08310000 -12.60700000 -1.52610000
0.19200000 -11.27870000 -1.81850000
0.04230000 -11.02670000 -1.39240000
-0.98360000 -1.50080000 -0.55710000
-0.97000000 -1.56610000 -0.50130000
-0.96170000 -1.74180000 -0.46000000
-0.97650000 -1.72610000 -0.54340000
-0.98980000 -1.87250000 -0.50130000
-0.97170000 -2.33920000 -0.68110000
-0.99300000 -2.11030000 -0.37510000
-0.99140000 -2.24860000 -0.25230000
-0.95340000 -4.34590000 0.18930000
-0.95910000 -4.56590000 -0.12720000
-0.95350000 -4.97000000 0.03010000
1.07180000 -8.90040000 2.69440000
1.05460000 -8.58250000 2.66750000
1.07130000 -8.77000000 2.69020000
1.08120000 -8.81710000 2.72310000
1.05990000 -8.77090000 2.75380000
1.07270000 -8.92150000 2.74400000
0.99370000 -8.75140000 2.79150000
1.03800000 -9.03700000 2.77090000
-0.95960000 -4.80160000 -0.20180000
1.05550000 -9.01990000 2.67210000
0.60360000 -12.91790000 -2.48990000
1.07850000 -8.98540000 2.71090000
-0.94490000 -4.93010000 -0.11010000
1.07390000 -9.04650000 2.73770000
-0.95200000 -4.98000000 -0.18350000
0.69600000 -8.42410000 2.93160000
-0.94340000 -5.14250000 0.18850000
1.05090000 -9.40530000 2.67090000
1.05690000 -9.22190000 2.75900000
1.07710000 -9.15590000 2.71320000
-0.94900000 -4.76080000 -0.44160000
-0.94400000 -4.66810000 -0.28470000
-0.93740000 -4.90210000 -0.58020000
1.07710000 -9.32440000 2.72740000
0.76960000 -11.82460000 -2.89600000
0.79210000 -11.85460000 -2.83290000
-0.94820000 -5.10170000 -0.40130000
0.80240000 -11.87830000 -2.77620000
0.72570000 -11.85030000 -2.94190000
-0.95030000 -5.38620000 -0.19500000
