0.85250000 1.29220000 0.29680000
-0.81810000 -3.01830000 0.29910000
-0.89580000 -2.90800000 0.29580000
-0.94860000 -3.02610000 0.29900000
-1.00960000 -2.99590000 0.30100000
-1.25820000 -3.03010000 -0.19080000
-1.25010000 -3.16150000 -0.10540000
-1.25870000 -3.14310000 -0.13120000
-0.11320000 -3.15480000 0.26830000
-0.16220000 -3.16340000 0.26250000
-0.11700000 -3.15740000 0.21870000
-0.01530000 -3.15540000 0.24330000
-1.25740000 1.38730000 0.19030000
-1.15660000 -0.13960000 -0.31790000
-1.20210000 -0.14780000 -0.29280000
-1.20560000 -0.07120000 -0.29310000
0.97480000 1.57000000 0.31630000
0.94860000 1.63180000 0.31760000
0.97820000 1.67770000 0.31790000
0.92640000 1.68160000 0.32050000
0.92910000 -3.15530000 0.19500000
-0.97890000 -3.14270000 0.19550000
-0.97970000 -3.14040000 0.25350000
-0.92980000 -3.14020000 0.20100000
-1.18710000 0.57700000 -0.30480000
-0.98000000 1.28190000 0.29280000
-0.89860000 1.28220000 0.29500000
-0.95030000 1.25250000 0.29100000
-0.85610000 1.25680000 0.28570000
-1.22950000 -3.20180000 -0.00480000
-1.25460000 -3.16960000 -0.06640000
0.95440000 3.13600000 0.30740000
1.22550000 -0.85510000 -0.22570000
1.23970000 -0.97060000 -0.20600000
-1.03580000 2.65890000 0.29180000
-1.03280000 2.71820000 0.28610000
-1.09870000 2.65820000 0.30450000
-0.99670000 2.70230000 0.28250000
-1.06180000 -0.74970000 0.30660000
-1.24540000 -3.16080000 -0.15320000
-1.20180000 -3.17470000 -0.14540000
-1.23210000 -3.17140000 -0.10220000
-1.22430000 -3.17150000 -0.15070000
0.42980000 -3.22790000 -0.27040000
0.42280000 -3.20730000 -0.28020000
1.19320000 -0.78010000 -0.23500000
1.16690000 -0.95950000 -0.24920000
1.20530000 -1.01740000 -0.23680000
-0.11260000 3.17780000 0.27010000
-0.11390000 3.13420000 0.28200000
-0.07950000 3.09550000 0.28680000
-0.58140000 2.50570000 -0.35100000
-0.58560000 2.46110000 -0.35510000
0.33460000 0.92130000 -0.27510000
0.28180000 0.90420000 -0.30870000
0.26860000 0.87460000 -0.30710000
0.25260000 0.92730000 -0.31790000
-0.37210000 -3.22950000 -0.26230000
-0.29360000 -3.19570000 -0.28830000
0.74510000 1.99270000 0.29880000
0.78940000 2.05340000 0.30170000
0.70440000 2.07230000 0.29520000
0.67670000 2.07030000 0.29660000
0.55520000 -0.62870000 0.33340000
0.55730000 -0.38500000 0.33190000
0.53570000 -0.24030000 0.34150000
0.46120000 -0.42460000 0.38210000
0.51030000 -0.33050000 0.35450000
-0.82800000 2.26380000 -0.39180000
-0.76250000 1.17840000 0.29750000
-0.68440000 1.06610000 0.29710000
-0.68090000 1.21100000 0.29900000
-0.70990000 1.18110000 0.29710000
0.25940000 1.08430000 -0.31380000
0.27210000 0.99510000 -0.31890000
0.29650000 0.97250000 -0.30300000
0.81550000 -0.33980000 -0.35910000
1.00830000 -0.88330000 0.31660000
1.03760000 -0.92620000 0.32420000
1.04170000 -1.05590000 0.32550000
0.81300000 1.82400000 0.30800000
0.81540000 1.86380000 0.30370000
0.78090000 1.83760000 0.30200000
0.81310000 1.74060000 0.30840000
0.84240000 1.69740000 0.30550000
1.02740000 -1.38990000 -0.30970000
1.04980000 -1.63330000 -0.30710000
0.98240000 -1.53510000 -0.32950000
0.59760000 2.21190000 -0.28920000
0.59340000 2.24920000 -0.28940000
-0.94850000 3.18530000 -0.31210000
-0.95020000 3.19340000 -0.17270000
-0.39670000 3.06370000 -0.27440000
-0.66910000 2.31220000 0.29050000
-0.70300000 2.28730000 0.28570000
-0.53950000 2.36310000 0.32750000
-0.60860000 2.38180000 0.30620000
0.83440000 1.78280000 0.31260000
0.86910000 1.72970000 0.31100000
0.86820000 1.78750000 0.30950000
0.89540000 1.74390000 0.31760000
-0.63640000 -3.16010000 0.29790000
-1.21090000 3.06030000 0.06550000
-1.23630000 3.03720000 0.11780000
-1.22890000 3.03730000 0.01650000
-1.21490000 3.04000000 -0.14070000
-0.80000000 1.09480000 0.30470000
-0.74220000 1.13220000 0.29640000
-0.61250000 2.45070000 0.29830000
-0.64040000 2.45280000 0.29180000
-0.64410000 2.39580000 0.29450000
-0.54700000 2.39870000 0.32490000
-0.52680000 -3.19600000 0.27200000
-0.58140000 -3.17540000 0.30980000
0.72210000 0.53670000 0.30100000
0.75560000 0.44160000 0.29890000
0.78950000 0.60660000 0.29980000
0.84690000 0.61690000 0.30740000
-0.42150000 2.33370000 -0.27090000
-0.41730000 2.13800000 -0.26810000
-0.41310000 1.97280000 -0.26320000
-0.43690000 1.97570000 -0.27570000
1.25340000 2.66630000 0.37880000
-0.27360000 -2.96960000 -0.34550000
-0.22380000 -2.81940000 -0.35990000
-0.21370000 -3.00660000 -0.36860000
-0.21430000 -2.73250000 -0.36830000
-0.26960000 -2.81110000 -0.34340000
0.41810000 -3.25110000 0.31610000
0.41890000 -3.23900000 0.37070000
-0.10720000 -2.94040000 0.31090000
-0.07670000 -3.07500000 0.31570000
-0.04380000 -3.09830000 0.31280000
-0.98160000 2.84750000 -0.38980000
0.45260000 2.97810000 -0.22910000
0.44760000 2.85540000 -0.22420000
0.47870000 2.87380000 -0.23230000
1.23530000 -2.06160000 0.28080000
-0.59280000 -1.37120000 0.32970000
-0.54080000 -1.38440000 0.34740000
-0.51480000 -1.30790000 0.35740000
-0.47030000 -1.47600000 0.38420000
1.19330000 -0.83690000 0.37800000
1.18810000 -0.98620000 0.37910000
0.53760000 -1.75420000 -0.30180000
-0.22370000 -1.70320000 -0.34140000
0.07780000 -0.74000000 -0.37490000
0.02600000 -0.77920000 -0.37990000
0.06390000 -0.78990000 -0.37600000
-0.00050000 -0.79470000 -0.37790000
0.65170000 2.09710000 0.30030000
-0.76010000 2.74150000 -0.38590000
-0.73800000 2.71030000 -0.38370000
-0.69170000 2.70160000 -0.37950000
-0.73300000 2.65560000 -0.38570000
0.69890000 0.22110000 -0.32570000
0.73270000 -0.04480000 -0.33830000
0.70650000 0.15330000 -0.32790000
-0.56230000 -0.94790000 0.33430000
-0.56060000 -0.85150000 0.33630000
-0.10120000 3.23980000 -0.08580000
-0.14110000 3.22280000 -0.28140000
-0.18900000 3.20040000 -0.29160000
-0.16920000 3.21500000 -0.21920000
0.10900000 -2.48020000 0.31960000
0.07870000 -2.45590000 0.31310000
-0.85600000 2.65560000 -0.39110000
-0.78460000 2.65670000 -0.39410000
0.80850000 0.41160000 -0.34050000
0.80770000 0.46810000 -0.34540000
0.77680000 0.29360000 -0.33470000
1.03540000 2.25920000 -0.27580000
1.00420000 2.29780000 -0.28720000
1.08970000 2.29050000 -0.25150000
0.98510000 2.26460000 -0.30120000
0.08820000 -2.62300000 0.31140000
0.12120000 -2.73440000 0.31480000
0.06770000 -2.71470000 0.31040000
-0.14680000 3.20900000 -0.32770000
-0.13100000 3.22240000 -0.30940000
-0.22230000 3.17170000 -0.30580000
-0.22030000 3.14880000 -0.31650000
0.80670000 -1.86580000 -0.37360000
0.77160000 -1.86170000 -0.37740000
0.77300000 -1.90270000 -0.37310000
-0.83770000 2.56920000 -0.38290000
-0.78880000 2.62720000 -0.39220000
0.98890000 2.08620000 -0.30760000
0.96340000 2.05510000 -0.31160000
0.95960000 2.14300000 -0.31740000
0.99360000 1.77670000 -0.31220000
0.94520000 -0.00690000 -0.32320000
0.90450000 0.01540000 -0.33270000
0.99160000 0.09050000 -0.30530000
0.97670000 -0.06080000 -0.31500000
0.86300000 0.60620000 -0.33810000
0.88850000 0.60600000 -0.34320000
0.88970000 0.57950000 -0.33490000
0.88260000 0.52760000 -0.33140000
-0.21350000 -0.89440000 -0.33890000
-0.21370000 -0.92170000 -0.34280000
-0.28530000 -1.08430000 -0.31300000
-0.23490000 -1.00470000 -0.33450000
-0.21230000 -1.11000000 -0.34220000
0.93250000 -0.09680000 -0.33420000
-0.80870000 2.31030000 0.27950000
-0.92450000 2.30560000 0.27870000
-1.23050000 -3.21790000 0.14920000
-1.24990000 -3.21440000 0.14310000
-1.23220000 -3.21600000 0.09800000
-1.17830000 -3.19110000 0.01090000
1.26160000 2.74310000 0.35950000
1.25570000 2.74860000 0.37940000
-0.46150000 0.99710000 0.38970000
-0.43870000 0.76150000 0.39680000
0.66240000 -0.81050000 0.30940000
0.69110000 -0.78040000 0.30540000
0.58240000 -0.81520000 0.32540000
0.55760000 -0.80250000 0.33360000
0.58420000 -0.98170000 0.32290000
-1.13150000 -3.17740000 -0.01140000
1.24530000 -2.24460000 -0.19160000
1.24460000 -2.02430000 -0.18960000
1.24750000 -2.03770000 -0.16450000
1.24240000 -2.40740000 -0.21270000
-0.53230000 0.85270000 0.34480000
-0.52940000 1.09720000 0.34550000
-0.54850000 1.59710000 0.33160000
0.14760000 2.63900000 0.30280000
0.11450000 2.58170000 0.29570000
0.17120000 2.58750000 0.30160000
0.55940000 -2.95860000 0.33430000
0.52280000 -2.94850000 0.34870000
1.20620000 -3.20250000 0.17560000
1.14730000 -3.19210000 0.16110000
1.11020000 -3.18760000 0.13650000
1.03300000 -3.16940000 0.13090000
1.03990000 -3.16590000 0.16050000
-0.35130000 3.11640000 0.33390000
-0.39010000 3.10560000 0.32190000
-0.38760000 3.10430000 0.33770000
-0.44150000 3.08740000 0.28710000
-0.41690000 3.09280000 0.29170000
0.64500000 -1.37100000 0.30670000
0.72320000 -1.31220000 0.29800000
0.03360000 1.09920000 0.29720000
0.09150000 1.22190000 0.30150000
0.00520000 0.98360000 0.29600000
-0.02080000 0.86360000 0.29860000
0.03520000 0.92420000 0.30040000
1.18420000 0.01820000 -0.22440000
1.20320000 0.74690000 -0.21020000
1.16850000 0.50390000 -0.22490000
0.19420000 -3.18420000 0.21290000
0.25720000 -3.19650000 -0.06440000
0.25400000 -3.20140000 0.14270000
0.22900000 -3.18980000 0.01480000
1.23600000 -2.77560000 0.28920000
1.24690000 -2.82800000 0.27750000
1.22400000 -2.70960000 0.30480000
0.67840000 0.63880000 -0.32570000
0.70330000 0.68220000 -0.32670000
0.70410000 0.63950000 -0.33540000
0.68150000 0.71490000 -0.32010000
-0.26420000 2.93170000 0.31390000
-0.26300000 3.06910000 0.31680000
-0.31890000 3.06280000 0.33470000
-0.34220000 3.10240000 0.33740000
0.79320000 -0.45250000 -0.34440000
0.90560000 -0.54250000 -0.33970000
0.90860000 -0.67410000 -0.34830000
0.62700000 -1.03120000 0.31240000
0.62130000 -0.94750000 0.31360000
-0.55630000 2.13350000 -0.34370000
-0.53070000 2.23560000 -0.34030000
-0.53070000 2.12110000 -0.33600000
-0.52830000 2.06120000 -0.33680000
-0.55400000 2.06280000 -0.34700000
0.84840000 -0.34490000 0.31040000
0.87900000 -0.34670000 0.31380000
0.87510000 -0.31800000 0.31000000
0.88260000 -0.44980000 -0.34220000
0.90900000 -0.48740000 -0.33750000
0.90250000 -0.40900000 -0.34130000
0.29270000 -3.19580000 -0.18600000
0.08880000 -0.94980000 -0.37660000
0.12870000 -0.88630000 -0.36260000
-0.57230000 2.40340000 -0.35190000
-0.54640000 2.44630000 -0.34640000
-0.54380000 2.37660000 -0.34730000
0.73590000 -1.86050000 0.29640000
0.78150000 -1.98220000 0.29590000
1.17560000 0.96180000 -0.22200000
1.17390000 1.03560000 -0.22270000
1.20030000 0.85850000 -0.21000000
0.00560000 -0.93650000 0.29780000
0.03980000 -0.78440000 0.29980000
0.61720000 -0.71670000 -0.34030000
0.59070000 -0.69890000 -0.33030000
0.90520000 3.21390000 -0.19780000
0.86900000 3.21860000 -0.19760000
0.86590000 3.22160000 -0.15320000
1.24840000 3.07500000 -0.12590000
0.15840000 -1.03660000 0.30620000
0.15860000 -0.87800000 0.30590000
0.19330000 -1.19200000 0.31100000
0.99050000 2.67930000 0.32470000
0.92660000 2.67770000 0.31930000
0.63870000 3.17760000 -0.21180000
0.66950000 3.19170000 -0.20980000
1.23690000 -1.02420000 0.35400000
1.23190000 -0.91960000 0.35510000
1.19920000 -3.18570000 -0.24950000
1.16290000 -3.16040000 -0.27530000
1.20990000 -3.16560000 -0.24830000
1.18700000 -2.99940000 -0.26840000
0.98520000 -2.48290000 0.32030000
0.95060000 -2.41880000 0.31750000
-1.23010000 -1.91060000 0.35470000
-1.22930000 -1.85640000 0.35150000
-1.24650000 -1.89960000 0.34550000
-1.19030000 -1.93340000 0.34530000
-0.20030000 -2.91090000 -0.36960000
-0.15730000 -3.00010000 -0.38290000
-0.19390000 -3.15010000 -0.35830000
-0.22520000 -3.14290000 -0.36490000
-0.17260000 -3.13450000 -0.38060000
1.17270000 -3.14380000 -0.27300000
1.21050000 -3.14510000 -0.25180000
1.09720000 -3.14860000 -0.30190000
-1.24830000 -1.62110000 0.34440000
-1.23040000 -1.73910000 0.34930000
-1.23220000 -1.61960000 0.35170000
-1.12770000 -1.44850000 0.32100000
-1.18750000 -1.43240000 0.34050000
0.16100000 0.06970000 -0.35570000
0.17470000 0.03700000 -0.35080000
0.21890000 0.03280000 -0.33900000
0.16600000 2.55610000 -0.33540000
0.20000000 2.61410000 -0.32550000
-0.55240000 1.63440000 -0.34550000
-0.52840000 1.60490000 -0.32790000
-0.55540000 1.57940000 -0.33260000
1.21380000 1.76480000 0.39600000
1.22950000 1.68290000 0.39630000
1.23760000 1.88160000 0.39270000
1.22730000 1.43930000 0.38820000
1.24030000 1.35670000 0.37130000
1.24230000 1.49090000 0.37780000
-1.21780000 -1.89810000 -0.28280000
-1.19950000 -1.83630000 -0.29630000
-1.21530000 -2.03050000 -0.28190000
-1.21990000 -2.13900000 -0.28320000
-1.23220000 -2.08110000 -0.25940000
0.65830000 -1.79800000 0.31050000
0.66050000 -1.77170000 0.31710000
0.22430000 1.80620000 0.31490000
0.24800000 2.08960000 0.31810000
0.14590000 1.77350000 0.31270000
0.17710000 1.74810000 0.31020000
0.17300000 1.80020000 0.30750000
0.08480000 2.55490000 -0.35770000
0.04840000 2.61220000 -0.37350000
0.01220000 2.62590000 -0.37940000
0.04420000 2.55840000 -0.37310000
-1.22280000 -2.30440000 -0.28340000
-1.23900000 -2.41920000 -0.26020000
-1.16350000 -2.37070000 -0.31990000
-1.20520000 -2.40160000 -0.30120000
-1.20160000 -2.32380000 -0.29960000
1.23250000 2.06590000 0.38860000
1.23700000 1.96340000 0.39150000
1.21900000 1.86850000 0.39350000
0.30470000 1.96380000 -0.28830000
0.30530000 2.02580000 -0.29400000
1.23590000 -1.99420000 0.36070000
1.22240000 -1.91310000 0.39260000
1.19760000 -2.01780000 0.39460000
1.21930000 -1.99770000 0.39230000
-1.26240000 -2.73130000 0.12090000
-0.53000000 -1.29970000 -0.32460000
-0.47490000 -1.09360000 -0.29590000
-0.43870000 -1.64160000 -0.27690000
-0.43880000 -1.40840000 -0.27760000
0.92210000 1.63500000 0.32170000
0.89660000 1.65010000 0.31650000
0.86980000 1.68900000 0.30930000
-0.10860000 -1.63820000 -0.37350000
-1.24630000 -2.36970000 -0.17020000
-1.23720000 -2.36820000 -0.25990000
-1.23200000 -2.30080000 -0.25730000
-0.12670000 -0.63910000 -0.35920000
0.01020000 -0.67890000 -0.37200000
1.23460000 -1.95910000 0.38180000
1.23440000 -1.72890000 0.37250000
1.24110000 -1.82330000 0.36310000
0.00990000 3.21460000 -0.35200000
0.12000000 3.20270000 -0.33610000
0.31230000 -2.36110000 -0.30520000
0.31440000 -2.15380000 -0.30320000
0.36410000 -2.26850000 -0.27590000
0.23950000 -2.15970000 -0.33850000
0.24350000 -2.09330000 -0.34160000
0.81600000 -0.81410000 -0.35240000
-0.02440000 -1.66410000 -0.37680000
0.02620000 -1.65790000 -0.37680000
-0.02460000 -1.76730000 -0.37940000
-0.64450000 2.90040000 0.28300000
-0.62390000 2.96460000 0.28430000
-1.23330000 -2.26230000 -0.25790000
-0.45430000 -2.72690000 -0.29180000
-0.45080000 -2.92750000 -0.29000000
-0.43270000 -3.18780000 -0.28750000
0.22140000 -2.47050000 -0.35510000
0.22030000 -2.37910000 -0.35350000
0.27820000 -2.31650000 -0.32170000
0.23700000 -2.24330000 -0.33930000
0.27200000 -2.17060000 -0.32430000
0.37670000 -0.57410000 -0.24950000
0.55600000 3.08630000 -0.24690000
0.64810000 3.13230000 -0.27140000
0.65980000 3.09430000 -0.28390000
-0.58150000 3.12250000 0.29650000
-1.07350000 3.16270000 0.06810000
-1.11370000 3.14320000 0.14990000
-1.07960000 3.16320000 0.16380000
-1.00850000 3.19410000 0.18810000
-1.05990000 3.17360000 0.19640000
0.96920000 -3.08590000 0.30060000
0.93950000 -3.11370000 0.30030000
0.74600000 -0.08980000 -0.34150000
0.79360000 -0.14050000 -0.35080000
0.72630000 -0.15170000 -0.33950000
0.08420000 -2.26230000 -0.38350000
0.01120000 -2.30630000 -0.38900000
0.00450000 -2.23480000 -0.38840000
0.68170000 1.72960000 -0.31890000
0.64560000 1.72880000 -0.30850000
1.27000000 2.40150000 -0.11630000
0.42000000 2.93280000 0.39580000
0.45040000 2.84590000 0.39150000
0.44960000 2.90140000 0.39010000
0.48160000 2.89440000 0.37220000
0.21810000 -2.06060000 -0.35180000
0.36230000 -2.05340000 -0.27590000
0.28520000 -2.10560000 -0.32000000
0.29090000 -2.00910000 -0.31470000
-0.02750000 -2.16990000 -0.39250000
-0.18900000 -2.26980000 -0.35560000
1.26760000 2.32860000 -0.14360000
1.26260000 2.36100000 -0.16870000
0.41930000 -0.95740000 -0.24390000
0.39800000 -1.35080000 -0.25180000
-0.44720000 -2.81740000 0.40500000
-0.44620000 -2.65370000 0.40240000
0.70440000 1.68520000 -0.32730000
0.65130000 1.69600000 -0.31730000
-0.14280000 3.20690000 0.26690000
-0.17560000 3.21620000 0.26560000
-0.17650000 3.19970000 0.28240000
-0.23770000 3.18830000 0.28590000
-0.29000000 3.16620000 0.29810000
1.00830000 -1.67090000 0.32890000
0.10550000 2.23920000 0.29800000
0.14530000 2.26990000 0.30200000
-0.40840000 -3.23440000 0.07040000
-0.43670000 -3.23040000 0.07130000
-0.43790000 -3.23100000 0.18690000
1.25740000 0.88530000 -0.12520000
1.26220000 1.06790000 -0.06230000
1.26170000 1.18890000 -0.09030000
1.26180000 1.18600000 -0.01180000
0.39580000 -1.18180000 -0.25070000
0.42390000 -1.19600000 -0.24660000
-0.75430000 3.16120000 -0.39830000
-0.81690000 3.16080000 -0.40170000
-0.79310000 3.18980000 -0.39390000
1.03280000 -1.64380000 0.34080000
1.03380000 -1.67190000 0.33620000
0.61690000 0.87160000 0.31580000
0.69250000 0.81220000 0.30930000
0.67100000 0.86950000 0.30650000
0.64120000 0.82870000 0.30940000
-0.01170000 2.77890000 0.28860000
-0.04610000 2.82260000 0.28750000
-0.05130000 2.76310000 0.29760000
0.00670000 2.85210000 0.28680000
-0.03710000 2.63850000 -0.37900000
-0.02180000 2.67180000 -0.37660000
0.31030000 2.24530000 -0.27880000
-1.25390000 -2.09370000 0.06090000
-0.87880000 2.04610000 -0.38080000
-0.88780000 2.10220000 -0.37640000
0.99230000 1.29390000 -0.29880000
-0.18740000 -2.00870000 -0.35480000
-0.15080000 -1.99690000 -0.36760000
-0.23350000 1.45950000 0.31260000
0.83820000 2.45060000 0.30150000
0.82810000 2.51610000 0.30530000
0.78810000 2.47490000 0.29860000
0.30880000 0.87700000 -0.29050000
0.29260000 0.81180000 -0.29200000
-0.58590000 2.20400000 -0.34420000
-0.64400000 2.25100000 -0.35310000
-0.61670000 2.21930000 -0.34680000
1.23790000 -2.32000000 0.31840000
0.69580000 2.24270000 0.29730000
0.64620000 2.22730000 0.30240000
0.72360000 2.26390000 0.29670000
0.58460000 1.13550000 -0.31430000
1.19800000 -0.03810000 0.38250000
1.13240000 -0.31090000 0.36000000
1.13840000 -0.40590000 0.36110000
1.16700000 -0.35380000 0.37440000
0.63990000 2.40390000 0.30810000
0.64550000 2.31620000 0.31010000
0.61890000 2.28560000 0.30830000
0.67230000 2.28010000 0.30340000
-0.55360000 -1.63610000 0.34190000
-0.75300000 2.46530000 -0.38510000
-0.75430000 2.34640000 -0.37650000
-0.78600000 2.39350000 -0.38540000
1.19670000 -2.97170000 0.28610000
1.22010000 -2.81100000 0.29950000
1.19750000 -2.86460000 0.29600000
1.20870000 -2.90570000 0.29400000
-0.26800000 1.09520000 -0.31300000
-0.30380000 1.05490000 -0.30230000
-0.30010000 1.00720000 -0.31090000
0.61690000 2.37840000 0.30680000
-0.25170000 -2.75930000 -0.35200000
-0.13750000 -2.66750000 -0.38260000
0.55850000 2.94120000 -0.26480000
0.48710000 2.99800000 -0.23580000
0.63440000 -1.90060000 0.30740000
0.60110000 -1.93400000 0.31500000
1.07540000 -2.87600000 0.28640000
1.13060000 -2.85110000 0.28720000
1.17480000 -2.80190000 0.30100000
1.11370000 -2.80930000 0.29450000
-1.14210000 1.60470000 -0.33250000
-1.11560000 1.56930000 -0.34140000
-0.86420000 1.01600000 -0.37510000
-0.83410000 1.06080000 -0.37220000
-0.83240000 1.00780000 -0.37990000
0.31140000 3.16390000 0.09640000
0.27980000 3.18520000 -0.05450000
0.28210000 3.18380000 0.04110000
1.07310000 -2.76460000 0.30520000
1.11010000 -2.65360000 0.30910000
1.13270000 -2.74900000 0.30270000
1.17640000 -2.71340000 0.30970000
-0.90860000 1.86050000 -0.37020000
-0.88530000 1.83330000 -0.38230000
-0.96130000 1.82530000 -0.36400000
-0.93770000 1.88360000 -0.37120000
-0.97420000 1.88050000 -0.37070000
-1.08660000 1.63330000 -0.35490000
-1.04630000 1.63960000 -0.36480000
-1.06990000 1.59860000 -0.34910000
0.40220000 1.76890000 -0.23340000
-1.26350000 -0.21390000 0.24780000
-1.26010000 -0.44750000 0.22040000
-1.26060000 -0.43730000 0.28190000
-1.26290000 -0.33330000 0.27090000
-0.38040000 -1.93380000 -0.27450000
-0.35640000 -1.86890000 -0.28290000
-0.37560000 -2.24980000 -0.27870000
1.26610000 2.90490000 0.28640000
1.26010000 2.87280000 0.36030000
1.26330000 2.95660000 0.34070000
-0.77220000 -3.09590000 -0.40060000
-0.75540000 -3.11780000 -0.39280000
-0.78430000 -3.13070000 -0.37930000
-0.96040000 1.58070000 -0.35780000
-1.01070000 1.57410000 -0.34940000
-0.92030000 1.62700000 -0.36640000
-1.26210000 -0.70710000 0.25330000
-1.25780000 -0.45330000 0.13610000
-1.26170000 -0.54380000 0.26450000
0.73390000 2.41440000 -0.31230000
0.71330000 2.43550000 -0.30900000
0.67360000 2.40290000 -0.30500000
0.63410000 2.43090000 -0.29260000
-1.19220000 -2.55030000 0.34190000
-1.17630000 -2.53620000 0.33670000
-1.19200000 -2.72090000 0.33960000
-1.25650000 1.64990000 0.15920000
-1.25290000 1.65900000 0.00020000
-0.91510000 1.47360000 -0.37940000
-0.87570000 1.44070000 -0.37340000
-0.94630000 1.45050000 -0.37460000
-0.97570000 1.43810000 -0.36640000
0.02340000 0.19820000 -0.37140000
-0.01100000 0.15750000 -0.37820000
-0.02460000 0.20410000 -0.37380000
0.05090000 0.25290000 -0.37270000
0.02290000 0.28170000 -0.37800000
0.05220000 0.30540000 -0.37500000
-1.01110000 1.93780000 0.29180000
-1.03820000 1.85320000 0.30200000
-1.25270000 -1.16460000 0.32560000
-1.25550000 -1.09250000 0.32570000
-1.25460000 -1.04110000 0.32540000
-1.25870000 -1.00470000 0.30630000
-1.22950000 -2.41040000 0.34870000
0.71420000 -0.71350000 0.30100000
-1.14130000 3.08570000 -0.30550000
-1.09990000 3.11720000 -0.31210000
-1.20600000 3.03200000 -0.29940000
-1.19820000 3.02310000 -0.32370000
-0.77230000 2.36210000 0.28090000
-0.69420000 2.36160000 0.29120000
-1.22810000 1.22400000 0.35760000
-1.18600000 0.89750000 0.33340000
-1.21780000 0.93770000 0.34770000
-1.24850000 1.69640000 -0.26040000
-1.24470000 1.82100000 -0.25620000
-1.23450000 1.79830000 -0.28060000
-1.25240000 1.60850000 -0.22500000
-1.25070000 1.80290000 -0.11660000
-1.24910000 1.93530000 -0.19310000
-1.24690000 -1.52770000 0.34240000
-1.25930000 -1.60440000 0.28810000
-1.25620000 -1.56870000 0.32300000
-1.25420000 -1.50870000 0.32290000
-0.12160000 -1.50910000 0.30250000
-0.04380000 -1.44680000 0.29960000
0.06080000 -1.47570000 0.30620000
-0.78930000 2.28110000 0.27900000
-0.74970000 2.30840000 0.28740000
-1.23040000 1.01650000 0.34980000
-1.22790000 1.06600000 0.34730000
-1.21380000 1.02450000 0.35040000
-0.92770000 2.12010000 -0.37520000
-0.91320000 2.15590000 -0.38280000
-0.88850000 2.12870000 -0.38240000
-0.88970000 2.18250000 -0.37800000
-0.85510000 2.15610000 -0.38680000
-0.04180000 -3.14780000 -0.32790000
-0.08010000 -3.15290000 -0.08840000
-0.11600000 -3.15080000 -0.34680000
-1.25210000 1.57820000 -0.10140000
-1.24860000 1.57900000 -0.25750000
1.21130000 3.10840000 0.32320000
1.18060000 3.13320000 0.31440000
1.25140000 3.04400000 0.33580000
1.23760000 3.07930000 0.33200000
-1.19920000 1.23890000 0.35250000
-1.19480000 1.09890000 0.34600000
-1.21300000 1.07280000 0.34970000
-1.21380000 1.18260000 0.35730000
0.00320000 -3.14900000 -0.30980000
0.11320000 -3.16100000 -0.26120000
0.04750000 -3.15150000 -0.35250000
-0.42230000 -2.74220000 0.39610000
-0.34940000 -2.41960000 0.35650000
-0.39780000 -2.60530000 0.38250000
-0.39790000 -2.89390000 0.38010000
-1.25370000 0.46430000 -0.01320000
-1.24900000 0.56910000 -0.12940000
-1.24650000 0.41790000 -0.17710000
0.01860000 1.51660000 -0.36620000
-0.04960000 -1.87180000 -0.38680000
-0.07700000 -1.93960000 -0.39620000
0.64160000 -2.37780000 0.30940000
0.64180000 -2.47140000 0.31030000
1.22960000 0.10320000 0.36730000
1.22460000 0.17370000 0.36690000
-0.00530000 -1.00430000 0.29780000
0.02570000 -1.03250000 0.30420000
-0.02100000 -1.14500000 0.30430000
-0.02680000 -1.03320000 0.29830000
0.60960000 2.40440000 -0.28680000
-1.26240000 -0.01820000 0.23960000
-0.71750000 0.70340000 0.30740000
-0.76600000 0.44900000 0.29100000
-0.73530000 0.64480000 0.29430000
0.86630000 1.51400000 0.30990000
0.94560000 1.55270000 0.31300000
0.91970000 1.60180000 0.32020000
0.90090000 1.49780000 0.31010000
0.39410000 1.08350000 0.39320000
0.41960000 1.04090000 0.39820000
0.34180000 0.58380000 0.36500000
1.24630000 -1.20120000 -0.16570000
1.24220000 -1.23780000 -0.19720000
1.24510000 -0.95010000 -0.18200000
1.24570000 -0.80260000 -0.18040000
0.66530000 2.64260000 0.31610000
0.47030000 3.06800000 0.33240000
0.49520000 3.07570000 0.34610000
0.44830000 3.06000000 0.30770000
0.44310000 3.05180000 0.34630000
-1.24340000 0.52100000 -0.22090000
-1.24020000 0.42630000 -0.24760000
1.15990000 1.41980000 0.37220000
1.10730000 1.54100000 0.35050000
1.10470000 1.21280000 0.34950000
1.09180000 1.37280000 0.34520000
-1.25150000 0.18270000 0.33400000
-1.24300000 0.22430000 0.34610000
-1.25520000 0.24380000 0.33610000
-1.25990000 0.25740000 0.31990000
0.53390000 3.11950000 0.30920000
0.47520000 3.07290000 0.31530000
0.10290000 2.46900000 -0.36320000
0.07770000 2.46770000 -0.37190000
0.49480000 -3.21180000 0.05200000
0.45310000 -3.22880000 0.00890000
0.52570000 -3.19690000 -0.04690000
-1.04750000 0.62510000 -0.35880000
-1.05980000 0.51910000 -0.35480000
-1.09780000 0.52020000 -0.34200000
-0.95240000 -3.10070000 0.29900000
-1.12190000 -3.11090000 0.32200000
-1.10040000 -3.12870000 0.31750000
1.18910000 1.61130000 0.38510000
1.19300000 1.68450000 0.38920000
1.20860000 1.64930000 0.39360000
1.20940000 1.54830000 0.39020000
1.22680000 1.56450000 0.39110000
0.79430000 3.11100000 0.30190000
1.22840000 -3.20380000 -0.22820000
1.23920000 -3.20530000 -0.20220000
1.22680000 -3.21900000 -0.19960000
1.24770000 -3.02950000 -0.18350000
-1.23790000 -1.43730000 -0.23820000
0.65480000 -1.20580000 -0.36110000
0.87260000 -0.30250000 -0.34490000
0.84870000 -0.28090000 -0.35000000
0.87660000 -0.24750000 -0.35220000
0.89380000 -0.27300000 -0.34270000
1.21800000 0.71860000 0.38180000
1.23010000 0.68430000 0.37150000
-0.23980000 -3.17380000 -0.26210000
-0.23440000 -3.17510000 -0.10970000
-0.20850000 -3.16820000 -0.18220000
-0.19620000 -3.16280000 -0.30660000
0.58700000 -3.17870000 -0.01310000
0.68700000 -1.31730000 -0.35610000
0.66150000 -1.36370000 -0.34950000
1.24170000 -3.13410000 -0.21030000
1.22990000 -3.14800000 -0.23130000
1.23090000 -3.09110000 -0.23790000
1.04870000 -0.16460000 -0.28510000
0.33610000 3.15330000 -0.24320000
0.33730000 3.14520000 -0.26520000
0.30160000 3.17670000 -0.25940000
0.40830000 3.08730000 -0.20590000
0.37090000 3.12430000 -0.22500000
1.14870000 2.47060000 0.36550000
-0.62960000 0.61890000 -0.35850000
-0.62510000 0.52490000 -0.35950000
-0.70150000 0.57480000 -0.37530000
-0.61730000 0.31700000 -0.35720000
0.32280000 0.13800000 -0.27590000
0.30320000 0.08580000 -0.29020000
0.13360000 0.20980000 0.30720000
0.07810000 0.26000000 0.30410000
0.08720000 0.19940000 0.30770000
0.05300000 0.37400000 0.31000000
0.05380000 0.42030000 0.31210000
0.84760000 -1.07530000 0.30450000
0.82260000 -0.99810000 0.29750000
0.79730000 -1.02420000 0.29540000
0.79700000 -0.92620000 0.29690000
1.22310000 -3.21360000 0.15710000
1.21340000 -3.21960000 0.10610000
1.23020000 -3.20940000 0.13000000
1.19660000 -3.21070000 0.14870000
-0.47170000 -3.02980000 0.39790000
-0.44390000 -3.07780000 0.39760000
-0.44610000 -2.99260000 0.40140000
0.17380000 0.32350000 0.31170000
0.10290000 0.41830000 0.30720000
0.85070000 -1.44660000 0.30530000
0.87640000 -1.41990000 0.29950000
0.43480000 -2.52190000 0.39510000
0.44550000 -2.79150000 0.39030000
0.48940000 -2.76470000 0.36310000
1.24990000 -0.84270000 0.00660000
1.24860000 -0.87200000 -0.09880000
1.25110000 -0.70850000 0.08020000
0.68070000 3.20280000 0.21020000
0.13450000 0.29250000 0.30710000
0.08990000 0.33700000 0.31490000
0.08100000 0.29130000 0.30720000
0.10200000 0.37650000 0.31000000
-0.23070000 -2.22200000 0.32030000
-0.13940000 -2.07160000 0.30570000
0.72720000 -3.08390000 -0.36860000
0.68850000 -3.11010000 -0.36540000
0.68630000 -3.05360000 -0.36780000
1.13480000 -2.08130000 0.34900000
1.05070000 -1.99500000 0.32630000
1.21130000 -0.41860000 0.38240000
1.19360000 -0.35670000 0.38340000
1.18950000 -0.41550000 0.38080000
1.18940000 -0.72750000 0.37970000
1.19180000 -2.68530000 0.31520000
-0.00490000 -1.63030000 0.30150000
-0.07090000 -1.56570000 0.29880000
-0.09810000 -1.62250000 0.29970000
-0.01920000 -1.68480000 0.30430000
-0.40080000 1.34710000 -0.26110000
-0.39650000 0.99710000 -0.26870000
-0.40050000 1.08200000 -0.26420000
-0.37280000 1.03830000 -0.28340000
-0.75160000 3.20840000 -0.32020000
-0.79660000 3.20510000 -0.37030000
-1.01720000 -2.13720000 0.30080000
0.97020000 3.21110000 -0.18970000
0.97670000 3.20430000 -0.22890000
0.94120000 3.20800000 -0.23460000
0.93850000 3.21240000 -0.20580000
0.93360000 3.21730000 -0.16350000
0.76750000 2.61820000 0.30120000
0.77600000 2.70800000 0.30020000
0.82830000 2.67770000 0.30360000
0.19030000 -1.46180000 0.31180000
0.11060000 -1.42410000 0.31250000
0.55410000 2.13920000 0.33480000
0.56840000 2.47650000 0.32490000
0.53820000 2.24710000 0.34140000
0.54780000 1.89030000 0.33590000
-0.42410000 1.04320000 -0.26750000
-0.41860000 0.95440000 -0.26760000
-0.39160000 0.95180000 -0.26320000
0.87040000 2.86980000 0.30340000
0.83560000 2.83860000 0.30300000
0.80290000 2.69790000 0.30180000
-0.27410000 -3.18570000 -0.01460000
-0.31400000 -3.20210000 -0.09920000
-0.30880000 -3.19820000 -0.01200000
0.77920000 2.89340000 -0.31450000
0.82020000 2.92950000 -0.31490000
0.16110000 -1.14710000 0.30720000
0.16370000 -1.25110000 0.30920000
0.13160000 -1.28320000 0.30920000
0.15670000 -1.39360000 0.30680000
0.68430000 2.12300000 -0.32610000
0.65410000 2.17300000 -0.32250000
0.65150000 2.24080000 -0.31760000
-0.83810000 0.21320000 0.28740000
-1.24750000 1.03820000 -0.24130000
-1.23970000 1.04540000 -0.26790000
-1.24470000 0.86920000 -0.24570000
-1.25060000 1.36140000 -0.23380000
1.23840000 -1.67750000 -0.18940000
1.24470000 -1.60280000 -0.14760000
1.24340000 -1.71090000 -0.16160000
1.25110000 -1.77270000 -0.01610000
1.24870000 -1.80260000 -0.09580000
0.84360000 1.29190000 -0.33060000
0.87010000 1.29060000 -0.32870000
0.13580000 -1.11360000 0.31040000
0.12110000 -1.08410000 0.31090000
0.10880000 -1.11380000 0.31750000
0.16250000 -1.08100000 0.30700000
-0.76030000 0.85600000 0.29460000
-0.73880000 0.82030000 0.29320000
-0.64950000 0.79690000 0.30420000
-0.68910000 0.93300000 0.29580000
-1.08900000 -1.42050000 0.31280000
-1.10210000 -1.25630000 0.31570000
-1.24280000 2.37780000 -0.25390000
-1.23840000 2.33690000 -0.28010000
-1.24480000 2.56090000 -0.20010000
-0.37360000 1.33090000 -0.26420000
0.75460000 -0.35200000 0.30700000
0.70470000 -0.33370000 0.30510000
0.66160000 -0.37120000 0.30950000
0.73450000 -0.37070000 0.30550000
-0.31950000 0.28430000 0.34430000
-0.39180000 0.00450000 0.38670000
-0.82440000 0.86260000 0.30090000
-0.82120000 0.78050000 0.29720000
-0.58250000 0.88340000 -0.34250000
-0.61120000 0.84520000 -0.34420000
-0.79570000 2.74220000 0.26980000
-0.75990000 2.71960000 0.27660000
-0.69740000 2.87710000 0.27550000
-1.22300000 2.86290000 -0.31250000
-1.23410000 2.82650000 -0.29000000
-1.24020000 2.66230000 -0.25280000
-0.61760000 -1.29490000 0.32320000
-0.66790000 -1.29210000 0.31360000
0.57590000 -3.18290000 0.30230000
0.62310000 -3.16970000 0.28750000
0.62520000 -3.16190000 0.30710000
-0.66660000 2.63730000 0.28930000
-0.66760000 2.72620000 0.29460000
-0.66800000 2.46760000 0.28760000
0.79980000 -1.19390000 -0.36840000
0.84150000 -1.14900000 -0.35750000
0.85100000 -1.28080000 -0.36090000
-1.23740000 2.90850000 -0.26800000
-1.23720000 2.78280000 -0.26260000
-0.51470000 -1.14370000 0.35740000
-0.46850000 -0.93770000 0.38580000
-0.22560000 -2.45320000 -0.35110000
-0.23860000 -2.38070000 -0.34100000
-0.19480000 -2.03830000 -0.35080000
-0.18260000 -2.15260000 -0.35510000
-0.23180000 -2.11560000 -0.33810000
0.89060000 -3.06100000 -0.37030000
0.87940000 -2.66120000 -0.36780000
0.87220000 -2.40050000 -0.36530000
0.42550000 3.07350000 -0.16910000
0.45030000 3.07150000 -0.16080000
0.82400000 -2.11510000 -0.36630000
0.88350000 -2.11200000 -0.36050000
-0.84060000 1.47270000 -0.37920000
-0.86120000 1.50090000 -0.38050000
-0.81460000 1.51640000 -0.37930000
-0.78340000 1.48940000 -0.38400000
0.44130000 0.12250000 -0.23420000
0.42710000 -0.45200000 -0.23540000
0.45470000 -0.39360000 -0.24400000
0.71560000 -1.64440000 -0.36040000
0.69000000 -1.69920000 -0.36050000
0.73980000 -1.62110000 -0.36340000
-0.43920000 -1.09570000 -0.27950000
-0.35180000 2.75720000 -0.27260000
-0.35220000 2.89070000 -0.27540000
-0.34750000 2.55430000 -0.27120000
0.60820000 -1.70020000 -0.33550000
0.63340000 -1.69980000 -0.34860000
0.63490000 -1.72670000 -0.34440000
0.66090000 -1.73020000 -0.35340000
0.66040000 -1.69950000 -0.35700000
-0.06170000 0.16250000 -0.38240000
-0.06330000 0.19100000 -0.37700000
0.76370000 1.93060000 0.29860000
0.80930000 1.92450000 0.30350000
0.79090000 1.98090000 0.30720000
0.87160000 1.96170000 0.30470000
-0.52890000 3.14030000 -0.27830000
1.24120000 -2.74110000 -0.20330000
1.23520000 -2.83430000 -0.22300000
1.23480000 -2.67280000 -0.22830000
1.22150000 -2.79730000 -0.24720000
1.21930000 -2.69550000 -0.25010000
-0.20920000 2.87590000 0.30090000
-0.26370000 2.74990000 0.31440000
0.23510000 1.44430000 -0.31840000
0.85470000 -1.18250000 0.29710000
0.79680000 -1.09080000 0.29540000
0.81360000 -1.21200000 0.29480000
1.23170000 -3.19680000 -0.07310000
1.23580000 -3.20000000 -0.11460000
-0.97580000 3.17200000 -0.33080000
-0.32540000 -2.90560000 0.34580000
-0.35310000 -2.75660000 0.35700000
0.13490000 -2.11590000 -0.37170000
0.10480000 -2.06070000 -0.38600000
0.15210000 -2.05610000 -0.37930000
1.21730000 -3.21520000 -0.21840000
1.22140000 -3.21130000 -0.15540000
0.35590000 -3.24370000 -0.01250000
0.38550000 -3.24560000 -0.01260000
0.44380000 -3.23690000 0.04850000
0.88310000 -1.06390000 0.30520000
0.90590000 -0.98570000 0.30710000
0.87670000 -0.99720000 0.30780000
-0.76900000 -1.48120000 0.30110000
-0.77020000 -1.56910000 0.29990000
-0.70130000 -1.50200000 0.30680000
-0.67500000 1.77530000 -0.37210000
-0.66800000 1.83360000 -0.35980000
-0.60690000 1.77600000 -0.35940000
0.21030000 2.30540000 -0.32330000
0.71750000 -1.15950000 0.30150000
0.71680000 -1.23540000 0.29920000
0.69020000 -1.19770000 0.30710000
-0.81810000 1.20350000 -0.37590000
-0.79250000 1.25210000 -0.38250000
-0.77960000 1.16810000 -0.37600000
-0.82140000 1.16510000 -0.37980000
-1.17570000 -1.77410000 -0.30830000
-1.12890000 -1.79180000 -0.33150000
0.63500000 -1.25100000 0.31170000
0.63730000 -1.22500000 0.31720000
0.61300000 -1.21010000 0.31830000
0.69010000 -1.11480000 0.30590000
0.60900000 -1.13730000 0.31890000
0.66420000 -1.14220000 0.31370000
-0.64550000 1.94610000 -0.35970000
-0.58070000 1.96460000 -0.35530000
-0.62120000 1.88020000 -0.36510000
0.87430000 -1.67070000 0.30180000
0.86800000 -1.73920000 0.30530000
1.21620000 -3.14180000 0.22160000
1.23740000 -3.09220000 0.22520000
0.64100000 -1.19400000 0.32050000
-0.55550000 1.91510000 -0.35040000
-0.55420000 1.96460000 -0.35030000
-0.52870000 1.97780000 -0.33620000
-0.57820000 1.87870000 -0.36000000
-1.27020000 -3.05730000 0.18980000
-1.27260000 -3.12830000 0.14670000
-1.27050000 -3.00660000 0.29500000
-1.26700000 -2.87930000 0.20850000
0.08440000 -0.48280000 -0.36220000
0.15160000 -0.50890000 -0.34910000
-0.18470000 -2.64920000 -0.37070000
-0.19070000 -2.69110000 -0.37440000
-0.93550000 1.80110000 -0.37710000
-1.04100000 1.81530000 -0.36420000
-0.99840000 1.82170000 -0.36180000
-0.08490000 -3.15450000 0.23570000
-0.07580000 -3.15620000 0.17430000
0.19360000 -0.47640000 -0.33860000
1.20890000 -2.11290000 0.32090000
1.13610000 -2.10940000 0.34330000
1.15700000 -2.17690000 0.34350000
1.16440000 -2.10940000 0.34250000
-1.05290000 1.26490000 -0.34300000
-1.00520000 1.27700000 -0.36070000
-0.12850000 -2.61730000 -0.38760000
-0.13750000 -2.55210000 -0.38340000
-0.21600000 -2.58970000 -0.35650000
-0.15840000 -2.59310000 -0.38100000
-1.25780000 -1.41850000 0.27710000
-1.25300000 -1.51530000 0.07810000
-1.25670000 -1.39650000 0.18750000
0.13350000 0.25200000 -0.35140000
0.13430000 0.18210000 -0.35170000
0.36320000 -0.84930000 -0.26470000
0.38730000 -0.85950000 -0.25060000
0.26620000 -0.57540000 -0.31080000
0.72470000 1.24170000 0.29960000
0.77730000 1.29690000 0.29370000
0.67240000 1.10950000 0.30550000
-0.26320000 1.49590000 0.32060000
-0.27160000 1.58880000 0.32560000
-1.09620000 0.67200000 0.30520000
-1.02690000 0.70440000 0.29430000
0.69860000 -0.84020000 -0.34540000
0.71610000 -0.78760000 -0.35090000
0.66400000 -0.83060000 -0.33790000
-0.26910000 -2.25540000 0.32700000
-0.27440000 -2.48340000 0.32730000
0.85750000 2.37460000 0.30350000
0.86960000 2.20160000 0.30310000
0.88790000 2.29650000 0.30950000
0.58610000 -0.79880000 -0.31330000
0.61870000 -0.83030000 -0.32480000
0.93270000 2.33830000 -0.30450000
0.97890000 2.36870000 -0.29320000
-0.51560000 2.30940000 0.33970000
-0.53830000 2.26090000 0.32720000
-0.47190000 2.22230000 0.36930000
-1.01560000 -3.14040000 -0.24780000
-1.07980000 -3.15330000 -0.21600000
-0.09760000 1.52630000 0.29630000
-0.10810000 1.41880000 0.29790000
-0.05730000 1.55970000 0.29680000
-0.13540000 1.31430000 0.29870000
1.23620000 0.53510000 0.36100000
1.24100000 0.47260000 0.34320000
1.24160000 0.60190000 0.33950000
-0.14200000 1.75170000 0.29960000
-0.07770000 1.72870000 0.29940000
-0.09120000 1.79480000 0.29620000
1.18880000 3.13350000 0.29350000
1.15670000 3.15570000 0.28520000
1.16450000 3.15450000 0.25150000
1.13300000 3.17020000 0.24210000
0.04550000 1.87540000 -0.35770000
0.07080000 1.82970000 -0.35170000
0.10650000 1.84930000 -0.34860000
-0.66350000 0.48860000 -0.36840000
-0.71090000 -0.41940000 0.30390000
-0.74260000 -0.55240000 0.30290000
-0.67100000 -0.45590000 0.31050000
0.01610000 1.93220000 -0.37180000
-0.04390000 2.00420000 -0.35800000
-0.01120000 1.95670000 -0.36460000
-0.04170000 1.77360000 0.29710000
0.57260000 -0.50940000 -0.32630000
-1.12860000 1.78990000 0.32120000
0.38950000 2.89290000 -0.24290000
-0.75140000 -0.65180000 0.29770000
-0.69540000 -0.50860000 0.30770000
-1.24860000 -2.77300000 0.34280000
0.06530000 1.81280000 0.29700000
0.16330000 1.83680000 0.30460000
0.07320000 1.88290000 0.29490000
0.43070000 3.03680000 -0.23260000
0.40120000 3.05060000 -0.24540000
0.63050000 1.48910000 -0.29980000
0.67940000 1.54530000 -0.31410000
0.71510000 1.52290000 -0.32100000
-0.43430000 -3.23280000 -0.17470000
-0.46690000 -3.22480000 -0.19260000
-0.50650000 -3.20790000 -0.22820000
-0.45770000 -3.23320000 -0.25120000
-0.19710000 2.29170000 0.30220000
-0.19770000 2.19670000 0.30760000
-0.17160000 2.19010000 0.30800000
-1.20270000 -3.05960000 0.34690000
-1.13600000 -3.07060000 0.32520000
-1.14160000 -2.95840000 0.32350000
-1.11360000 -2.96380000 0.31620000
-0.04090000 1.81290000 0.29780000
-0.09750000 1.87100000 0.29470000
0.33260000 -3.19590000 -0.25250000
0.33200000 -3.18720000 -0.27410000
0.35530000 -3.17920000 -0.27740000
0.35690000 -3.19440000 -0.26680000
0.93900000 -3.15260000 0.22880000
0.93370000 -3.14760000 0.27030000
-0.53080000 -3.19680000 -0.27730000
-0.21210000 -1.44440000 0.31310000
-0.20830000 -1.58580000 0.31420000
-0.25150000 -1.57400000 0.32290000
1.07400000 3.15700000 -0.22350000
1.04170000 3.15020000 -0.25120000
1.04490000 3.17310000 -0.23670000
1.04460000 3.18400000 -0.20990000
1.01220000 3.19590000 -0.21750000
0.81790000 -2.54430000 0.30110000
0.79400000 -2.58660000 0.30010000
0.86220000 -2.64920000 0.30180000
0.79130000 -2.54390000 0.30150000
0.74240000 -2.50840000 0.31160000
0.68940000 1.91350000 -0.32780000
0.71480000 1.94340000 -0.32430000
0.81950000 2.00070000 -0.31940000
0.76940000 1.97360000 -0.33160000
0.76970000 2.02530000 -0.32500000
1.05370000 -3.13800000 0.21380000
-0.63190000 3.20110000 0.17640000
-0.27200000 -0.60800000 0.33120000
0.82370000 -3.10110000 -0.37380000
1.20750000 3.06750000 -0.20230000
0.10200000 -3.15660000 -0.32870000
-0.94090000 3.20890000 0.10350000
-0.92430000 3.21950000 0.20690000
-0.77870000 3.22940000 0.21660000
-0.82250000 3.22720000 0.17960000
-0.88080000 3.22500000 0.20840000
-0.29510000 -1.27730000 0.33510000
-0.29160000 -0.75780000 0.33260000
-0.25270000 -0.70790000 0.32440000
-0.27530000 -0.65920000 0.33500000
-0.29680000 -0.66790000 0.33720000
1.14520000 2.14070000 -0.22990000
1.18640000 2.20000000 -0.21010000
0.72050000 0.67500000 0.30020000
0.30380000 2.00130000 0.33940000
0.27730000 2.15250000 0.32700000
0.27780000 1.89760000 0.32960000
-1.21300000 -2.21280000 0.34960000
-1.21120000 -2.34260000 0.34830000
-1.22610000 -0.91140000 0.34090000
-1.22790000 -0.98900000 0.34600000
0.07630000 0.57010000 -0.36130000
0.10510000 0.52270000 -0.35300000
0.05290000 0.49840000 -0.36010000
0.00270000 0.60910000 -0.36100000
-0.75150000 1.21830000 -0.38130000
-0.75920000 1.30570000 -0.37350000
0.21790000 0.49280000 0.31640000
0.24320000 0.20480000 0.32230000
1.24460000 -1.80320000 -0.14970000
-0.20740000 2.13970000 -0.33220000
-0.20340000 1.77850000 -0.32810000
-0.19690000 1.22700000 -0.33190000
-0.23130000 1.75730000 -0.32010000
-0.03210000 -0.68180000 0.31090000
0.00060000 -0.73070000 0.30100000
-0.57860000 1.63310000 -0.35410000
-0.58050000 1.57980000 -0.33860000
-0.62000000 1.58100000 -0.34450000
0.85390000 0.10360000 0.29990000
-0.98130000 2.61380000 -0.37090000
-1.02310000 2.63580000 -0.36350000
-1.02450000 2.57370000 -0.36430000
-1.25420000 1.34700000 0.30560000
-1.25590000 1.16950000 0.28130000
-1.25370000 0.97480000 0.30220000
-0.94590000 -3.13520000 -0.31120000
-0.96530000 -3.13400000 -0.35240000
-0.85920000 -3.13450000 -0.33770000
1.09290000 3.06010000 0.34300000
1.19590000 2.76040000 0.38430000
-0.85770000 -1.59760000 0.29190000
-0.95550000 -1.60280000 0.29950000
-0.95530000 -1.51810000 0.29940000
-0.91540000 -1.47000000 0.29570000
-0.99310000 -1.42440000 0.29990000
0.79320000 0.17560000 0.30880000
0.71720000 0.25880000 0.30350000
0.75260000 0.21250000 0.31100000
-1.08620000 3.02970000 0.28100000
-1.04190000 2.89930000 0.27800000
0.78190000 0.52600000 -0.34180000
0.74840000 0.49790000 -0.33930000
0.78440000 0.46400000 -0.34390000
-0.76980000 -2.96690000 -0.40190000
-1.23810000 -3.17950000 -0.06540000
0.10800000 2.30220000 -0.35880000
0.07780000 2.35550000 -0.36540000
0.11640000 2.35690000 -0.35420000
0.05210000 2.29500000 -0.36350000
0.06370000 2.33140000 -0.36680000
0.06230000 -1.17590000 -0.37680000
0.01340000 -1.13320000 -0.38850000
-0.01930000 -1.08640000 -0.39010000
1.23810000 -1.26620000 0.34010000
1.24200000 -1.17520000 0.32460000
0.07150000 -0.03380000 -0.37670000
0.11250000 -0.04860000 -0.36440000
0.10040000 -0.10570000 -0.36720000
-1.25800000 0.56970000 0.32910000
-0.79700000 1.25950000 0.28820000
-0.84810000 1.20750000 0.28460000
1.22430000 -1.23270000 0.37440000
1.23070000 -1.27280000 0.36300000
1.23210000 -1.24160000 0.36230000
1.23900000 -1.40810000 0.34460000
0.21370000 -0.26440000 -0.32930000
1.22250000 -1.31150000 0.37270000
1.21240000 -1.16850000 0.38240000
-0.90090000 1.11700000 0.28650000
0.83290000 0.10270000 -0.33630000
0.85560000 -0.04900000 -0.34250000
0.85360000 -0.14490000 -0.34890000
0.06750000 1.34840000 -0.37120000
0.08830000 1.31590000 -0.36440000
0.06130000 1.26950000 -0.36180000
0.19040000 1.30750000 -0.34050000
0.95840000 1.53450000 -0.30570000
1.00650000 1.53390000 -0.29540000
1.03350000 1.44400000 -0.28160000
1.03120000 1.52950000 -0.28580000
0.96400000 0.01430000 0.30860000
1.01420000 0.05830000 0.31630000
-0.44380000 2.55370000 0.38070000
-0.44970000 2.24000000 0.38030000
-0.42050000 2.38120000 0.38550000
-0.46730000 2.47290000 0.36830000
1.20830000 -2.08830000 0.32650000
1.22080000 -2.06420000 0.31820000
1.22590000 -2.08810000 0.30090000
0.05600000 -1.55420000 -0.38050000
-1.19750000 -0.93810000 -0.29900000
-1.19430000 -1.17070000 -0.30250000
-1.04970000 -0.00740000 0.29940000
-1.08840000 0.07250000 0.30620000
-1.17870000 2.63180000 -0.32800000
-1.13020000 2.46320000 -0.34210000
0.67610000 -1.49680000 -0.35390000
0.71520000 -1.48830000 -0.37260000
0.70710000 -1.36730000 -0.36240000
0.66000000 -1.39890000 -0.35390000
-0.42090000 2.19690000 0.38720000
-0.42110000 2.10610000 0.39000000
-0.39410000 2.25170000 0.37950000
-0.44670000 2.16990000 0.38020000
1.20520000 -1.10500000 -0.23700000
-0.76960000 -0.49150000 0.29580000
-0.85900000 -0.53690000 0.29330000
0.61290000 -1.44400000 -0.33070000
0.63660000 -1.39780000 -0.34250000
0.65950000 -1.42610000 -0.35510000
0.83000000 -3.14430000 -0.31460000
-0.39280000 2.56760000 0.37960000
-0.41770000 2.57340000 0.38570000
-0.79030000 1.54760000 -0.38090000
-0.76400000 1.55490000 -0.37980000
-0.76740000 -0.32130000 0.29750000
-0.70340000 0.03320000 0.29830000
-0.79210000 -0.46860000 0.29480000
-0.75520000 -0.39550000 0.30220000
0.65850000 1.83390000 -0.31400000
0.63210000 1.86110000 -0.30650000
0.65720000 1.88760000 -0.32170000
0.60270000 1.72290000 -0.29290000
0.63930000 1.79680000 -0.30540000
1.24620000 -0.15070000 -0.15000000
0.27580000 2.90270000 0.32790000
0.28830000 3.05060000 0.33480000
-0.72310000 -0.37000000 0.30440000
-0.79230000 -0.36760000 0.29950000
-0.78610000 -3.13670000 0.28840000
1.10600000 -2.95670000 0.27560000
1.05660000 -3.11510000 0.22950000
1.06480000 -3.04980000 0.25360000
0.85870000 -2.38030000 0.30120000
0.81680000 -2.46620000 0.30150000
0.86960000 -2.22320000 0.30260000
0.83460000 -2.28940000 0.29930000
0.96820000 0.83300000 -0.31090000
0.92960000 0.75810000 -0.33010000
0.87730000 0.76130000 -0.34820000
0.90160000 0.71200000 -0.34210000
0.03150000 -0.19900000 -0.38160000
0.03180000 -0.25490000 -0.39100000
0.02920000 -0.30940000 -0.38210000
-1.17070000 -3.16140000 -0.23790000
1.21280000 2.06810000 0.38820000
1.21320000 2.10000000 0.39140000
1.24600000 2.07100000 0.37770000
1.23310000 2.09970000 0.39520000
-0.01660000 1.43810000 -0.36180000
-0.00880000 1.40010000 -0.36420000
-0.83630000 -0.47670000 -0.39860000
-1.12390000 1.89020000 -0.34610000
-1.15260000 2.14640000 -0.33230000
0.43240000 -3.23820000 -0.25270000
0.43280000 -3.24120000 -0.18760000
0.42320000 -3.24160000 -0.12520000
1.25180000 -3.07810000 0.00440000
1.24990000 -3.13480000 -0.02170000
0.90000000 2.75490000 0.32740000
0.90640000 2.78190000 0.33100000
0.87660000 2.78200000 0.32350000
-0.85200000 -3.09610000 0.29720000
-0.82280000 -3.06370000 0.29880000
0.74330000 3.15040000 -0.27260000
0.79980000 3.16260000 -0.28260000
1.19060000 -2.21360000 0.34510000
1.17910000 -2.11250000 0.33820000
1.18320000 -2.16900000 0.34050000
1.20110000 -2.16190000 0.33310000
0.22530000 -3.19230000 0.19210000
-1.24100000 2.54000000 0.34790000
-1.24240000 2.43200000 0.34900000
-1.22300000 2.46080000 0.35460000
-0.94620000 2.51230000 -0.38230000
-0.94940000 2.40600000 -0.38150000
-0.97360000 2.45100000 -0.37850000
-1.00170000 2.37690000 -0.37720000
-0.97380000 2.40560000 -0.38130000
-0.64550000 2.25220000 0.29250000
-0.61690000 2.07980000 0.29980000
-0.64070000 2.34560000 0.29550000
0.73990000 1.95680000 -0.32970000
-0.56800000 1.11130000 -0.33030000
-1.24350000 -0.99830000 -0.14130000
0.79050000 1.89160000 0.30140000
0.64750000 -1.05920000 -0.33650000
0.57740000 -1.07740000 -0.31470000
0.68120000 -0.97600000 -0.34200000
0.40440000 3.05720000 0.34380000
0.40950000 3.06310000 0.30290000
0.56540000 0.61310000 0.32930000
0.56180000 0.74800000 0.32980000
0.56150000 0.27950000 0.32840000
0.56160000 0.49360000 0.32850000
1.08480000 -0.56830000 0.33780000
1.08630000 -0.33420000 0.34130000
1.10850000 -0.48130000 0.34800000
0.70250000 1.84530000 0.29590000
0.97900000 2.82250000 0.32290000
0.95580000 2.77890000 0.33290000
1.02210000 2.77720000 0.32720000
0.81610000 1.97900000 0.30900000
-0.01650000 0.85110000 -0.35920000
0.02430000 0.88730000 -0.35880000
0.87160000 -0.66450000 0.30110000
0.90250000 -0.73120000 0.30800000
-1.26630000 0.42250000 0.31600000
-1.25370000 0.61670000 -0.02970000
-0.16120000 0.27810000 0.30560000
-0.19360000 0.37220000 0.30800000
-0.20830000 0.45060000 0.30930000
0.85720000 2.02560000 0.30420000
0.79470000 2.58650000 0.30510000
0.79480000 2.54650000 0.30420000
0.76930000 2.52060000 0.30050000
-1.26020000 1.96390000 0.24540000
-1.26220000 2.27940000 0.29030000
-0.09530000 2.23670000 -0.36570000
-0.11000000 2.20730000 -0.36080000
-1.00800000 3.17150000 0.23890000
-1.01050000 3.18420000 0.22470000
-1.04640000 3.10710000 0.26170000
-1.22570000 -3.00380000 -0.30480000
1.25080000 -2.50680000 -0.15080000
1.24830000 -2.63840000 -0.17950000
1.24810000 -2.50760000 -0.18480000
1.24420000 -2.64420000 -0.20460000
-0.41000000 3.07050000 0.01510000
-0.36670000 3.09700000 0.05160000
-0.38220000 3.09420000 0.15150000
0.57950000 1.11390000 -0.31780000
0.61880000 1.06990000 -0.32040000
0.60380000 1.02400000 -0.31200000
0.58200000 1.02010000 -0.29620000
-0.52490000 -3.09360000 0.36970000
