23.33960000 -9.24180000 2.04170000
23.77240000 -9.14300000 2.21050000
24.17150000 -9.07240000 2.37320000
-35.96820000 -103.95620000 4.19930000
-35.94780000 -104.56530000 4.03830000
-35.92400000 -102.40630000 3.46480000
-35.94230000 -101.94890000 3.60110000
-35.93710000 -103.18520000 3.65320000
-35.96540000 -102.84530000 3.88360000
35.89180000 -67.60940000 7.96400000
35.80580000 -67.74450000 8.10400000
35.68470000 -67.87400000 8.21760000
-20.06960000 -143.57940000 -5.71000000
-19.39160000 -143.62970000 -5.96730000
-18.31760000 -143.77380000 -6.33060000
34.66720000 137.51700000 -2.36530000
34.73130000 137.77150000 -2.28690000
34.80890000 138.17680000 -2.18220000
35.35590000 -88.28030000 5.04570000
35.31350000 -88.10240000 4.85850000
35.25450000 -88.05390000 4.51550000
6.73440000 -27.72700000 -1.85650000
7.15160000 -29.30500000 -1.81460000
7.64050000 -30.52820000 -1.76050000
-36.33310000 -98.78970000 7.56580000
-36.33300000 -99.29480000 7.53550000
-36.28950000 -98.26100000 7.17200000
-36.23120000 -97.83450000 6.61630000
-31.47940000 123.75800000 -2.54920000
-32.11930000 124.22930000 -2.17580000
-32.57980000 124.07120000 -1.90080000
15.92960000 11.17310000 -8.82280000
15.81620000 10.25880000 -8.82600000
15.94070000 9.38270000 -8.77840000
30.76320000 126.07830000 -4.83400000
31.00080000 125.37650000 -4.73150000
30.59860000 127.40290000 -4.89460000
-27.36220000 53.71190000 -4.29960000
-27.18390000 53.16660000 -4.37620000
-27.03790000 52.47040000 -4.44190000
36.29990000 36.33190000 5.61470000
36.24480000 36.64410000 5.36240000
36.28990000 35.80230000 5.53410000
36.16620000 36.08050000 4.90540000
36.26310000 35.24650000 5.42030000
36.18890000 35.16280000 5.05190000
-36.32650000 -100.66870000 7.42750000
-36.26200000 -100.65740000 6.77230000
-36.21740000 -100.97150000 6.41010000
-36.23980000 -101.43430000 6.77630000
-35.12260000 65.97030000 0.58350000
-35.13110000 65.64210000 0.63610000
-35.04680000 66.09050000 0.40930000
-34.93910000 66.04720000 0.24720000
36.22880000 -11.53460000 7.19170000
36.17180000 -11.68120000 6.99060000
36.24710000 -11.41100000 7.37100000
29.10680000 124.18220000 -5.66320000
28.58500000 124.02920000 -5.90790000
28.04650000 124.56060000 -6.13730000
28.08870000 123.72370000 -6.13300000
36.22550000 33.62800000 5.48150000
36.09600000 33.86990000 4.76250000
36.00350000 34.18190000 4.25630000
-31.20630000 144.48450000 -2.18630000
-31.44820000 144.42540000 -2.04420000
-31.83340000 144.41850000 -1.81800000
-36.20830000 -100.69920000 6.19990000
-36.15940000 -100.46750000 5.63840000
-36.11450000 -99.99000000 5.28000000
-24.75230000 -134.91400000 4.82280000
-24.30280000 -135.11920000 4.60690000
-23.62790000 -133.16600000 4.18950000
-23.79910000 -134.58150000 4.33550000
-35.09310000 65.19910000 0.51130000
-35.05440000 64.92190000 0.42290000
-35.14010000 65.36030000 0.64150000
-16.68350000 121.82960000 -0.76890000
-17.19740000 122.32040000 -0.59470000
-16.21910000 121.70680000 -0.92820000
-15.97490000 120.77350000 -0.98690000
36.07970000 35.69040000 4.42110000
36.12200000 35.25310000 4.67440000
35.95820000 35.71490000 3.82020000
35.91610000 35.46940000 3.64770000
-35.09430000 121.55460000 2.34140000
-35.13150000 121.27110000 2.83520000
-35.07530000 121.76710000 1.96780000
-36.51010000 -100.54210000 9.00110000
-36.43720000 -100.25480000 8.46560000
-36.36630000 -99.78350000 7.84930000
-35.59290000 120.68580000 8.64520000
-35.56790000 120.37320000 8.80260000
-35.54060000 120.24150000 8.93240000
36.02360000 35.85820000 4.14660000
36.02930000 36.09660000 4.21400000
36.06630000 36.81940000 4.42580000
36.01810000 36.56160000 4.17960000
-30.71830000 41.90940000 -2.33140000
-30.04350000 41.57540000 -2.71820000
-30.21510000 41.03850000 -2.61060000
-30.75980000 41.15570000 -2.29560000
-31.28290000 42.32500000 -1.99490000
-31.20660000 41.63820000 -2.03200000
-14.52500000 121.23450000 -1.45990000
-14.76390000 120.68780000 -1.37270000
-15.23200000 120.75220000 -1.22900000
-15.70090000 120.37590000 -1.06610000
-3.03890000 59.00570000 -10.82790000
-3.82740000 59.05920000 -10.76950000
-4.35790000 58.98940000 -10.72530000
35.51650000 105.64530000 -1.40070000
35.54130000 105.23250000 -1.33670000
35.52570000 106.71670000 -1.36660000
35.50340000 106.33900000 -1.45010000
35.00730000 79.74730000 -1.94250000
34.92040000 79.99550000 -2.07680000
34.80940000 80.12600000 -2.21840000
36.15360000 37.48280000 4.73860000
36.16960000 37.65430000 4.85190000
36.21790000 37.57290000 5.14570000
36.21780000 37.42530000 5.13930000
36.18480000 37.81670000 4.98980000
36.24100000 37.67020000 5.31910000
36.13110000 37.12160000 4.76810000
36.20200000 37.15380000 5.15860000
36.19850000 36.83740000 5.13870000
36.14530000 36.73490000 4.84320000
-30.12700000 42.20330000 -2.67740000
-30.64970000 42.61170000 -2.37900000
-31.11850000 42.80290000 -2.09880000
-35.68830000 103.24490000 8.95920000
-35.65050000 103.23590000 9.08610000
-35.72890000 103.04260000 8.79220000
-35.74950000 102.82810000 8.57260000
-36.07050000 66.04230000 8.62780000
-36.08310000 65.93520000 8.89340000
-36.02920000 66.14560000 8.10300000
-34.14150000 -79.30130000 0.76670000
-34.34700000 -79.77610000 0.92240000
-33.70010000 -78.88000000 0.46350000
-24.96710000 137.61170000 -5.50860000
-25.54850000 137.71650000 -5.27750000
-26.05820000 137.67590000 -5.07340000
36.10580000 37.81750000 4.59680000
36.10980000 37.69070000 4.56780000
36.08260000 37.57250000 4.41700000
36.19190000 37.30830000 5.03290000
36.13710000 37.32360000 4.71090000
-35.53300000 103.39270000 9.29400000
-35.59330000 103.18910000 9.19420000
-35.49190000 103.68690000 9.34930000
-30.60170000 -139.78090000 -0.61500000
-30.17930000 -140.07040000 -0.87630000
-29.74600000 -139.92120000 -1.13210000
-36.29560000 33.48640000 9.05530000
-36.32100000 32.98450000 9.37320000
-36.35230000 32.74820000 9.62260000
-33.66700000 -81.15480000 0.48940000
-34.08490000 -81.32120000 0.78420000
-34.35670000 -81.76040000 0.98820000
8.78240000 -71.84690000 -9.16970000
8.26760000 -71.55190000 -9.22850000
7.70680000 -71.01700000 -9.28410000
36.09040000 36.95520000 4.56090000
36.06690000 37.30110000 4.43630000
36.08380000 37.42610000 4.45500000
0.43800000 1.36040000 -10.12910000
0.08970000 1.06760000 -10.11480000
-0.54900000 1.26050000 -10.09600000
-1.25650000 1.32870000 -10.06410000
22.83040000 -139.94150000 3.55420000
23.22240000 -141.06820000 3.77650000
23.75520000 -142.16190000 4.06250000
35.39290000 -58.63330000 4.77720000
35.34120000 -58.72270000 4.47590000
35.30910000 -58.57730000 4.25220000
5.03130000 -31.65740000 -9.70090000
4.55370000 -32.32450000 -9.71700000
5.51050000 -31.17840000 -9.67700000
-36.14610000 -56.86950000 4.09700000
-36.18580000 -57.45850000 4.61570000
-36.10040000 -56.17730000 3.59080000
36.21010000 37.99390000 5.08150000
36.25030000 37.84450000 5.32930000
36.14220000 37.96230000 4.75150000
9.50500000 -145.21630000 -7.36770000
9.38050000 -145.25420000 -6.77710000
9.04010000 -145.26300000 -6.06580000
34.88370000 -23.17030000 0.24260000
34.89330000 -23.62740000 0.25150000
34.89780000 -22.67080000 0.25230000
32.83160000 9.86600000 -2.16150000
32.31800000 10.57610000 -2.46010000
33.22800000 9.46930000 -1.93000000
33.44040000 8.80110000 -1.79090000
35.43330000 -0.82440000 2.50560000
35.41850000 -1.39670000 2.46230000
35.39270000 -1.69630000 2.40550000
-35.50980000 -142.74210000 4.87060000
-35.52920000 -142.81990000 5.10790000
-35.46920000 -142.72280000 4.49760000
-35.44450000 -142.37920000 4.20900000
34.02640000 8.26100000 -1.39100000
33.85130000 8.42760000 -1.52260000
34.05170000 7.89510000 -1.35340000
33.82960000 7.99670000 -1.51450000
33.60180000 8.43900000 -1.67980000
33.52100000 8.11760000 -1.71440000
4.48120000 -135.19970000 -9.82950000
3.82610000 -134.47370000 -9.84270000
3.15820000 -133.90310000 -9.84520000
17.56550000 86.67590000 -9.72660000
17.31230000 85.81830000 -9.78400000
17.56380000 88.60530000 -9.74210000
17.81620000 88.08930000 -9.67190000
-27.55720000 127.05640000 4.45220000
-27.24130000 127.82370000 4.22060000
-26.68920000 131.37810000 3.78760000
-26.85620000 129.82240000 3.92380000
-0.11900000 39.38860000 -10.70010000
-0.61860000 39.34550000 -10.68200000
-1.01240000 39.56820000 -10.67020000
34.00500000 7.52520000 -1.38380000
33.82450000 7.50780000 -1.51350000
33.58040000 7.70320000 -1.67250000
-35.57150000 -142.69640000 5.59840000
-35.53290000 -142.83750000 5.25060000
-35.62190000 -142.67890000 6.00070000
19.11740000 86.97190000 -9.30400000
18.40420000 87.29870000 -9.51080000
17.90560000 87.42890000 -9.64520000
32.50520000 137.18630000 6.00280000
32.20160000 137.36060000 5.82010000
31.79750000 137.48980000 5.54370000
-22.75410000 -71.39940000 -5.19770000
-22.28980000 -72.08160000 -5.36510000
-22.00600000 -73.18840000 -5.45820000
30.84390000 9.62570000 -3.22660000
30.83500000 8.10030000 -3.19460000
31.13800000 6.20820000 -2.99620000
33.61360000 140.87350000 -2.96560000
33.24470000 140.95930000 -3.16590000
32.73140000 141.31180000 -3.43650000
-18.86110000 145.00540000 -7.24480000
-18.73020000 144.94340000 -7.38340000
-18.98750000 145.06650000 -7.06190000
-35.71570000 26.95570000 3.41250000
-35.77550000 26.56140000 3.96710000
-35.83560000 26.35610000 4.43550000
-21.46040000 61.49090000 2.30410000
-21.98050000 60.93520000 2.54440000
-22.51890000 60.38820000 2.80110000
-22.57980000 59.49440000 2.83770000
-23.83440000 81.88680000 -6.15100000
-24.01700000 81.22690000 -6.07970000
-25.12660000 80.78950000 -5.63300000
-24.51400000 80.45260000 -5.87990000
-31.49980000 -29.03610000 -1.40060000
-31.66240000 -29.96110000 -1.29960000
-31.67350000 -31.03700000 -1.29510000
34.65030000 45.45440000 -1.61430000
34.64710000 44.66720000 -1.61470000
34.67270000 46.26310000 -1.60380000
34.28820000 -139.36600000 2.41610000
34.29980000 -139.79930000 2.50010000
34.18310000 -139.38740000 1.88970000
34.14520000 -139.72380000 1.70030000
34.23860000 -139.22880000 2.13480000
-33.70390000 -118.80490000 10.25310000
-33.47540000 -119.96040000 10.12120000
-32.97990000 -120.78990000 9.76230000
-32.71620000 -121.67790000 9.57880000
-9.17350000 -96.10120000 -8.82400000
-8.53690000 -97.08380000 -8.91840000
-7.82360000 -97.19860000 -9.01660000
33.26440000 66.09380000 6.56170000
32.70350000 65.70900000 6.17540000
32.27760000 65.66130000 5.89080000
32.15160000 66.60640000 5.80810000
12.70610000 -145.28820000 -0.30170000
12.33920000 -145.30350000 -0.70010000
13.17310000 -145.27040000 0.05580000
34.32180000 -138.77810000 2.64620000
34.28150000 -139.06970000 2.37780000
34.37790000 -138.67790000 2.99860000
-35.94220000 -139.87260000 9.42290000
-35.97870000 -140.02030000 9.56560000
-36.00950000 -140.09630000 9.75450000
36.61740000 91.21020000 5.70410000
36.64180000 90.94040000 5.93400000
36.52140000 91.50310000 5.20400000
-22.76900000 -23.63910000 -5.49320000
-22.78780000 -24.55900000 -5.48380000
-22.82320000 -25.29440000 -5.46440000
-7.36580000 -144.13080000 -9.08460000
-7.31330000 -144.31120000 -9.08270000
-7.44980000 -143.92710000 -9.07650000
32.57530000 -32.42680000 7.13610000
32.10330000 -32.96510000 6.81690000
31.71450000 -34.06940000 6.56400000
-27.94180000 11.02710000 -3.50990000
-28.04220000 11.96370000 -3.45920000
-27.82580000 12.78530000 -3.57610000
-35.91970000 86.87980000 9.65010000
-35.91600000 86.60100000 9.63780000
-35.89180000 86.25340000 9.74570000
-35.89820000 85.73110000 9.76770000
-35.94020000 85.47060000 9.64300000
-35.45230000 60.54770000 2.23900000
-35.44030000 59.90230000 2.10810000
-35.45280000 60.89750000 2.19270000
-4.69940000 -144.06870000 -9.36180000
-5.29390000 -143.92210000 -9.27040000
-5.81350000 -143.94530000 -9.22000000
-35.95310000 47.20320000 6.21420000
-35.94460000 47.92880000 6.16320000
-35.92530000 48.93640000 6.09020000
28.40510000 145.01320000 0.22970000
28.18100000 144.99970000 0.28280000
28.12970000 144.99110000 0.37940000
27.98410000 145.00030000 0.15280000
27.84600000 144.98720000 0.23820000
28.68010000 145.01250000 0.02670000
28.89920000 145.00610000 0.04150000
-12.03130000 144.90900000 -2.78280000
-11.88500000 144.80500000 -2.77020000
-11.70710000 144.68590000 -2.78340000
33.65500000 -137.14530000 -0.42960000
33.54870000 -137.19490000 -0.62370000
33.43660000 -137.24910000 -0.77580000
33.39260000 -137.54630000 -0.82100000
-34.68860000 101.82720000 -0.39680000
-34.59660000 102.17810000 -0.50790000
-34.46800000 102.17440000 -0.63480000
-12.12620000 -141.60520000 -8.16300000
-11.71690000 -141.57870000 -8.26200000
-11.27190000 -141.26570000 -8.36590000
35.67160000 104.04450000 7.75230000
35.46980000 103.91500000 7.75130000
35.47280000 103.57940000 7.75150000
35.57410000 103.46690000 7.75360000
35.25790000 103.83670000 7.70990000
35.34000000 103.34650000 7.72250000
35.14880000 103.06900000 7.65630000
35.02080000 103.28010000 7.61820000
-35.69500000 -123.35730000 4.04920000
-35.69180000 -123.80420000 4.03410000
-35.65880000 -124.24400000 3.83460000
34.59360000 -141.50770000 4.61500000
34.57520000 -141.67910000 4.43080000
34.59830000 -141.92240000 4.49800000
34.61110000 -142.25220000 4.62750000
-12.55000000 144.26520000 -2.49510000
-13.03060000 144.28150000 -2.37130000
-12.77540000 144.03410000 -2.43840000
-12.35270000 143.95970000 -2.54830000
-13.50430000 144.69250000 -2.30810000
-13.39250000 144.56690000 -2.30250000
-13.63920000 144.66540000 -2.27980000
27.81990000 145.01030000 0.05780000
27.67840000 145.00440000 0.09810000
27.94700000 144.99830000 0.41750000
27.69160000 144.99860000 0.32110000
34.05390000 -87.24900000 8.13540000
34.13040000 -87.97800000 8.19250000
34.02140000 -86.16150000 8.11690000
34.72580000 105.52510000 7.48140000
34.82000000 104.17680000 7.53230000
35.07740000 104.27800000 7.64330000
34.95620000 103.75280000 7.59550000
4.17040000 -145.35980000 -1.67260000
4.05610000 -145.34090000 -2.47380000
4.02560000 -145.35390000 -1.26590000
-13.77900000 144.64770000 -2.23250000
-13.95190000 144.53480000 -2.14990000
-14.28560000 144.51250000 -2.04000000
34.54490000 -141.87750000 4.15600000
34.51080000 -142.16420000 4.02880000
34.57310000 -141.77690000 4.34090000
27.25280000 145.03310000 -0.35130000
27.45320000 145.02750000 0.04480000
27.58590000 145.00890000 0.19240000
30.59580000 -56.44220000 5.92360000
30.72550000 -60.05370000 6.01060000
31.10310000 -61.93940000 6.24530000
31.48670000 -63.09690000 6.48750000
31.63460000 -65.33800000 6.58800000
35.19260000 104.57050000 7.67810000
35.33390000 104.39330000 7.72350000
35.54650000 104.46260000 7.74800000
35.45570000 104.25090000 7.74710000
2.51830000 -53.78310000 -2.07650000
2.68150000 -54.98720000 -2.06350000
3.09730000 -55.32550000 -2.04660000
3.52700000 -55.76210000 -2.02600000
-36.24400000 45.93850000 10.43170000
-36.18600000 45.86760000 10.55130000
-36.12780000 45.79310000 10.64080000
-36.11150000 45.38160000 10.64910000
-20.89170000 -34.22320000 -6.08950000
-20.24940000 -34.12810000 -6.30840000
-19.65450000 -34.02680000 -6.50530000
-19.30080000 -34.70230000 -6.61620000
1.39640000 -111.72710000 -1.42820000
1.71840000 -112.81670000 -1.39240000
1.35980000 -110.82660000 -1.44790000
36.16540000 82.45940000 3.56970000
35.98740000 83.08390000 2.56120000
36.27860000 82.01530000 4.17920000
36.33010000 82.29380000 4.44900000
4.09820000 145.30440000 -5.22140000
3.58600000 145.32610000 -5.37960000
3.23320000 145.33430000 -5.35720000
4.62960000 145.28780000 -5.03260000
-31.44080000 123.06110000 7.41200000
-31.63670000 121.79280000 7.58760000
-31.98900000 123.56250000 7.84990000
-32.07040000 121.53450000 7.94460000
-32.70660000 123.44350000 8.44690000
-32.57310000 121.95040000 8.35610000
20.55930000 -144.76070000 2.97500000
20.62490000 -144.90020000 2.93960000
20.81380000 -145.00380000 2.91020000
-35.23880000 120.18180000 3.96170000
-35.20190000 120.07440000 3.37450000
-35.18960000 119.82060000 3.11990000
-35.27510000 120.02360000 4.51310000
11.98370000 82.01640000 -10.72980000
12.42820000 82.30850000 -10.66560000
12.91840000 82.94700000 -10.59700000
-22.44400000 1.98960000 2.89990000
-22.13430000 -0.50580000 2.74690000
-22.48270000 5.10100000 2.92100000
36.34930000 83.06760000 4.64750000
36.35710000 82.56310000 4.64190000
36.40860000 83.32560000 5.02120000
18.38810000 -144.43160000 2.38840000
18.29620000 -144.61190000 2.34490000
18.48560000 -144.75080000 2.35280000
-31.38500000 124.54810000 7.33960000
-31.20820000 123.93360000 7.20820000
-30.79040000 124.05920000 6.87140000
-30.40880000 124.03750000 6.57670000
35.88060000 -82.73890000 7.19940000
35.84060000 -82.66410000 6.87280000
35.73730000 -82.48030000 6.34300000
-36.06270000 -67.90310000 3.04670000
-36.01480000 -67.52860000 2.77660000
-36.10290000 -68.15740000 3.36920000
10.82480000 -76.45950000 -1.11780000
10.95030000 -77.20000000 -1.09280000
10.77930000 -75.70460000 -1.13430000
-35.99620000 -48.62610000 11.13480000
-36.16980000 -48.58220000 11.09560000
-36.27800000 -48.72990000 11.03410000
36.39420000 11.87400000 7.31300000
36.36760000 11.73780000 7.46750000
36.31900000 11.82330000 7.59390000
21.45240000 -77.66480000 -6.17410000
21.64220000 -78.89620000 -6.11140000
21.97300000 -80.31220000 -5.99480000
-32.52600000 124.83270000 8.27380000
-32.00050000 125.32910000 7.82880000
-31.54560000 125.44160000 7.45350000
-32.98530000 -93.46880000 9.32810000
-33.49300000 -94.20060000 9.73600000
-33.85260000 -94.56530000 10.03270000
-34.05420000 -95.07820000 10.20160000
30.97170000 -24.12460000 6.01880000
31.06500000 -24.96290000 6.08540000
30.71730000 -24.29670000 5.86420000
30.39460000 -25.19560000 5.67540000
35.72110000 42.32660000 8.04200000
35.59590000 42.22490000 8.04570000
35.41160000 42.17600000 8.04410000
35.22910000 41.98930000 7.99190000
35.16480000 41.79980000 7.96190000
-33.51740000 126.97270000 9.06110000
-33.53670000 125.88410000 9.09710000
-33.57040000 127.81030000 9.09010000
-34.57930000 -95.05900000 10.62720000
-34.31050000 -95.34330000 10.40870000
-34.70540000 -94.33910000 10.72410000
33.01890000 -137.91170000 -1.14240000
33.18800000 -137.80780000 -1.01480000
33.33200000 -137.77870000 -0.87740000
32.02400000 -23.87960000 6.70430000
31.71050000 -24.91030000 6.50340000
31.33890000 -25.39620000 6.26770000
35.56170000 31.71830000 8.16420000
35.60870000 31.52880000 8.17990000
35.75000000 31.43380000 8.18040000
35.85780000 31.27770000 8.16190000
35.81090000 -80.61450000 6.73720000
35.89220000 -80.64190000 7.10670000
35.90920000 -80.86440000 7.18180000
35.86600000 -80.92370000 6.97170000
35.94740000 -79.63450000 7.29010000
35.92060000 -79.35910000 7.13800000
35.93000000 -80.21060000 7.18290000
35.88980000 -80.04680000 6.94230000
35.40420000 41.80570000 8.03990000
35.61850000 41.75540000 8.05710000
35.73160000 41.74620000 8.03900000
35.21610000 41.73640000 7.98480000
34.02500000 -10.22890000 -1.01660000
34.01070000 -10.85030000 -1.02540000
34.04860000 -9.62110000 -1.02060000
35.13180000 32.75070000 8.07000000
34.96550000 32.57690000 7.99980000
34.81500000 32.27380000 7.92220000
35.89240000 -80.48030000 7.03900000
35.85180000 -80.41630000 6.82410000
35.86330000 -79.40810000 6.88360000
35.82490000 -79.92750000 6.67480000
18.30060000 53.42170000 -9.03150000
18.80570000 52.09780000 -8.86770000
19.55760000 51.26090000 -8.63750000
36.10770000 41.59260000 7.98070000
36.23100000 41.56920000 7.91400000
35.88690000 41.69910000 8.01080000
35.40910000 -34.05140000 8.43860000
35.37350000 -34.26860000 8.45280000
35.20080000 -34.32590000 8.47840000
35.07490000 -34.59470000 8.48700000
35.80830000 -80.25380000 6.63240000
35.76020000 -80.25770000 6.47880000
35.59700000 -79.62380000 5.69180000
35.66730000 -79.96110000 6.04050000
-17.43820000 48.31360000 -7.94490000
-16.79340000 48.15530000 -8.14130000
-16.23190000 48.07530000 -8.30260000
35.61250000 32.38190000 8.11630000
35.40100000 32.25810000 8.13840000
35.24130000 32.16980000 8.11560000
35.23670000 32.06590000 8.11510000
-35.08130000 110.89390000 0.49000000
-35.07980000 110.52820000 0.51640000
-35.06610000 111.27080000 0.44460000
-5.66190000 -113.60150000 -9.29990000
-4.99190000 -113.51910000 -9.37320000
-4.45760000 -112.77570000 -9.42660000
35.71730000 -80.23350000 6.29610000
35.73720000 -80.46260000 6.39090000
35.79790000 -80.74690000 6.65170000
-34.95550000 46.14990000 0.52290000
-35.01950000 45.72200000 0.63920000
-34.90990000 46.60160000 0.45490000
-17.32860000 43.36290000 -7.91160000
-16.59050000 42.68550000 -8.11950000
-15.84900000 42.62610000 -8.32160000
35.24960000 31.93780000 8.12620000
35.38870000 31.89750000 8.16190000
35.53010000 31.86790000 8.16770000
-34.86470000 82.72530000 -0.03560000
-34.96370000 82.44960000 0.12200000
-35.04840000 82.35390000 0.28950000
-35.06950000 81.96270000 0.34570000
-0.93440000 36.84470000 -2.30400000
-0.45950000 40.72610000 -2.35030000
-1.50850000 35.59900000 -2.26810000
35.59430000 66.97540000 0.93680000
35.62640000 66.71760000 1.10660000
35.59830000 67.41290000 0.93630000
-36.59130000 -32.81050000 9.46460000
-36.57470000 -32.57370000 9.22820000
-36.58740000 -32.25220000 9.30730000
-21.05390000 -106.02560000 -5.60490000
-21.56170000 -106.18880000 -5.41560000
-20.57860000 -105.64380000 -5.78030000
-35.23320000 -18.13320000 1.07320000
-35.08980000 -18.35300000 0.92310000
-34.90130000 -18.59510000 0.76620000
-2.47760000 40.59380000 -2.25230000
-3.12110000 41.22800000 -2.21650000
-3.70520000 42.52590000 -2.17800000
-33.43920000 -130.82350000 1.18670000
-33.89430000 -132.67470000 1.54030000
-34.29370000 -133.52650000 1.86390000
-35.87090000 78.13770000 7.16060000
-35.82230000 78.26880000 6.76230000
-35.65330000 78.03350000 4.83270000
-35.74350000 78.13350000 5.89760000
-35.46290000 94.94100000 10.03160000
-35.56370000 94.59110000 9.97690000
-35.30770000 95.32770000 10.06880000
-35.32840000 95.10130000 10.08500000
-17.85620000 -117.81160000 -6.62230000
-18.07610000 -117.10350000 -6.55040000
-18.41810000 -116.44250000 -6.44210000
-35.26980000 -126.25220000 2.58390000
-35.35820000 -125.98370000 2.71760000
-35.24350000 -126.63070000 2.55190000
-35.44410000 -126.00240000 2.90070000
-6.37930000 145.31970000 -7.64640000
-6.67940000 145.33020000 -7.84840000
-7.02550000 145.32060000 -8.16160000
-35.53250000 -46.73090000 1.41420000
-35.56500000 -47.14070000 1.45340000
-35.45550000 -46.35120000 1.33590000
33.93800000 -105.18990000 -0.26150000
33.93210000 -105.94730000 -0.26210000
33.84900000 -106.35110000 -0.34850000
-6.48690000 -31.29490000 -9.40080000
-5.93840000 -32.43830000 -9.44320000
-6.37650000 -33.15830000 -9.39290000
-6.83970000 -32.35790000 -9.35260000
-7.17410000 -30.30860000 -9.32950000
-7.11730000 -29.00690000 -9.34610000
3.76970000 59.49230000 -11.03640000
4.33160000 58.72160000 -11.01110000
5.11850000 57.93910000 -10.96880000
-36.18860000 -93.32770000 5.82020000
-36.12090000 -93.18930000 5.11160000
-36.23740000 -93.61130000 6.43990000
-36.26770000 -94.13970000 6.86770000
36.41490000 29.07880000 7.58100000
36.44700000 28.83420000 7.46680000
36.47010000 28.52400000 7.35900000
-28.42860000 -20.78920000 6.16450000
-27.95630000 -22.15080000 5.83590000
-27.56700000 -22.79370000 5.58060000
-35.78820000 85.79240000 10.07450000
-35.84680000 85.88110000 9.95450000
-35.87810000 85.95540000 9.83510000
6.29480000 15.36250000 -10.22570000
7.00470000 15.28810000 -10.18650000
7.55380000 15.00330000 -10.14710000
-5.62480000 -30.23650000 -9.48740000
-5.47250000 -31.15290000 -9.49500000
-4.90400000 -30.91060000 -9.54310000
-4.30970000 -30.96240000 -9.58610000
-4.25960000 -32.34800000 -9.57850000
36.36400000 56.38840000 7.55260000
36.31120000 56.38150000 7.70650000
36.41440000 56.39050000 7.31250000
-36.37140000 -94.70250000 8.11120000
-36.31670000 -94.58090000 7.45020000
-36.41930000 -94.52940000 8.63430000
-5.93070000 -29.84500000 -9.46060000
-6.55200000 -30.04750000 -9.40070000
-6.99780000 -28.82650000 -9.36070000
-34.48140000 105.50170000 -0.62070000
-34.31410000 104.98270000 -0.77170000
-34.05100000 104.64600000 -0.96460000
35.29650000 -40.45190000 8.53670000
35.44540000 -40.56070000 8.50670000
35.14520000 -40.36080000 8.54270000
-26.29220000 -77.66020000 -3.67960000
-26.20690000 -78.70400000 -3.71600000
-26.26290000 -76.37240000 -3.70460000
-35.77230000 99.25260000 9.18830000
-35.80330000 99.41110000 8.97660000
-35.79990000 99.85730000 8.70650000
-36.36470000 -121.56840000 10.71950000
-36.41550000 -121.41820000 10.58530000
-36.43440000 -121.27010000 10.43530000
-35.89190000 -6.98450000 3.57840000
-35.87900000 -7.07350000 3.30660000
-35.84530000 -6.72610000 2.84540000
-35.85710000 -7.12880000 2.93620000
36.47010000 76.32680000 5.05280000
36.40630000 75.96580000 4.57430000
36.37070000 75.64050000 4.19410000
36.40590000 75.62440000 4.42280000
36.36300000 75.38840000 4.21560000
36.32310000 75.33990000 3.98480000
7.44730000 -145.26640000 -4.64820000
7.55210000 -145.27740000 -4.38170000
7.27000000 -145.27160000 -4.86400000
25.40140000 143.57010000 1.79030000
25.46690000 142.55830000 1.83870000
25.36190000 143.97530000 1.74140000
36.17340000 -32.42860000 7.21960000
36.16070000 -32.51350000 7.04060000
36.16070000 -32.73050000 7.01010000
36.16980000 -32.37250000 7.41400000
-35.86950000 -7.70160000 3.13000000
-35.90500000 -8.24350000 3.39150000
-35.86450000 -7.29570000 3.07510000
-23.39520000 -132.10270000 4.03630000
-22.83280000 -131.51940000 3.74790000
-22.32980000 -130.88270000 3.49560000
-22.07270000 -131.34190000 3.39600000
-35.33630000 -95.94610000 1.99010000
-35.35590000 -96.26080000 1.99850000
-35.34400000 -95.58570000 1.98480000
36.30230000 75.69030000 3.92070000
36.28010000 75.44120000 3.81390000
36.39520000 75.80210000 4.39660000
36.36330000 75.85700000 4.21110000
-28.88530000 27.96410000 -3.17210000
-28.65580000 27.32480000 -3.29350000
-29.11400000 28.95600000 -3.06400000
-17.84920000 95.46290000 0.28290000
-17.33960000 94.87570000 0.10700000
-16.74130000 94.45270000 -0.09910000
15.15070000 -95.72450000 -8.06650000
15.66120000 -96.51150000 -7.94170000
14.74020000 -94.65440000 -8.16420000
28.75820000 130.33300000 3.68400000
28.29280000 130.24610000 3.42000000
27.89710000 130.22340000 3.20000000
35.73990000 113.37090000 0.14270000
35.79030000 113.01920000 0.50350000
35.68650000 113.91780000 -0.10590000
-16.11910000 85.51970000 -0.13240000
-16.72500000 85.18640000 0.07650000
-17.47060000 86.18650000 0.32180000
-17.24300000 85.20500000 0.25880000
-33.46070000 91.56880000 9.51630000
-33.77640000 91.89560000 9.77130000
-33.93990000 94.53590000 9.84160000
-33.94140000 93.18620000 9.86820000
36.23550000 76.26070000 3.67320000
36.19130000 76.31480000 3.46130000
36.26030000 76.04890000 3.72640000
36.21140000 76.04130000 3.45980000
36.10910000 75.95150000 3.13370000
36.04490000 75.76240000 2.84030000
35.97580000 75.83830000 2.51590000
-35.21540000 81.42400000 0.80640000
-35.16620000 81.67630000 0.60240000
-35.09520000 81.68720000 0.41250000
-18.18440000 87.80820000 0.55620000
-17.72080000 87.48080000 0.38860000
-18.58190000 87.77580000 0.71290000
-10.97930000 124.19950000 -9.91400000
-10.75530000 122.65480000 -9.97480000
-12.17570000 123.78560000 -9.65250000
-11.60490000 124.76990000 -9.77210000
-34.28370000 91.71090000 10.12000000
-34.10950000 91.83410000 10.01660000
-33.95830000 92.20530000 9.90520000
-13.10020000 27.32560000 -8.79270000
-13.36440000 25.22950000 -8.70410000
-12.53040000 29.67670000 -8.95750000
-12.57820000 28.69610000 -8.93280000
-10.60520000 128.65850000 -9.94500000
-10.93920000 127.30200000 -9.89190000
-11.17310000 125.55410000 -9.85990000
-25.06200000 133.35650000 -5.56940000
-25.13080000 132.51320000 -5.55150000
-24.89140000 132.11230000 -5.64820000
-25.12470000 134.31470000 -5.52740000
36.24920000 75.93210000 3.69110000
36.20850000 75.90410000 3.48370000
36.26810000 75.91990000 3.83210000
36.31230000 75.85480000 3.99490000
-14.30070000 130.56500000 -9.08620000
-13.93590000 128.89040000 -9.19510000
-13.24330000 128.26750000 -9.36320000
14.73770000 144.33600000 -2.12360000
14.93700000 144.27530000 -2.07370000
15.21270000 144.31990000 -2.00120000
6.95600000 -80.18980000 -1.63270000
7.57370000 -80.74800000 -1.56280000
8.04840000 -81.37320000 -1.49720000
-14.00030000 -139.08050000 0.90160000
-13.53940000 -138.38480000 0.75710000
-13.49290000 -137.25620000 0.69580000
-14.49950000 -139.71330000 1.05980000
36.14330000 76.31540000 3.26340000
36.14500000 76.11730000 3.21420000
36.15700000 75.98680000 3.28130000
-35.08940000 57.78480000 0.62760000
-35.17790000 57.94800000 0.81680000
-35.25670000 58.08080000 1.07710000
8.93110000 -125.13450000 -9.40210000
8.49720000 -125.90330000 -9.45230000
9.24830000 -124.47890000 -9.36150000
-36.11590000 -14.35300000 4.97180000
-36.08520000 -14.59480000 4.68390000
-36.24520000 -13.50380000 6.42250000
-36.19010000 -13.70540000 5.76690000
35.31010000 117.00720000 -1.88810000
35.25230000 116.36550000 -2.00350000
35.35150000 117.58020000 -1.78570000
35.55870000 -5.63600000 3.28420000
35.49750000 -5.73540000 2.95380000
35.63580000 -5.97480000 3.67940000
35.68550000 -6.34620000 3.95340000
34.15140000 -68.29120000 8.22390000
33.89830000 -68.03560000 8.07150000
33.15140000 -67.23530000 7.57670000
33.42360000 -67.81090000 7.76330000
9.86540000 -92.94500000 -9.07150000
10.30120000 -93.28310000 -9.01360000
10.76670000 -93.91150000 -8.94260000
10.82860000 -94.57710000 -8.93440000
-17.84970000 17.56550000 -7.39900000
-18.04250000 16.42950000 -7.32590000
-18.00550000 15.40100000 -7.33260000
35.29480000 -5.40220000 1.83970000
35.35470000 -5.44100000 2.23700000
35.43560000 -5.73530000 2.65330000
36.42570000 52.13100000 5.72580000
36.47180000 52.63330000 5.95860000
36.48800000 53.26150000 6.14440000
-36.02550000 -13.36780000 3.98450000
-36.06430000 -13.51340000 4.46670000
-36.15190000 -13.96890000 5.38310000
-36.11470000 -13.92210000 4.99270000
-1.41740000 144.35280000 -4.08790000
-1.45250000 143.67250000 -4.06240000
-1.30800000 144.66940000 -4.12250000
-1.46160000 -82.54350000 -1.88620000
-0.82780000 -82.83840000 -1.90030000
-2.08610000 -82.88370000 -1.86160000
-0.21000000 -83.21250000 -1.90770000
23.77930000 144.91060000 -6.92830000
23.87120000 144.84330000 -6.98880000
23.90710000 144.75390000 -7.04070000
23.71530000 144.71650000 -7.12330000
4.17450000 -123.46660000 -9.72610000
4.07040000 -124.75400000 -9.74390000
4.18490000 -122.44960000 -9.72030000
33.06250000 -144.84770000 2.62140000
32.89060000 -144.89620000 2.49110000
33.24690000 -144.78860000 2.74390000
-3.13150000 -82.92520000 -1.81150000
-2.56380000 -83.20180000 -1.83730000
-3.84460000 -82.64960000 -1.76860000
-35.37860000 37.21860000 1.43450000
-35.32720000 37.15080000 1.26780000
-35.24910000 37.07910000 1.08200000
22.03620000 -134.46150000 -6.36250000
21.87160000 -135.40930000 -6.43660000
21.76120000 -136.57840000 -6.49260000
-36.32950000 -14.63210000 7.17840000
-36.24790000 -14.52030000 6.28610000
-36.18560000 -14.08010000 5.68340000
36.00700000 -70.98420000 7.67680000
36.02020000 -70.99300000 7.52930000
35.98940000 -71.12920000 7.75000000
35.96810000 -70.98780000 7.14920000
35.90940000 -71.04600000 6.87550000
-34.83610000 26.81980000 0.54000000
-34.69690000 26.31140000 0.41710000
-34.95820000 27.24010000 0.66170000
-24.59620000 130.88550000 -5.77630000
-24.61320000 130.10530000 -5.78680000
-24.56130000 131.68620000 -5.78080000
35.96630000 -70.59150000 7.24860000
35.99390000 -70.89460000 7.32680000
35.95650000 -70.20790000 7.21540000
16.85040000 132.85960000 -9.68430000
16.81890000 132.00930000 -9.71480000
16.93160000 133.80290000 -9.64860000
34.87280000 -30.57980000 0.30790000
34.86930000 -31.38140000 0.27010000
34.90580000 -29.25470000 0.38260000
10.32390000 -53.64610000 -9.05330000
9.75230000 -53.16880000 -9.13420000
9.15110000 -52.24140000 -9.20860000
5.35430000 144.92550000 -4.08040000
5.52450000 144.88350000 -4.06290000
5.72310000 144.90220000 -4.05890000
33.30240000 137.45950000 -3.23440000
32.84170000 137.44250000 -3.49440000
33.73020000 137.38860000 -2.98480000
-36.50370000 -25.93420000 8.69700000
-36.56130000 -26.31130000 9.19480000
-36.40970000 -25.35060000 7.89590000
15.37270000 132.57230000 -10.00390000
14.99570000 132.12280000 -10.08610000
14.62860000 131.35520000 -10.16660000
-19.15530000 -46.87340000 -6.61370000
-19.45970000 -47.97270000 -6.51050000
-18.60190000 -45.64500000 -6.79420000
-23.90500000 12.14260000 -5.30700000
-23.92890000 10.94300000 -5.28190000
-23.76800000 10.04760000 -5.34150000
35.39890000 72.45520000 -0.39820000
35.35590000 73.09220000 -0.68220000
35.30640000 73.47380000 -0.91550000
-35.85360000 74.60880000 6.52700000
-35.90400000 74.33140000 7.01080000
-35.78710000 74.55400000 5.88860000
-35.71660000 74.31730000 5.11760000
35.18900000 -122.61450000 8.02650000
35.30260000 -122.66070000 7.92620000
35.10290000 -122.90010000 8.06770000
35.38010000 -122.61390000 7.81190000
-18.22270000 -109.74480000 -6.55640000
-18.74870000 -109.28530000 -6.38890000
-19.36940000 -108.79540000 -6.18060000
-6.58960000 -144.54950000 -0.02600000
-6.51030000 -144.70990000 -0.04830000
-6.55530000 -144.84370000 -0.07910000
-14.93600000 2.46710000 -8.05760000
-15.76230000 2.88560000 -7.84710000
-13.87800000 1.83620000 -8.30660000
-13.55840000 1.13340000 -8.37240000
35.53090000 -94.12270000 7.97580000
35.43450000 -94.37450000 8.08050000
35.59370000 -93.61250000 7.93480000
34.98820000 -123.16020000 8.12870000
35.00620000 -123.45840000 8.09130000
34.83510000 -123.04290000 8.21800000
34.69640000 -122.92740000 8.25920000
16.41090000 57.82150000 -9.58540000
16.66960000 58.93530000 -9.54170000
16.73800000 59.70540000 -9.54510000
34.52800000 -86.58290000 0.42120000
34.57760000 -86.89970000 0.56310000
34.55660000 -87.11320000 0.52660000
34.49140000 -86.21780000 0.33490000
15.00560000 -12.94100000 -8.59090000
15.23780000 -14.56180000 -8.51260000
15.64780000 -15.39780000 -8.40640000
-29.00710000 -90.35660000 -2.23500000
-28.62050000 -90.81060000 -2.42810000
-28.04040000 -91.35630000 -2.71520000
-15.70450000 145.12280000 -7.94980000
-15.73310000 145.07030000 -8.12180000
-15.83620000 145.14110000 -7.61520000
34.45430000 -87.28670000 0.28440000
34.35410000 -87.45590000 0.13230000
34.53820000 -87.29400000 0.47700000
34.86570000 -123.89600000 8.19360000
34.82260000 -124.02240000 8.22960000
34.99350000 -123.93860000 8.06430000
35.11070000 -124.03300000 7.96340000
-17.69190000 -122.10960000 1.41530000
-17.31940000 -122.80220000 1.30780000
-18.22330000 -122.08960000 1.59950000
-18.80990000 -121.73630000 1.80030000
34.99750000 -123.62200000 8.06400000
34.89480000 -123.73380000 8.12380000
34.89840000 -123.84400000 8.14110000
36.03060000 71.49450000 7.78660000
36.14660000 71.49600000 7.73710000
36.25320000 71.53200000 7.66650000
-36.39760000 -40.82140000 7.32540000
-36.44060000 -41.39860000 7.77310000
-36.37280000 -40.32270000 7.08910000
36.32200000 6.75400000 7.49730000
36.29360000 6.28640000 7.59650000
36.25760000 6.07890000 7.69440000
36.29150000 130.63200000 5.93690000
36.27000000 130.64620000 5.67420000
36.21080000 130.51150000 5.19170000
36.18590000 130.03140000 4.92500000
-16.09360000 -123.21340000 0.93590000
-16.61310000 -123.14540000 1.08740000
-17.05200000 -123.33030000 1.23330000
-35.67230000 -132.75350000 5.07100000
-35.69240000 -132.83750000 5.44070000
-35.72520000 -132.71800000 5.75070000
-35.72910000 -132.95610000 5.80450000
-24.23280000 -145.00160000 -3.31560000
-24.08690000 -145.05730000 -3.17210000
-23.99640000 -145.10350000 -2.89400000
-34.73970000 122.58590000 -0.22250000
-34.76770000 122.30130000 -0.18520000
-34.70690000 122.83610000 -0.26220000
-4.08930000 -77.62140000 -1.78870000
-4.85310000 -77.53080000 -1.73840000
-5.48890000 -77.24840000 -1.68940000
-9.01350000 71.61990000 -10.28020000
-8.49470000 70.77560000 -10.35210000
-9.46690000 71.45530000 -10.20200000
-16.30410000 -115.59550000 0.82020000
-16.68630000 -116.17930000 0.94750000
-16.52780000 -117.31580000 0.92100000
35.99730000 -3.12740000 5.56210000
36.03100000 -4.02130000 5.70560000
36.09040000 -4.56410000 5.98910000
-35.68750000 37.70300000 11.04300000
-35.56290000 37.52480000 11.09780000
-35.45430000 38.21210000 11.10110000
-35.47060000 37.84330000 11.10180000
-17.75870000 38.69980000 -7.71140000
-18.56770000 38.78160000 -7.46790000
-19.20340000 39.48350000 -7.27670000
7.25540000 -84.47480000 -9.33210000
7.96170000 -85.17070000 -9.27160000
8.43960000 -85.59200000 -9.22650000
-35.46280000 37.54740000 11.11890000
-35.36010000 37.43820000 11.13930000
-35.26750000 37.38370000 11.14100000
-35.23700000 37.16740000 11.14060000
35.17860000 -73.84350000 8.45630000
35.34030000 -73.92090000 8.41460000
35.01990000 -73.63720000 8.45660000
35.02310000 -73.79250000 8.46620000
34.54570000 38.84010000 7.63930000
34.77740000 38.52690000 7.80800000
34.92820000 38.22980000 7.90760000
34.98130000 37.67300000 7.94090000
-12.43280000 145.18250000 -8.78060000
-12.19100000 145.13820000 -8.93590000
-11.92730000 145.06950000 -9.07860000
-35.96960000 -57.42500000 11.19850000
-36.09110000 -57.36920000 11.12850000
-35.82660000 -57.30410000 11.23090000
-18.87480000 -35.13100000 -6.74930000
-18.95370000 -35.76300000 -6.72090000
-18.34690000 -34.48620000 -6.91950000
-18.05010000 -33.25430000 -7.01350000
35.74850000 -61.30380000 8.25970000
35.79230000 -61.63200000 8.23490000
35.65580000 -61.09610000 8.31150000
35.00840000 -73.47670000 8.45970000
34.84520000 -73.42920000 8.45240000
34.66620000 -73.20040000 8.40830000
34.67730000 -73.37280000 8.41670000
35.44830000 36.00350000 8.11730000
35.26480000 36.15910000 8.07620000
35.07410000 36.97400000 7.98390000
35.09270000 36.54850000 8.00330000
-18.82810000 -36.34560000 -6.76390000
-18.19250000 -36.80840000 -6.96520000
-17.61890000 -37.68480000 -7.13810000
-33.49500000 133.38160000 8.94530000
-33.28720000 133.69220000 8.78690000
-33.68540000 132.65230000 9.09320000
-33.84140000 132.47520000 9.18110000
34.12110000 -139.95970000 1.58890000
34.06650000 -140.01050000 1.35800000
33.99840000 -140.04760000 1.00130000
34.82060000 -72.77650000 8.46280000
34.67380000 -73.02760000 8.42040000
34.92410000 -72.24660000 8.48650000
17.22900000 -22.86210000 0.09920000
16.71480000 -25.31090000 -0.03030000
17.63860000 -21.42850000 0.20810000
35.43530000 37.23630000 8.11410000
35.25710000 37.16860000 8.06450000
35.08820000 37.24980000 7.99250000
36.29950000 63.25690000 7.64380000
36.29220000 63.05970000 7.61000000
36.27910000 63.47500000 7.69290000
35.95170000 -69.13820000 7.63330000
35.92780000 -69.47460000 7.83740000
35.89530000 -69.81790000 7.96700000
35.89690000 -70.06380000 7.96470000
-28.53800000 -63.64000000 -2.75590000
-28.87780000 -64.39290000 -2.57520000
-28.29810000 -62.96850000 -2.89060000
35.25990000 35.31850000 0.44300000
35.16940000 35.01340000 0.04280000
35.36060000 35.67710000 0.88040000
35.87030000 -85.94820000 7.44380000
35.85920000 -86.11520000 7.62860000
35.76370000 -86.20050000 7.94590000
35.81150000 -86.23200000 7.84050000
18.38410000 -66.47320000 -7.16640000
18.95300000 -67.06720000 -6.99740000
17.56020000 -66.09940000 -7.39830000
32.90980000 52.27150000 6.35210000
33.15080000 50.90190000 6.52900000
32.70720000 53.33700000 6.20730000
-36.23790000 -40.92690000 11.01420000
-36.19380000 -41.07340000 11.04180000
-36.33790000 -41.00150000 10.92140000
-36.31020000 -41.22350000 10.93080000
-36.42360000 -41.10100000 10.79510000
-36.42600000 -41.29100000 10.76780000
-13.37190000 -136.46840000 0.62790000
-12.85780000 -136.14130000 0.49530000
-12.34810000 -135.93240000 0.38660000
-36.47040000 -112.50150000 10.04970000
-36.47560000 -112.65120000 9.83480000
-36.45090000 -112.69720000 9.61690000
-35.74870000 13.09740000 2.70830000
-35.76160000 12.53680000 2.83040000
-35.73990000 13.91140000 2.72970000
-35.75270000 13.53100000 2.82390000
1.56890000 29.99410000 -2.31000000
1.09930000 28.80420000 -2.29760000
2.10250000 29.63890000 -2.30470000
-35.29260000 117.22060000 9.31400000
-35.24900000 116.93420000 9.36130000
-35.39990000 117.18960000 9.21730000
-35.49120000 117.11910000 9.11320000
34.69710000 -30.98430000 -0.07370000
34.63860000 -30.90830000 -0.16970000
34.53950000 -29.89130000 -0.29540000
34.56390000 -30.74550000 -0.26200000
32.10000000 -139.81070000 8.14810000
32.22580000 -139.98590000 8.21610000
32.31860000 -140.25740000 8.25050000
-34.74830000 64.77280000 0.02100000
-34.61880000 64.90830000 -0.11070000
-34.46750000 64.79360000 -0.23880000
34.70470000 -82.31150000 8.41000000
34.66010000 -82.60190000 8.39090000
34.80750000 -82.04390000 8.43240000
-19.03480000 -39.48820000 -6.69590000
-19.39680000 -40.44360000 -6.57160000
-19.82070000 -41.28320000 -6.42380000
29.26920000 144.99540000 -0.13160000
29.56980000 144.96190000 -0.30990000
29.02850000 145.00680000 0.09030000
34.51080000 -29.36870000 -0.34290000
34.40730000 -29.49760000 -0.44810000
34.27110000 -29.63400000 -0.55480000
33.01680000 -137.71250000 8.40510000
33.27450000 -137.10720000 8.44490000
33.50550000 -136.80540000 8.45460000
32.86040000 -66.45360000 7.38080000
32.29980000 -66.23540000 7.01620000
31.82620000 -66.41180000 6.71380000
33.96390000 144.06020000 -2.39880000
33.90730000 143.93690000 -2.49510000
34.05910000 144.12190000 -2.27240000
-20.81260000 -44.41310000 -6.07470000
-21.24850000 -43.35120000 -5.93010000
-21.54660000 -42.20080000 -5.83440000
-29.98790000 -27.44690000 7.20130000
-29.85420000 -28.32080000 7.10310000
-29.86630000 -26.69460000 7.11510000
29.69250000 144.89470000 -1.82510000
29.48930000 144.89860000 -2.47440000
29.87790000 144.88830000 -1.36220000
20.13090000 -49.17950000 1.05950000
20.58270000 -50.36660000 1.21550000
20.96520000 -51.39150000 1.35300000
2.39810000 144.42860000 -10.84280000
2.71030000 144.52290000 -10.82520000
2.86800000 144.62520000 -10.80190000
-2.86030000 134.57520000 -10.87030000
-3.30750000 134.13730000 -10.84690000
-1.84620000 135.83270000 -10.90870000
-2.20810000 134.91010000 -10.90460000
35.91470000 76.09670000 2.23420000
35.84090000 76.12540000 1.84740000
35.74790000 76.37810000 1.33410000
-36.52870000 -102.63980000 9.69250000
-36.48700000 -102.75600000 9.52110000
-36.39300000 -102.56160000 8.71670000
-36.43160000 -102.61230000 9.12780000
-34.15650000 28.40790000 0.02630000
-33.74140000 28.13320000 -0.25850000
-32.99530000 28.09260000 -0.74390000
27.24570000 73.94540000 -6.31210000
27.63990000 74.31820000 -6.14800000
28.09190000 74.20090000 -5.94630000
13.99870000 -60.61480000 -8.33060000
13.80690000 -62.05000000 -8.36390000
13.97800000 -59.33560000 -8.34980000
-5.62580000 138.50430000 -10.54450000
-4.90570000 137.66610000 -10.63820000
-4.27900000 137.08760000 -10.70850000
6.26710000 -43.93130000 -9.53650000
5.87080000 -44.77670000 -9.55720000
4.73070000 -43.72510000 -9.62880000
5.12190000 -44.47390000 -9.60340000
-36.45900000 -103.24770000 9.42960000
-36.46680000 -103.60970000 9.51480000
-36.54020000 -103.50550000 9.86380000
-36.49870000 -103.34590000 9.66620000
10.95810000 -96.02270000 -8.91180000
10.87590000 -97.32020000 -8.93350000
10.75540000 -95.14180000 -8.94420000
29.47740000 47.03980000 -4.78260000
30.09700000 47.07440000 -4.47850000
30.71770000 46.74030000 -4.15090000
-35.38570000 62.79890000 10.90540000
-35.36060000 62.59310000 10.91380000
-35.23300000 62.48680000 10.92810000
-35.08600000 62.40000000 10.91490000
-36.46120000 -103.12640000 9.41200000
-36.44490000 -102.90780000 9.25310000
-36.45230000 -102.75300000 9.30970000
-33.75950000 79.75570000 -0.95530000
-33.47440000 78.97750000 -1.12410000
-33.09890000 78.55480000 -1.36190000
-35.24730000 -126.91910000 2.56940000
-35.21470000 -127.30330000 2.53780000
-35.23620000 -127.81190000 2.56190000
-36.19910000 -1.63700000 6.39310000
-36.23580000 -1.58280000 6.82460000
-36.26150000 -1.39890000 7.09350000
19.69280000 -130.37030000 2.01840000
20.08370000 -132.29370000 2.22400000
19.28470000 -128.62770000 1.82910000
35.14410000 -29.52920000 8.37250000
34.95250000 -30.01640000 8.36440000
34.90540000 -30.52480000 8.36510000
35.34890000 -29.29780000 8.35140000
35.86550000 -34.13570000 8.26020000
35.94610000 -34.24860000 8.18930000
36.02400000 -34.16140000 8.07580000
36.07710000 -34.01700000 7.93040000
26.68260000 39.64580000 -5.91030000
26.71560000 41.72740000 -5.94030000
26.73440000 43.83030000 -5.97590000
-36.37550000 -111.67610000 10.50900000
-36.22140000 -111.73040000 10.60810000
-36.45910000 -111.49310000 10.37710000
31.74390000 -144.83920000 5.42260000
31.48170000 -144.91150000 5.35370000
31.19960000 -144.96850000 5.20800000
30.95870000 -144.97780000 5.26190000
36.21290000 99.00050000 3.21410000
36.10680000 99.41900000 2.56000000
36.27470000 98.96610000 3.65490000
-36.28480000 52.27340000 9.40960000
-36.30580000 51.88550000 9.50940000
-36.26440000 52.93380000 9.16120000
19.50200000 -89.15310000 -6.82330000
19.09950000 -90.06450000 -6.95040000
18.38070000 -92.39100000 -7.17450000
18.66100000 -91.64970000 -7.08420000
-34.84030000 41.56740000 10.93370000
-34.70650000 41.51030000 10.87700000
-34.98530000 41.33480000 10.99430000
-35.10690000 40.81990000 11.02780000
-35.12840000 40.52260000 11.04860000
-7.55910000 -12.76250000 -1.60520000
-8.04420000 -11.87790000 -1.54020000
-8.68420000 -11.94150000 -1.44580000
-35.16510000 36.92860000 11.12610000
-35.02100000 36.84720000 11.08280000
-34.84640000 36.70310000 10.99630000
18.72570000 -90.61010000 -7.06370000
18.32210000 -89.72680000 -7.18430000
17.91640000 -88.72870000 -7.30410000
7.09980000 -128.66460000 -9.60570000
7.75010000 -128.18060000 -9.54740000
8.41700000 -127.78660000 -9.47650000
-35.44660000 40.86360000 11.04500000
-35.26910000 40.98370000 11.05580000
-35.11440000 41.06660000 11.03160000
35.74790000 21.24910000 3.67930000
35.78220000 21.54270000 3.86760000
35.77020000 22.64380000 3.71340000
35.80720000 22.29610000 3.90040000
-35.54230000 -66.25750000 11.24540000
-35.39230000 -65.97080000 11.23200000
-35.26700000 -65.56320000 11.20850000
-35.15980000 -65.37580000 11.17010000
-34.32520000 85.71730000 -0.63860000
-34.38950000 85.56760000 -0.58060000
-34.30560000 85.20970000 -0.63690000
-34.40010000 84.62150000 -0.57000000
-34.49340000 84.27660000 -0.48970000
-24.38190000 -68.21050000 -4.58560000
-24.44160000 -69.33210000 -4.55320000
-24.83710000 -70.17040000 -4.38190000
36.04900000 22.52690000 4.97580000
35.93930000 22.26310000 4.53020000
35.83860000 21.99860000 4.09160000
-29.38210000 92.56480000 6.38780000
-28.86840000 92.62650000 6.03070000
-28.34740000 92.81850000 5.67560000
34.42400000 70.16910000 -2.45250000
34.35010000 70.01680000 -2.51820000
34.41370000 70.85450000 -2.48480000
34.45050000 70.56100000 -2.42590000
-34.27920000 84.83670000 -0.66190000
-34.18780000 84.50800000 -0.73370000
-34.17850000 83.98290000 -0.73490000
-36.36510000 -2.06400000 8.04190000
-36.38900000 -2.24550000 8.05170000
-36.40600000 -2.51230000 8.13790000
-30.20660000 -130.10580000 -0.95550000
-30.25880000 -131.07240000 -0.91170000
-30.27780000 -129.37340000 -0.92980000
35.21480000 133.70820000 -1.57960000
35.24520000 133.31380000 -1.52290000
35.15790000 133.18550000 -1.74850000
35.10510000 133.34600000 -1.84970000
35.34410000 133.42010000 -1.11900000
35.32990000 133.24770000 -1.20760000
27.91110000 144.79000000 -5.09470000
27.88560000 144.72600000 -5.27510000
27.84970000 144.64250000 -5.40510000
-34.28700000 85.89650000 -0.67960000
-33.96130000 85.64720000 -0.89740000
-33.31200000 85.27060000 -1.30810000
29.03250000 -61.85320000 -3.09630000
28.43320000 -61.53060000 -3.38580000
29.68310000 -62.20140000 -2.76880000
-36.02010000 -106.86430000 10.90990000
-35.90440000 -106.76180000 10.94580000
-35.84730000 -106.30970000 10.98880000
34.43570000 -122.70040000 1.58880000
34.34170000 -122.38100000 1.03960000
34.33340000 -121.65030000 0.90800000
35.22120000 133.91760000 -1.49910000
35.31450000 133.63610000 -1.18700000
35.12320000 134.04730000 -1.73580000
35.08190000 133.91640000 -1.85250000
36.54550000 86.50190000 7.03390000
36.57130000 86.09310000 6.99690000
36.54710000 86.92260000 7.05050000
34.87330000 -30.94910000 8.37220000
34.69840000 -31.44930000 8.34460000
34.51420000 -31.88770000 8.29450000
34.49250000 -32.15360000 8.28990000
30.20720000 24.71600000 4.94690000
29.79460000 24.07340000 4.71500000
29.45350000 23.18140000 4.53420000
18.81630000 73.48420000 -0.25840000
18.39560000 72.57830000 -0.37030000
17.93810000 73.16370000 -0.50650000
19.05290000 75.90540000 -0.21110000
-35.34900000 95.62050000 10.04250000
-35.48680000 95.81820000 9.96120000
-35.57670000 96.02300000 9.86490000
36.33320000 128.90570000 6.44940000
36.30540000 129.09210000 6.57900000
36.26380000 129.55760000 6.63150000
-21.89940000 31.06850000 -6.25450000
-21.12280000 31.83020000 -6.53370000
