-26.32380000 -75.77250000 0.09910000
-26.28250000 -74.98460000 -0.25450000
-26.28360000 -75.22180000 0.46870000
-26.28210000 -75.84920000 0.57070000
-26.24060000 -75.29210000 0.65260000
-26.22990000 -74.72570000 0.64390000
-26.27930000 -76.63890000 0.61820000
-26.20390000 -75.40950000 0.74120000
-26.15410000 -74.02530000 0.80010000
-25.58810000 -14.76490000 0.62040000
-25.59290000 -14.05770000 0.53000000
-25.58170000 -13.41140000 0.55080000
-25.76360000 -20.42660000 0.31960000
-25.76930000 -19.99580000 0.34760000
-25.70890000 -20.14570000 0.60540000
-25.72880000 -19.66130000 0.56710000
5.11870000 43.75240000 5.83000000
5.32260000 43.00200000 5.80140000
5.51980000 43.93710000 5.86120000
5.48170000 44.80300000 5.91060000
5.73390000 44.19510000 5.87380000
5.89450000 46.26940000 5.98910000
4.67050000 41.48740000 5.74090000
4.99680000 42.12180000 5.75360000
18.70000000 5.13520000 3.41460000
18.50000000 5.56600000 3.48580000
18.69350000 4.12290000 3.25580000
18.35520000 3.96870000 3.35060000
18.91240000 4.44380000 3.25810000
18.46480000 4.37760000 3.41420000
-9.22580000 122.27750000 -0.75920000
-9.04870000 122.29840000 -0.37640000
-8.62520000 122.30270000 -0.33770000
-8.45000000 122.29880000 -0.47430000
-8.80660000 122.30960000 -0.00060000
-8.33380000 122.31200000 -0.04390000
-7.63450000 122.32110000 -0.10440000
-9.82460000 122.31980000 -0.91900000
-9.85930000 122.34250000 -0.64610000
-9.58920000 122.31960000 -0.44450000
-10.06320000 122.36370000 -0.41440000
-9.66570000 122.34130000 0.03770000
15.66300000 -112.93290000 4.78550000
16.34710000 -113.65350000 4.57500000
16.54910000 -113.04690000 4.52530000
16.23450000 -112.26290000 4.62940000
17.06970000 -113.07790000 4.36300000
16.87940000 -111.57380000 4.44420000
18.95760000 -113.28010000 3.73740000
19.56290000 -112.18420000 3.51950000
19.33600000 -110.63400000 3.61990000
18.97500000 -110.51460000 3.75750000
19.45680000 -109.59260000 3.58100000
-24.12200000 65.45980000 -6.59300000
-24.18200000 65.86290000 -6.53090000
-24.06620000 66.00320000 -6.58670000
-23.98500000 65.79920000 -6.63750000
-24.25740000 66.23060000 -6.45220000
-24.04710000 66.28080000 -6.58260000
-23.81110000 66.30230000 -6.66450000
-23.49020000 63.50500000 -6.56620000
-23.64610000 64.97370000 -6.62470000
-23.54770000 65.38180000 -6.60070000
-23.42550000 65.00510000 -6.56200000
-23.56740000 66.23030000 -6.61510000
-23.33350000 66.21620000 -6.54070000
-24.94280000 -24.11220000 1.41110000
-24.07930000 -24.70520000 1.82710000
-24.03300000 -24.18200000 1.84180000
-24.55740000 -23.58460000 1.58740000
-23.17790000 -25.38090000 2.25190000
-23.49240000 -24.12080000 2.08720000
-24.08540000 -22.87840000 1.79330000
-24.90720000 -23.08020000 1.40510000
-25.19730000 -23.22190000 1.26030000
-24.84210000 -22.57440000 1.42140000
-25.35050000 -22.30100000 1.14500000
-26.31290000 -75.82920000 0.40650000
-26.31260000 -75.51630000 0.21570000
-26.30290000 -75.10740000 0.17100000
-25.85380000 -73.51030000 -1.81040000
-25.88780000 -73.20570000 -1.61940000
-25.87180000 -72.75730000 -1.67490000
-26.00030000 -73.99360000 -1.18990000
-25.98520000 -73.42480000 -1.17550000
-26.01430000 -72.91460000 -1.02290000
-25.21320000 2.76980000 0.57210000
-25.20560000 2.23490000 0.53730000
-25.07430000 2.38960000 0.65750000
-25.03450000 2.77810000 0.72800000
-25.35750000 1.43860000 0.28040000
-25.38200000 1.84080000 0.28320000
-25.33300000 2.07360000 0.37630000
-11.07600000 -63.99580000 6.32620000
-11.48180000 -63.38320000 6.27060000
-11.52100000 -62.59580000 6.29830000
-8.72310000 -63.25390000 6.74720000
-8.63370000 -64.60600000 6.70350000
-8.19450000 -64.06510000 6.77490000
-7.99530000 -63.11010000 6.83320000
-23.79300000 72.61430000 -6.74140000
-23.95100000 71.47060000 -6.68280000
-24.00280000 71.90560000 -6.67870000
-23.96710000 72.67590000 -6.71340000
-24.07180000 70.24070000 -6.60470000
-24.09570000 71.49490000 -6.62000000
-24.10860000 72.58230000 -6.64130000
-24.18210000 70.50600000 -6.48610000
-24.16650000 71.23200000 -6.53040000
-24.27450000 70.87210000 -6.34390000
-24.20310000 71.80170000 -6.50000000
25.69650000 34.65960000 -1.09900000
25.62840000 34.45990000 -1.39750000
25.61350000 34.72750000 -1.46990000
25.64190000 34.94210000 -1.35400000
25.54790000 34.35820000 -1.72880000
25.55900000 34.75850000 -1.68790000
25.57860000 35.19660000 -1.57810000
25.66670000 35.57620000 -0.41730000
25.68340000 35.75640000 -0.52140000
25.73210000 35.28450000 -0.65400000
25.71820000 35.69190000 -0.69730000
2.08020000 -27.27170000 6.89500000
2.40280000 -26.89080000 6.76480000
2.14370000 -26.60000000 6.80460000
1.80660000 -26.67880000 6.90000000
2.91560000 -26.69330000 6.60750000
2.26770000 -26.39040000 6.74720000
2.15560000 -30.78570000 6.87910000
1.76000000 -31.45120000 6.85810000
2.02280000 -29.99850000 6.89320000
16.02480000 -86.02590000 -1.81260000
15.42720000 -84.58900000 -1.61520000
15.64810000 -82.65740000 -1.68590000
16.07420000 -82.67690000 -1.83230000
14.63710000 -83.29590000 -1.37360000
15.38920000 -81.13440000 -1.60530000
15.71450000 -92.30490000 -1.74320000
15.08070000 -94.23370000 -1.55840000
14.83070000 -92.90720000 -1.47030000
15.12190000 -91.17850000 -1.54500000
4.37390000 89.96310000 -0.86740000
3.95520000 89.65240000 -0.86380000
1.72600000 89.24910000 -0.88510000
2.24030000 89.90010000 -0.87830000
2.94580000 89.56100000 -0.86480000
23.98600000 -64.25660000 1.50710000
24.11970000 -63.87940000 1.43570000
23.92340000 -63.44430000 1.52040000
24.47660000 -64.43530000 1.26940000
24.42260000 -63.84760000 1.29220000
22.82230000 -60.42120000 1.97860000
22.57450000 -60.13920000 2.08390000
23.34070000 -59.74840000 1.77700000
22.57220000 -59.55740000 2.09240000
-14.50590000 -39.79250000 4.96780000
-14.59640000 -39.48430000 4.94510000
-13.53630000 -39.50110000 5.24250000
-14.23860000 -39.17480000 5.05020000
-13.77550000 -38.43500000 5.25090000
-13.69050000 -38.93130000 5.24370000
-13.32080000 -38.84770000 5.40560000
-13.24070000 -38.55790000 5.47590000
-13.07590000 -38.99730000 5.49150000
24.04570000 -32.71020000 1.13830000
24.13770000 -32.03430000 1.08700000
23.84380000 -31.85400000 1.22400000
24.69700000 -32.28610000 0.79410000
24.58490000 -31.52770000 0.85820000
25.10020000 -32.69890000 0.37270000
25.10200000 -32.40200000 0.34440000
25.04100000 -32.43450000 0.47930000
25.19270000 -32.39040000 0.02240000
25.14850000 -32.10440000 0.17990000
25.10260000 -31.86090000 0.30770000
23.56340000 5.59750000 -6.35880000
23.70620000 5.99830000 -6.39230000
23.41090000 5.97740000 -6.30320000
23.68240000 6.34050000 -6.37870000
23.25030000 -0.69820000 -6.16660000
22.44150000 -1.02510000 -5.69250000
22.19740000 -0.29050000 -5.55150000
22.43460000 0.27410000 -5.69710000
21.67770000 0.01440000 -5.23820000
21.69120000 1.36650000 -5.25770000
-20.60050000 15.58790000 2.31660000
-20.78480000 16.36210000 2.25960000
-20.99590000 16.90110000 2.18700000
-20.36110000 15.89090000 2.42060000
-20.67550000 16.82040000 2.31910000
-20.06100000 14.76750000 2.56000000
-20.20660000 15.14970000 2.49050000
-19.32540000 14.61810000 2.89470000
-19.91020000 15.24990000 2.62280000
24.14320000 -65.07570000 1.46330000
23.90380000 -64.76450000 1.56770000
23.96950000 -66.67920000 1.82260000
24.07950000 -66.50250000 1.70190000
23.94240000 -66.27070000 1.66580000
24.32030000 -66.55890000 1.61160000
24.30560000 -66.13940000 1.45180000
-12.67790000 60.69570000 4.53960000
-12.58050000 61.17790000 4.52550000
-12.33620000 61.47790000 4.57160000
-13.73320000 57.44300000 4.27950000
-13.57190000 57.67930000 4.35650000
-13.37990000 58.23100000 4.42030000
-13.83230000 56.61690000 4.25140000
-13.54480000 57.31100000 4.37280000
-8.36800000 -81.13170000 6.71240000
-8.52590000 -80.58660000 6.70280000
-9.25500000 -80.58390000 6.58660000
-9.62580000 -80.15190000 6.52800000
-9.59270000 -79.27240000 6.54520000
19.89460000 -18.33830000 2.94330000
20.07350000 -18.19330000 2.91500000
20.09290000 -18.52350000 2.78150000
20.76970000 -18.43810000 2.48690000
20.60900000 -20.31420000 2.45680000
20.88490000 -19.87710000 2.34230000
25.27870000 8.73630000 -1.54620000
25.19930000 9.56690000 -1.82440000
25.22870000 9.58200000 -1.65280000
25.28430000 9.08820000 -1.45350000
25.20440000 10.03140000 -1.72880000
25.29360000 9.46040000 -1.30710000
25.31210000 6.43210000 -0.58460000
25.32680000 6.70830000 -0.61980000
25.34670000 7.08050000 -0.48670000
25.28230000 6.04900000 -0.82710000
25.30840000 6.49710000 -0.80300000
-9.24110000 -41.28990000 -0.56540000
-8.76890000 -41.09380000 -0.53120000
-8.41270000 -41.84300000 -0.49650000
-8.63220000 -40.02020000 -0.53140000
-7.77030000 -40.41390000 -0.45580000
-6.34810000 -40.60620000 -0.31130000
-6.58600000 -38.91460000 -0.34840000
-6.00360000 -38.08230000 -0.29290000
-7.42230000 -37.98810000 -0.44240000
-9.34020000 -75.72460000 -0.25650000
-9.48310000 -74.35270000 -0.26860000
-9.16170000 -72.40520000 -0.25290000
-9.93500000 -78.65420000 -0.28600000
-9.89750000 -75.35920000 -0.28940000
-9.76550000 -71.31580000 -0.29260000
-6.78150000 -71.08520000 -0.04170000
-7.27100000 -70.41770000 -0.09500000
-8.22450000 -70.89520000 -0.18540000
25.21110000 7.66100000 0.03240000
25.29620000 8.62640000 -0.14070000
25.22680000 8.80730000 -0.02030000
25.15530000 8.42970000 0.10640000
25.31070000 7.86950000 -0.21730000
25.33020000 8.41780000 -0.24690000
25.36230000 8.01060000 -0.46940000
25.37310000 8.74290000 -0.39870000
-14.82840000 -78.40560000 5.69120000
-14.89600000 -78.73000000 5.70770000
-15.78660000 -80.68760000 5.49120000
-16.05660000 -81.12770000 5.41220000
-15.67720000 -80.10850000 5.55130000
10.90160000 35.71150000 -1.31900000
10.13390000 38.96910000 -1.13750000
10.41810000 39.91290000 -1.21010000
10.96460000 39.41580000 -1.33850000
10.29480000 41.89690000 -1.18300000
11.12770000 42.39100000 -1.38120000
11.51590000 39.84290000 -1.45170000
11.77140000 38.73810000 -1.49880000
11.79640000 41.58820000 -1.50960000
12.71510000 41.12830000 -1.70550000
-2.87240000 105.17390000 5.20270000
-3.32250000 106.25990000 5.13590000
-3.49950000 105.89800000 5.12240000
-3.58100000 107.77340000 5.07970000
-4.21430000 108.49860000 4.99980000
-2.34070000 105.17970000 5.24900000
-1.95520000 105.82500000 5.25720000
-1.97390000 106.83970000 5.23140000
-1.80880000 103.80920000 5.32010000
-1.46330000 105.29920000 5.30270000
-1.11390000 106.76880000 5.28680000
21.88840000 -118.65130000 -4.97020000
21.40340000 -118.01130000 -4.65960000
21.61660000 -117.47750000 -4.77570000
21.94570000 -117.62430000 -4.97530000
20.91620000 -117.18380000 -4.33550000
21.51380000 -116.97850000 -4.69570000
21.99900000 -116.83850000 -4.97900000
22.48930000 -117.41470000 -5.19120000
22.21240000 -118.09480000 -5.10810000
22.16250000 -117.64050000 -5.08220000
22.25620000 -117.15020000 -5.10840000
-16.99700000 -83.18730000 5.20370000
-17.02270000 -82.87810000 5.16410000
-16.78380000 -82.61580000 5.18130000
-16.26610000 -81.87640000 5.31730000
-16.22560000 -81.39510000 5.35970000
25.54460000 18.75430000 -0.44740000
25.54780000 19.23030000 -0.66830000
25.54590000 19.94670000 -0.57840000
25.54150000 19.92770000 -0.44840000
25.52550000 19.75280000 -0.91560000
25.53650000 20.44640000 -0.65890000
25.53220000 20.96680000 -0.46000000
25.48500000 18.14280000 -1.09790000
25.52030000 18.19120000 -0.92960000
25.46300000 18.78610000 -1.19920000
-11.52670000 -79.28640000 -0.37860000
-11.70740000 -76.60330000 -0.42540000
-11.52180000 -75.36540000 -0.39930000
-11.33750000 -76.30890000 -0.36120000
-11.47430000 -73.89670000 -0.40230000
-11.07080000 -74.02260000 -0.34360000
-10.92460000 -81.63690000 -0.30860000
-10.97100000 -76.98880000 -0.32280000
-10.59750000 -75.31300000 -0.31160000
-10.39450000 -76.22990000 -0.30180000
-10.49950000 -72.90720000 -0.31470000
-11.27830000 -88.51850000 6.58020000
-11.50380000 -88.10310000 6.54960000
-11.70230000 -88.49650000 6.52960000
-11.61620000 -87.16790000 6.51690000
-12.01220000 -87.17080000 6.46390000
-10.74790000 -88.42560000 6.58530000
-10.44800000 -88.81040000 6.55980000
25.38870000 22.80250000 0.11580000
25.48870000 23.00970000 -0.08650000
25.44590000 23.47000000 0.01800000
25.35960000 23.68540000 0.16940000
25.56810000 23.15850000 -0.31830000
25.47890000 23.72990000 -0.06050000
25.37130000 24.54360000 0.15460000
25.46600000 21.02820000 -0.11230000
25.55770000 21.49730000 -0.47950000
25.57000000 21.82770000 -0.47970000
25.53140000 21.89230000 -0.29610000
25.59670000 21.82470000 -0.87110000
25.59910000 22.19870000 -0.66600000
14.44860000 -44.72230000 -1.54400000
13.47870000 -45.65960000 -1.32160000
13.14310000 -45.09790000 -1.23830000
13.54390000 -44.48220000 -1.32600000
12.35560000 -46.23710000 -1.07640000
12.45810000 -45.06820000 -1.08890000
12.67540000 -43.87900000 -1.13120000
13.48080000 -39.57040000 -1.35410000
13.56170000 -38.34470000 -1.38570000
14.12650000 -37.79510000 -1.52770000
13.15380000 -37.58960000 -1.29660000
13.75350000 -36.18010000 -1.45200000
-0.99690000 -86.30480000 0.64300000
-0.85700000 -87.30020000 0.64450000
-0.85500000 -85.48250000 0.65240000
-0.76150000 -76.51550000 0.65060000
-1.04290000 -75.55330000 0.63180000
-0.84070000 -73.75400000 0.64110000
-0.60500000 -73.46000000 0.64990000
-0.88530000 -72.65250000 0.63570000
-0.43150000 -70.85280000 0.64480000
25.18770000 16.04280000 0.15530000
25.14020000 17.04060000 0.23280000
25.16960000 10.21530000 0.11820000
25.07440000 9.94360000 0.21280000
25.21930000 10.66560000 0.06090000
25.10890000 10.60780000 0.18390000
-3.27910000 66.13780000 -0.92010000
-3.12700000 66.96780000 -0.92610000
-3.50260000 67.63450000 -0.96810000
-4.23900000 68.47530000 -1.04130000
-4.64650000 68.79590000 -1.08110000
-4.77280000 69.78560000 -1.11080000
-4.98020000 68.26050000 -1.09980000
-5.37930000 69.68660000 -1.16100000
-11.27040000 -80.43180000 -0.34060000
-11.20540000 -77.81280000 -0.33750000
-11.16690000 -101.21990000 -0.40930000
-11.30860000 -100.06790000 -0.41360000
-11.26640000 -98.50110000 -0.39520000
-11.50020000 -100.51860000 -0.44690000
-11.56880000 -98.24630000 -0.43690000
16.14110000 -65.16920000 5.11230000
15.97630000 -64.61740000 5.16950000
16.51290000 -65.01680000 4.97440000
17.09250000 -65.06460000 4.83010000
16.91060000 -64.68990000 4.85790000
17.03390000 -63.97550000 4.81250000
19.50980000 -98.54290000 -3.43430000
20.04400000 -99.85070000 -3.68070000
19.22030000 -96.09950000 -3.27990000
20.18330000 -96.29950000 -3.69990000
21.66990000 -99.31910000 -4.54630000
21.23770000 -101.49310000 -4.32580000
21.06310000 -100.63260000 -4.20410000
21.25760000 -99.09770000 -4.29560000
20.82960000 -101.14770000 -4.07500000
20.88130000 -98.45670000 -4.06320000
-18.20100000 -2.09990000 3.70480000
-18.16360000 -1.46780000 3.68180000
-18.08240000 -2.79310000 3.75310000
-17.01450000 -5.14520000 4.09920000
-17.00240000 -4.84230000 4.06490000
-17.20680000 -4.44580000 3.98900000
0.00520000 29.95210000 5.97670000
0.10430000 30.18090000 6.06250000
-0.15770000 30.42690000 6.10350000
-0.05370000 27.28170000 5.84140000
-0.31270000 28.06300000 5.84290000
-0.85610000 28.38510000 5.83540000
-0.04580000 28.46840000 5.85370000
-0.90890000 29.47590000 5.84910000
19.94050000 -75.82770000 3.87610000
20.05460000 -76.15970000 3.74700000
20.34420000 -76.12790000 3.59640000
20.33300000 -75.87450000 3.65230000
20.17110000 -76.52890000 3.59920000
20.55620000 -76.31610000 3.44780000
20.78840000 -75.94450000 3.36990000
20.51460000 -77.78910000 3.40770000
20.01900000 -77.35730000 3.56800000
15.03790000 -59.14480000 -1.67040000
13.93780000 -59.26540000 -1.36010000
13.81860000 -58.50220000 -1.32850000
14.49190000 -58.18230000 -1.51600000
12.68040000 -59.36450000 -1.01850000
13.28950000 -58.14770000 -1.18360000
14.02750000 -56.94310000 -1.39050000
17.11970000 -55.24810000 -2.46430000
16.74750000 -54.63790000 -2.31900000
16.14350000 -57.55250000 -2.03960000
16.23400000 -55.18710000 -2.10270000
-6.21360000 30.92900000 6.01200000
-6.60290000 30.95200000 5.97980000
-7.90430000 30.75110000 5.46060000
-7.71500000 30.96720000 5.56850000
-7.67420000 30.55590000 5.64290000
-7.50040000 30.93850000 5.71360000
12.85460000 -37.14160000 -1.23320000
13.03390000 -36.25880000 -1.28240000
13.61350000 -34.44950000 -1.41760000
13.22950000 -33.79970000 -1.30440000
13.54250000 -33.45080000 -1.38330000
12.65750000 -34.45830000 -1.17440000
12.52340000 -33.52210000 -1.11990000
17.38440000 35.86790000 3.45840000
16.91180000 35.96870000 3.57700000
16.66380000 36.48790000 3.63010000
18.00310000 35.68880000 3.28780000
17.82180000 35.97460000 3.33670000
-25.34250000 30.68970000 -0.32930000
-25.28900000 30.39740000 -0.13400000
-25.17780000 30.66940000 -0.10010000
-25.13790000 30.93150000 -0.14860000
-25.20040000 30.21040000 0.05910000
-25.07370000 30.68370000 0.00860000
-24.87430000 31.18760000 0.02700000
-25.27970000 29.22720000 0.17970000
-25.26420000 29.53270000 0.13660000
-25.30420000 29.76910000 0.00090000
-25.18650000 29.67700000 0.22910000
-14.78980000 68.55380000 3.41320000
-14.58870000 67.39190000 3.47400000
-14.05120000 67.72170000 3.62860000
-13.90220000 68.48870000 3.66610000
-16.63020000 70.65320000 2.90790000
-16.28540000 68.56010000 2.99700000
-15.80080000 68.59140000 3.13550000
-15.66260000 69.52170000 3.17460000
-15.89810000 66.76410000 3.09710000
-15.34600000 67.64990000 3.25720000
1.06150000 9.32440000 6.47040000
0.79510000 9.00130000 6.44390000
0.82800000 9.57430000 6.45210000
0.25230000 9.19570000 6.40010000
-0.93320000 8.30600000 6.45560000
0.27330000 8.51650000 6.47080000
0.31700000 8.77480000 6.44280000
-0.21170000 8.80360000 6.42550000
17.95920000 -28.33580000 -3.06270000
17.84200000 -30.78280000 -2.98810000
17.22580000 -30.02810000 -2.71690000
16.93930000 -28.47750000 -2.60010000
16.83820000 -30.47630000 -2.53960000
16.11020000 -27.99610000 -2.23410000
16.00550000 -32.95300000 -2.19710000
15.15600000 -32.48860000 -1.90710000
15.29730000 -31.97280000 -1.94940000
15.96260000 -32.19480000 -2.17520000
13.97040000 -31.79410000 -1.53160000
14.92550000 -31.47870000 -1.82200000
15.74660000 -30.99190000 -2.07960000
22.82020000 -14.91940000 1.91020000
22.39800000 -15.24200000 2.11300000
22.85950000 -14.49160000 1.84130000
22.08260000 -14.65950000 2.16400000
22.13770000 -12.61790000 2.05610000
21.89540000 -12.46060000 2.23280000
21.47340000 -12.53310000 2.45170000
22.64770000 -12.32760000 1.82820000
22.00060000 -12.23350000 2.22960000
21.43890000 -12.10000000 2.58470000
-4.47710000 -8.44210000 6.19670000
-4.10840000 -8.23900000 6.23230000
-4.30600000 -7.98350000 6.27260000
-4.53740000 -8.00270000 6.27150000
-4.23600000 -7.70280000 6.31970000
-4.55020000 -7.54650000 6.35670000
-5.61470000 -10.07230000 6.06330000
-4.92480000 -10.23330000 6.13340000
-4.29870000 -9.80820000 6.18610000
-11.65490000 73.75090000 -1.95070000
-12.39050000 72.25230000 -2.11200000
-12.61180000 73.78550000 -2.19070000
-12.45650000 75.37270000 -2.17180000
-12.95550000 71.05330000 -2.24110000
-13.02550000 73.62270000 -2.29490000
-13.22490000 76.45990000 -2.38600000
-13.31160000 73.13740000 -2.36560000
-13.50020000 73.90560000 -2.42930000
-13.37700000 71.48020000 -2.36210000
-13.75510000 71.82720000 -2.47560000
-2.57380000 -69.23200000 7.07470000
-1.81460000 -70.30770000 7.11130000
-1.38310000 -69.76270000 7.13790000
-1.47360000 -68.84760000 7.13740000
-0.98900000 -71.36430000 7.14440000
-0.70490000 -69.93560000 7.16610000
-0.37010000 -68.49950000 7.19020000
-0.18200000 -73.03360000 7.13330000
0.81100000 -73.72550000 7.11560000
1.04090000 -72.43870000 7.14490000
0.57020000 -71.49300000 7.16860000
1.62760000 -72.28180000 7.14370000
-3.82110000 -52.24610000 6.48770000
-3.39750000 -52.77440000 6.53310000
-3.15180000 -52.29610000 6.53480000
-3.31500000 -51.81170000 6.50960000
-3.32730000 -54.33790000 6.85760000
-3.37600000 -54.14880000 6.78280000
-3.68260000 -54.04620000 6.78530000
-3.16800000 -54.00880000 6.68950000
-3.55260000 -53.75550000 6.63720000
-12.78610000 -22.92750000 -1.20150000
-12.60970000 -20.28200000 -1.18750000
-12.38310000 -20.85120000 -1.11890000
-12.63300000 -16.66440000 -1.23740000
-12.16290000 -14.24760000 -1.13870000
-13.25010000 -25.98080000 -1.27640000
-13.68320000 -24.28520000 -1.39370000
-13.47280000 -22.42700000 -1.37030000
-13.10620000 -22.60940000 -1.28490000
-25.08310000 -63.89070000 -4.62890000
-25.28040000 -62.84260000 -3.76490000
-25.20870000 -62.21980000 -4.02760000
-25.07200000 -62.32830000 -4.58800000
-25.51530000 -62.01790000 -2.72020000
-25.26980000 -61.39660000 -3.72960000
-25.02640000 -60.66270000 -4.69180000
-24.86200000 -62.41430000 -5.14420000
-24.95660000 -63.11970000 -4.95410000
-24.98670000 -62.41430000 -4.87620000
-24.94280000 -61.76010000 -4.96450000
11.31720000 -122.25880000 -0.11050000
10.92530000 -122.19590000 -0.36030000
11.09150000 -122.16360000 -0.45460000
11.35900000 -122.18030000 -0.42980000
10.60340000 -122.12920000 -0.52060000
10.97090000 -122.10920000 -0.58810000
11.35590000 -122.08910000 -0.65050000
10.88330000 -122.03960000 -0.68120000
11.01450000 -121.98820000 -0.73420000
10.64140000 -122.02110000 -0.66900000
10.71120000 -121.86660000 -0.78170000
21.98550000 -50.96420000 -4.83060000
21.19100000 -53.01300000 -4.33970000
21.03120000 -52.30190000 -4.25080000
21.26500000 -50.94510000 -4.40730000
20.63580000 -52.88120000 -4.01280000
20.65700000 -50.73200000 -4.05310000
19.97440000 -50.74810000 -3.71630000
19.43480000 -50.68010000 -3.48260000
19.94740000 -52.94870000 -3.67200000
19.09420000 -51.57450000 -3.32380000
-4.51730000 -34.74750000 6.89040000
-4.61550000 -35.40810000 6.92310000
-4.10020000 -35.26200000 6.96870000
-3.79470000 -34.83120000 6.97760000
-3.81230000 -35.46610000 7.00460000
-3.14240000 -34.88750000 7.04450000
-3.20190000 -37.09280000 7.02060000
-3.47520000 -36.16720000 7.02820000
-22.51470000 120.30730000 -6.82310000
-22.60180000 120.44760000 -6.77370000
-22.53810000 120.59220000 -6.68920000
-22.16580000 117.75980000 -6.81460000
-21.98620000 117.37320000 -6.73840000
-22.21190000 118.45540000 -6.83370000
8.87460000 -4.77920000 -0.51370000
8.08200000 -2.95520000 -0.35800000
8.35420000 -2.34560000 -0.42930000
8.92220000 -2.82510000 -0.55330000
7.69040000 -10.76250000 -0.20070000
7.21100000 -11.47000000 -0.10660000
7.17020000 -9.88780000 -0.11150000
7.41200000 -8.67690000 -0.16350000
24.50520000 -11.74370000 -5.44560000
24.37000000 -12.08720000 -5.78420000
24.39030000 -11.33870000 -5.78050000
24.46350000 -10.71550000 -5.63690000
24.21490000 -12.71180000 -6.05640000
24.32870000 -11.27260000 -5.91990000
24.41530000 -9.92870000 -5.80310000
24.18890000 -11.94590000 -6.09870000
24.26620000 -11.29590000 -6.01400000
24.13890000 -11.31650000 -6.14100000
24.28360000 -10.64360000 -5.99530000
-25.42400000 -59.67330000 -3.07960000
-25.57670000 -59.39580000 -2.38380000
-25.49940000 -58.93130000 -2.68580000
-25.39020000 -58.81040000 -3.17520000
-25.73610000 -59.22220000 -1.63350000
-25.55850000 -58.59810000 -2.39810000
-25.37580000 -57.98650000 -3.18260000
-25.87850000 -59.62370000 -1.04750000
-25.91620000 -59.41040000 -0.74920000
-25.88210000 -59.08890000 -0.82940000
-25.99120000 -59.98050000 -0.56660000
-25.99210000 -59.53910000 -0.36350000
-25.99590000 -58.99550000 -0.10050000
14.95590000 -33.60220000 -1.80530000
15.27300000 -33.34050000 -1.92370000
15.93230000 -33.90440000 -2.14310000
17.45540000 -35.82010000 -2.76560000
16.87100000 -34.72620000 -2.52140000
17.23920000 -36.78940000 -2.65710000
4.34170000 -122.24020000 6.38110000
4.02800000 -122.22010000 6.48300000
4.89930000 -122.22040000 6.34890000
8.48390000 -122.21370000 5.99370000
8.70050000 -122.15630000 6.04650000
8.59970000 -122.28360000 5.75930000
8.83220000 -122.15260000 6.00820000
21.62730000 61.87900000 1.89880000
21.25330000 62.27980000 2.01290000
22.24680000 62.14060000 1.70990000
22.13290000 63.16760000 1.75620000
24.01750000 59.07190000 0.93440000
23.81020000 60.24830000 1.04860000
23.23570000 61.14640000 1.31810000
7.49300000 -51.85150000 0.00040000
7.75440000 -51.21970000 -0.06310000
8.01990000 -51.19800000 -0.10810000
7.19200000 -51.03660000 0.01110000
7.67190000 -50.52140000 -0.07460000
8.03170000 -49.79180000 -0.14580000
7.40770000 -49.65500000 -0.04180000
7.26860000 -49.17510000 -0.00910000
7.48590000 -48.83840000 -0.03840000
-25.85630000 -62.91570000 -1.20840000
-25.95380000 -62.02330000 -0.74700000
-25.91060000 -61.60380000 -0.98570000
-25.82230000 -61.74840000 -1.39830000
-26.06010000 -61.31190000 -0.22500000
-25.93950000 -60.96540000 -0.86540000
-25.79270000 -60.56140000 -1.56040000
-25.32370000 -60.74290000 -3.49400000
-25.23660000 -60.17220000 -3.86070000
-25.46690000 -60.75150000 -2.91050000
24.72900000 -20.37950000 -3.82370000
24.79110000 -19.48220000 -3.49290000
24.59090000 -20.85290000 -4.67030000
24.57480000 -19.24840000 -4.89970000
24.39980000 -21.25200000 -5.51440000
24.31300000 -21.65710000 -5.69950000
24.32460000 -21.04460000 -5.69660000
24.38380000 -20.49830000 -5.57130000
24.19850000 -22.19730000 -5.88400000
24.27560000 -21.05600000 -5.79140000
24.34340000 -19.98290000 -5.68700000
25.52630000 48.49510000 -0.03620000
25.66100000 48.39750000 -0.32480000
25.69500000 48.63230000 -0.35540000
25.65280000 48.82110000 -0.21670000
25.74140000 48.76490000 -0.51890000
25.72760000 49.18230000 -0.38070000
25.05810000 49.23190000 0.28970000
25.29150000 48.75920000 0.14540000
25.36320000 49.01580000 0.09750000
25.30620000 49.31390000 0.13470000
25.49960000 48.98220000 -0.00760000
25.48040000 49.41830000 0.00180000
-22.29440000 -81.72080000 3.41800000
-22.08310000 -81.79900000 3.52330000
-22.11570000 -82.20190000 3.54040000
-21.46340000 -84.99540000 3.84060000
-21.65590000 -83.77280000 3.75910000
-26.03140000 -60.56800000 -0.39810000
-26.06160000 -60.53160000 -0.15190000
-26.05000000 -60.16240000 -0.14120000
-26.07870000 -60.80790000 0.02070000
-26.07150000 -60.39020000 0.21480000
-26.07050000 -61.46930000 0.41330000
-26.05810000 -61.88600000 0.52970000
-25.98110000 -61.72100000 0.67700000
-25.95290000 -61.50190000 0.69140000
-26.03510000 -62.26480000 0.64290000
-25.93050000 -61.86920000 0.79220000
-25.77190000 -61.47220000 0.95270000
12.56730000 -9.27290000 -1.27310000
12.56030000 -6.70530000 -1.30070000
13.19940000 -6.12880000 -1.48160000
13.51650000 -6.94230000 -1.56640000
12.40620000 -4.90120000 -1.29060000
13.33080000 -4.82380000 -1.53980000
14.40400000 -4.67710000 -1.86090000
11.92560000 -6.63590000 -1.16010000
11.60620000 -5.46290000 -1.11270000
11.59580000 -7.49030000 -1.08450000
10.77340000 -5.97800000 -0.93650000
-21.92460000 35.50170000 -5.34890000
-22.16710000 37.61750000 -5.53000000
-21.92840000 38.13220000 -5.39560000
-21.68130000 37.65020000 -5.24150000
-22.37770000 39.30640000 -5.68750000
-21.94470000 39.41790000 -5.42790000
-21.43590000 39.77860000 -5.13850000
-20.32920000 29.59290000 -4.48840000
-20.90070000 31.16650000 -4.77740000
-20.75040000 32.49800000 -4.71480000
-20.41460000 32.59550000 -4.55470000
-21.52040000 32.46130000 -5.10140000
-20.99320000 33.72050000 -4.84470000
-20.52390000 35.00330000 -4.62810000
-0.52530000 2.76250000 6.61330000
-0.35930000 3.28540000 6.65130000
-0.66980000 3.60300000 6.65460000
-0.87660000 3.55600000 6.63730000
-0.12700000 3.52730000 6.67240000
-0.57220000 3.85710000 6.67060000
-0.08320000 4.02620000 6.67980000
0.01170000 4.66000000 6.67330000
-3.80940000 -81.41910000 7.04500000
-3.52600000 -80.59430000 7.08210000
-3.72090000 -79.77920000 7.14510000
-3.99030000 -79.91710000 7.14680000
-1.59320000 -84.69790000 7.02290000
-2.16920000 -83.30740000 7.00640000
-25.95860000 -63.86070000 -0.73950000
-26.03320000 -64.55820000 -0.49380000
-26.05830000 -64.49350000 -0.26010000
-26.04490000 -64.23550000 -0.21640000
-26.09480000 -65.35080000 -0.24990000
-26.10180000 -64.96800000 -0.01900000
-26.10180000 -64.75330000 0.27710000
-25.62480000 -65.33380000 -2.46950000
-25.79790000 -65.67620000 -1.72670000
-25.80140000 -64.99640000 -1.67050000
-25.69020000 -64.61820000 -2.12370000
-25.99810000 -65.95520000 -0.83740000
-25.86870000 -64.75970000 -1.33410000
-25.72470000 -63.78410000 -1.89150000
4.20850000 86.70960000 -0.85890000
4.76690000 86.46600000 -0.87420000
4.92390000 85.64900000 -0.87420000
2.76570000 86.01070000 -0.84650000
3.23210000 86.52020000 -0.85020000
8.54800000 -11.91720000 6.06840000
8.08890000 -11.96910000 6.12810000
8.92270000 -11.37020000 5.98560000
9.37620000 -10.61570000 5.87330000
9.33200000 -9.98290000 5.84020000
9.82260000 -10.64050000 5.80890000
9.88020000 -119.22850000 -0.55810000
10.04970000 -120.14540000 -0.60990000
10.24390000 -121.91990000 -0.60520000
10.13930000 -121.73640000 -0.60340000
10.34000000 -121.61880000 -0.69880000
9.79260000 -121.99390000 -0.41130000
9.86100000 -121.67390000 -0.51450000
9.99590000 -121.28690000 -0.60300000
-23.51090000 -24.68710000 -5.53260000
-23.36070000 -24.23680000 -5.46530000
-23.68630000 -24.28720000 -5.61770000
-23.41850000 -23.82620000 -5.49500000
-23.82490000 -37.99080000 -5.53170000
-24.10490000 -37.96960000 -5.59290000
-24.06880000 -37.64640000 -5.59610000
-23.88590000 -37.51400000 -5.55930000
-24.41150000 -37.90730000 -5.62030000
-24.19100000 -37.46620000 -5.61620000
-23.97010000 -37.02270000 -5.58790000
-7.79450000 50.25040000 5.31200000
-7.66870000 51.23180000 5.37030000
-8.28290000 51.88960000 5.30550000
-8.93410000 52.24730000 5.22360000
4.14260000 -65.76210000 7.28220000
3.63490000 -65.22870000 7.30240000
3.25290000 -65.39430000 7.31410000
2.42460000 -65.65710000 7.31550000
1.95100000 -65.48700000 7.30720000
1.53850000 -66.24310000 7.28520000
1.79190000 -64.60070000 7.31390000
-25.70370000 -10.23450000 -0.52940000
-25.70030000 -9.93480000 -0.40180000
-25.69430000 -10.36210000 -0.19660000
-25.68670000 -9.87040000 -0.18230000
-25.65560000 -10.12650000 0.13790000
-25.66190000 -9.86600000 0.03410000
-25.60610000 -9.89810000 0.44210000
-25.64740000 -9.65490000 0.15540000
22.24010000 75.67820000 1.26610000
22.47720000 76.95510000 1.17350000
22.26400000 77.88340000 1.26090000
22.98510000 75.21300000 0.96350000
22.96810000 77.19820000 0.97740000
22.00310000 73.45620000 1.39880000
21.81620000 73.63560000 1.47770000
21.97190000 74.44480000 1.39080000
-24.62430000 -117.04800000 -5.47030000
-24.57420000 -116.52730000 -5.49120000
-24.45890000 -117.08690000 -5.48410000
-24.76120000 -115.21150000 -5.49200000
-24.57550000 -115.53530000 -5.50570000
-24.42600000 -115.92130000 -5.50280000
-24.37030000 -119.78900000 -5.34880000
-24.51590000 -119.56940000 -5.35300000
-24.36580000 -120.10590000 -5.29350000
-24.56080000 -119.91210000 -5.28290000
-17.51630000 122.36980000 -2.58360000
-17.85570000 122.36860000 -2.56790000
-19.24410000 122.26080000 -3.59030000
-19.97230000 122.26540000 -3.26500000
-19.63980000 122.28590000 -3.15620000
-19.11150000 122.29700000 -3.27240000
-19.75750000 122.29010000 -2.91090000
-18.88160000 122.32330000 -2.92590000
-24.41890000 -33.79340000 -5.60200000
-24.49830000 -33.39250000 -5.55480000
-24.39640000 -33.01220000 -5.59100000
-24.31000000 -33.20710000 -5.63450000
-24.58410000 -32.84650000 -5.46680000
-24.36910000 -32.53280000 -5.58740000
-24.18070000 -32.46660000 -5.65040000
-24.58860000 -34.45950000 -5.50330000
-24.69000000 -34.60910000 -5.39800000
-24.67910000 -34.10100000 -5.40440000
-24.61700000 -33.81280000 -5.47630000
-24.78660000 -34.95420000 -5.25470000
-24.71340000 -33.86380000 -5.33450000
14.54110000 120.05490000 -2.60670000
14.72270000 120.42080000 -2.61150000
15.17640000 120.31230000 -2.77560000
13.99310000 120.57050000 -2.35290000
14.52330000 120.84490000 -2.47420000
13.17740000 120.45000000 -2.13270000
13.34210000 120.78680000 -2.11660000
13.90660000 120.98320000 -2.24200000
12.10170000 120.16660000 -1.88210000
13.01280000 120.80230000 -2.01040000
24.16070000 -121.51290000 -0.13350000
24.26490000 -121.35230000 -0.04560000
24.30820000 -121.26910000 0.21840000
24.28870000 -121.28840000 -0.26470000
24.42700000 -120.96640000 0.12430000
24.29210000 -121.15820000 -0.64800000
24.29030000 -121.04100000 -0.86840000
24.34780000 -120.87250000 -0.63580000
-18.75120000 -121.89800000 -2.73140000
-19.34790000 -121.92490000 -2.75020000
-19.59690000 -121.87780000 -2.93720000
-19.44550000 -121.84480000 -3.01290000
-19.92960000 -121.92780000 -2.65590000
-20.01780000 -121.86430000 -2.98840000
-19.28200000 -121.80170000 -3.04650000
-18.90220000 -121.78370000 -2.94740000
20.44420000 62.62370000 2.26080000
20.97080000 62.74430000 2.10080000
21.31880000 63.39690000 2.00630000
19.75670000 62.86870000 2.50350000
20.06010000 63.18290000 2.40020000
19.81700000 63.58290000 2.49480000
19.52750000 63.45170000 2.59620000
-24.82220000 -118.35210000 -5.37280000
-24.78820000 -116.99960000 -5.43820000
-24.68160000 -117.56030000 -5.44700000
-24.66270000 -118.60000000 -5.40440000
-24.98090000 -112.89190000 -5.39540000
-25.04750000 -112.81550000 -5.32660000
-25.01940000 -115.11460000 -5.36350000
-25.09870000 -113.93050000 -5.27440000
-5.46710000 121.77590000 -1.24960000
-7.39970000 121.79830000 -1.51500000
-7.64700000 121.88860000 -1.48080000
-7.08830000 121.91130000 -1.37440000
-6.23390000 120.77660000 -1.74420000
-6.69760000 121.01010000 -1.73970000
-6.34270000 121.14280000 -1.64890000
-24.39030000 -41.32820000 -5.51210000
-24.56410000 -41.37830000 -5.41260000
-24.56520000 -40.95320000 -5.43620000
-24.48050000 -40.72650000 -5.50330000
-24.63110000 -40.70950000 -5.39940000
-24.52190000 -40.07900000 -5.50530000
-24.14380000 -40.49640000 -5.54860000
-24.28060000 -40.87800000 -5.54340000
-24.38440000 -40.61100000 -5.53910000
-24.34750000 -40.27540000 -5.54670000
26.16120000 108.47290000 -0.69940000
26.33640000 108.60230000 -0.88410000
26.38420000 108.93860000 -0.88780000
26.32220000 109.06450000 -0.80110000
26.48960000 109.17650000 -0.98450000
26.20460000 105.45670000 -0.77210000
26.25690000 105.77650000 -0.83590000
26.21600000 106.08530000 -0.75450000
4.11650000 -26.68700000 6.54250000
4.57960000 -27.52960000 6.56790000
4.85430000 -27.25970000 6.54340000
4.81810000 -26.73000000 6.52260000
5.16870000 -27.45500000 6.54260000
3.24500000 -27.43620000 6.67760000
2.90590000 -27.31810000 6.71810000
3.44320000 -27.18060000 6.60450000
10.86650000 13.16290000 4.91680000
11.31580000 13.33770000 4.80540000
11.00350000 13.73980000 4.86450000
10.62430000 13.78780000 4.94770000
11.80640000 13.67490000 4.68770000
11.19370000 14.11550000 4.81540000
10.56450000 14.47500000 4.94540000
12.39710000 11.89090000 4.57740000
13.73420000 11.87490000 4.22100000
13.60450000 12.32340000 4.25180000
12.93860000 12.57840000 4.42390000
15.15130000 11.76480000 3.83750000
14.22220000 12.56990000 4.08670000
13.42820000 13.33830000 4.29430000
25.01920000 -59.49740000 0.29660000
25.02920000 -59.23030000 0.11800000
25.04010000 -58.64760000 0.04880000
24.99910000 -60.50590000 0.20020000
25.01740000 -59.61000000 -0.00980000
25.01260000 -58.87230000 -0.28860000
24.82980000 -59.29150000 0.94500000
24.90840000 -59.04270000 0.77870000
24.91420000 -59.82040000 0.83320000
24.97350000 -59.25100000 0.63160000
-9.47330000 1.94980000 5.53850000
-9.76020000 2.24600000 5.45830000
-10.28210000 2.47370000 5.33510000
-8.85990000 1.81470000 5.64840000
-9.55580000 2.27070000 5.48020000
-10.35790000 2.71160000 5.27050000
-8.77270000 -2.83690000 5.66600000
-8.15910000 -4.48680000 5.77120000
-8.00670000 -3.58270000 5.79080000
-8.26640000 -2.33590000 5.74590000
-24.23330000 -57.14340000 -5.43920000
-24.48080000 -57.12990000 -5.41100000
-24.48160000 -56.92720000 -5.42610000
-24.35030000 -56.80570000 -5.44640000
-24.67860000 -57.10780000 -5.32790000
-24.58320000 -56.80850000 -5.39900000
-24.45330000 -56.49630000 -5.44700000
-24.42730000 -52.43740000 -5.49570000
-24.58590000 -53.12930000 -5.42860000
-24.61680000 -52.45060000 -5.41140000
-24.56660000 -51.72020000 -5.44640000
4.62100000 -76.78330000 0.46980000
5.20990000 -77.88520000 0.47100000
5.85720000 -77.29400000 0.44520000
6.11360000 -75.89960000 0.41990000
5.99670000 -74.34580000 0.42110000
-25.18220000 -96.77810000 1.64480000
-24.46240000 -96.76520000 2.00770000
-24.24930000 -96.08540000 2.11480000
-24.44820000 -95.82310000 2.01550000
-23.93220000 -96.90560000 2.26640000
-23.80160000 -96.03210000 2.33350000
-23.24060000 -96.42250000 2.58640000
-22.78140000 -96.27490000 2.78500000
-22.53840000 -95.52880000 2.88810000
-22.40070000 -96.85800000 2.94620000
-21.93260000 -96.04990000 3.14520000
15.92620000 -104.91100000 -1.96080000
15.31300000 -106.43350000 -1.77640000
15.02590000 -105.92940000 -1.68080000
15.22870000 -105.01580000 -1.73550000
13.79640000 -113.73860000 -1.43050000
14.40740000 -113.61340000 -1.60340000
-19.60500000 4.50770000 3.07610000
-19.17660000 3.91710000 3.13270000
-19.16490000 4.46550000 3.05550000
-19.41980000 5.00590000 2.99380000
-18.93460000 4.39810000 3.04780000
-17.96470000 4.61860000 3.22620000
-18.21080000 4.62750000 3.12060000
-13.79870000 79.42030000 -2.58290000
-13.91940000 78.10080000 -2.60260000
-14.09710000 78.42650000 -2.66080000
-14.10140000 79.24470000 -2.67360000
-14.08290000 76.92500000 -2.64060000
-14.25740000 77.85340000 -2.70560000
-14.41310000 78.91990000 -2.77150000
-14.61550000 77.51930000 -2.82190000
-14.82890000 78.34430000 -2.90860000
-14.78250000 79.56010000 -2.91090000
-14.78170000 75.67290000 -2.85700000
-15.06110000 77.71730000 -2.98430000
3.38030000 -27.68290000 0.16080000
2.73510000 -27.23320000 0.18510000
2.56030000 -26.38250000 0.19860000
4.34550000 -29.21490000 0.15620000
4.00910000 -28.24850000 0.15750000
5.62640000 -78.56660000 0.45860000
5.74820000 -80.21310000 0.45010000
6.05780000 -99.35260000 0.37740000
6.28350000 -97.54910000 0.37300000
5.41950000 -96.56590000 0.43440000
6.04830000 -95.14410000 0.40520000
-10.28090000 -21.84700000 5.65850000
-10.42940000 -21.76480000 5.68000000
-10.53590000 -21.90740000 5.73640000
-11.50920000 -25.44830000 5.82010000
-11.24560000 -24.66620000 5.84190000
-23.65670000 -54.66610000 -5.25130000
-23.86250000 -55.45460000 -5.34640000
-23.92420000 -55.20980000 -5.37030000
-23.92250000 -54.85200000 -5.36410000
-24.06050000 -55.99730000 -5.41040000
-24.05470000 -55.45750000 -5.41450000
-24.09420000 -55.04840000 -5.42130000
-23.34670000 -55.93580000 -5.05880000
-23.08190000 -54.31480000 -4.91040000
-23.09550000 -52.90010000 -4.93290000
-21.99820000 -114.42230000 2.93700000
-22.35060000 -116.54640000 2.75690000
-21.94120000 -116.90990000 2.94110000
-21.58750000 -116.17600000 3.10530000
-22.59290000 -118.16590000 2.63360000
-21.93010000 -118.02240000 2.93660000
-23.12490000 -121.30810000 2.34490000
-23.76540000 -121.06400000 2.03340000
-22.50210000 -121.12940000 2.65860000
-23.13250000 -120.53060000 2.36820000
24.97210000 76.69810000 -6.13280000
24.92480000 77.61110000 -6.32030000
25.01760000 78.05120000 -5.96690000
25.08060000 77.87910000 -5.70900000
24.88780000 78.47150000 -6.46470000
25.03540000 78.73440000 -5.91120000
25.22470000 79.15110000 -5.08230000
24.91230000 74.94550000 -6.30340000
24.77360000 75.08360000 -6.63950000
24.76990000 75.79210000 -6.66320000
24.82420000 76.09360000 -6.55250000
24.63990000 75.16200000 -6.87530000
24.70810000 76.15050000 -6.78700000
24.72220000 77.44860000 -6.76480000
-25.04380000 75.57650000 -1.64800000
-25.05950000 75.75310000 -1.92690000
-25.05910000 75.79980000 -1.47900000
-25.08720000 76.11430000 -1.80150000
-24.77340000 77.49880000 -3.48150000
-24.73150000 77.88610000 -3.70680000
-24.83620000 78.78820000 -2.85660000
-24.74690000 78.83600000 -3.46250000
25.59750000 34.79520000 -0.21220000
25.67000000 35.04490000 -0.39910000
25.64240000 35.32010000 -0.32200000
25.58290000 35.27600000 -0.17860000
24.92370000 34.01070000 0.46560000
25.22620000 33.41520000 0.26000000
25.28970000 33.82480000 0.20680000
25.21870000 34.31360000 0.26030000
25.41260000 32.63760000 0.08670000
25.38670000 33.70340000 0.11440000
25.37620000 34.69780000 0.10290000
15.94150000 -122.12860000 4.37510000
16.56290000 -121.99820000 4.32010000
16.48800000 -121.93180000 4.37370000
16.15060000 -121.96970000 4.43660000
17.22240000 -121.83370000 4.23160000
16.69740000 -121.80370000 4.37530000
16.25530000 -121.80950000 4.48640000
18.74470000 -117.85400000 3.76750000
18.82340000 -115.99470000 3.75890000
18.35100000 -116.48110000 3.92450000
18.18270000 -117.99140000 3.96910000
18.18160000 -115.81920000 3.98690000
8.63670000 -60.51270000 6.09980000
8.32540000 -60.13750000 6.15080000
8.88900000 -60.19620000 6.05070000
7.98520000 -59.42450000 6.20000000
7.97560000 -58.46130000 6.19070000
24.07800000 -109.19780000 -2.23920000
24.01190000 -108.68800000 -2.66470000
23.83460000 -110.10470000 -3.45080000
23.87780000 -108.95680000 -3.37250000
23.54970000 -110.62670000 -4.77930000
23.60670000 -110.06490000 -4.65360000
23.51140000 -110.68910000 -4.88090000
23.60040000 -109.42900000 -4.73880000
-7.73060000 66.04890000 -1.30930000
-7.89540000 67.60210000 -1.34840000
-7.58510000 69.00270000 -1.34130000
-8.68320000 64.33820000 -1.37220000
-8.43070000 67.88630000 -1.40310000
-8.25760000 70.99880000 -1.43290000
-8.95320000 70.55940000 -1.49510000
-9.01300000 72.24210000 -1.52210000
-8.73140000 73.07140000 -1.50410000
-9.65160000 70.37970000 -1.56690000
-9.33090000 72.82820000 -1.56070000
-24.88510000 42.52420000 -3.50380000
-24.84550000 42.89740000 -3.86340000
-24.94160000 42.95040000 -3.04760000
-24.89990000 43.90200000 -3.43340000
-25.00260000 43.63430000 -2.36820000
-25.00940000 43.61380000 -2.15810000
-24.99860000 44.18830000 -2.14630000
25.62190000 30.66910000 -0.60590000
25.65410000 31.21450000 -0.50800000
25.61520000 31.01310000 -0.39300000
25.58880000 30.62090000 -0.37830000
25.67290000 31.88700000 -0.40670000
25.59790000 31.10180000 -0.27240000
25.55480000 30.60850000 -0.20800000
25.57180000 30.60240000 -1.14980000
25.47990000 30.53810000 -1.59610000
25.49940000 30.94090000 -1.56850000
25.56360000 31.16140000 -1.32040000
25.47380000 31.19820000 -1.72250000
25.56780000 31.79570000 -1.40720000
13.91890000 74.21250000 4.41920000
13.56630000 74.22120000 4.52720000
14.22800000 74.63450000 4.34280000
13.91280000 74.99000000 4.45730000
13.20130000 74.11630000 4.62000000
13.28730000 74.51390000 4.60500000
25.90980000 93.43930000 -2.45890000
25.82630000 92.66350000 -2.74250000
25.82370000 93.34220000 -2.82400000
25.88220000 94.03590000 -2.65070000
25.74410000 91.45130000 -2.98180000
25.75440000 93.14400000 -3.14910000
25.44750000 87.30550000 -4.35540000
25.43940000 87.80810000 -4.45860000
25.50370000 88.37960000 -4.13960000
2.50100000 94.66210000 5.42970000
3.04540000 93.23630000 5.40790000
3.39020000 93.58810000 5.38570000
3.29960000 94.44730000 5.38740000
3.64510000 91.77680000 5.37840000
3.89210000 93.13650000 5.35470000
4.01940000 94.25420000 5.34270000
4.94770000 89.36630000 5.28400000
5.49630000 87.77130000 5.23700000
5.79870000 88.24220000 5.20380000
5.73430000 89.15290000 5.20600000
-21.39250000 86.81210000 -5.76550000
-21.85650000 88.41470000 -6.06720000
-21.87930000 90.62190000 -6.12370000
-21.72000000 91.21730000 -6.04110000
-20.34170000 92.11390000 -5.32900000
-20.83400000 89.98470000 -5.53550000
-20.96730000 91.33520000 -5.63000000
-20.71840000 93.24510000 -5.54260000
-21.29190000 91.16100000 -5.79720000
-21.16280000 94.57920000 -5.79660000
-11.47940000 34.90280000 -1.37990000
-11.25430000 34.35700000 -1.31100000
-11.56440000 36.43310000 -1.41570000
-11.11680000 37.02410000 -1.28780000
-10.81360000 32.54190000 -1.21080000
-11.05950000 32.09320000 -1.25770000
-11.08860000 33.68980000 -1.26810000
-10.95570000 34.54800000 -1.24180000
15.74600000 -22.89930000 -2.13770000
15.84340000 -21.80590000 -2.19720000
16.60470000 -21.96000000 -2.52640000
16.80000000 -22.61000000 -2.60600000
15.90280000 -21.09140000 -2.23780000
16.84430000 -21.46450000 -2.64200000
17.99010000 -22.18800000 -3.15130000
14.03290000 -23.61200000 -1.57790000
14.63880000 -23.29480000 -1.75520000
13.52670000 -22.63390000 -1.44470000
14.33370000 -20.65090000 -1.69440000
25.20690000 29.99070000 0.28340000
25.31970000 29.76850000 0.12890000
25.33800000 29.90390000 0.12710000
25.32460000 30.20510000 0.17460000
25.42030000 29.68030000 -0.01830000
25.40970000 29.88860000 0.03430000
25.43150000 30.26560000 0.05210000
25.63180000 29.96160000 -0.30970000
25.62090000 30.29020000 -0.49120000
25.59920000 30.35080000 -0.35050000
25.57780000 30.27380000 -0.21930000
1.00000000 97.40130000 5.45250000
1.56050000 98.14130000 5.43720000
1.65150000 96.36840000 5.44830000
2.13390000 97.93820000 5.42540000
3.27090000 95.20390000 5.39090000
2.87290000 95.66400000 5.41290000
3.64030000 95.38380000 5.37080000
3.21180000 96.49050000 5.39570000
20.61130000 95.59760000 1.80880000
20.19670000 96.71130000 1.94920000
21.14520000 95.46900000 1.61540000
21.03170000 98.37480000 1.63740000
22.80130000 98.35330000 0.95270000
22.07210000 97.08270000 1.25160000
22.83660000 99.32960000 0.92810000
-21.32320000 113.99000000 0.58960000
-21.07300000 114.97810000 0.68640000
-20.56460000 113.36450000 0.89970000
-20.54890000 115.16780000 0.89780000
-19.24070000 115.38810000 1.40250000
-18.96710000 114.53770000 1.50780000
-18.38540000 115.28570000 1.71830000
-18.44500000 116.10290000 1.69160000
15.08860000 -21.93940000 -1.91470000
15.27800000 -21.43180000 -1.98920000
15.18590000 -20.80420000 -1.97050000
15.06250000 -2.01170000 -2.10340000
15.16410000 -0.21870000 -2.15000000
15.53410000 1.00450000 -2.27690000
14.22710000 -2.17110000 -1.84320000
14.86420000 0.59020000 -2.06140000
-11.22910000 -121.79960000 -0.45360000
-11.19440000 -121.90190000 -0.35220000
-11.41260000 -121.91150000 -0.33370000
-10.94830000 -121.97060000 -0.24160000
-11.13800000 -122.03240000 -0.11300000
-10.85750000 -122.06190000 0.01660000
-10.79520000 -122.01590000 -0.12040000
-10.63100000 -122.00210000 -0.13950000
-24.55470000 100.18930000 -3.42130000
-24.56390000 101.20370000 -3.29220000
-24.47590000 101.58560000 -3.74980000
-24.42730000 101.18130000 -4.05940000
-24.58810000 102.30350000 -3.08650000
-24.43730000 102.31380000 -3.91180000
-24.28680000 103.22350000 -4.66360000
-24.17800000 103.42670000 -5.22570000
-22.69260000 111.79130000 -7.12430000
-22.98210000 111.40970000 -7.21560000
-23.08930000 111.83460000 -7.23030000
-23.04760000 112.20770000 -7.21510000
-23.19330000 111.10620000 -7.24630000
-23.26120000 111.76910000 -7.24440000
-23.33740000 112.55490000 -7.23410000
-23.40900000 111.09800000 -7.20330000
-23.40000000 111.53820000 -7.21460000
-23.48700000 111.83080000 -7.18080000
20.75410000 19.48890000 2.16510000
21.14080000 17.80980000 1.98990000
21.73630000 18.15550000 1.77070000
21.79260000 19.27090000 1.76900000
19.64570000 14.59990000 2.47950000
19.15210000 14.96390000 2.65100000
20.16140000 15.26050000 2.30430000
19.61500000 17.37760000 2.51200000
-24.58890000 35.86230000 -0.04360000
-24.76080000 35.58080000 -0.15330000
-24.63730000 36.27260000 -0.08130000
-25.01250000 36.04980000 -0.35590000
-25.09750000 34.98080000 -0.55140000
-25.15120000 35.20640000 -0.58880000
-24.94630000 35.01450000 -0.33710000
-25.10570000 35.31640000 -0.49250000
-24.23000000 120.40930000 -0.69050000
-24.15920000 119.74570000 -0.66050000
-23.78230000 119.97590000 -0.50310000
-23.63600000 120.46170000 -0.43670000
-24.08110000 118.92130000 -0.63420000
-23.50640000 119.70220000 -0.38960000
-22.83320000 120.57640000 -0.10350000
-24.56960000 119.33660000 -0.93370000
-24.60970000 119.81530000 -0.96350000
-24.49180000 119.17420000 -0.86010000
-24.51720000 119.89150000 -0.85540000
-11.21580000 -121.65810000 -0.50910000
-11.43470000 -121.55040000 -0.56320000
-11.21200000 -116.02630000 -0.57940000
-11.20070000 -114.84050000 -0.56790000
-11.47900000 -115.04770000 -0.61020000
-11.36330000 -113.67250000 -0.57940000
-24.59760000 62.31330000 -5.78950000
-24.66880000 61.53700000 -5.48450000
-24.69770000 61.92970000 -5.29030000
-24.66290000 62.56820000 -5.41640000
-24.74670000 61.77860000 -4.97320000
-24.80040000 61.77040000 -4.54280000
-24.81410000 62.47180000 -4.35420000
-19.83410000 53.09820000 2.18790000
-20.18320000 52.90130000 2.07270000
-19.99080000 53.92060000 2.18600000
-21.21690000 52.34720000 1.69560000
-21.64100000 52.42790000 1.54350000
-21.96570000 52.04160000 1.39700000
-21.14890000 52.95150000 1.74760000
-21.77260000 52.71550000 1.49810000
-22.48200000 52.26420000 1.18870000
-0.37370000 -122.32800000 5.63700000
-0.76670000 -122.31130000 5.79630000
-0.85650000 -122.30960000 5.45680000
-0.46460000 -122.31770000 6.26270000
-0.98360000 -122.29760000 6.23680000
-1.51830000 -122.27600000 6.16040000
-0.95770000 -122.31640000 5.02490000
