1.17860000 -0.11260000 0.46020000
1.52170000 -1.37970000 0.42230000
1.09250000 -0.84760000 -0.35830000
1.50200000 -1.24090000 -0.16290000
1.41890000 -2.00870000 0.50860000
1.35610000 -2.06630000 0.53130000
1.57940000 -1.16640000 -0.14100000
1.10710000 -0.12190000 0.47500000
1.49710000 -1.20250000 -0.18830000
1.51130000 -1.73010000 -0.15570000
1.25820000 -2.14700000 0.57100000
1.33070000 -2.24520000 0.55560000
1.03040000 -0.11930000 0.47140000
1.02940000 -0.16980000 0.48040000
1.44800000 -1.20900000 -0.23260000
1.30520000 -2.09870000 0.55840000
1.48810000 -1.17390000 -0.20780000
1.43450000 -1.15310000 -0.21980000
0.91370000 -1.13070000 -0.43620000
1.70390000 -1.08660000 -0.09070000
1.46910000 -1.24430000 0.42270000
1.78360000 -0.98540000 -0.06160000
1.17510000 0.01410000 0.47290000
1.69690000 -1.03040000 -0.10450000
0.96210000 -1.08540000 -0.42330000
1.35960000 -1.48130000 0.46320000
1.37490000 -1.99310000 -0.19600000
1.07650000 -0.06720000 0.48670000
1.38840000 -1.27550000 0.45990000
1.36800000 -1.36600000 0.45780000
0.99880000 -0.02990000 0.50200000
0.98390000 -0.96480000 -0.41470000
1.16720000 0.06740000 0.46550000
1.08410000 0.01290000 0.48090000
1.75920000 -0.96210000 -0.07040000
1.74450000 -0.92480000 -0.05810000
0.92940000 -0.99760000 -0.43450000
1.43160000 -1.74480000 0.47740000
1.26200000 -2.03900000 0.54070000
1.23220000 0.14600000 0.46520000
1.64480000 -1.02240000 -0.12500000
1.22090000 -2.03830000 0.55930000
1.51900000 -1.80370000 0.47510000
1.38380000 -1.79860000 0.50770000
1.71320000 -0.88880000 -0.08440000
1.09600000 0.06380000 0.45480000
1.15220000 0.11500000 0.45020000
1.13420000 -2.15170000 0.58060000
1.58820000 -1.11190000 -0.15810000
1.10880000 0.16330000 0.45780000
0.99500000 -0.09440000 0.48400000
1.13770000 -1.95470000 0.56800000
0.94450000 -0.07900000 0.50980000
0.96990000 0.01630000 0.49580000
1.47010000 -1.94360000 0.50600000
0.88370000 -1.00120000 -0.46340000
1.30520000 -1.79030000 0.50330000
1.67910000 -0.87720000 -0.12110000
1.66180000 -0.95580000 -0.12590000
1.01720000 0.05020000 0.46580000
1.64320000 -0.89380000 -0.13150000
1.64180000 -0.93430000 -0.14300000
1.31290000 -1.72910000 0.49760000
1.58610000 -1.04060000 -0.16350000
1.58530000 -0.98100000 -0.15560000
1.28290000 -1.97840000 -0.22540000
1.06850000 0.16950000 0.45110000
1.61690000 -0.89060000 -0.12040000
0.99030000 0.14860000 0.45840000
1.54740000 -0.95830000 -0.14190000
0.86910000 0.03140000 0.48840000
1.62230000 -0.82920000 -0.10040000
1.40090000 -1.94170000 0.50100000
1.72720000 -0.76910000 -0.09180000
1.77560000 -0.74930000 -0.06900000
1.72000000 -0.82590000 -0.09870000
1.40570000 -1.89670000 0.51430000
1.00410000 -0.82060000 -0.40270000
1.42620000 -1.83980000 0.50700000
1.76580000 -0.69520000 -0.06290000
1.74960000 -0.62910000 -0.04280000
1.70160000 -0.72790000 -0.06900000
0.90900000 -0.26120000 0.50560000
0.85810000 -0.31520000 0.53600000
0.97600000 -0.84460000 -0.42810000
0.89350000 -0.75720000 -0.45860000
0.90850000 -0.35050000 0.52280000
0.86070000 -0.37330000 0.51390000
1.25280000 -1.86900000 0.51980000
0.76950000 -0.37440000 0.55500000
1.67030000 -0.82570000 -0.10150000
1.31920000 -2.00600000 0.51950000
0.86320000 -0.87050000 -0.47040000
0.82730000 -0.28530000 0.53220000
1.64990000 -0.71020000 -0.08370000
1.33420000 -1.91210000 0.53000000
1.29730000 -1.94590000 0.52290000
0.96090000 -0.23130000 0.48520000
1.30420000 -1.85590000 0.52650000
0.94560000 -0.15380000 0.47600000
0.85750000 -0.19990000 0.49030000
1.48820000 -0.80930000 -0.16330000
1.73560000 -0.36870000 -0.04280000
0.86790000 -0.13280000 0.49980000
1.20990000 -1.96420000 0.53760000
1.08350000 -2.03150000 0.58610000
1.58780000 -0.52060000 -0.11500000
0.77640000 -0.13540000 0.54310000
0.84650000 -0.05330000 0.53290000
1.51850000 -1.08880000 -0.18760000
1.52490000 -1.02220000 -0.15860000
0.85180000 -0.00510000 0.51390000
0.77240000 0.16930000 0.49600000
1.78410000 -1.11420000 0.34950000
1.48340000 -1.08560000 -0.18130000
1.68470000 -0.40130000 -0.07530000
1.79320000 -1.07790000 0.32710000
1.46660000 -1.02200000 -0.17590000
1.77830000 -0.96860000 0.35030000
1.64400000 -2.68620000 -0.03250000
1.76040000 -1.02910000 0.35760000
1.60040000 -0.39650000 -0.11460000
1.79260000 -0.93240000 0.33340000
1.69840000 -0.92860000 0.36570000
0.76610000 -0.27070000 0.51780000
0.77300000 -0.23380000 0.51060000
1.76920000 -0.84850000 0.36090000
0.79480000 -0.18280000 0.51460000
1.69160000 -0.80100000 0.37480000
0.74450000 -0.21150000 0.54190000
1.22710000 -2.52710000 -0.23040000
1.27210000 -2.67330000 -0.20760000
0.72340000 -0.31810000 0.55490000
1.17680000 -2.38570000 -0.25840000
1.34920000 -0.83550000 -0.24470000
1.40340000 -0.88100000 -0.21790000
1.61780000 -2.71240000 -0.05790000
1.50200000 -2.82910000 -0.02800000
1.68560000 -0.23200000 -0.07460000
1.56020000 -2.75520000 -0.08820000
1.57580000 -2.71090000 -0.09450000
1.64220000 -0.28140000 -0.08940000
0.69890000 -0.26260000 0.55730000
0.63870000 -0.25470000 0.57120000
0.68720000 -0.17300000 0.56260000
1.65850000 0.02330000 -0.09000000
0.56630000 -0.38970000 0.57830000
1.51910000 -2.80440000 -0.07340000
1.53630000 -0.96130000 0.39890000
1.41490000 -2.89780000 -0.08820000
1.48420000 -2.83030000 -0.11000000
1.49370000 -0.36890000 -0.16160000
1.18460000 -2.22200000 -0.26700000
1.51580000 -2.77560000 -0.11800000
1.50230000 -0.24100000 -0.15760000
1.48210000 -2.76240000 -0.13010000
1.45000000 -2.83140000 -0.13670000
0.63190000 -0.18870000 0.55480000
0.54050000 -0.35840000 0.55900000
1.59240000 -0.04430000 -0.11370000
1.42680000 -2.88450000 -0.12110000
0.62650000 -0.13600000 0.53160000
1.40580000 -2.86830000 -0.14630000
1.37610000 -2.91930000 -0.13840000
0.48540000 -0.37320000 0.55750000
0.54470000 -0.23090000 0.54890000
1.38480000 -0.71410000 -0.22340000
1.49190000 -0.09630000 -0.16790000
0.46770000 -0.29900000 0.57370000
1.13640000 -2.27400000 -0.28570000
0.43340000 -0.28160000 0.58560000
0.51880000 -0.22160000 0.56520000
1.05020000 -2.36730000 -0.31650000
1.37400000 -1.20740000 0.44450000
0.77090000 -0.06870000 0.53870000
1.33650000 -2.89940000 -0.16400000
1.42310000 -0.40040000 -0.20710000
1.41030000 -1.00160000 0.42750000
1.44450000 -0.50570000 -0.19160000
0.73380000 -0.06610000 0.52980000
0.68610000 -0.03820000 0.51740000
1.30720000 -3.02400000 0.08600000
1.36250000 -2.95490000 0.14720000
1.29650000 -2.98770000 0.14780000
1.27940000 -3.03710000 0.12610000
1.57200000 -0.82890000 0.39030000
1.51350000 -0.89350000 0.41490000
0.54700000 -0.02990000 0.54190000
0.52130000 -0.12790000 0.56580000
0.45500000 -0.11590000 0.57810000
1.38060000 -2.88450000 0.23630000
1.38810000 -0.30060000 -0.21870000
0.93400000 -2.43080000 -0.35960000
0.50130000 -0.03850000 0.56130000
1.44890000 -0.94880000 0.43260000
1.41630000 -0.91190000 0.43210000
0.42500000 0.02290000 0.56730000
1.33870000 -2.94040000 0.18720000
0.81620000 -2.61320000 -0.39230000
0.73100000 -2.53520000 -0.43780000
0.88260000 -2.35730000 -0.38250000
0.80040000 -0.65830000 -0.50850000
1.34340000 -2.88930000 0.27140000
1.34540000 -2.86210000 0.32200000
1.38410000 -0.85940000 0.43530000
0.80570000 -0.59120000 -0.50500000
1.31690000 -2.90150000 0.24990000
1.27620000 -2.84030000 0.32700000
1.30310000 -2.84990000 0.34290000
0.85180000 -0.51860000 -0.48940000
0.74130000 -2.33300000 -0.44520000
0.41730000 -0.14350000 0.57420000
0.38580000 -0.03550000 0.57160000
0.75700000 -2.17870000 -0.44910000
1.28790000 -2.94170000 0.18750000
1.26590000 -2.87190000 0.27650000
1.25610000 -2.92690000 0.22410000
1.13160000 -3.09410000 0.18580000
1.07080000 -2.94260000 0.38900000
1.21840000 -2.12770000 -0.24550000
1.62940000 0.15790000 -0.10850000
1.16330000 -2.01580000 -0.27420000
1.80310000 -0.51630000 0.32650000
1.77090000 -0.54050000 0.36100000
1.77920000 -0.47390000 0.34770000
1.34220000 -2.97880000 -0.04530000
1.62720000 0.26320000 -0.09910000
1.63720000 0.42010000 -0.09660000
1.24400000 -3.07950000 0.02910000
1.48700000 0.16300000 -0.16720000
1.50970000 0.22570000 -0.16660000
1.57980000 0.45170000 -0.12460000
1.32470000 -2.97310000 -0.14450000
1.39550000 0.04350000 -0.21590000
1.20260000 -3.11540000 0.11760000
1.02140000 -3.25470000 0.14360000
1.17930000 -3.09530000 0.15190000
1.46280000 0.31050000 -0.18680000
1.39740000 0.32810000 -0.22800000
1.37250000 0.25810000 -0.23250000
0.77850000 -2.37910000 0.65030000
0.79160000 -2.63990000 0.66690000
0.80470000 -2.54410000 0.64760000
0.79390000 -2.44220000 0.65000000
0.71860000 -2.68250000 0.66730000
0.75040000 -2.32130000 0.64490000
0.57650000 -3.70190000 0.07380000
0.35430000 -3.92120000 0.09910000
0.50220000 -3.79900000 0.00680000
0.31080000 -3.97660000 0.15460000
0.35790000 -3.90210000 0.15880000
0.35060000 -3.86510000 0.21170000
0.30250000 -3.98990000 0.06840000
0.29310000 -4.00830000 0.12450000
0.26780000 -4.00570000 0.07620000
0.69510000 -2.57400000 0.64460000
0.66590000 -2.30180000 0.62200000
0.65200000 -2.66290000 0.65120000
0.51830000 -0.65690000 0.59800000
0.53880000 -0.67870000 0.58870000
0.72040000 -2.19200000 0.62310000
0.50880000 -0.77120000 0.58390000
0.60460000 -2.50340000 0.65110000
0.47370000 -0.71690000 0.60850000
0.30950000 -3.89570000 0.22720000
0.28540000 -3.98650000 0.17600000
0.24420000 -3.96540000 0.18260000
0.44270000 -0.65240000 0.61070000
0.25010000 -3.85870000 0.23450000
0.26720000 -4.00650000 0.14900000
0.62400000 -2.20960000 0.62800000
0.21740000 -3.98060000 0.10050000
0.38870000 -0.80010000 0.62160000
0.78970000 -2.83180000 0.68740000
0.75220000 -2.83110000 0.69310000
0.78600000 -2.92540000 0.69190000
0.18870000 -3.95400000 0.16110000
0.16650000 -3.91550000 0.18660000
0.66530000 -2.97540000 0.69790000
0.68620000 -2.88550000 0.67970000
1.25650000 -2.68300000 0.57330000
1.23290000 -2.68240000 0.54760000
0.48310000 -0.53060000 0.59940000
1.24040000 -2.61850000 0.58900000
0.41830000 -0.62580000 0.59350000
0.45810000 -0.52930000 0.57610000
0.49090000 -0.46160000 0.56780000
1.20670000 -2.62240000 0.57760000
0.61410000 -2.99640000 0.68680000
1.19830000 -2.64860000 0.54300000
0.50320000 -2.72430000 0.66930000
1.17100000 -2.47770000 0.59210000
1.17520000 -2.53360000 0.58970000
1.15670000 -2.55230000 0.56770000
0.53670000 -2.98390000 0.69070000
0.45340000 -0.97660000 0.57590000
0.39710000 -0.99180000 0.58950000
0.40800000 -1.03950000 0.57830000
0.45220000 -0.87790000 0.57880000
0.43150000 -0.86540000 0.60120000
0.37730000 -0.96800000 0.62200000
0.40570000 -0.83490000 0.62020000
0.33260000 -0.85550000 0.61380000
0.36210000 -0.72320000 0.59440000
0.32000000 -0.78560000 0.58310000
-0.03110000 -2.10090000 0.63300000
0.09740000 -2.13930000 0.65720000
-0.08710000 -1.99030000 0.65820000
0.83790000 -3.17110000 0.40150000
0.83970000 -3.38430000 0.19990000
0.33300000 -0.97820000 0.63380000
0.29600000 -0.92620000 0.60570000
0.25070000 -1.00870000 0.62850000
0.62410000 -3.35710000 0.55050000
0.59220000 -3.41700000 0.54510000
0.59380000 -3.39550000 0.45650000
0.25300000 -0.96250000 0.60470000
0.27270000 -0.88060000 0.58390000
0.40570000 -3.62810000 0.40760000
0.53600000 -3.47470000 0.52680000
0.44330000 -3.33280000 0.57830000
0.34360000 -3.49510000 0.46340000
-0.04140000 -2.17910000 0.63450000
-0.39900000 -2.00930000 0.63650000
-0.03540000 -2.48390000 0.66330000
0.17400000 -2.94700000 0.72010000
0.07910000 -2.91100000 0.72420000
0.17480000 -2.98140000 0.71440000
0.03960000 -2.93350000 0.67750000
0.16930000 -3.00280000 0.67800000
0.70850000 -3.54980000 -0.26970000
0.26630000 -0.80820000 0.58560000
0.25130000 -0.75520000 0.59660000
-0.11200000 -2.92110000 0.63060000
0.22190000 -3.05960000 0.65360000
0.30380000 -2.79570000 0.68410000
0.34930000 -2.93000000 0.69680000
0.40730000 -3.01530000 0.70640000
0.08640000 -3.18740000 0.55020000
0.23160000 -0.91720000 0.59970000
0.32710000 -3.00040000 0.72040000
0.18060000 -1.05500000 0.63070000
0.11010000 -0.92130000 0.63110000
0.18390000 -0.91510000 0.62210000
0.68000000 -3.55680000 -0.31700000
0.07350000 -2.87340000 0.72030000
0.11450000 -0.98960000 0.63010000
0.60170000 -3.68120000 -0.16830000
-0.01530000 -2.89060000 0.70090000
-0.02540000 -2.85140000 0.71730000
0.13820000 -2.83990000 0.69890000
-0.00480000 -2.81350000 0.70690000
0.21750000 -0.84250000 0.60390000
0.51420000 -2.50850000 0.64920000
-0.17830000 -2.61220000 0.68360000
0.14120000 -0.76580000 0.61020000
0.10210000 -0.80480000 0.60680000
0.56530000 -2.40810000 0.64720000
-0.11360000 -2.86740000 0.66140000
0.01740000 -0.81810000 0.62280000
0.92860000 -2.88710000 0.56660000
0.37490000 -0.64280000 0.56960000
0.42240000 -0.58890000 0.56820000
0.81310000 -2.84220000 0.66160000
0.80440000 -2.94340000 0.66770000
0.78140000 -3.47150000 0.15290000
0.60250000 -3.62440000 0.19180000
0.75720000 -3.10010000 0.54260000
0.31680000 -0.71520000 0.58990000
0.82730000 -2.93470000 0.60410000
0.77970000 -2.99700000 0.62440000
0.32320000 -2.48260000 0.64890000
-0.12030000 -2.83520000 0.69920000
0.27960000 -0.66740000 0.59070000
0.31900000 -0.60930000 0.56420000
0.83640000 -2.77380000 0.59140000
0.94580000 -2.82760000 0.57550000
0.81790000 -2.80690000 0.62000000
0.44270000 -0.50330000 0.54850000
0.51190000 -2.41940000 0.66120000
0.39090000 -0.56910000 0.55060000
0.45070000 -3.82390000 -0.18240000
0.54980000 -3.70840000 -0.23900000
0.37410000 -0.49760000 0.54940000
0.69940000 -3.59860000 -0.05580000
0.40600000 -3.88620000 -0.06290000
-0.01290000 -3.17670000 0.53160000
-0.30050000 -2.92680000 0.57560000
0.17240000 -0.65570000 0.58600000
0.23170000 -0.54730000 0.56690000
1.01920000 -2.25710000 0.59890000
1.03130000 -2.37730000 0.54870000
1.06900000 -2.38090000 0.59000000
0.98450000 -2.28840000 0.55940000
0.94880000 -2.20620000 0.58250000
0.15110000 -0.69920000 0.60290000
-0.15710000 -2.72920000 0.70130000
1.01570000 -1.99390000 0.57960000
-0.13630000 -2.79420000 0.71780000
0.06850000 -0.73340000 0.59470000
-0.24490000 -2.75790000 0.70750000
0.95220000 -2.08200000 0.59980000
0.02800000 -0.70680000 0.59400000
-0.24620000 -2.71240000 0.70800000
0.98940000 -2.37640000 0.53830000
0.94530000 -2.26200000 0.53750000
0.92370000 -2.39570000 0.54150000
0.83250000 -2.42770000 0.55980000
0.84300000 -2.28210000 0.54340000
0.10340000 -0.60120000 0.59240000
0.16250000 -0.51920000 0.60650000
0.08630000 -0.56050000 0.61930000
0.87670000 -2.19520000 0.53600000
0.04310000 -0.61720000 0.62000000
0.93160000 -2.19550000 0.55460000
-0.01640000 -0.77150000 0.60720000
0.45990000 -3.66280000 0.31020000
0.59490000 -3.42280000 0.39940000
0.45130000 -3.67180000 0.34830000
-0.24980000 -2.78590000 0.67610000
0.90150000 -2.09140000 0.60100000
0.87360000 -2.10650000 0.57070000
0.89600000 -2.17000000 0.53940000
-0.38620000 -2.72280000 0.66310000
0.81520000 -2.12170000 0.58130000
0.80200000 -2.19140000 0.61300000
0.81500000 -2.22430000 0.56770000
-0.00930000 -0.68500000 0.60880000
0.80890000 -2.30530000 0.61410000
0.81300000 -2.46030000 0.61690000
0.81900000 -2.34870000 0.56770000
-0.03940000 -0.65410000 0.63400000
0.00280000 -0.57180000 0.62210000
-0.09870000 -0.65970000 0.63410000
-0.11830000 -0.61190000 0.60780000
0.44020000 -3.66780000 0.38120000
0.06840000 -0.98830000 0.61930000
-0.01500000 -0.96800000 0.61480000
0.08220000 -1.08990000 0.62470000
0.00320000 -1.06440000 0.63330000
-0.35400000 -2.70950000 0.70490000
-0.34320000 -2.68400000 0.71420000
0.78750000 -2.12950000 0.61970000
-0.14990000 -1.05340000 0.62510000
-0.47790000 -2.55560000 0.69570000
-0.15490000 -0.93450000 0.61720000
-0.08880000 -1.09530000 0.64450000
-0.02790000 -0.89490000 0.62680000
0.56120000 -3.57450000 0.28190000
-0.05790000 -0.85180000 0.63660000
-0.11540000 -0.88790000 0.62000000
-0.15790000 -0.83500000 0.64590000
0.84630000 -2.09490000 0.54490000
0.84050000 -2.04160000 0.58960000
0.82260000 -2.07550000 0.56900000
0.80690000 -2.04230000 0.60380000
0.77270000 -2.00400000 0.61740000
-0.22010000 -1.00250000 0.62820000
0.91190000 -1.88340000 0.58540000
-0.22370000 -1.09490000 0.63800000
0.84100000 -1.96850000 0.60300000
-0.20480000 -0.92700000 0.62910000
-0.23040000 -0.88630000 0.65790000
-0.25670000 -0.97590000 0.65770000
0.73190000 -3.05690000 0.63600000
0.70860000 -3.05660000 0.70060000
0.71450000 -3.11730000 0.67700000
0.69050000 -3.19670000 0.69900000
0.67080000 -3.12760000 0.71570000
0.64470000 -3.19430000 0.71660000
-0.28600000 -1.06910000 0.67260000
-0.22250000 -1.13660000 0.66930000
-0.25800000 -1.04310000 0.64260000
0.73960000 -1.78390000 0.60970000
-0.31530000 -1.12840000 0.68860000
0.75250000 -2.99570000 0.67880000
0.72370000 -2.97720000 0.70360000
0.68170000 -3.02440000 0.71090000
-0.30440000 -0.94360000 0.66850000
0.83250000 -2.15900000 0.54440000
0.66510000 -3.27250000 0.65040000
0.61670000 -3.34940000 0.61200000
0.57100000 -3.38070000 0.59190000
0.63170000 -3.27140000 0.65900000
0.68710000 -3.24580000 0.63760000
0.70480000 -3.18830000 0.62020000
0.30950000 -1.71910000 0.64530000
0.36230000 -1.73320000 0.65500000
0.42540000 -1.67020000 0.63210000
0.65270000 -3.28280000 0.53820000
0.39240000 -1.60400000 0.62680000
-0.08230000 -0.78560000 0.63180000
0.70410000 -3.17900000 0.53620000
0.26520000 -1.69220000 0.65330000
-0.06580000 -0.74340000 0.61540000
0.32610000 -1.61320000 0.65470000
-0.08640000 -0.72640000 0.63410000
0.56660000 -2.14040000 0.63150000
-0.14180000 -0.74600000 0.65000000
0.65390000 -3.22480000 0.70000000
0.56110000 -3.20450000 0.67850000
0.68470000 -1.99280000 0.59720000
0.38670000 -1.88620000 0.65230000
0.30070000 -1.95020000 0.67210000
0.39920000 -2.01260000 0.65740000
0.56490000 -3.18780000 0.71110000
0.54730000 -3.22920000 0.65450000
0.36580000 -1.83780000 0.66550000
-0.20780000 -0.80850000 0.65530000
0.73980000 -1.62630000 0.59490000
-0.24140000 -0.75650000 0.64100000
0.14980000 -1.83520000 0.67790000
0.23720000 -2.03510000 0.67670000
0.23260000 -3.71230000 0.31260000
-0.30490000 -0.81670000 0.65710000
-0.31250000 -0.75580000 0.64520000
-0.17230000 -0.68570000 0.61930000
0.20630000 -1.83080000 0.68370000
0.28930000 -1.78520000 0.66840000
-0.22540000 -0.67120000 0.60080000
-0.17610000 -0.57510000 0.59790000
0.23240000 -1.78750000 0.67750000
-0.28510000 -0.72370000 0.61510000
0.73990000 -1.89040000 0.61160000
0.14150000 -1.74250000 0.68720000
-0.26210000 -0.59970000 0.59690000
0.08190000 -3.71970000 0.25990000
0.42930000 -0.43660000 0.54650000
0.79350000 -1.46620000 0.58680000
0.44720000 -0.36880000 0.55270000
0.61780000 -1.81650000 0.60120000
0.38730000 -0.41580000 0.55050000
0.41460000 -0.35270000 0.57520000
0.35410000 -0.39220000 0.58560000
0.05790000 -1.90660000 0.68540000
0.10380000 -2.05290000 0.69110000
0.28440000 -0.47070000 0.57040000
0.35300000 -3.17380000 0.63020000
0.68390000 -1.83800000 0.58880000
0.69900000 -1.79080000 0.60040000
-0.09500000 -1.90590000 0.68510000
0.30370000 -0.44290000 0.58510000
0.24900000 -0.45110000 0.60170000
0.32770000 -0.35960000 0.59680000
0.28180000 -0.35940000 0.59050000
0.72490000 -3.11360000 0.60690000
0.00760000 -3.34240000 0.44390000
0.06660000 -3.56350000 0.34510000
0.53990000 -2.35430000 0.65990000
0.62960000 -1.70780000 0.59850000
0.44510000 -2.37120000 0.66630000
0.38350000 -0.27470000 0.58650000
0.62180000 -1.61280000 0.61150000
0.59780000 -3.17290000 0.72290000
0.28030000 -0.28580000 0.56290000
0.51130000 -2.33960000 0.67980000
0.63930000 -3.10810000 0.70900000
0.35650000 -0.25040000 0.56560000
0.60030000 -3.11730000 0.70350000
0.47230000 -2.33170000 0.68290000
0.55040000 -3.14320000 0.72300000
0.27570000 -2.33290000 0.64100000
0.53470000 -3.09340000 0.70690000
0.22060000 -1.68170000 0.68140000
0.29850000 -2.27370000 0.66060000
0.52320000 -2.03470000 0.64630000
0.19820000 -0.41250000 0.59330000
0.15230000 -0.46760000 0.60490000
0.47830000 -2.13960000 0.66580000
0.55260000 -1.72760000 0.60650000
0.23970000 -0.36180000 0.57250000
0.19520000 -0.36960000 0.56370000
0.21860000 -0.32620000 0.55390000
0.22180000 -1.62140000 0.68320000
0.17940000 -0.31120000 0.56760000
0.47740000 -1.80220000 0.63940000
0.37540000 -2.24880000 0.67890000
0.33500000 -1.55510000 0.66580000
0.30610000 -1.51570000 0.66380000
0.24300000 -1.53920000 0.66210000
0.12050000 -1.60790000 0.68880000
0.08200000 -0.53150000 0.61890000
0.19970000 -1.52790000 0.66170000
0.49020000 -3.15020000 0.70860000
0.06530000 -0.49260000 0.59290000
0.14830000 -0.40160000 0.57860000
0.07910000 -0.44160000 0.57340000
0.43590000 -3.07240000 0.72320000
0.13330000 -0.33820000 0.58740000
0.39960000 -3.12690000 0.67350000
0.09310000 -0.35900000 0.57480000
0.07470000 -1.68740000 0.69720000
0.13490000 -0.25580000 0.58160000
0.41660000 -3.09750000 0.72110000
0.05070000 -1.73890000 0.67630000
0.41800000 -0.21630000 0.57930000
0.42350000 -1.75380000 0.65330000
0.38270000 -0.18980000 0.54190000
0.38570000 -0.14610000 0.54010000
0.36830000 -0.07170000 0.55790000
0.34310000 -0.23150000 0.54090000
0.33050000 -0.17040000 0.53050000
0.10410000 -1.57930000 0.67680000
0.25090000 -2.96640000 0.72040000
0.32830000 -3.04520000 0.72440000
-0.02070000 -1.59470000 0.69240000
0.35040000 -0.08970000 0.53440000
0.06450000 -1.56590000 0.65900000
-0.01750000 -1.56080000 0.66720000
0.31720000 -3.06830000 0.70130000
0.28080000 0.00010000 0.56840000
-0.04080000 -1.74030000 0.67590000
0.29130000 -0.03140000 0.54600000
-0.05510000 -1.69490000 0.69510000
0.73170000 -1.46220000 0.58390000
0.24650000 -0.22130000 0.54180000
-0.08590000 -1.64060000 0.70690000
0.24460000 -0.08330000 0.53180000
0.76500000 -1.33800000 0.57870000
0.16550000 -0.20300000 0.56370000
0.18130000 -0.16340000 0.54570000
0.10780000 -0.20160000 0.57600000
-0.16620000 -1.79270000 0.68080000
0.23380000 -0.01770000 0.53680000
0.51540000 -1.59460000 0.61430000
0.56720000 -1.59200000 0.60060000
0.17590000 -0.03680000 0.53850000
0.13620000 -0.09470000 0.56560000
-0.20390000 -1.99600000 0.62780000
0.13850000 -0.03050000 0.55580000
0.55130000 -1.50320000 0.61560000
-0.29650000 -1.82070000 0.65780000
0.49050000 -1.52750000 0.61450000
-0.02030000 -0.54080000 0.60460000
-0.00750000 -0.50690000 0.58340000
0.45970000 -1.50660000 0.62490000
-0.34650000 -1.86710000 0.62670000
-0.12060000 -0.54140000 0.60600000
-0.15670000 -0.47500000 0.60220000
-0.07430000 -0.42290000 0.57680000
0.45120000 -1.47210000 0.64480000
0.05850000 -0.23880000 0.55910000
-0.18000000 -1.68930000 0.67880000
-0.15500000 -1.65250000 0.70410000
-0.10950000 -1.57810000 0.69790000
0.69680000 -1.28970000 0.57880000
0.07090000 -0.08030000 0.54690000
0.57190000 -1.39580000 0.60730000
-0.22360000 -1.60360000 0.70400000
-0.04350000 -0.21100000 0.55520000
-0.36990000 -3.34490000 0.33040000
-0.26870000 -1.62050000 0.67530000
0.61900000 -1.15620000 0.58810000
-0.37380000 -1.64430000 0.67610000
0.59860000 -1.29290000 0.59570000
-0.00390000 -0.08640000 0.55540000
0.39000000 -1.39730000 0.64710000
0.05300000 -0.04220000 0.55540000
0.31290000 -1.44380000 0.62990000
-0.08060000 -0.15640000 0.56180000
-0.06380000 -0.08700000 0.58150000
0.36500000 -1.37740000 0.62060000
0.55070000 -1.30600000 0.62160000
0.34280000 -1.32060000 0.60620000
-0.15880000 -0.34220000 0.57200000
-0.16640000 -0.29120000 0.57290000
0.29320000 -1.40450000 0.62480000
0.27890000 -1.46990000 0.63130000
0.26240000 -1.44360000 0.64500000
0.23550000 -1.43040000 0.65530000
0.28500000 -1.34620000 0.63690000
-0.13590000 -0.19190000 0.58510000
0.43010000 -1.29060000 0.62570000
0.41190000 -1.25620000 0.59940000
0.45990000 -1.33590000 0.64360000
-0.19000000 -0.24900000 0.60480000
0.32210000 -1.25640000 0.61050000
0.24130000 -1.29890000 0.64630000
0.15060000 -1.34110000 0.64740000
-0.15180000 -0.13470000 0.59180000
0.29220000 -1.17480000 0.63900000
0.54510000 -1.22220000 0.62590000
-0.22960000 -0.20530000 0.60540000
0.44930000 -1.12210000 0.58540000
0.40770000 -1.14460000 0.58580000
-0.18420000 -0.09630000 0.58300000
0.32920000 -1.15240000 0.60660000
-0.24310000 -0.50830000 0.60010000
1.16930000 -2.71120000 0.50990000
0.19220000 -1.22420000 0.65920000
-0.29000000 -0.58290000 0.61900000
-0.29980000 -0.53270000 0.63450000
0.20640000 -2.16530000 0.67160000
0.62280000 -0.93290000 0.59410000
0.22190000 -2.13870000 0.68190000
0.23970000 -1.10280000 0.64540000
0.60070000 -1.09140000 0.60880000
-0.20550000 -0.39760000 0.60210000
-0.24770000 -0.45470000 0.61570000
1.10240000 -2.73370000 0.53890000
0.34460000 -1.08680000 0.61250000
-0.20320000 -0.35530000 0.58620000
0.31820000 -1.06420000 0.63780000
0.56180000 -0.87390000 0.60700000
-0.25320000 -0.32910000 0.61720000
0.49940000 -1.12600000 0.62420000
1.14100000 -2.67430000 0.53980000
-0.33370000 -0.47000000 0.63490000
1.15230000 -2.60260000 0.53980000
1.07480000 -2.56660000 0.54200000
0.17400000 -1.14240000 0.64290000
0.50570000 -0.87720000 0.59430000
-0.30660000 -0.29300000 0.61690000
0.90310000 -2.64970000 0.56550000
0.12230000 -1.16620000 0.62900000
0.13460000 -1.09140000 0.61950000
0.47630000 -1.08430000 0.60130000
-0.28490000 -0.20680000 0.59590000
-0.25870000 -0.14430000 0.57090000
0.12820000 -1.41860000 0.65430000
0.09200000 -1.49950000 0.66420000
0.84740000 -2.63430000 0.57370000
-0.05270000 -1.51850000 0.65840000
-0.01640000 -1.45840000 0.66700000
0.03640000 -1.31970000 0.67270000
0.02420000 -1.36000000 0.66040000
0.03290000 -1.39760000 0.65340000
0.81920000 -2.55840000 0.58650000
0.81160000 -2.65670000 0.63150000
0.76010000 -2.64730000 0.67640000
0.12500000 -1.22570000 0.66090000
-0.00570000 -1.25530000 0.67380000
0.04220000 -1.22040000 0.64950000
0.02430000 -1.19330000 0.64200000
1.08530000 -2.49530000 0.54390000
1.07990000 -2.43630000 0.56620000
-0.10200000 -1.30810000 0.68130000
0.07050000 -1.13830000 0.64140000
-0.04890000 -1.15780000 0.65100000
-0.09800000 -1.35810000 0.66650000
-0.09770000 -1.43320000 0.66550000
-0.14410000 -1.50340000 0.66660000
-0.14850000 -1.45520000 0.65520000
-0.21300000 -1.48170000 0.69400000
-0.23730000 -1.53830000 0.70620000
-0.17360000 -1.37880000 0.65210000
-0.29810000 -1.55890000 0.68500000
-0.30630000 -1.50710000 0.69920000
-0.37150000 -1.51490000 0.66780000
-0.21760000 -1.41100000 0.66440000
-0.29380000 -1.36690000 0.69310000
-0.34790000 -1.36780000 0.69610000
-0.36650000 -1.44280000 0.67710000
-0.10690000 -1.21460000 0.67090000
-0.16600000 -1.15360000 0.64860000
-0.17040000 -1.31230000 0.67740000
-0.16850000 -1.25820000 0.68600000
-0.19620000 -1.31630000 0.65750000
-0.23090000 -1.33700000 0.65050000
-0.25650000 -1.27230000 0.67000000
-0.23390000 -1.25440000 0.68530000
-0.26520000 -1.31940000 0.67140000
-0.22150000 -1.18100000 0.68450000
-0.33420000 -1.21460000 0.68610000
0.47550000 -0.77280000 0.59510000
0.37990000 0.07730000 0.55870000
0.45280000 0.07590000 0.53940000
0.48450000 0.07020000 0.54990000
1.83670000 2.07830000 -0.04000000
1.86520000 2.09010000 -0.01790000
1.84110000 1.89790000 -0.03830000
1.47520000 2.26130000 0.30290000
1.44460000 2.09180000 0.32140000
1.52200000 2.13390000 0.30660000
1.19610000 2.87720000 0.32620000
1.21620000 2.74080000 0.32350000
1.27530000 2.84070000 0.30960000
1.33210000 2.72770000 0.31240000
0.65670000 0.99850000 0.48090000
0.77860000 1.14320000 0.45090000
0.62670000 1.02100000 0.48080000
1.76950000 0.52720000 -0.02410000
1.87890000 2.13740000 0.02710000
1.87190000 1.93480000 0.01430000
0.44680000 0.16000000 0.51940000
0.49140000 0.36150000 0.53830000
1.85920000 2.22210000 0.00340000
1.88120000 2.21450000 0.07810000
0.42040000 0.11910000 0.51520000
0.38660000 0.09230000 0.53740000
1.82970000 2.19060000 -0.04650000
1.79090000 2.15860000 -0.05800000
0.36220000 0.13630000 0.51620000
0.30620000 0.12720000 0.53190000
1.83510000 2.27450000 0.02850000
1.85120000 2.27880000 0.09350000
0.46300000 0.30140000 0.53070000
1.79650000 2.26620000 -0.04810000
0.42530000 0.25680000 0.50710000
1.13210000 3.03100000 0.25650000
1.29910000 2.84190000 0.27360000
1.32620000 2.81750000 0.16750000
0.36020000 0.18930000 0.50850000
1.70760000 2.37130000 -0.05800000
1.75350000 2.36480000 0.03910000
1.70130000 0.61540000 -0.05920000
1.75650000 2.25190000 -0.07590000
0.15410000 0.26040000 0.51350000
1.65160000 2.32100000 -0.09990000
1.69030000 2.34860000 -0.09160000
0.25490000 0.16220000 0.51750000
0.96240000 1.58550000 0.40210000
0.90360000 1.65060000 0.40000000
0.95800000 1.29340000 0.41480000
1.77550000 0.98410000 -0.03230000
0.42310000 0.41210000 0.51000000
0.47050000 0.73120000 0.51810000
0.76680000 1.50570000 0.43500000
1.13610000 3.01300000 0.31520000
1.69390000 0.73760000 -0.07380000
0.33940000 0.34550000 0.50550000
1.66360000 0.86130000 -0.09040000
1.61680000 0.67950000 -0.10800000
0.68250000 1.50950000 0.44580000
0.22730000 0.40220000 0.51140000
0.29270000 0.88750000 0.48220000
1.52510000 0.47320000 -0.16040000
1.52490000 2.61150000 0.03240000
1.10960000 3.06700000 0.01030000
1.47650000 2.67040000 0.07780000
1.39400000 2.72340000 -0.05590000
1.57930000 0.79530000 -0.13260000
1.49490000 0.69290000 -0.17630000
1.08290000 2.81990000 -0.12510000
1.26230000 2.81530000 -0.13190000
1.27370000 2.69910000 -0.16510000
1.14730000 2.92940000 -0.10570000
0.02840000 0.44960000 0.51120000
1.16670000 2.96590000 -0.08400000
1.30640000 2.79820000 -0.11210000
1.44310000 0.70290000 -0.20920000
0.50590000 1.05670000 0.50130000
0.69980000 0.53330000 0.49600000
1.42040000 0.82890000 -0.22140000
1.46880000 2.66570000 0.11950000
0.44620000 0.80250000 0.50090000
0.58230000 1.73680000 0.44970000
0.42090000 0.94800000 0.48150000
1.10440000 3.05860000 -0.03720000
1.11440000 3.06480000 0.06180000
1.85290000 0.84390000 0.04150000
1.46150000 0.48010000 -0.18940000
1.00960000 3.16440000 0.12950000
1.48610000 0.59030000 -0.18260000
1.82610000 1.16260000 -0.01820000
1.01900000 1.75940000 0.39280000
0.98690000 1.84830000 0.37980000
0.79360000 3.39790000 0.22710000
1.34040000 0.40200000 -0.25160000
1.41720000 0.49370000 -0.21930000
1.39120000 0.62070000 -0.22780000
1.80950000 0.51410000 0.32090000
0.71480000 1.80390000 0.42680000
1.31160000 0.56130000 -0.27180000
1.83320000 0.61310000 0.30000000
1.34620000 0.74420000 -0.25640000
1.83950000 0.76980000 0.29410000
1.82000000 0.75510000 0.31390000
1.78680000 0.71760000 0.32140000
1.33670000 0.78710000 -0.27330000
1.72350000 0.81830000 0.32520000
1.71600000 0.91850000 -0.07340000
1.84690000 1.02120000 0.25200000
1.72950000 1.01800000 -0.06290000
1.09860000 2.79240000 0.33790000
1.08280000 2.08910000 0.34890000
1.66390000 1.13190000 -0.10290000
1.72410000 1.26440000 -0.08100000
0.74990000 2.10190000 0.40740000
1.61710000 1.02090000 -0.12350000
1.58630000 0.90090000 -0.14180000
1.51270000 0.96420000 -0.17800000
1.11830000 2.99680000 0.33270000
0.90850000 2.95790000 0.36610000
0.99070000 3.05860000 0.35070000
0.99200000 2.72040000 0.34990000
1.75320000 1.40270000 -0.06450000
-0.05210000 0.90960000 0.48880000
0.11430000 1.20060000 0.46850000
0.79760000 2.61020000 0.38810000
0.53630000 1.95650000 0.45200000
1.65360000 1.24590000 -0.11290000
1.49980000 0.34200000 0.37270000
0.46210000 1.37320000 0.48610000
1.55090000 1.13740000 -0.16220000
1.63020000 1.35330000 -0.13080000
1.60170000 1.21420000 -0.14830000
1.51170000 1.27170000 -0.19350000
1.49230000 0.88200000 -0.18700000
1.57200000 1.43770000 -0.16610000
1.51890000 0.47640000 0.36500000
0.60530000 2.49640000 0.42110000
0.62340000 2.96910000 0.41240000
1.57690000 1.49190000 -0.15200000
1.72010000 1.59210000 -0.09070000
1.76350000 1.59300000 -0.06980000
1.60570000 1.55000000 -0.11740000
1.40280000 0.33030000 0.39630000
1.43280000 0.47910000 0.39020000
1.40060000 0.98210000 -0.24660000
1.35940000 1.02560000 -0.26410000
1.76350000 1.69130000 -0.05020000
1.83130000 1.68160000 -0.04070000
1.80650000 1.90950000 -0.04100000
1.33030000 0.89220000 -0.27550000
1.64050000 1.61590000 -0.08820000
1.68220000 1.78300000 -0.06680000
1.28640000 0.78660000 -0.29450000
1.01500000 3.14770000 0.33460000
0.98770000 3.14440000 0.34970000
1.75990000 1.96280000 -0.03820000
1.58970000 0.60370000 0.34910000
1.43170000 1.16500000 -0.23370000
1.48400000 1.21220000 -0.21290000
1.54810000 0.56240000 0.37000000
1.52920000 0.65500000 0.37440000
1.53050000 0.61390000 0.38400000
1.53050000 1.57260000 -0.13170000
1.51750000 1.87060000 -0.13200000
1.56170000 0.71810000 0.35240000
0.46550000 2.19010000 0.43830000
0.42980000 1.97080000 0.42960000
1.49970000 0.52060000 0.38010000
1.48090000 0.58180000 0.38720000
1.40530000 0.63510000 0.39040000
1.39540000 0.46950000 0.41250000
1.53680000 0.76790000 0.37140000
1.46020000 0.65220000 0.38120000
1.48210000 1.38730000 -0.20790000
1.39210000 1.27770000 -0.26030000
0.66080000 3.29580000 0.40720000
1.45930000 0.78120000 0.38610000
1.41050000 1.39560000 -0.20800000
0.28400000 1.89820000 0.42990000
1.32480000 0.81500000 0.40310000
1.38020000 0.84480000 0.38340000
1.43970000 1.49840000 -0.17750000
1.82110000 1.16290000 0.30060000
1.83060000 0.94830000 0.30160000
1.84590000 1.15550000 0.27910000
1.37790000 0.98300000 0.37880000
1.35940000 1.30240000 -0.26780000
1.30100000 1.05340000 0.39460000
1.24500000 0.94010000 0.40600000
1.35720000 1.08730000 0.36810000
1.34740000 1.41280000 -0.23500000
1.27520000 1.15970000 0.38050000
1.84360000 1.35560000 0.28050000
1.81220000 1.37120000 0.29460000
1.20480000 1.06560000 0.38820000
1.28360000 1.27540000 -0.29660000
1.76900000 1.18360000 0.30620000
1.86160000 1.32080000 0.09480000
1.31110000 2.51430000 -0.24610000
1.38080000 2.41770000 -0.19730000
1.32050000 2.27540000 -0.23580000
1.19180000 2.15070000 -0.34650000
1.21070000 2.46890000 -0.32310000
1.36410000 1.22320000 0.36180000
1.39640000 1.81220000 -0.19450000
1.23110000 1.14760000 0.37640000
1.16330000 2.38300000 -0.34770000
1.00340000 2.39080000 -0.31270000
1.12930000 2.39640000 -0.34180000
1.14350000 2.17360000 -0.37080000
1.22890000 1.27980000 0.36900000
1.85490000 1.38950000 0.18360000
1.16120000 0.43150000 -0.35410000
-0.07290000 1.06280000 0.48930000
1.85520000 1.50870000 -0.00560000
1.27420000 0.56680000 -0.30230000
1.23540000 2.61060000 -0.21990000
1.31210000 2.59000000 -0.20370000
1.25470000 2.58880000 -0.25350000
1.21700000 0.65180000 -0.32980000
1.21020000 2.66260000 -0.17050000
1.27600000 1.88700000 -0.27630000
1.27450000 2.55700000 -0.26710000
1.19490000 2.55870000 -0.31850000
1.13670000 2.63220000 -0.26600000
1.17590000 2.59840000 -0.29780000
1.85930000 1.32110000 0.03050000
1.13680000 2.65880000 -0.17920000
1.19060000 0.54030000 -0.33680000
1.07960000 2.66170000 -0.21850000
1.14230000 2.55430000 -0.33010000
1.10130000 2.60880000 -0.30910000
1.34040000 1.34670000 0.35260000
0.99780000 2.55490000 -0.29440000
1.05290000 2.59870000 -0.31280000
1.03610000 2.71470000 -0.15100000
-0.04110000 1.38760000 0.46240000
1.39370000 1.44060000 0.34960000
1.22900000 1.45230000 0.36910000
-0.08270000 1.37100000 0.48240000
0.97160000 2.70680000 -0.16710000
1.02680000 2.66020000 -0.27610000
1.16970000 0.61030000 -0.36310000
1.17420000 0.67020000 -0.37230000
1.05620000 0.68130000 -0.42750000
1.14280000 1.35180000 0.39000000
0.89110000 2.70640000 -0.23300000
1.03850000 0.63220000 -0.42340000
1.13810000 1.23940000 0.39100000
-0.06260000 1.61040000 0.45690000
1.16590000 0.78270000 -0.37260000
-0.12880000 1.29670000 0.50860000
-0.10090000 1.19880000 0.50580000
1.35740000 1.53270000 0.33880000
1.40990000 1.49230000 0.34900000
1.42470000 1.57670000 0.32690000
1.13110000 0.72390000 -0.38550000
1.32340000 1.56120000 0.34480000
1.35090000 1.64380000 0.33270000
1.11230000 0.85670000 -0.39560000
1.26110000 1.58580000 0.36070000
1.06740000 0.41800000 -0.40470000
1.39520000 1.69560000 0.34260000
1.32600000 1.69280000 0.34350000
0.49410000 2.16780000 0.44990000
1.26230000 1.53590000 0.36970000
1.00710000 0.55070000 -0.44070000
1.64390000 1.02750000 0.32970000
1.01160000 0.46950000 -0.44460000
0.94820000 0.41410000 -0.46970000
1.15860000 1.52900000 0.38330000
0.94260000 0.51220000 -0.47700000
1.19180000 1.58150000 0.36440000
1.18930000 1.64430000 0.35590000
0.80940000 0.38000000 -0.53840000
0.63010000 2.59740000 -0.20950000
1.07640000 1.48130000 0.39220000
0.84710000 0.41340000 -0.51410000
0.88290000 2.64460000 -0.27250000
0.88470000 2.68220000 -0.26200000
0.71700000 2.65290000 -0.22790000
0.85860000 0.55940000 -0.52030000
1.53810000 1.00120000 0.34660000
1.57570000 0.86430000 0.34540000
1.09220000 1.56020000 0.37430000
1.50690000 0.91690000 0.35790000
1.09710000 1.68290000 0.36730000
1.03120000 1.55710000 0.40540000
1.51670000 0.84750000 0.38320000
1.46370000 0.88090000 0.38020000
0.40210000 2.28630000 0.41260000
1.01230000 0.75100000 -0.44450000
0.48330000 2.79970000 0.41680000
0.51470000 2.86820000 0.42970000
0.46540000 2.87680000 0.41710000
1.74760000 2.12050000 -0.04350000
0.45560000 2.65300000 0.40260000
0.45890000 2.83160000 0.40330000
1.45940000 1.02780000 0.35430000
0.54640000 3.00490000 0.42850000
0.51830000 3.18420000 0.42450000
0.86230000 0.71940000 -0.52990000
0.49070000 2.92860000 0.41480000
0.45800000 2.91870000 0.39830000
0.49210000 3.16320000 0.40430000
0.45020000 3.08930000 0.38940000
0.38650000 2.80170000 0.39600000
0.36970000 2.87580000 0.40920000
1.20930000 0.87750000 -0.33870000
0.33960000 2.84130000 0.40120000
1.68290000 1.12990000 0.32160000
0.81380000 2.21100000 -0.29730000
1.58050000 2.22770000 -0.09850000
0.27660000 2.82970000 0.40800000
0.39040000 2.91900000 0.39340000
0.28340000 3.02750000 0.39490000
1.60240000 1.06910000 0.35030000
1.61170000 1.15670000 0.33760000
1.53750000 1.08610000 0.35790000
0.43620000 2.51120000 -0.18160000
1.23920000 1.17700000 -0.34320000
1.72120000 1.28500000 0.31600000
1.67900000 1.24030000 0.33200000
1.73260000 2.18700000 -0.06000000
1.14340000 1.00530000 -0.38650000
0.25090000 2.86370000 0.42690000
0.28280000 2.90610000 0.40250000
1.62820000 2.28910000 -0.08730000
1.51510000 1.28960000 0.33820000
0.26880000 2.72030000 0.40390000
0.25190000 2.92940000 0.41630000
1.47590000 1.12140000 0.34990000
0.30720000 2.62860000 0.40030000
0.17920000 2.60860000 0.40940000
1.46470000 1.19680000 0.34150000
0.07930000 1.98040000 0.43170000
1.16350000 1.14070000 -0.38840000
1.13720000 1.07880000 -0.39660000
1.12870000 1.17500000 -0.39240000
1.23250000 1.28820000 -0.32950000
0.08970000 2.75650000 0.40750000
1.16380000 1.40950000 -0.38600000
1.18460000 1.52460000 -0.36540000
0.24720000 2.64350000 0.40490000
0.23510000 2.72750000 0.42770000
0.20280000 2.68750000 0.43750000
0.16770000 2.77210000 0.41640000
0.20230000 2.83730000 0.43450000
0.87770000 2.78520000 -0.12180000
0.85300000 2.74330000 -0.14330000
0.84800000 2.72860000 -0.18190000
-0.15970000 1.56730000 0.49380000
-0.25820000 1.14910000 0.52570000
1.31250000 0.27800000 0.44470000
1.35570000 0.52380000 0.41930000
0.22620000 2.97200000 0.42820000
-0.10220000 1.64600000 0.48450000
1.27260000 0.37340000 0.42690000
0.16810000 2.98040000 0.40500000
1.31490000 0.52760000 0.41910000
0.74780000 2.81410000 -0.10540000
0.08530000 3.07190000 0.40250000
-0.16750000 1.68620000 0.49660000
1.01540000 3.11960000 -0.05200000
0.79400000 3.02290000 -0.05570000
1.44060000 2.19890000 -0.16010000
0.89410000 0.88410000 -0.52010000
1.27980000 0.69020000 0.41790000
1.06290000 1.01150000 -0.43160000
1.85680000 1.51520000 0.25150000
0.00730000 2.96120000 0.40810000
0.00350000 2.69220000 0.41100000
1.83440000 1.51570000 0.28290000
0.96590000 3.20720000 -0.01890000
-0.02400000 2.93810000 0.42540000
0.67850000 3.20250000 -0.01220000
1.70490000 1.46750000 0.30530000
1.78750000 1.54710000 0.29620000
0.96360000 0.96610000 -0.47920000
-0.01800000 2.35370000 0.42170000
0.95660000 0.99560000 -0.46240000
1.06950000 1.05500000 -0.41960000
1.85530000 1.65380000 0.26430000
1.77130000 1.61270000 0.29700000
-0.03630000 2.45700000 0.42650000
1.83080000 1.70120000 0.27770000
1.86640000 1.81850000 0.23530000
-0.09270000 2.50480000 0.46080000
-0.07930000 2.28540000 0.45980000
-0.10190000 2.37580000 0.46140000
-0.05840000 2.54440000 0.44590000
0.95670000 1.05010000 -0.44960000
0.84860000 0.91640000 -0.52060000
1.79440000 1.81610000 0.27810000
1.83910000 1.79580000 0.27530000
1.85940000 1.81020000 0.25680000
-0.14070000 2.45140000 0.47050000
1.07040000 1.11200000 -0.38970000
1.08140000 1.18620000 -0.38510000
1.03190000 1.06660000 -0.41300000
1.06900000 1.30950000 -0.39720000
-0.03100000 2.65340000 0.42340000
1.33470000 1.79130000 0.36070000
1.38140000 1.79030000 0.34660000
0.94560000 1.14790000 -0.46370000
1.26580000 1.71800000 0.35600000
-0.05690000 2.77390000 0.44320000
-0.10620000 2.61180000 0.46240000
1.11920000 1.33800000 -0.38740000
-0.12480000 2.55760000 0.49240000
-0.16700000 2.48740000 0.50150000
1.29410000 1.79460000 0.35710000
-0.16410000 2.62150000 0.49400000
-0.21850000 2.57250000 0.50470000
-0.02620000 2.00500000 0.43360000
-0.07590000 1.78790000 0.46100000
1.36230000 1.90760000 0.32970000
1.38030000 1.87170000 0.34520000
1.41080000 1.93220000 0.31190000
1.41870000 1.83950000 0.31840000
-0.10520000 1.91980000 0.47400000
1.30580000 1.91250000 0.32430000
0.74150000 2.73960000 -0.21250000
1.33160000 1.86870000 0.34720000
0.72290000 2.70670000 -0.23250000
-0.12320000 2.75980000 0.45340000
-0.16590000 1.82520000 0.48800000
1.25540000 1.78390000 0.34540000
1.19510000 1.78130000 0.34550000
-0.06600000 2.96330000 0.44590000
-0.15520000 2.90000000 0.45470000
-0.07550000 2.01870000 0.45660000
0.77190000 2.77350000 -0.12300000
0.65550000 2.77670000 -0.14220000
1.73220000 2.37480000 0.15680000
1.80510000 2.29420000 0.20250000
1.82990000 2.27380000 0.14590000
0.66600000 2.76540000 -0.17660000
1.22230000 0.22840000 0.44420000
1.79600000 2.33060000 0.12310000
0.88810000 3.30360000 0.06930000
1.70880000 1.37070000 0.30820000
1.74680000 2.35540000 0.23670000
1.80100000 2.28060000 0.25170000
1.71450000 2.35760000 0.27610000
1.74000000 2.27090000 0.28100000
1.17980000 0.25210000 0.44390000
0.68400000 2.78410000 -0.11960000
0.63380000 2.82140000 -0.09630000
0.95890000 3.22030000 0.31470000
1.21780000 0.37560000 0.42990000
1.59300000 2.52220000 0.22900000
0.95980000 3.20700000 0.34230000
1.64230000 2.45920000 0.26390000
1.07350000 1.76420000 0.38140000
1.12440000 0.33880000 0.43540000
1.16030000 0.29310000 0.45350000
1.19930000 0.42990000 0.41840000
1.74860000 2.37930000 0.09250000
0.86100000 3.25050000 0.37220000
1.18200000 1.86730000 0.34300000
1.13380000 0.46910000 0.42890000
1.70510000 1.48730000 0.31360000
1.73190000 1.53040000 0.31610000
0.64860000 2.74170000 -0.21070000
1.12150000 1.84180000 0.36640000
0.51320000 2.73580000 -0.19040000
1.22380000 1.93800000 0.34130000
1.17030000 1.94660000 0.36430000
1.11820000 1.93610000 0.37300000
1.11080000 0.28800000 0.44870000
0.54360000 2.76150000 -0.19800000
0.44230000 2.69580000 -0.16160000
0.80380000 3.38530000 0.33920000
0.84590000 3.32460000 0.36290000
1.87300000 1.98750000 0.15030000
0.57570000 2.77830000 -0.18520000
0.53080000 2.82360000 -0.09580000
1.38800000 2.00900000 0.31700000
1.47070000 1.99110000 0.30490000
1.30750000 2.01100000 0.33940000
1.87800000 1.96210000 0.07120000
0.47500000 2.81140000 -0.14720000
0.45700000 2.82700000 -0.10420000
0.97200000 0.39770000 0.45360000
1.31370000 2.11260000 0.34200000
1.62500000 2.39550000 0.29300000
1.62080000 2.23940000 0.28540000
1.41980000 2.25700000 0.32200000
1.61220000 2.45490000 0.28990000
1.51260000 2.36900000 0.29590000
1.28820000 0.54550000 0.40640000
1.26080000 2.18120000 0.32410000
1.33060000 2.23830000 0.33090000
1.11120000 2.02230000 0.35150000
1.20870000 0.54980000 0.41250000
1.25070000 0.61830000 0.40290000
1.42270000 2.40280000 0.31240000
1.67040000 1.56180000 0.31620000
0.46110000 2.91460000 -0.05610000
1.13290000 0.51790000 0.44560000
1.74040000 1.63680000 0.29270000
1.49220000 2.56750000 0.30120000
1.67090000 1.66200000 0.29690000
0.68890000 3.41410000 0.39710000
1.62480000 1.65310000 0.32100000
1.21720000 0.68290000 0.41320000
1.16600000 0.66780000 0.41970000
1.72110000 1.79790000 0.28580000
1.16580000 0.58230000 0.43460000
1.08070000 0.59880000 0.45510000
0.35800000 2.88310000 -0.05910000
1.45510000 2.67220000 0.22480000
1.12230000 0.64900000 0.43630000
1.67280000 1.75270000 0.30280000
1.52380000 2.57580000 0.28690000
0.74890000 3.39690000 0.38680000
0.71460000 3.46660000 0.37680000
1.64640000 1.32730000 0.33480000
1.04830000 0.50390000 0.44840000
1.59980000 1.38080000 0.32440000
0.67930000 3.52200000 0.31940000
0.96630000 0.54110000 0.45320000
1.41700000 2.58150000 0.30900000
1.46990000 2.65070000 0.27530000
1.41950000 2.67570000 0.30110000
1.01170000 0.61140000 0.46620000
0.96520000 0.67330000 0.45300000
0.63690000 3.51940000 0.40270000
0.63350000 3.55770000 0.37150000
0.57860000 3.50830000 0.42030000
1.53520000 1.48970000 0.32600000
1.48950000 1.47700000 0.33920000
0.89980000 3.25230000 -0.02130000
0.90530000 3.28730000 0.01740000
1.60450000 2.45090000 -0.10370000
1.19580000 1.77710000 -0.34910000
1.59160000 2.43330000 -0.11680000
0.87570000 3.31280000 0.00470000
1.50260000 2.44480000 -0.14060000
0.82230000 3.37590000 0.02930000
1.56930000 1.53310000 0.32860000
0.84740000 3.27570000 -0.01390000
1.53890000 1.70520000 0.32890000
1.61480000 1.78810000 0.31880000
1.52590000 2.49630000 -0.13230000
1.13450000 1.53760000 -0.39420000
1.48460000 2.58320000 -0.12540000
0.83870000 3.33860000 -0.00240000
1.53430000 1.61020000 0.33110000
1.48610000 1.60880000 0.32230000
0.79370000 3.33730000 -0.00120000
1.35910000 2.44520000 0.33010000
0.78680000 3.38890000 0.00580000
0.71350000 3.42600000 0.01670000
0.76690000 3.43230000 0.04010000
1.84810000 1.93030000 0.26520000
0.55010000 3.29850000 0.42520000
1.16640000 1.71940000 -0.38390000
1.87280000 1.97840000 0.23560000
1.87270000 2.11160000 0.22270000
1.83970000 2.10810000 0.26180000
1.75860000 2.11680000 0.27490000
1.14020000 1.81480000 -0.41270000
1.85900000 2.15940000 0.24590000
1.86030000 2.21740000 0.22380000
1.82270000 2.23550000 0.26040000
1.08220000 1.56970000 -0.42930000
0.97090000 1.30160000 -0.46680000
0.70280000 3.49220000 0.10480000
0.91990000 1.34380000 -0.52450000
1.03160000 1.59820000 -0.49110000
1.31290000 2.55770000 0.31740000
0.92210000 1.52190000 -0.53340000
0.98730000 1.59320000 -0.52120000
0.90190000 1.40520000 -0.55470000
1.38420000 2.73820000 0.28580000
0.68570000 3.51600000 0.05840000
0.68210000 3.49360000 0.02970000
1.09510000 1.72270000 -0.45160000
1.05190000 1.72030000 -0.49340000
1.04240000 1.78330000 -0.48210000
1.08040000 1.78940000 -0.45070000
0.60600000 3.59440000 0.17580000
1.01770000 1.69320000 -0.50560000
1.00350000 1.77440000 -0.48830000
1.47690000 2.55290000 -0.15210000
0.88260000 1.78330000 -0.45550000
1.69660000 2.01930000 0.28220000
1.69090000 1.92760000 0.29740000
1.67210000 1.86000000 0.31260000
0.82090000 1.60930000 -0.47840000
1.56890000 1.95810000 0.31080000
1.18460000 0.71840000 0.42910000
0.48820000 3.53420000 0.39220000
1.18360000 0.83860000 0.42550000
0.41100000 3.26310000 0.38940000
1.62210000 2.02400000 0.30300000
1.11090000 0.70220000 0.44740000
1.07570000 0.76720000 0.44270000
1.54040000 1.83150000 0.30910000
1.38580000 2.55710000 -0.19580000
1.50080000 1.89680000 0.30070000
1.39090000 2.64650000 -0.17070000
1.17960000 0.98980000 0.41770000
1.05930000 1.06990000 0.41590000
1.14470000 0.85140000 0.41270000
0.47460000 3.44460000 0.03480000
1.87250000 2.20090000 0.16090000
1.05270000 0.83420000 0.42410000
1.36670000 2.60050000 -0.19030000
1.06080000 0.92990000 0.41620000
1.14910000 1.94910000 -0.39470000
0.12260000 3.11170000 0.01180000
1.02170000 0.72330000 0.45780000
0.98050000 0.75010000 0.44320000
0.87380000 0.82990000 0.45080000
1.34550000 2.36080000 0.33140000
1.10520000 1.08790000 0.42540000
1.26070000 2.28800000 0.31960000
1.14120000 1.13470000 0.40540000
1.11790000 2.06710000 -0.38270000
0.60450000 3.59410000 0.05280000
0.55200000 3.60840000 0.04170000
1.24880000 2.39490000 0.33030000
1.11230000 1.87390000 -0.42090000
0.32950000 3.58190000 0.05330000
1.03560000 1.87270000 -0.40500000
0.96750000 2.00830000 -0.36280000
1.14470000 2.24050000 0.33660000
-0.05520000 2.14520000 0.44160000
0.98580000 1.86880000 -0.40450000
1.56160000 2.13850000 0.29240000
0.97900000 1.84360000 -0.44380000
1.18530000 2.32600000 0.33210000
1.12680000 2.31540000 0.35750000
1.09860000 1.97790000 -0.39790000
-0.11030000 2.17980000 0.48120000
1.16040000 2.42500000 0.35010000
0.84770000 1.97400000 -0.34920000
0.04230000 3.49550000 0.06240000
1.02730000 2.19200000 0.35240000
-0.12670000 2.06670000 0.47170000
-0.13620000 2.11450000 0.47990000
1.51920000 1.76780000 0.32330000
0.91850000 1.83970000 -0.44870000
1.00340000 2.27510000 0.35740000
-0.18570000 2.11040000 0.51560000
-0.18010000 2.06780000 0.50670000
-0.14880000 2.15750000 0.50430000
1.07020000 2.29940000 0.36320000
