-7.58430000 12.58260000 -0.24160000
8.15580000 -16.05730000 -0.00710000
8.15880000 -16.13790000 -0.05010000
8.12120000 -16.11220000 -0.10470000
-7.40970000 13.75580000 -0.22770000
-7.26880000 14.08910000 -0.26060000
-8.65600000 1.33220000 0.10990000
-8.72800000 0.98940000 0.07280000
-4.04140000 9.95220000 -0.73980000
-3.93910000 10.47780000 -0.75250000
-3.90560000 11.91770000 -0.76150000
-3.61940000 12.34900000 -0.79000000
-3.74710000 10.67190000 -0.77170000
-2.13730000 -17.36820000 0.05650000
7.59070000 -13.90680000 -0.19740000
7.79260000 5.44400000 0.21830000
7.92740000 4.54650000 0.20140000
-7.87180000 12.06600000 0.05650000
-6.86440000 3.62880000 -0.33350000
-7.06910000 4.75070000 -0.30910000
-6.66170000 4.78800000 -0.35820000
-7.00830000 3.28610000 -0.32090000
4.09750000 13.32120000 0.69160000
4.37900000 13.67130000 0.65450000
-8.13090000 10.02480000 0.13080000
-8.04880000 10.24880000 0.17630000
-7.96230000 11.45560000 -0.11960000
-7.90540000 11.63360000 -0.17420000
-7.81900000 -14.17360000 -0.18180000
-4.70110000 -8.77130000 -0.59470000
-4.43680000 -7.99800000 -0.62960000
-4.07950000 -7.80770000 -0.66410000
6.45970000 -15.45790000 -0.20010000
6.13670000 -15.75880000 -0.19660000
6.02410000 -15.41550000 -0.22540000
5.85520000 -15.96770000 -0.19400000
5.51180000 -16.11260000 -0.19590000
5.72080000 -15.70940000 -0.21870000
2.04920000 -14.82560000 -0.40460000
-4.35630000 -2.67180000 0.64780000
-4.73770000 -2.18150000 0.60620000
-5.28230000 -2.05650000 0.54420000
0.52900000 9.58160000 0.94380000
-2.16060000 17.31240000 0.79620000
1.30730000 5.77110000 0.33890000
1.20860000 5.66390000 0.66660000
5.28990000 -16.42800000 -0.17720000
4.93930000 -16.57240000 -0.17380000
1.74810000 7.73900000 -0.86020000
-3.84630000 17.21820000 -0.62400000
3.40890000 -16.98260000 -0.14190000
-8.16180000 8.98760000 -0.17270000
6.73950000 1.26570000 0.35230000
-8.52690000 -9.31380000 -0.15470000
-9.00310000 -9.25900000 -0.08040000
-8.83120000 -8.94820000 -0.11720000
4.24400000 3.91260000 0.70630000
4.12420000 2.68750000 0.70790000
-1.34080000 -8.88620000 0.79450000
3.87680000 -17.10480000 -0.11340000
-1.47520000 8.03810000 -0.68880000
-1.70550000 -7.21260000 -0.82320000
-8.56860000 -8.15850000 -0.15280000
-7.97030000 10.21600000 -0.20200000
-0.07200000 -7.77600000 -0.85530000
6.91470000 -16.69360000 0.09370000
-1.70590000 7.34620000 0.40370000
8.34440000 -11.39520000 -0.17270000
-0.21940000 5.22060000 0.58660000
-4.96140000 -10.27970000 0.51350000
-5.52670000 -11.09910000 0.44640000
-6.34700000 -11.05460000 0.37710000
-5.79680000 -10.57170000 0.43430000
1.84470000 6.13080000 0.91630000
-1.54140000 7.89080000 0.51520000
6.42170000 16.32540000 -0.20760000
4.03880000 -17.17910000 0.07540000
4.25310000 -17.19180000 0.04600000
4.26630000 -17.15300000 0.09930000
4.02140000 -17.19640000 0.00840000
7.85490000 -16.48070000 -0.08230000
7.62920000 -16.55630000 -0.10630000
7.84170000 -16.46460000 -0.10970000
2.37780000 -5.35950000 0.83070000
2.63250000 -4.97770000 0.81610000
1.25520000 10.17440000 -0.94240000
1.34300000 9.26790000 -0.94030000
1.08050000 9.17000000 -0.94490000
-7.14920000 -2.89420000 0.30760000
-6.98610000 -3.69990000 0.33020000
8.58040000 1.04300000 -0.03230000
4.96740000 -12.97490000 0.45870000
4.94900000 -12.38830000 0.48560000
5.81700000 -12.60760000 0.40850000
-8.95540000 -5.79820000 -0.02710000
-8.90310000 -5.55540000 -0.07440000
-8.93400000 -6.18050000 -0.06630000
-0.50860000 -12.19470000 0.66610000
0.05840000 -12.30060000 0.66900000
-3.06090000 -3.66840000 0.76870000
-2.85430000 -3.19320000 0.78640000
-2.73930000 -2.24830000 0.79690000
2.04020000 7.88540000 -0.90190000
4.82200000 -11.27510000 0.54320000
5.05910000 -11.89160000 0.49840000
5.37910000 -12.50190000 0.44810000
8.46500000 -12.95800000 -0.14500000
8.50020000 -12.58910000 -0.14960000
8.94520000 -12.91820000 -0.10520000
8.62640000 -13.18680000 -0.12730000
8.73860000 -13.62270000 -0.11400000
3.81140000 -15.81590000 -0.27860000
4.07750000 -15.58210000 -0.29330000
3.55180000 -14.82550000 -0.37620000
3.92280000 -14.31760000 -0.40830000
-3.66460000 2.13860000 -0.75440000
-3.21500000 3.30120000 -0.80160000
-3.40390000 1.88330000 -0.77520000
7.49020000 -13.36550000 -0.22150000
2.41860000 -10.51110000 0.73340000
3.35720000 -12.32140000 0.58890000
-1.16470000 0.87750000 0.89330000
-1.09800000 2.21380000 0.90560000
-7.23370000 -10.11560000 0.30060000
-6.96120000 -9.90250000 0.33240000
-7.31960000 -9.82440000 0.28900000
-6.46000000 -9.42590000 0.39230000
-6.63820000 -9.91050000 0.36760000
4.43550000 7.70140000 -0.69880000
4.12240000 5.95510000 -0.72470000
4.40750000 6.25660000 -0.69150000
4.45160000 5.60310000 -0.67590000
7.43370000 12.18560000 0.21400000
-0.90880000 8.70490000 0.86450000
-3.20930000 6.71960000 0.78070000
-3.77990000 7.53530000 0.73020000
-3.49320000 7.14500000 0.75630000
-6.92770000 -13.50740000 0.27170000
-7.42130000 -14.26890000 0.20690000
-7.77550000 -13.98360000 0.19170000
-4.41620000 -9.60870000 -0.59960000
-3.99420000 -9.67610000 -0.62520000
-3.05650000 -8.32920000 -0.72410000
-8.31440000 -3.11900000 0.17280000
-8.52810000 -1.00170000 0.14290000
-7.97940000 -1.37640000 0.20950000
-5.12090000 -16.46380000 0.18650000
-4.54020000 -16.21930000 0.22850000
-0.74020000 5.34880000 0.73390000
-0.75340000 5.37820000 0.57760000
-2.60400000 8.41180000 0.84680000
-2.90150000 8.19260000 0.81870000
0.77590000 17.28650000 0.22560000
5.09040000 -9.40080000 -0.55290000
-8.54910000 -4.73420000 0.14840000
-8.78840000 -4.09380000 0.10460000
-8.29410000 -4.11370000 0.17860000
0.99910000 8.58300000 -0.61000000
-9.10540000 -11.89590000 0.07890000
1.13790000 -12.89490000 -0.58390000
1.63340000 -13.46060000 -0.53240000
-4.47700000 -0.19510000 0.63950000
1.26630000 8.37700000 -0.74270000
7.06030000 -14.64730000 0.20510000
7.41280000 -14.91530000 0.15840000
-1.90830000 -17.36850000 -0.06070000
6.58060000 -14.56280000 0.24630000
-6.17800000 -16.23040000 0.17250000
-6.57310000 -15.51020000 0.19780000
-6.19710000 -15.70310000 0.20520000
-8.55470000 4.06790000 0.10950000
-8.54780000 4.47410000 0.10840000
-8.58140000 4.27950000 0.06160000
0.90980000 -4.40370000 0.88970000
0.67970000 -4.97470000 0.88940000
0.80880000 -2.60680000 0.90150000
0.56240000 -3.22060000 0.89890000
6.81420000 -13.29380000 0.29290000
6.39670000 -13.91720000 0.29840000
-4.13910000 6.21270000 0.69150000
-3.63430000 9.04630000 0.75230000
-3.62430000 9.99420000 0.75830000
7.79710000 -10.60190000 0.22160000
7.42260000 -10.15560000 0.26860000
7.04650000 -10.59040000 0.31590000
8.18800000 -10.90360000 0.17580000
-6.40160000 16.10090000 0.38230000
-6.55630000 15.18350000 0.37040000
3.85520000 -13.10970000 0.51980000
4.07090000 -13.95570000 0.45920000
-1.58220000 17.38780000 0.64550000
-6.82750000 15.46850000 0.31030000
-1.62270000 17.34780000 0.81160000
-0.37660000 8.87270000 -0.86190000
3.88960000 -8.88370000 0.68810000
3.62090000 -8.69350000 0.71460000
-0.87400000 -10.17270000 0.76550000
-5.29800000 -17.07410000 0.11770000
3.58170000 15.54150000 0.75500000
-4.80090000 -17.22110000 0.06210000
2.75990000 -17.00540000 0.10750000
2.80000000 -17.02550000 0.06120000
7.55750000 11.43490000 -0.18800000
7.62190000 11.04030000 -0.16750000
7.56460000 11.20330000 -0.22500000
4.44320000 -17.18330000 -0.01040000
-4.78240000 -17.22670000 -0.04110000
-1.73690000 6.82820000 0.64320000
-6.98830000 0.11740000 0.32670000
-7.31060000 -0.15490000 0.28860000
-6.31940000 1.94020000 0.41630000
-7.06420000 0.90850000 0.31420000
-4.20000000 -17.21420000 -0.11220000
-4.02080000 -17.29230000 -0.09300000
4.70280000 11.02260000 0.63690000
5.25160000 7.79990000 0.57880000
5.44540000 6.58310000 0.54520000
2.69060000 -16.80670000 0.16960000
5.31160000 -2.71030000 0.54420000
8.95460000 -11.37270000 -0.10930000
1.21110000 14.16120000 0.90300000
1.40480000 13.21680000 0.89270000
1.61130000 13.93050000 0.88000000
-5.63030000 -1.39990000 -0.51650000
-6.73480000 -1.98040000 -0.36390000
-6.60820000 -1.69360000 -0.38530000
-6.31250000 -1.91470000 -0.42300000
5.55320000 -7.02000000 -0.51310000
-8.83720000 -2.34550000 -0.06550000
3.15850000 10.41760000 0.81830000
3.41490000 10.78240000 0.78620000
3.10540000 11.03890000 0.81240000
2.77690000 10.73450000 0.84790000
-1.42060000 5.89820000 0.77530000
2.00640000 17.17220000 0.28090000
5.14200000 -7.78090000 -0.56300000
5.48860000 -8.12580000 -0.52160000
-0.30970000 -6.48590000 0.87540000
0.01370000 -7.11850000 0.86800000
-0.58130000 -5.87470000 0.87900000
-0.11380000 8.92040000 0.87330000
-0.60970000 5.23540000 0.86470000
-0.66550000 5.30230000 0.78180000
4.18600000 -7.31530000 0.67380000
3.47140000 -5.88300000 0.74940000
3.72630000 -6.48440000 0.72390000
-4.40600000 15.13880000 -0.70540000
-1.43440000 6.04390000 0.14670000
-1.37870000 5.95610000 0.14220000
-1.42880000 6.03090000 -0.20340000
9.03970000 -14.96950000 -0.09420000
-1.75150000 4.58840000 -0.91360000
-1.49800000 4.92950000 -0.92460000
5.04850000 -16.40360000 0.19310000
5.47280000 -16.34580000 0.18480000
5.24840000 -16.09300000 0.21550000
5.70760000 -15.80230000 0.21950000
5.86860000 -15.45110000 0.23680000
6.67610000 -6.07360000 -0.36820000
7.05520000 -6.24730000 -0.31780000
7.21140000 -6.57800000 -0.29630000
7.62390000 -6.62590000 -0.24620000
7.51480000 -7.84870000 -0.26080000
6.73490000 -14.83860000 -0.21890000
6.50180000 -15.12960000 -0.21660000
1.79530000 -7.72180000 -0.82210000
1.34850000 -7.42950000 -0.84200000
0.80110000 5.37690000 -0.67520000
7.36210000 -6.12390000 -0.27990000
7.93670000 -5.96410000 -0.20700000
8.45510000 -5.89180000 -0.14250000
-1.15680000 -14.64580000 -0.42450000
-1.75050000 -14.34400000 -0.44840000
-2.14110000 -14.16880000 -0.45670000
-6.79600000 -16.30900000 -0.14590000
-6.02880000 -0.00090000 -0.46280000
-5.67300000 0.41630000 -0.50980000
-5.96550000 1.01220000 -0.46940000
8.15050000 -8.58730000 -0.18480000
7.66440000 -9.06780000 -0.24530000
7.80260000 -8.02770000 -0.22560000
8.27050000 -7.35170000 -0.16700000
-4.53190000 -15.37920000 0.30330000
7.79680000 9.12250000 0.22020000
7.11500000 -9.01400000 -0.31160000
6.43970000 -8.21980000 -0.39970000
2.00550000 3.44250000 -0.88330000
1.85850000 4.39230000 -0.89800000
2.50770000 2.81450000 -0.84600000
0.87780000 -9.15120000 0.82470000
0.57050000 -8.63880000 0.83840000
0.64090000 5.30850000 0.69980000
-0.90320000 -5.19400000 0.87660000
-0.84080000 -7.06770000 -0.85750000
-1.05230000 3.97470000 0.92550000
-0.86700000 3.58040000 0.92740000
0.94030000 5.45880000 0.66830000
-7.46120000 13.82370000 -0.11670000
8.28330000 -12.33110000 0.15820000
7.73880000 -11.80930000 0.22470000
1.81320000 7.14170000 -0.44900000
1.82700000 7.14200000 -0.71200000
-6.76590000 7.71040000 0.34290000
-6.42910000 7.60820000 0.39000000
-7.03170000 15.31420000 -0.09320000
-6.93600000 15.59200000 -0.11840000
7.83320000 2.77950000 -0.21770000
-8.33350000 -13.16370000 0.16490000
-8.23230000 -13.96110000 0.15850000
-5.27180000 -0.90850000 -0.56320000
-4.60270000 -0.99280000 -0.64270000
-1.33790000 8.19380000 0.21400000
-1.40160000 8.10220000 0.16480000
-1.73960000 -14.84290000 0.42180000
-0.38670000 -14.56680000 0.46530000
9.07460000 -14.17540000 -0.09450000
1.32630000 11.86070000 -0.93620000
-9.03020000 -9.69520000 -0.07670000
-5.38290000 -4.55820000 -0.53620000
-4.89440000 -4.79320000 -0.59520000
-5.39650000 -5.97580000 -0.53220000
2.77760000 8.07560000 0.86090000
3.15020000 7.85840000 0.82740000
8.47820000 2.05260000 -0.12730000
8.48680000 2.31320000 -0.06010000
1.71460000 6.17380000 -0.88040000
1.71120000 6.32110000 -0.83300000
1.88970000 8.50330000 0.91720000
2.70970000 -8.53800000 -0.76010000
8.88160000 -8.24210000 -0.09810000
8.96840000 -7.52100000 -0.08070000
-7.51870000 -0.53590000 0.26570000
-7.51180000 -1.05300000 0.26880000
-8.38810000 7.36950000 0.05370000
-6.72660000 -13.29280000 -0.30550000
-6.73840000 -12.96840000 -0.31670000
-5.53120000 -12.06340000 -0.44100000
-5.89510000 -12.30370000 -0.40550000
-5.95640000 -11.85130000 -0.41440000
-6.06990000 5.95930000 -0.44850000
-6.43130000 6.26890000 -0.39070000
-2.19370000 -10.76100000 -0.67460000
-8.86760000 -3.44210000 0.05200000
-0.10230000 11.76180000 0.93220000
-0.34090000 12.35310000 0.93010000
-3.18850000 -17.28040000 0.10450000
0.34600000 1.89460000 -0.93700000
0.49210000 0.91810000 -0.93520000
-8.75500000 -1.99940000 0.10340000
-7.85630000 11.83610000 0.18480000
-7.91180000 11.72470000 0.13420000
4.14610000 2.64310000 -0.68980000
-4.36620000 16.91320000 0.67890000
0.42220000 4.60960000 -0.94320000
-3.02520000 -6.89020000 0.74980000
-2.06760000 -12.46730000 -0.58240000
-2.47390000 -12.95610000 -0.53780000
-8.83570000 -2.60070000 0.07020000
-8.86420000 -2.61650000 0.00090000
-3.15760000 -7.98420000 0.72130000
-3.47930000 -8.39890000 0.68650000
-3.57430000 -9.05940000 0.66010000
-8.61740000 3.73640000 -0.01970000
7.94290000 8.20390000 0.19050000
7.99080000 7.98410000 0.14070000
7.95120000 8.39250000 0.13510000
-3.29920000 -17.33830000 -0.06270000
-1.72160000 7.14140000 0.19420000
9.02570000 -11.11180000 0.08720000
9.03560000 -11.59400000 0.08650000
8.90810000 -11.11060000 0.10120000
-5.53770000 -5.42900000 -0.51590000
-6.28230000 -7.50460000 -0.42310000
6.33660000 7.98660000 -0.40180000
6.42000000 6.84410000 -0.38950000
6.13610000 6.95460000 -0.43410000
6.66980000 6.76940000 -0.35430000
-2.73450000 -6.52070000 0.77400000
-2.32770000 -5.36090000 0.81110000
-3.42860000 16.66800000 0.79490000
8.62880000 -2.02770000 -0.12620000
8.39260000 -1.46670000 -0.15460000
3.45860000 -7.18340000 -0.72720000
6.05360000 7.80860000 -0.44770000
6.00050000 8.63630000 -0.45790000
6.60770000 8.68550000 -0.36420000
6.90190000 8.05340000 -0.32550000
6.66290000 8.13210000 -0.35440000
1.82590000 -1.57250000 -0.87490000
2.06850000 -0.95750000 -0.86320000
2.10400000 -2.20860000 -0.85490000
2.35330000 -1.32860000 -0.84330000
4.98820000 -3.02900000 -0.57860000
9.13680000 -14.88360000 -0.02020000
4.80120000 -16.77000000 -0.15780000
4.04740000 -16.51420000 -0.20120000
3.10160000 -10.14130000 0.71440000
3.18700000 -10.57170000 0.69080000
1.74740000 6.56400000 0.43690000
-2.38010000 0.84910000 -0.84390000
-2.41470000 -0.03290000 -0.83600000
2.65230000 -13.50790000 0.54040000
1.36210000 -6.16790000 0.87010000
0.97020000 -6.36480000 0.87730000
-6.85090000 5.32570000 -0.33320000
-1.89270000 -10.05310000 -0.71800000
8.52580000 1.38830000 -0.12290000
8.52560000 1.79180000 -0.06020000
-6.83000000 5.94520000 -0.33580000
-6.64530000 6.48660000 -0.36150000
-6.30310000 5.45340000 -0.41040000
6.18290000 -16.68830000 0.13720000
5.81860000 -16.48050000 0.16310000
-1.16430000 8.43950000 0.72520000
7.78370000 -2.48060000 -0.22240000
7.07080000 -3.43200000 -0.31640000
0.57370000 3.56730000 0.94200000
-3.86450000 -7.39180000 0.67770000
-4.22930000 -7.29220000 0.64840000
8.31670000 4.22860000 0.13650000
-3.50380000 17.22550000 0.67430000
1.13810000 11.12010000 0.92090000
-0.64850000 8.72780000 0.21780000
-0.54470000 8.77160000 -0.02380000
7.37810000 1.81290000 -0.27820000
7.31920000 2.73660000 -0.28050000
7.62230000 2.29440000 -0.24460000
-6.71100000 14.18430000 0.35190000
-7.47930000 -14.66430000 0.18740000
-8.00120000 -14.40290000 0.16370000
-6.22170000 -14.39050000 0.27960000
-6.48660000 -14.18160000 0.27350000
-6.93370000 -14.46370000 0.23150000
2.95330000 17.07060000 -0.29680000
0.05620000 16.41590000 0.94150000
-4.61350000 -7.45800000 -0.61610000
-4.63680000 -10.12890000 -0.56890000
-7.67410000 -13.13560000 0.22290000
-7.12910000 -12.80060000 0.27750000
-6.49480000 -12.12360000 0.34420000
0.05710000 5.15730000 0.87880000
-7.78740000 -1.01040000 -0.24840000
1.42880000 -17.38730000 -0.07520000
1.45290000 -17.39810000 -0.03890000
6.07010000 10.38040000 -0.44580000
6.42610000 11.96810000 -0.38920000
-8.63660000 -11.16820000 0.14980000
7.09870000 0.67330000 -0.30730000
-1.22120000 -14.62090000 0.45430000
6.24330000 8.94060000 -0.41940000
6.44910000 8.29970000 -0.38480000
6.40270000 9.99250000 -0.39300000
6.53070000 9.34780000 -0.37520000
-3.60690000 17.25870000 -0.62240000
2.71460000 4.81660000 0.86670000
3.43990000 5.25820000 0.80300000
-6.48300000 -10.06240000 -0.39080000
-6.76710000 -9.95590000 -0.35780000
-6.57410000 -9.54010000 -0.38240000
-7.20270000 -9.74840000 -0.30250000
-5.47550000 -12.47120000 -0.42760000
-4.64760000 -11.12860000 -0.53580000
-4.38690000 -15.71940000 -0.27630000
-3.75290000 -15.36340000 -0.32070000
-1.65010000 17.41110000 0.34320000
5.55390000 0.24740000 0.51570000
6.69210000 0.21480000 0.35670000
6.14840000 -0.07970000 0.43380000
2.05220000 -5.48750000 -0.83840000
2.32150000 -5.73670000 -0.82110000
2.07890000 -6.27870000 -0.83010000
1.81490000 -6.62630000 -0.83820000
-3.93730000 -14.53040000 -0.38000000
-3.90400000 -14.87370000 -0.35540000
-2.90850000 -13.66950000 -0.47400000
-0.51650000 5.24360000 -0.83990000
-0.48760000 5.15800000 -0.91020000
1.32860000 8.30040000 0.46860000
1.33260000 8.29580000 -0.46390000
-1.37110000 17.41100000 -0.39500000
1.81190000 6.80690000 -0.70680000
1.84140000 6.77190000 -0.82580000
8.84270000 -4.63280000 -0.08130000
8.88100000 -4.36100000 -0.03470000
8.90520000 -5.00240000 -0.04420000
4.37180000 11.45040000 0.67020000
4.13860000 12.15220000 0.69230000
3.70690000 13.12870000 0.73960000
3.85000000 13.45400000 0.72210000
3.62600000 13.83200000 0.74650000
6.68390000 -16.82240000 0.03330000
8.84430000 -5.22040000 -0.08700000
8.71040000 -4.60940000 -0.10730000
6.48340000 11.07280000 0.38280000
6.39180000 10.50740000 0.39630000
5.75740000 10.82320000 0.49460000
5.53600000 9.17460000 0.53450000
6.17410000 10.08080000 0.43030000
3.12360000 -4.60540000 0.78070000
2.85310000 -4.50900000 0.80210000
-0.46230000 -10.14110000 -0.74840000
3.52750000 -14.88940000 0.39830000
3.79090000 -15.41530000 0.33780000
8.80680000 -5.76920000 0.08090000
8.93470000 -6.60410000 0.06580000
8.90130000 -7.87040000 0.07390000
1.60140000 -8.30080000 0.83220000
6.91210000 9.15210000 0.32690000
6.70850000 9.30930000 0.35240000
6.55420000 9.62380000 0.37250000
6.48550000 8.94150000 0.38380000
-3.27670000 4.79140000 -0.81070000
-3.29380000 4.00880000 -0.80080000
-3.62850000 17.26970000 0.47420000
6.72240000 8.66010000 0.35060000
-1.52040000 -4.79360000 -0.86010000
-1.70000000 -3.33230000 -0.86140000
-8.01890000 2.72430000 0.18180000
-8.18570000 3.22300000 0.16100000
-7.58320000 0.92830000 0.24690000
-7.28330000 1.22920000 0.28470000
1.77320000 -14.04350000 0.51460000
-6.74690000 0.45890000 0.35780000
1.47540000 8.14610000 0.77890000
1.24350000 -14.16230000 0.50900000
4.78050000 -17.12560000 -0.07850000
-3.65640000 3.42960000 0.73750000
0.70210000 8.74740000 -0.58400000
-1.44360000 13.65680000 0.90290000
-1.68580000 13.99030000 0.89230000
-1.15790000 13.38420000 0.91430000
-8.20410000 -13.20400000 -0.17480000
-8.55370000 -12.91750000 -0.14600000
-7.95580000 -12.90530000 -0.20340000
-7.47900000 -13.29090000 -0.23860000
-3.79390000 14.37130000 -0.77630000
-3.68540000 13.09530000 -0.78490000
6.90520000 -9.92040000 0.33600000
0.74950000 -2.58690000 -0.91080000
5.93540000 6.23260000 -0.46750000
-3.77790000 15.14200000 -0.77780000
0.96780000 -1.16060000 -0.91640000
3.83160000 5.39800000 0.76250000
3.93090000 4.44070000 0.74750000
0.48870000 8.82320000 -0.52120000
0.62260000 8.78720000 -0.73910000
-1.05550000 1.17200000 -0.91650000
-0.66610000 1.28380000 -0.92850000
-0.80310000 0.64860000 -0.92040000
-3.21830000 -12.95430000 0.51880000
-2.50320000 -12.84710000 0.55500000
3.43400000 11.44150000 -0.81310000
3.52040000 7.96430000 -0.80450000
-4.07480000 16.91260000 -0.73640000
0.11460000 8.87980000 0.15220000
-4.32870000 15.18010000 0.68380000
-8.93750000 -5.20800000 -0.02720000
-8.88050000 -4.81140000 -0.07580000
-0.04270000 8.89620000 0.79260000
5.87560000 3.71640000 0.47560000
4.88750000 -13.78400000 0.42500000
-8.88720000 -3.36110000 -0.01870000
7.91820000 -11.09330000 -0.21680000
7.38530000 -11.84590000 -0.26470000
6.27440000 11.66960000 0.41260000
6.16760000 11.02560000 0.43090000
1.31860000 10.98320000 -0.93970000
0.97230000 5.48420000 -0.42350000
-8.28940000 -0.88450000 -0.18700000
-7.90710000 -0.72640000 -0.23260000
1.45760000 -11.84450000 -0.65100000
-6.52910000 4.74880000 0.37670000
-6.33750000 3.36110000 0.40860000
-5.97600000 3.08610000 0.46270000
1.94500000 7.16380000 -0.88040000
-4.21660000 7.71010000 -0.71140000
1.74140000 7.61300000 -0.71880000
2.47130000 4.87200000 0.88430000
-4.19230000 -11.82170000 -0.53370000
-3.88600000 -12.67530000 -0.50290000
3.34180000 8.29710000 -0.82330000
-7.01000000 -9.46030000 0.32720000
-7.31830000 -9.43110000 0.28990000
-7.55580000 -9.04610000 0.26440000
-6.62750000 6.06320000 -0.36190000
-6.56270000 5.11580000 -0.37000000
3.48930000 -16.36370000 -0.22630000
3.64000000 -16.08710000 -0.25520000
-2.62890000 15.40100000 0.84340000
-2.98120000 15.12010000 0.81730000
1.65100000 0.04020000 0.88730000
2.00860000 -0.42710000 0.86890000
1.69800000 -5.92410000 0.86080000
6.66990000 -10.47990000 -0.35930000
6.53610000 -9.99430000 -0.37990000
6.86470000 -9.49560000 -0.34190000
9.09330000 -15.17130000 -0.03150000
8.94200000 -15.37520000 -0.03070000
0.90770000 4.02540000 0.94350000
1.01860000 4.63250000 0.94460000
-4.69330000 9.96340000 0.63330000
6.69760000 14.58270000 0.32800000
6.79170000 7.39630000 -0.33790000
6.98680000 6.79790000 -0.31540000
-5.69020000 6.76280000 0.49840000
-4.57810000 6.82120000 0.64020000
7.63790000 -16.56780000 -0.07260000
-8.27110000 8.55650000 -0.13430000
-8.31300000 8.10590000 -0.13410000
-6.41910000 -12.35290000 -0.36150000
-6.60090000 -12.02990000 -0.35340000
6.25680000 -14.32790000 0.28610000
6.06760000 -14.64110000 0.28090000
-3.78200000 17.28590000 -0.16330000
9.04020000 -13.16700000 -0.09670000
9.04970000 -12.99920000 -0.09540000
9.12360000 -12.99640000 -0.07580000
8.10580000 -5.55610000 -0.18460000
8.39450000 -5.06140000 -0.14670000
8.74350000 -5.67670000 -0.10700000
8.41280000 -4.17850000 -0.14380000
-0.08710000 1.15280000 0.91870000
-0.58650000 1.78510000 0.91460000
-5.00100000 0.44320000 0.58190000
4.38720000 -7.50690000 -0.64380000
4.71870000 -7.41210000 -0.61000000
-7.07090000 0.45570000 -0.31290000
-6.49080000 0.04250000 -0.39550000
-6.89830000 0.11250000 -0.33720000
-7.21300000 -14.24940000 -0.22290000
-1.72080000 7.57340000 0.76700000
-6.73230000 -16.57100000 0.13150000
0.05030000 -2.19920000 -0.91560000
0.32250000 -2.02390000 -0.91910000
0.39990000 -2.58790000 -0.91470000
-0.01750000 -0.96830000 -0.92120000
4.43180000 16.87330000 0.13840000
3.24180000 10.38430000 -0.83290000
3.48590000 10.15410000 -0.81370000
1.72570000 6.13160000 0.90980000
3.18290000 10.92800000 -0.83490000
-8.26530000 -11.09700000 0.19330000
8.48480000 2.38360000 0.02590000
8.47680000 2.11290000 0.09090000
2.70130000 -11.05810000 0.69280000
3.11440000 -10.95060000 0.67630000
-4.98010000 -3.94790000 -0.58740000
-4.60550000 -3.95160000 -0.63130000
5.76390000 -11.54330000 -0.43170000
6.93230000 -12.12240000 -0.30340000
-8.64940000 -8.34950000 0.14220000
-8.18760000 -8.49970000 0.19970000
-2.50640000 -1.92060000 -0.82380000
4.20590000 -10.47450000 -0.60300000
8.45130000 0.93930000 0.10890000
8.55760000 0.54420000 0.08460000
3.63760000 -10.20290000 -0.65220000
3.86530000 -10.94110000 -0.60630000
-7.57290000 13.35470000 0.14720000
-4.56990000 2.57160000 -0.65230000
-4.23800000 1.54690000 -0.69110000
-3.96240000 2.05370000 -0.72480000
-2.91910000 17.33130000 -0.67020000
2.02340000 -12.09250000 -0.62220000
2.67980000 -12.28050000 -0.59000000
-4.14780000 7.43110000 0.69110000
-3.93970000 6.98070000 0.71300000
-5.67760000 0.58990000 0.49960000
4.05730000 15.11540000 -0.75550000
3.90740000 14.62600000 -0.77250000
6.69070000 3.67080000 0.35410000
6.56320000 3.30010000 0.37130000
6.24530000 3.16630000 0.41960000
6.67260000 2.96440000 0.35830000
6.43840000 3.01980000 -0.38990000
6.22090000 2.76490000 -0.42390000
5.78170000 3.21150000 -0.48230000
4.01160000 13.87830000 -0.75790000
7.09960000 3.04000000 0.29980000
5.04690000 -16.94350000 -0.13420000
-5.32040000 -16.28950000 -0.19490000
-4.82510000 -6.81590000 0.59730000
-1.68560000 7.39180000 -0.35030000
-3.95120000 16.69270000 -0.75590000
0.75890000 5.36500000 0.41590000
8.06550000 6.44880000 0.18690000
-0.24970000 -5.80720000 0.88400000
3.39340000 -13.72580000 -0.46810000
4.39690000 -14.37490000 -0.38980000
4.66240000 8.66680000 -0.67140000
-4.05230000 -13.51850000 0.44880000
-1.26790000 5.78820000 0.51480000
-1.27280000 8.32850000 -0.74860000
-4.39260000 6.52440000 -0.68790000
-0.80100000 8.69440000 0.78050000
-5.08490000 -9.32260000 0.52580000
3.22940000 -15.94030000 -0.27680000
6.19660000 -1.09590000 0.42580000
-1.08010000 8.45840000 -0.25760000
7.56720000 11.45100000 0.17260000
2.15360000 -8.74650000 0.80290000
2.41200000 -8.68400000 0.79310000
-1.73140000 6.90320000 0.51010000
-1.67230000 -4.43340000 0.85300000
9.09330000 -11.30700000 -0.02880000
9.08400000 -11.09440000 0.05310000
1.54900000 15.91000000 0.89480000
4.12720000 -6.93310000 -0.66990000
-8.52610000 -4.48160000 -0.15250000
-8.15120000 -4.49750000 -0.19500000
8.16890000 1.43380000 -0.18860000
2.38090000 -11.46450000 0.68420000
2.83990000 -11.76920000 0.64600000
-3.79390000 4.97150000 -0.75980000
-0.95780000 17.33770000 0.83530000
-2.21290000 11.74520000 0.88060000
0.26610000 8.86910000 -0.57500000
8.12540000 1.81790000 0.15760000
7.96880000 3.10480000 0.18710000
7.33020000 12.49660000 0.25480000
7.38560000 12.45330000 0.22730000
7.35200000 12.68250000 0.21100000
1.30980000 -3.83100000 -0.88520000
-8.48950000 -14.87140000 -0.12510000
7.36980000 12.24380000 0.25450000
1.52490000 -1.61380000 -0.89050000
-4.24420000 13.45730000 0.68870000
-3.73240000 13.13430000 0.74600000
-3.89300000 13.83550000 0.72860000
-3.44090000 13.44590000 0.77520000
4.72780000 -5.10000000 0.61910000
-8.60540000 -11.29120000 -0.15110000
-7.29040000 -15.10310000 0.18080000
-6.29210000 -4.31950000 0.42410000
-6.65120000 -4.12420000 0.37470000
-6.66480000 -4.95040000 0.37530000
-7.12550000 -4.96860000 0.31740000
-4.44490000 -13.41590000 -0.43380000
8.88050000 -4.48600000 0.03230000
2.95050000 -13.08280000 -0.52740000
2.51250000 -12.70590000 -0.56710000
1.61090000 -13.47740000 0.56400000
7.99670000 -16.36430000 -0.11220000
8.00560000 -16.40650000 -0.09900000
0.21950000 17.29180000 0.83050000
8.91870000 -6.11950000 0.06420000
1.43780000 5.44470000 -0.92300000
0.86780000 15.75010000 0.92700000
0.16180000 15.84320000 0.93800000
0.48590000 -9.54060000 0.81610000
-3.14040000 -17.33260000 0.08330000
2.14670000 11.13160000 0.88260000
1.78190000 11.02890000 0.90120000
2.38330000 10.66220000 0.87910000
3.22060000 2.29250000 0.80460000
-1.75790000 -4.03700000 -0.85630000
-1.92910000 -4.61910000 -0.84540000
-8.44040000 6.63370000 -0.05940000
3.65370000 -0.80020000 0.73790000
3.00470000 2.83510000 0.82860000
2.86960000 1.82500000 0.83000000
5.08240000 9.85780000 0.60580000
0.71860000 5.24490000 0.91250000
2.46990000 -1.55860000 0.83530000
-6.82850000 -2.43050000 -0.34860000
-7.14460000 -2.61480000 -0.30600000
6.36560000 9.71410000 0.40000000
-3.45430000 12.73970000 -0.80550000
4.41680000 -3.59160000 -0.64200000
4.19210000 -4.37350000 -0.66570000
4.15830000 -3.05370000 0.68200000
8.11330000 -14.54580000 -0.14820000
-5.86180000 -14.50430000 0.29470000
-6.86500000 -15.08760000 0.20450000
1.04140000 1.57750000 0.91850000
-5.19870000 11.66980000 0.57230000
6.51440000 4.77330000 -0.37470000
-6.44490000 0.35540000 -0.39950000
-6.10590000 0.37320000 -0.45010000
-5.36700000 -16.68390000 0.16070000
3.67230000 11.98070000 -0.79120000
-0.70120000 5.36550000 -0.33890000
-4.55260000 -11.58380000 -0.52380000
-5.10410000 -12.00360000 -0.47230000
-0.62780000 5.33280000 0.19340000
-5.81630000 -0.65650000 -0.49460000
5.09800000 16.76890000 0.15120000
8.13690000 -13.94980000 -0.15260000
7.89400000 -14.31080000 -0.16480000
-1.09920000 11.49130000 -0.93390000
1.13770000 -4.55220000 -0.88490000
-0.95980000 10.71800000 -0.94080000
8.70670000 -5.26270000 -0.10980000
1.52480000 1.98920000 -0.90230000
1.74570000 1.47060000 -0.88880000
1.35480000 1.14870000 -0.90740000
-1.24620000 11.08260000 0.92510000
-1.46250000 10.08220000 0.92630000
-9.07930000 -10.19440000 -0.04790000
-0.98490000 11.70460000 0.92670000
1.35290000 -3.90090000 0.88360000
1.11870000 -3.70190000 0.89010000
0.85210000 -3.49440000 0.89510000
0.61470000 -4.16310000 0.89330000
-2.05080000 -6.97650000 -0.81180000
-1.57050000 7.79260000 -0.50290000
0.34490000 -3.89810000 0.89520000
-0.92980000 1.64280000 -0.92460000
-7.36770000 -8.11500000 -0.29430000
-7.33290000 -7.85020000 -0.29770000
-6.74190000 -7.83850000 -0.36810000
3.46700000 10.20590000 0.79190000
3.61370000 9.72980000 0.78460000
7.44560000 0.63070000 -0.26660000
8.03240000 -6.48130000 -0.19480000
7.35690000 -5.79360000 -0.28080000
4.06150000 1.71430000 0.70850000
-1.01680000 5.54520000 0.54050000
7.13350000 -5.08510000 -0.30460000
7.20660000 -4.39060000 -0.29450000
7.91240000 8.60880000 0.18520000
7.84250000 8.61430000 0.21820000
-2.18430000 -11.32830000 0.65640000
-1.74920000 -11.46320000 0.66820000
-3.85860000 16.59190000 0.75100000
-1.15090000 -12.36430000 -0.61040000
3.66260000 5.83940000 -0.77360000
3.24410000 -16.82170000 -0.16780000
3.13260000 -8.48950000 0.75440000
6.59040000 7.31700000 -0.36430000
6.67410000 6.25840000 0.35610000
6.43080000 5.38500000 0.38880000
7.09640000 5.95800000 0.30130000
6.61700000 5.03950000 0.36220000
8.25020000 4.22250000 -0.17190000
6.76110000 -0.69000000 -0.35550000
7.12050000 -0.58210000 -0.30590000
3.90390000 12.14030000 0.72090000
-0.75180000 -1.87760000 -0.90070000
-0.63180000 -1.37410000 -0.90730000
-0.38150000 -2.06740000 -0.90870000
6.16460000 -15.08110000 0.24360000
6.36310000 -14.79080000 0.24880000
-6.92900000 -10.18080000 0.33440000
-7.25120000 -10.39760000 0.29940000
-1.05910000 -1.24940000 -0.89590000
-0.99490000 -2.10910000 -0.89220000
-8.44860000 5.07180000 -0.15180000
-3.07730000 -2.18320000 0.76990000
-8.84940000 -3.01450000 -0.07060000
1.95510000 1.17510000 0.88220000
1.87420000 0.50300000 0.87870000
0.67520000 5.32820000 -0.34840000
-2.32710000 -0.02270000 0.82750000
0.17510000 -11.56380000 -0.67900000
8.46460000 -12.88990000 0.12720000
6.47230000 7.07430000 0.38410000
6.25180000 7.13960000 0.41810000
5.96540000 7.72630000 0.46410000
8.99300000 -12.90730000 0.07490000
-3.80930000 1.30350000 0.71420000
-1.63250000 1.06600000 -0.88880000
-1.82440000 2.22870000 -0.88850000
6.73970000 15.27280000 -0.31740000
4.23670000 9.71450000 0.71860000
4.49290000 9.06570000 0.69130000
3.03790000 -2.38100000 0.78920000
3.50830000 2.11850000 -0.76180000
3.27360000 -3.68560000 0.76830000
3.24710000 -5.41740000 0.76940000
-8.07210000 9.88980000 0.17680000
-6.93100000 -15.43750000 0.18330000
-7.11420000 -14.79960000 0.20420000
4.02460000 -5.88190000 0.69670000
4.09100000 -6.65660000 0.68750000
8.77270000 -2.80540000 -0.09050000
8.78490000 -2.31960000 -0.03310000
8.30220000 -10.83140000 -0.17520000
-9.15510000 -12.86500000 -0.01630000
8.72900000 -1.46310000 0.03560000
1.64610000 -7.77940000 0.84090000
7.76420000 8.10540000 0.23110000
5.72660000 2.75990000 0.49880000
6.18420000 3.71650000 0.42710000
4.23130000 10.53990000 -0.72960000
4.09020000 11.09910000 -0.74670000
1.43230000 5.91950000 0.65740000
-7.16400000 14.89170000 0.08600000
9.01450000 -9.77400000 -0.04090000
9.01760000 -9.93920000 -0.03380000
-1.31630000 8.21660000 -0.20840000
4.01320000 14.78250000 0.69850000
1.20290000 -0.56800000 0.90570000
1.01700000 -1.16490000 0.90770000
1.32300000 -1.02940000 0.90030000
9.01660000 -9.95500000 0.04080000
1.55730000 -0.61710000 0.89170000
-8.23230000 1.07450000 0.16670000
-3.48020000 -11.34700000 0.58570000
7.91060000 2.11650000 -0.21200000
7.69780000 1.75590000 -0.23960000
7.81450000 1.45880000 -0.22650000
-5.16330000 -4.03610000 0.56290000
-3.07950000 -11.41930000 0.60670000
4.80740000 -15.17340000 0.32280000
5.68490000 -16.10250000 0.19720000
0.88520000 9.17890000 0.94440000
1.08750000 9.45190000 0.94060000
8.59790000 -8.72830000 -0.13250000
1.97120000 2.67570000 0.89560000
-4.02060000 -16.79480000 -0.17160000
0.74760000 11.00050000 0.92930000
-5.45090000 -15.35900000 0.26530000
-6.21670000 16.21970000 -0.41240000
-2.30220000 15.37180000 0.86310000
7.29750000 -14.46930000 0.19340000
7.27780000 -14.03540000 0.21520000
8.87350000 -5.85000000 -0.08650000
8.92890000 -5.59390000 -0.04970000
8.95430000 -6.13960000 -0.04580000
8.93900000 -5.68390000 0.02090000
7.17950000 -4.85780000 0.29610000
6.86150000 -5.21220000 0.34060000
7.24360000 -5.53520000 0.28980000
-5.90430000 -4.90590000 0.47550000
-6.58150000 11.87420000 0.37070000
-6.44650000 14.54880000 0.38990000
6.79390000 -7.14810000 0.35460000
6.71080000 -6.38610000 0.36490000
3.78270000 15.26550000 0.72870000
-0.67770000 3.27000000 -0.93810000
-0.12650000 17.24310000 0.90130000
2.43270000 -8.07020000 -0.78650000
-7.39390000 -8.80960000 0.28620000
4.63130000 -15.78210000 -0.25690000
0.62770000 8.79200000 0.79530000
-1.75020000 9.85090000 -0.91390000
-7.49890000 13.59250000 -0.17690000
2.94910000 -16.95280000 0.14340000
4.70100000 -6.04700000 -0.61220000
4.42300000 -6.77880000 -0.64170000
5.05130000 -6.82840000 -0.57360000
0.25900000 0.79670000 0.92070000
0.16890000 5.06810000 -0.92600000
0.17080000 5.14500000 -0.89390000
8.98000000 -9.76110000 -0.08860000
-3.80730000 -15.57040000 0.31020000
-4.16060000 -15.67370000 0.29080000
-3.80670000 -15.89690000 0.27810000
-2.93870000 -15.74570000 0.30510000
-0.89940000 8.60730000 -0.69710000
0.04260000 5.21120000 -0.23750000
8.23300000 -15.84190000 0.01440000
8.38370000 -15.71850000 -0.00090000
6.28140000 0.65520000 0.41590000
6.25790000 1.09610000 0.41970000
8.26130000 4.04260000 0.16100000
8.13120000 4.20710000 0.17840000
-6.58120000 7.42410000 -0.36900000
-6.36420000 6.84610000 -0.40280000
0.60510000 3.04020000 0.93690000
0.93540000 3.63970000 0.94050000
-8.56600000 4.57700000 0.06060000
-1.66080000 7.48650000 -0.21170000
7.41400000 -16.63830000 -0.06790000
8.17150000 6.15300000 0.09910000
-1.73340000 -11.48690000 -0.65360000
-1.56480000 7.79010000 0.17630000
6.59340000 -3.76900000 -0.37940000
-1.21590000 -5.62350000 0.86460000
1.92370000 13.86850000 0.86180000
6.87160000 -4.26920000 -0.33760000
6.37780000 -4.08590000 -0.40730000
-6.34300000 8.21030000 -0.40650000
-6.66350000 7.87060000 -0.35850000
-1.50430000 -9.96460000 -0.73550000
1.52250000 6.01800000 0.80950000
7.16010000 -7.47720000 -0.30510000
7.17660000 -8.51380000 -0.30290000
-3.03030000 17.26690000 -0.74300000
-8.15210000 2.92500000 -0.19450000
-8.44930000 2.54190000 -0.16220000
-5.02310000 -9.40520000 -0.55450000
-6.10230000 -10.09290000 -0.43280000
-1.12340000 8.44400000 0.59210000
-1.26830000 1.48290000 0.89310000
-1.43930000 2.13400000 0.89090000
-1.55640000 1.40350000 0.87930000
-1.78220000 1.93410000 0.87100000
0.29590000 8.87790000 0.77870000
-3.06320000 -17.34720000 0.03790000
-1.29140000 1.43790000 -0.90870000
-1.13210000 2.33710000 -0.92260000
0.57320000 -8.56250000 -0.82550000
-1.59480000 6.36540000 0.43300000
-0.11340000 -3.20150000 0.89750000
-1.06030000 5.60370000 -0.27790000
-8.13820000 10.18760000 -0.05660000
8.86270000 -9.47920000 0.08710000
8.89580000 -8.65830000 0.07710000
4.92810000 2.45780000 -0.59380000
-4.00640000 -16.18690000 0.24540000
-4.20630000 -16.41160000 0.21360000
-4.15410000 -15.95520000 0.26530000
2.80970000 -5.39610000 -0.78890000
-4.26950000 2.23270000 -0.68930000
-6.00500000 3.38940000 -0.45920000
-5.73270000 2.75680000 -0.49900000
6.59340000 1.16200000 -0.37810000
-8.49310000 -11.05840000 -0.16680000
-7.51730000 -10.98090000 -0.27730000
3.92750000 -1.31580000 -0.70000000
6.65720000 14.74840000 -0.34600000
5.02920000 0.73280000 -0.57940000
4.64500000 -0.24800000 -0.62230000
4.85790000 -13.19710000 0.45620000
7.21040000 -13.67250000 0.23580000
4.81690000 5.11270000 -0.62020000
-6.82650000 2.07570000 -0.34350000
-4.48210000 -14.28990000 -0.37560000
-3.95420000 -13.28360000 -0.46410000
-3.52550000 -16.14100000 -0.25160000
-3.96500000 -16.22200000 -0.24040000
2.25710000 -1.21920000 0.85110000
-8.22280000 -2.03340000 0.18050000
-8.18540000 -14.72030000 0.14620000
8.50760000 1.74920000 0.08530000
-4.27950000 -15.98510000 -0.25710000
-0.88360000 17.27160000 0.89340000
0.80800000 5.34680000 -0.83590000
-1.52530000 9.17880000 0.92120000
-1.62420000 9.45700000 0.91900000
2.49440000 2.75570000 0.86670000
-1.36220000 9.78970000 0.93040000
-1.48420000 9.63240000 0.92630000
-7.43560000 1.55130000 -0.26890000
3.54260000 7.86810000 0.79000000
-6.65260000 3.49000000 -0.36230000
1.24660000 15.47220000 0.90710000
-7.79770000 2.10030000 0.21240000
-8.05680000 1.94780000 0.18050000
7.25880000 4.61580000 0.28080000
6.87870000 4.95120000 0.32830000
7.61780000 4.74330000 0.23710000
-6.91100000 2.75300000 0.33240000
7.97980000 -2.40730000 0.17190000
8.36030000 -3.83290000 0.12500000
8.08500000 -3.17650000 0.16010000
-7.83260000 3.11460000 0.20410000
-7.16390000 3.96860000 0.29250000
-7.46600000 2.81860000 0.25490000
3.20140000 -6.18230000 0.77030000
-3.09740000 -0.90710000 0.76990000
-6.84710000 3.93570000 0.33390000
-7.25070000 -6.37010000 0.29900000
-6.66930000 -7.08990000 0.37820000
-6.91710000 -6.55440000 0.34250000
-7.04770000 -7.06100000 0.32710000
-2.96590000 -0.28930000 0.78110000
-6.65560000 5.31200000 0.35870000
-8.83490000 -14.30060000 -0.11040000
5.71360000 -13.02090000 -0.38650000
6.20970000 -13.16740000 -0.34020000
7.38350000 -11.07360000 0.27210000
-2.56410000 -17.30530000 -0.07050000
-2.74980000 -17.26290000 -0.09910000
-6.75970000 -13.90260000 0.26870000
8.77350000 -15.47380000 -0.04700000
-7.68630000 12.31890000 0.22610000
8.87810000 -15.26980000 -0.10050000
2.73960000 -11.67070000 -0.62290000
-2.63060000 10.02370000 0.85570000
1.79780000 -10.43750000 -0.72070000
8.25690000 4.97350000 -0.15400000
8.29930000 4.43290000 -0.15170000
-1.63670000 7.57400000 -0.20660000
8.40470000 1.43510000 -0.15990000
8.48790000 1.77220000 -0.13560000
-9.01370000 -10.36240000 -0.08740000
-0.59090000 8.76790000 -0.74700000
1.34310000 -10.70550000 0.76280000
-3.51630000 -17.31000000 0.09690000
0.96840000 17.27040000 -0.29300000
-3.23520000 9.81140000 -0.81380000
1.65220000 3.78110000 -0.90650000
-8.94750000 -12.64430000 0.10940000
7.16480000 -15.04220000 0.17530000
-7.12970000 9.83660000 -0.30270000
-6.87530000 9.32940000 -0.33290000
-6.33670000 1.40640000 -0.41610000
7.50680000 -4.42120000 -0.25800000
-1.50780000 11.43280000 0.91510000
4.57390000 -10.36310000 0.59900000
4.68660000 -10.78280000 0.57460000
4.34710000 -10.83310000 0.59990000
-6.88290000 -3.05410000 -0.34050000
6.77950000 -14.37570000 -0.23910000
5.32120000 -10.38810000 0.52390000
5.10700000 -10.87470000 0.53430000
-6.35940000 0.09820000 0.41200000
-6.01750000 0.17790000 0.45650000
7.03240000 -14.73700000 -0.20570000
7.63050000 -16.56650000 0.02030000
8.58610000 0.82330000 0.04800000
-8.07510000 6.77550000 0.18170000
-8.11460000 6.15730000 0.17850000
6.31880000 -10.43410000 -0.39850000
1.88910000 7.89060000 -0.90630000
1.77760000 7.86500000 -0.89730000
-0.84520000 -13.54690000 0.55740000
-6.29190000 10.73860000 0.41310000
2.49840000 11.40500000 0.85590000
-0.53900000 1.76570000 -0.93370000
-9.13380000 -11.72340000 0.00990000
-9.12050000 -11.66000000 -0.06620000
2.60550000 1.60580000 -0.83420000
2.88980000 3.37830000 -0.82300000
-8.04390000 -7.63080000 0.21340000
-7.35750000 -5.08780000 -0.28850000
5.99130000 2.90990000 0.45940000
2.96550000 1.41880000 -0.80710000
-9.12650000 -12.13860000 0.07410000
-9.13980000 -11.95620000 0.00610000
5.47900000 5.65560000 0.53750000
-4.32010000 12.64820000 0.67960000
6.11500000 0.60800000 -0.44270000
-7.15470000 9.03640000 -0.30020000
3.77230000 -15.97610000 0.27660000
-0.94890000 -8.82100000 0.81020000
-8.49460000 5.49140000 -0.11900000
-8.48370000 5.97670000 -0.04560000
-8.45650000 6.18950000 -0.12030000
4.87200000 -2.23240000 0.59960000
4.53250000 -17.16400000 -0.06620000
5.75490000 2.79960000 -0.48640000
6.32450000 2.32580000 -0.41300000
6.38760000 -16.65340000 0.13140000
6.68290000 -16.81810000 -0.06940000
6.65150000 -16.82980000 -0.02170000
8.13130000 6.42100000 0.15780000
8.14030000 6.17490000 0.16640000
1.01070000 12.75690000 0.91250000
-1.57830000 6.33440000 -0.25110000
-6.85780000 -2.35090000 0.34610000
2.62470000 2.14300000 -0.83460000
2.13370000 1.69330000 -0.86570000
6.85390000 11.31960000 -0.33040000
-4.33340000 -0.47170000 -0.67470000
1.49110000 10.86010000 0.91520000
-1.45750000 6.06090000 0.48420000
-5.97350000 -6.95540000 0.46980000
-6.31860000 -7.38040000 0.42600000
1.68010000 0.89480000 0.89210000
5.77500000 7.06960000 -0.49390000
0.10630000 17.24950000 0.89530000
0.01590000 17.30140000 0.83430000
-3.57980000 5.38810000 -0.78400000
-3.31280000 5.48920000 -0.81140000
-7.38490000 -7.25960000 0.28650000
-8.16040000 -10.44420000 -0.19740000
-5.73540000 -14.27210000 -0.31570000
-6.19880000 -14.12640000 -0.30010000
-8.98900000 -7.10010000 -0.02890000
-8.96060000 -7.44940000 -0.06990000
-6.23150000 -14.71150000 -0.26260000
0.52320000 2.28590000 -0.93600000
0.81380000 2.66580000 -0.93220000
0.86170000 2.24360000 -0.92910000
1.09570000 2.78670000 -0.92460000
0.88260000 -10.43300000 -0.73610000
1.26220000 -10.15620000 -0.74630000
1.38140000 -10.61840000 -0.71970000
-4.00880000 11.16040000 -0.74830000
-4.17350000 10.41640000 -0.72610000
-3.51800000 -15.54850000 0.31880000
-3.46320000 -15.77200000 0.29670000
-5.43200000 -9.22100000 0.49630000
-3.95280000 -17.30680000 0.05920000
-6.35420000 -13.02950000 -0.34550000
-7.24180000 0.09860000 -0.29540000
0.37160000 -1.39140000 -0.92260000
9.11210000 -12.83850000 -0.06960000
-7.41490000 -11.84140000 -0.27510000
-7.00020000 -11.98150000 -0.31600000
3.96240000 4.17760000 -0.72290000
3.59950000 4.33730000 -0.76730000
3.30100000 4.51980000 -0.79720000
8.44880000 -6.72870000 0.12850000
3.94070000 12.79300000 0.71340000
4.14550000 12.67070000 0.68840000
-5.75860000 12.34120000 0.49510000
-5.25930000 -4.83330000 0.55360000
-3.45310000 0.37910000 -0.76120000
-3.27040000 -0.35670000 -0.77300000
-1.67670000 -7.85130000 0.80930000
1.27760000 5.41730000 0.93350000
-8.15300000 5.29550000 0.17130000
4.52710000 -6.77950000 0.64040000
0.79900000 -1.80270000 0.90750000
-6.42550000 -8.92840000 0.40270000
-6.43080000 -8.43430000 0.40850000
-5.33980000 -16.02260000 -0.21730000
-6.32680000 3.47880000 -0.40860000
-6.57250000 3.87150000 -0.37220000
6.23250000 -2.89830000 -0.42630000
6.70440000 -2.88570000 -0.35890000
-1.82490000 -12.72800000 -0.57050000
4.23750000 15.62930000 0.67560000
-6.79640000 -9.56450000 0.35370000
1.87200000 7.13060000 -0.84310000
0.25830000 5.21880000 -0.68200000
-7.03090000 3.89270000 -0.31330000
-7.37350000 4.00540000 -0.27520000
3.55060000 -0.12970000 0.75170000
3.77550000 0.09710000 0.73140000
3.49400000 9.36530000 -0.81420000
6.36440000 -6.03360000 0.41190000
6.03100000 -5.25490000 0.45480000
1.32810000 5.76040000 -0.78840000
-6.10210000 -9.10730000 0.43410000
-5.71050000 -9.02100000 0.47440000
-4.41530000 -3.20990000 -0.65480000
-4.25670000 -2.48670000 -0.67390000
-4.21550000 -4.13500000 -0.67280000
-3.74610000 -12.01900000 0.53990000
-1.41910000 -3.97160000 -0.86920000
3.77210000 12.59310000 0.73430000
-4.63000000 -3.18400000 0.61950000
-4.87330000 -3.23900000 -0.60240000
1.74320000 -2.55820000 -0.87380000
2.95730000 -16.98580000 -0.13550000
3.04370000 -17.03480000 -0.10080000
8.41440000 -13.44260000 -0.14070000
2.18930000 -12.72890000 -0.57500000
6.49960000 10.07520000 0.37980000
-1.21760000 13.98760000 0.91060000
4.97480000 -6.61260000 0.58980000
-0.81410000 15.62120000 0.92730000
5.59960000 8.03960000 0.52410000
5.27100000 8.64760000 0.57810000
-6.91890000 13.05940000 -0.32400000
-6.65160000 14.34250000 -0.35740000
-6.54120000 13.77860000 -0.37380000
-6.74550000 13.59080000 -0.34540000
6.67560000 9.89010000 -0.35440000
4.07270000 -17.13920000 0.11140000
6.70240000 10.82990000 -0.34950000
6.54250000 10.99990000 -0.37070000
-7.49790000 13.52620000 0.20270000
4.80370000 8.55870000 0.64810000
-1.60670000 -1.64650000 -0.87230000
6.56760000 10.32380000 -0.36800000
8.46090000 -9.40740000 -0.15100000
1.27490000 12.59790000 -0.93560000
-2.81660000 9.85630000 0.83970000
6.91640000 1.54110000 0.32840000
-9.08380000 -10.44320000 -0.05210000
-3.87760000 -0.41090000 0.70110000
-1.67040000 7.45430000 0.09000000
-0.87050000 -12.66400000 -0.59400000
9.04530000 -12.84280000 -0.09630000
1.62780000 4.91740000 0.92820000
-8.07590000 -4.68980000 0.20480000
1.82460000 7.48820000 -0.85040000
-1.27950000 10.09470000 0.93160000
-8.29610000 -12.63680000 -0.17520000
2.54840000 6.09570000 -0.86390000
3.08220000 6.45170000 -0.82910000
-2.61810000 -5.60300000 0.79100000
3.19510000 -14.83430000 -0.38470000
3.37380000 -14.23740000 -0.43000000
1.37230000 5.74200000 -0.87490000
4.53420000 10.88160000 0.66000000
-8.20400000 -3.80680000 -0.18660000
7.87460000 3.87600000 0.20420000
3.78040000 -1.57800000 0.72270000
-6.15710000 9.01910000 -0.43560000
-8.52810000 -12.80900000 0.15060000
-9.04460000 -11.48790000 -0.09440000
6.91080000 2.61330000 0.32720000
8.33890000 3.86640000 0.13960000
-6.90670000 -15.53720000 -0.17900000
-3.63600000 -13.51610000 -0.46110000
-4.20780000 -13.76340000 -0.42290000
5.46710000 -4.62420000 0.52730000
-0.85800000 0.13620000 0.90020000
-3.40930000 10.59000000 0.78270000
-1.23340000 -1.32980000 0.88260000
-6.57430000 -3.48120000 -0.38360000
-8.80030000 -13.98060000 -0.11560000
-7.31770000 -6.82860000 0.29190000
-3.23870000 6.23620000 0.77700000
-8.49750000 3.02520000 0.12630000
-8.46050000 3.68630000 0.12920000
-8.57420000 3.40370000 0.11040000
2.96510000 -0.89320000 -0.79920000
1.11020000 3.73440000 0.93840000
1.37760000 3.69720000 0.93000000
3.35060000 0.08320000 0.77160000
0.58040000 -1.99630000 -0.91810000
0.88950000 -1.89870000 -0.91350000
0.16680000 -3.30440000 -0.90940000
0.58580000 -3.33190000 -0.90730000
-6.54640000 8.40390000 -0.37640000
-6.56960000 -10.69560000 0.36320000
-6.82020000 8.29340000 -0.33940000
-6.79590000 7.77620000 -0.34080000
0.83260000 -4.06310000 -0.89760000
-6.41740000 8.89030000 -0.39490000
-6.66020000 9.07180000 -0.35960000
-4.20340000 -9.68900000 0.59220000
3.46060000 -17.09160000 0.08110000
-7.56750000 -14.07540000 -0.20310000
0.73120000 0.38310000 -0.92920000
-6.30630000 -13.78270000 -0.31350000
-3.85030000 7.74090000 -0.75350000
6.60350000 -5.34990000 0.37720000
7.35350000 -0.52070000 0.26100000
-8.23520000 9.00780000 -0.13810000
9.04700000 -8.84410000 -0.03790000
-2.57710000 -11.35300000 -0.63080000
-3.76270000 -13.78850000 0.44710000
0.45290000 5.21440000 0.87410000
-0.87600000 17.39110000 0.31450000
1.19370000 -1.67090000 -0.90510000
9.11490000 -12.73630000 -0.02140000
-1.70670000 -7.25260000 0.82020000
0.71800000 -1.45210000 -0.92040000
-1.09990000 -7.20000000 0.84500000
7.87250000 8.92550000 0.19250000
-6.06280000 2.78130000 -0.45150000
0.60050000 1.31130000 0.92400000
8.06150000 -16.18140000 -0.11550000
8.13190000 -16.15820000 -0.10230000
8.14570000 -16.21630000 -0.05380000
8.13520000 -16.22100000 -0.09580000
-6.64500000 6.32970000 0.36150000
5.47090000 0.66170000 -0.52530000
-7.26430000 -9.39000000 -0.29720000
1.67260000 6.20390000 0.87700000
4.08400000 14.38960000 -0.75000000
-7.26250000 -7.00060000 -0.29740000
-7.37630000 -6.53080000 -0.28220000
-7.03740000 -6.62100000 -0.32340000
7.68570000 -0.20810000 -0.23580000
-0.89710000 3.65430000 -0.93660000
-1.06020000 2.88940000 -0.92880000
-0.91640000 3.15580000 -0.93430000
1.53290000 11.08190000 -0.93120000
1.38570000 10.48990000 -0.93880000
-8.56910000 3.78270000 0.10730000
-8.60280000 3.87900000 0.05950000
-7.84130000 7.98010000 0.20360000
-7.99600000 -13.84340000 -0.18030000
-7.67250000 12.62680000 -0.21850000
-6.36380000 5.68610000 0.40080000
-6.57130000 -6.90360000 -0.38630000
-6.17180000 -6.80600000 -0.43690000
-0.78080000 -4.53830000 -0.88730000
6.80000000 -5.21720000 -0.34910000
7.03940000 -4.66980000 -0.31600000
-3.12970000 -7.55190000 0.73240000
3.35990000 12.71250000 0.77170000
4.68530000 -2.98930000 -0.61270000
3.60760000 1.40450000 -0.74690000
4.53220000 2.74240000 -0.64340000
-2.08260000 -5.21770000 -0.83370000
-3.96310000 -14.09580000 -0.40990000
-6.23910000 2.51500000 0.42590000
-3.15200000 -14.24080000 -0.42510000
4.93850000 9.11300000 0.62980000
5.21880000 -17.07440000 0.05690000
-6.55610000 13.50480000 0.37380000
1.42270000 5.08930000 0.93660000
3.80340000 9.05990000 -0.78200000
