1.88930000 -1.54060000 -0.51330000
1.57370000 -3.11050000 -0.54740000
1.84030000 -3.10340000 -0.54350000
1.50920000 -2.63840000 -0.53460000
1.31510000 -3.00710000 -0.54310000
2.82660000 -2.92350000 -0.57520000
2.77270000 -2.84090000 -0.54500000
2.55310000 -2.82320000 -0.53010000
2.72130000 -2.73200000 -0.53150000
2.77190000 -2.58050000 -0.54380000
2.36330000 -3.04460000 -0.53640000
2.34250000 -2.59490000 -0.52920000
2.19880000 -2.96560000 -0.55440000
2.15210000 -2.50550000 -0.54570000
2.24690000 -2.40210000 -0.54480000
2.07870000 -2.31340000 -0.53330000
2.20040000 -2.24830000 -0.53580000
2.06710000 -2.77930000 -0.54230000
1.96560000 -2.59290000 -0.53510000
2.68400000 -2.53500000 -0.53000000
2.72420000 -2.47810000 -0.52390000
2.53130000 -2.24120000 -0.52210000
2.51470000 -2.46590000 -0.52110000
2.31020000 -2.27220000 -0.52590000
2.14320000 -3.10220000 -0.54620000
1.77910000 -2.31530000 -0.53270000
0.91630000 -2.41760000 -0.54060000
0.95280000 -2.13250000 -0.54960000
1.00090000 -2.41320000 -0.55250000
1.78440000 -2.11050000 -0.52500000
1.38660000 -1.70630000 -0.51820000
1.07640000 -2.58830000 -0.54220000
1.10970000 -2.10210000 -0.53320000
0.99660000 -1.81320000 -0.54890000
1.05390000 -1.62850000 -0.53480000
0.92920000 -1.77740000 -0.53490000
0.84040000 -2.08460000 -0.53110000
0.63140000 -1.54550000 -0.52410000
1.80790000 -1.80970000 -0.52110000
1.16160000 -1.56100000 -0.52110000
2.23510000 -2.12710000 -0.51850000
1.98080000 -1.32690000 -0.51890000
1.36000000 -1.38870000 -0.52260000
2.90740000 -1.98970000 -0.55560000
2.93020000 -2.21870000 -0.54200000
2.93810000 -2.04700000 -0.51910000
2.94180000 -1.83290000 -0.48150000
2.88860000 -0.89280000 -0.53870000
2.92260000 -1.52750000 -0.53420000
2.88050000 -1.32320000 -0.54770000
2.93750000 -1.24930000 -0.50610000
2.82820000 -1.05360000 -0.53630000
2.94090000 -0.88580000 -0.44610000
2.92700000 -1.51410000 0.21250000
2.93550000 -3.07420000 0.52930000
2.93140000 -2.74700000 0.55810000
2.92800000 -3.09640000 0.58000000
2.90630000 -2.78220000 0.60280000
2.92040000 -2.66490000 0.58980000
2.92740000 -2.12830000 0.54740000
2.92490000 -2.33210000 0.58150000
2.76570000 -2.24630000 0.57860000
2.72200000 -2.49660000 0.56880000
2.80740000 -2.49110000 0.60100000
2.87320000 -2.69040000 0.61280000
2.90570000 -2.49890000 0.60820000
2.84750000 -2.36500000 0.62020000
2.88140000 -2.43210000 0.62000000
2.83600000 -2.91850000 0.60530000
2.91240000 -1.79410000 0.48410000
2.92210000 -1.81550000 0.45770000
2.92150000 -1.69980000 0.51350000
2.92210000 -1.24890000 0.53990000
2.90570000 -1.77550000 0.53330000
2.91860000 -1.71540000 0.57560000
2.91820000 -1.31450000 0.57950000
2.90660000 -1.62080000 0.60360000
2.78500000 -1.55320000 0.60390000
2.76890000 -1.38430000 0.59570000
2.72750000 -1.46460000 0.57650000
2.82540000 -1.38540000 0.62400000
2.89850000 -1.34480000 0.61150000
2.86650000 -1.47670000 0.62310000
2.54660000 -2.30620000 0.56740000
2.60860000 -2.05620000 0.57390000
2.41740000 -2.17940000 0.57680000
2.48540000 -2.08010000 0.59300000
2.29880000 -2.14400000 0.59400000
2.30550000 -2.01900000 0.60900000
2.91550000 -2.13690000 0.60190000
2.88310000 -2.23260000 0.62020000
2.90850000 -2.28610000 0.60670000
2.92080000 -1.96300000 0.57510000
2.77180000 -1.95700000 0.58550000
2.72880000 -1.92550000 0.57080000
2.82950000 -1.95410000 0.60940000
2.86040000 -2.06340000 0.62620000
2.87200000 -1.93900000 0.61030000
2.79780000 -2.16220000 0.60090000
2.82320000 -2.08700000 0.61730000
2.89790000 -2.03570000 0.61710000
2.90980000 -1.94080000 0.59340000
2.61210000 -2.58970000 0.56820000
2.45370000 -1.85630000 0.58100000
2.65890000 -1.80550000 0.57380000
2.35010000 -1.83030000 0.59340000
2.41300000 -1.95740000 0.60220000
2.34570000 -1.91170000 0.61460000
2.19860000 -1.87080000 0.61990000
2.22460000 -1.77430000 0.59750000
2.05850000 -1.77690000 0.61510000
2.12840000 -1.69830000 0.58510000
2.00990000 -1.68900000 0.60080000
2.32460000 -1.68390000 0.58510000
2.28260000 -1.73710000 0.59670000
2.27860000 -1.49030000 0.58330000
2.55960000 -1.49890000 0.57760000
2.90690000 -1.86750000 0.54190000
2.86120000 -1.81080000 0.55210000
2.85860000 -1.85370000 0.56430000
2.89580000 -1.88600000 0.57250000
2.81020000 -1.90370000 0.58320000
2.79210000 -1.84900000 0.56500000
2.89580000 -1.75830000 0.58280000
2.84950000 -1.77590000 0.58440000
2.79150000 -1.77420000 0.57620000
2.77240000 -1.68640000 0.59140000
2.70180000 -1.62810000 0.57830000
2.84010000 -1.73780000 0.61100000
2.82600000 -1.66310000 0.61930000
2.89230000 -1.70440000 0.61130000
2.66190000 -0.99000000 -0.51950000
2.72240000 -0.93940000 -0.50040000
2.66890000 -0.91040000 -0.50490000
2.59350000 -0.92140000 -0.53120000
2.61740000 -0.81710000 -0.51140000
2.45330000 -0.82910000 -0.53020000
2.49740000 -0.77620000 -0.51990000
2.67500000 -0.69610000 -0.49880000
2.75710000 -0.65690000 -0.50220000
2.45070000 -0.63420000 -0.50540000
2.67080000 -0.24910000 -0.49810000
2.39630000 -0.32910000 -0.50410000
2.16900000 -0.83700000 -0.51330000
1.99830000 -0.79000000 -0.51990000
2.11150000 -0.71150000 -0.52810000
1.90110000 -0.94190000 -0.52630000
2.38950000 -0.87430000 -0.52930000
2.38780000 -0.70200000 -0.50830000
2.25870000 -0.69200000 -0.52320000
1.94730000 -0.64050000 -0.52960000
2.02740000 -0.62210000 -0.53950000
1.96940000 -0.52190000 -0.53550000
2.12010000 -0.49830000 -0.51860000
1.95930000 -0.41460000 -0.52100000
2.08670000 -0.28180000 -0.52110000
2.26570000 -0.15150000 -0.50710000
1.96760000 -0.35740000 -0.50870000
1.98500000 -0.22960000 -0.50770000
1.82370000 -0.40500000 -0.51690000
1.86540000 -0.38470000 -0.52640000
1.70980000 -0.46410000 -0.51050000
1.62640000 -0.73600000 -0.51520000
1.54510000 -0.86590000 -0.52220000
1.22920000 -0.65980000 -0.51230000
1.27060000 -0.16790000 -0.50530000
2.22310000 -0.54970000 -0.50520000
1.04480000 -0.45410000 -0.51330000
1.41280000 0.19350000 -0.51440000
0.99280000 0.12380000 -0.51340000
0.92410000 0.37530000 -0.51230000
1.14310000 0.54200000 -0.50380000
1.58300000 0.26190000 -0.50850000
1.49890000 0.68220000 -0.50310000
2.04030000 0.06410000 -0.51300000
2.11620000 0.02480000 -0.52200000
2.09640000 0.36940000 -0.50990000
1.85330000 0.15360000 -0.50830000
1.89210000 0.54870000 -0.50280000
2.18990000 -0.06640000 -0.52110000
2.17150000 0.13550000 -0.50910000
2.31600000 0.32490000 -0.50530000
1.98050000 0.82240000 -0.50410000
2.19310000 0.47840000 -0.50630000
2.17880000 0.66670000 -0.50260000
2.09970000 0.61330000 -0.51330000
2.16420000 0.92120000 -0.50090000
2.02920000 1.07920000 -0.50810000
1.66290000 -0.12720000 -0.51230000
1.70320000 -0.06350000 -0.51950000
1.81220000 -0.13530000 -0.51300000
1.10620000 -1.21910000 -0.52150000
1.44470000 -1.13230000 -0.51790000
1.06460000 -1.00140000 -0.52450000
0.66200000 -0.98980000 -0.53330000
0.98880000 -1.39390000 -0.53200000
0.87900000 -1.50180000 -0.52550000
0.75060000 -1.18910000 -0.52980000
1.77010000 -1.22580000 -0.51710000
1.85460000 -1.23960000 0.60460000
1.90420000 -1.43090000 0.64660000
1.95650000 -1.29650000 0.63140000
1.69760000 -1.21360000 0.62050000
1.67880000 -1.30340000 0.60240000
1.75380000 -1.32000000 0.60530000
1.78350000 -1.19290000 0.61210000
1.61160000 -0.93420000 0.59120000
1.57170000 -1.11920000 0.60680000
1.68550000 -1.11160000 0.60980000
1.92510000 -1.06220000 0.59020000
1.76820000 -1.03520000 0.58690000
1.94810000 -0.98810000 0.60520000
1.68910000 -0.83960000 0.58570000
1.76270000 -0.83350000 0.59800000
1.88390000 -0.87700000 0.62230000
1.47190000 -0.92320000 0.57920000
1.51990000 -1.01870000 0.60010000
1.67840000 -0.67100000 0.62520000
1.83450000 -0.75480000 0.63920000
0.64490000 -0.35810000 -0.51170000
0.68470000 0.08480000 -0.51810000
0.59490000 -0.19790000 -0.50940000
0.63640000 -0.02210000 -0.50900000
0.45530000 0.25910000 -0.52440000
0.45230000 0.07410000 -0.52660000
1.79970000 0.01960000 0.59640000
1.90690000 0.07420000 0.59910000
1.89230000 0.17260000 0.61190000
1.77510000 -0.22050000 0.61660000
1.86220000 -0.23830000 0.58900000
1.80710000 -0.10560000 0.61000000
1.73900000 0.18810000 0.59100000
1.68560000 0.02490000 0.59820000
1.71490000 -0.17140000 0.62680000
1.65860000 -0.19310000 0.62580000
1.80080000 0.26860000 0.59990000
1.56320000 0.05660000 0.58540000
1.73160000 0.38670000 0.58500000
1.01710000 -0.98330000 0.56450000
1.12180000 -0.00130000 0.57010000
0.85480000 -0.31470000 0.57180000
1.79870000 -0.45170000 0.59520000
1.86790000 -0.55300000 0.59870000
1.90670000 -0.41150000 0.58270000
1.95610000 -0.70770000 0.62660000
1.83690000 -0.67120000 0.63730000
1.72510000 -0.59290000 0.64170000
1.75420000 -0.51870000 0.62310000
1.70560000 -0.44120000 0.62930000
1.64200000 -0.54290000 0.64220000
1.45560000 -0.41730000 0.58160000
1.51640000 -0.49370000 0.59880000
1.56340000 -0.38570000 0.61650000
1.52780000 -0.18110000 0.58610000
1.36860000 -0.59950000 0.57190000
1.59440000 -0.21200000 0.60420000
1.77500000 -0.31780000 0.59930000
1.67870000 -0.36980000 0.63660000
1.62830000 -0.43630000 0.64130000
1.48900000 -0.62490000 0.58270000
1.56970000 -0.61140000 0.60220000
0.81310000 0.08960000 0.56980000
1.37180000 0.19610000 0.57240000
1.46960000 0.21130000 0.58120000
2.93970000 -0.41720000 -0.47300000
2.81380000 -0.57810000 -0.52510000
2.92830000 0.24860000 0.09130000
2.84780000 -0.40060000 -0.53400000
2.92370000 -0.31350000 0.54390000
2.92160000 -0.28910000 0.57550000
2.91730000 -0.70460000 0.58400000
2.90530000 -0.43980000 0.60770000
2.92470000 0.37190000 0.54280000
2.91480000 -0.00310000 0.58940000
2.91940000 0.25390000 0.58530000
2.89680000 0.10010000 0.61560000
2.75630000 -0.46580000 0.60290000
2.74790000 -0.01040000 0.59390000
2.71220000 -0.23280000 0.58040000
2.91100000 -0.15230000 0.59760000
2.90390000 -0.27270000 0.60770000
2.88180000 -0.25480000 0.61840000
2.89530000 -0.09740000 0.61610000
2.82320000 -0.03120000 0.62290000
2.86770000 -0.06420000 0.62380000
2.81590000 -0.54800000 0.62720000
2.58750000 0.01060000 0.57160000
2.59950000 -0.17950000 0.57950000
2.66710000 -0.25800000 0.57460000
2.68400000 0.12260000 0.57320000
2.85190000 0.16490000 0.62600000
2.76860000 0.08900000 0.60950000
2.45700000 0.28710000 0.62540000
2.34380000 0.32800000 0.60930000
2.38150000 0.17720000 0.62630000
2.31610000 0.45210000 0.61920000
2.39220000 0.43740000 0.62960000
2.49300000 0.42580000 0.62210000
2.47120000 0.56850000 0.60750000
2.25200000 0.41700000 0.60110000
2.92480000 0.91910000 0.38580000
2.88480000 0.61800000 0.61950000
2.90400000 0.37950000 0.60910000
2.80190000 0.74430000 0.61950000
2.74690000 0.47180000 0.61420000
2.66190000 0.59380000 0.57690000
2.60760000 0.54030000 0.57780000
2.68770000 0.39800000 0.58470000
2.70470000 0.61030000 0.58830000
2.91330000 0.76450000 0.58730000
2.85810000 0.76730000 0.62560000
2.61700000 0.21180000 0.58210000
2.61610000 0.32790000 0.59740000
2.50630000 0.00560000 0.58620000
2.47210000 0.06660000 0.60900000
2.53950000 0.21710000 0.60880000
2.41480000 0.10740000 0.62800000
2.55200000 0.49700000 0.59910000
2.49630000 0.63280000 0.58540000
2.91100000 -0.96210000 0.60150000
2.65560000 -1.06050000 0.57790000
2.78920000 -1.29330000 0.61570000
2.50530000 -1.10060000 0.58350000
2.72660000 -1.12390000 0.58950000
2.82330000 -1.05990000 0.62770000
2.76570000 -1.05270000 0.60080000
2.70020000 -0.84700000 0.57860000
2.76440000 -0.88220000 0.59280000
2.88380000 -1.02970000 0.62250000
2.43720000 -0.77440000 0.58380000
2.32620000 -0.93670000 0.58560000
2.14850000 -0.74410000 0.59180000
2.44020000 -0.63740000 0.60650000
2.53210000 -0.66620000 0.59360000
2.45220000 -0.48510000 0.62300000
2.56460000 -0.56870000 0.60090000
2.35520000 -0.55130000 0.59670000
2.28870000 -0.61390000 0.58520000
2.12740000 -0.54620000 0.58670000
2.73390000 -0.68410000 0.59180000
2.64510000 -0.67030000 0.57850000
2.78500000 -0.73000000 0.61760000
2.89320000 -0.72720000 0.61960000
2.85850000 -0.69350000 0.63040000
2.66300000 -0.49760000 0.58140000
2.58660000 -0.34060000 0.58990000
2.59450000 -0.49150000 0.59560000
2.52350000 -0.47510000 0.62240000
2.19190000 -1.33050000 0.61600000
2.23630000 -1.20030000 0.61040000
2.18240000 -1.21160000 0.63570000
2.12910000 -1.16200000 0.64240000
2.18800000 -1.06690000 0.62870000
2.25570000 -1.02740000 0.59780000
2.30680000 -1.21200000 0.58830000
2.25450000 -1.35480000 0.59090000
2.14940000 -1.48840000 0.59240000
2.07480000 -1.59180000 0.59180000
2.15670000 -1.44540000 0.60660000
2.11620000 -1.35330000 0.63900000
2.01660000 -1.50720000 0.63140000
1.95210000 -1.64830000 0.62230000
2.00860000 -1.38410000 0.65010000
2.00010000 -1.08790000 0.61820000
2.04810000 -1.15290000 0.63980000
2.04840000 -0.99840000 0.63830000
2.21040000 -0.88600000 0.60090000
2.14030000 -0.91940000 0.63190000
2.04520000 -0.90020000 0.64370000
2.09940000 -0.81030000 0.61930000
2.00700000 -0.58850000 0.59150000
2.35690000 -0.23630000 0.62620000
2.33040000 -0.32500000 0.60470000
2.45660000 -0.30580000 0.62900000
2.42270000 -0.08400000 0.61890000
2.24730000 -0.15760000 0.61360000
2.37140000 -0.13920000 0.63260000
2.48680000 -0.19400000 0.61040000
2.49420000 -0.11290000 0.59200000
2.31930000 -0.02960000 0.63210000
2.19160000 -0.07820000 0.59770000
2.25190000 0.05340000 0.60260000
2.28760000 -0.37180000 0.58710000
2.18110000 -0.25880000 0.59180000
2.04630000 -0.17560000 0.58600000
1.94730000 -0.03360000 0.59240000
2.53090000 -0.35720000 0.61590000
2.20630000 0.15030000 0.58140000
2.09600000 0.16250000 0.58480000
2.30560000 0.21030000 0.60130000
2.16810000 0.36070000 0.59960000
2.12900000 0.39810000 0.60350000
2.02780000 0.38010000 0.61900000
2.05130000 0.32500000 0.61920000
1.99820000 0.14700000 0.60560000
1.99820000 0.46030000 0.61040000
1.89730000 0.35600000 0.60250000
2.22850000 0.29430000 0.58280000
1.97270000 -5.92620000 -0.61110000
1.82500000 -5.80100000 -0.62160000
1.97260000 -5.76820000 -0.62580000
1.70430000 -5.93680000 -0.61200000
1.51640000 -5.70310000 -0.62980000
1.49150000 -5.66310000 -0.62000000
1.65190000 -5.61560000 -0.61800000
2.00220000 -5.65890000 -0.63240000
1.83340000 -5.63360000 -0.61800000
1.75090000 -5.54410000 -0.60960000
1.80770000 -5.50700000 -0.61650000
1.88080000 -5.56640000 -0.62270000
1.63660000 -5.77860000 -0.62180000
1.69320000 -5.67390000 -0.62970000
2.80950000 -5.86110000 -0.65730000
2.84470000 -5.77490000 -0.66670000
2.84370000 -5.89700000 -0.65190000
2.81150000 -5.73970000 -0.65820000
2.75760000 -5.86020000 -0.62550000
2.78210000 -5.67330000 -0.63150000
2.77830000 -5.93590000 -0.62810000
2.80760000 -5.98480000 -0.59930000
2.74440000 -5.96930000 -0.59550000
2.69120000 -5.92750000 -0.60250000
2.68900000 -5.85420000 -0.60670000
2.53940000 -5.80420000 -0.60680000
2.84970000 -5.95970000 -0.60010000
2.87660000 -5.84430000 -0.61860000
2.88480000 -5.75090000 -0.63880000
2.89830000 -5.82450000 -0.50870000
2.87540000 -5.91520000 -0.54050000
2.83260000 -6.02270000 -0.55070000
2.85940000 -6.03350000 -0.50220000
2.87910000 -5.99120000 -0.48210000
2.32960000 -5.41440000 -0.60150000
2.49560000 -5.57170000 -0.60630000
2.30650000 -5.49650000 -0.61360000
2.56830000 -5.41350000 -0.59840000
2.75870000 -5.48600000 -0.61470000
2.83620000 -5.62510000 -0.66120000
2.88750000 -5.55260000 -0.63530000
2.87250000 -5.64900000 -0.65750000
2.90140000 -5.60500000 -0.58110000
2.85810000 -5.45190000 -0.65470000
2.90710000 -5.39110000 -0.60220000
2.88500000 -5.36630000 -0.64670000
2.69230000 -5.60260000 -0.60210000
2.71460000 -5.26070000 -0.59910000
2.53630000 -5.98180000 -0.58210000
2.31100000 -5.96090000 -0.59700000
2.37930000 -5.92290000 -0.60770000
2.29120000 -6.01560000 -0.55940000
2.39950000 -6.04390000 -0.52750000
2.06140000 -6.02450000 -0.57350000
2.14290000 -5.97970000 -0.59070000
2.13000000 -6.03810000 -0.54230000
2.16660000 -6.05710000 -0.50380000
2.06440000 -6.06390000 -0.52660000
1.94450000 -6.05130000 -0.53900000
2.18730000 -6.07420000 -0.44490000
2.36150000 -6.06210000 -0.49360000
2.50210000 -6.06660000 -0.45900000
2.73190000 -6.03240000 -0.53530000
2.59770000 -6.01860000 -0.55200000
2.74540000 -6.05820000 -0.45790000
2.62710000 -6.05610000 -0.49840000
2.41570000 -6.07470000 -0.27130000
2.80440000 -6.04900000 -0.50950000
2.83910000 -6.05250000 -0.43480000
2.87310000 -6.03230000 -0.39980000
2.89350000 -5.99400000 -0.37650000
2.89460000 -6.03500000 -0.26750000
2.90870000 -5.91260000 -0.18270000
2.80800000 -6.06320000 -0.31240000
2.86410000 -6.05430000 -0.28580000
2.81770000 -6.07970000 0.03050000
2.32530000 -5.82400000 -0.61720000
2.17350000 -5.76070000 -0.61480000
2.05660000 -5.43420000 -0.63010000
2.20700000 -5.37860000 -0.61970000
2.14730000 -5.53610000 -0.62080000
2.19640000 -5.59370000 -0.62560000
1.92560000 -5.35990000 -0.63680000
2.00950000 -5.97900000 -0.59660000
1.81310000 -5.99870000 -0.57880000
1.36000000 -5.71070000 -0.63590000
1.32150000 -5.81490000 -0.63110000
1.16000000 -5.81750000 -0.63480000
1.33300000 -5.64470000 -0.62760000
1.21080000 -6.03850000 -0.66340000
1.06790000 -6.01050000 -0.66930000
1.26940000 -5.99660000 -0.65550000
1.14060000 -6.05460000 -0.65090000
1.32190000 -6.02340000 -0.64900000
1.29690000 -6.05330000 -0.63880000
1.23260000 -6.06570000 -0.62340000
1.30530000 -6.06780000 -0.54610000
1.36830000 -6.04880000 -0.58420000
1.00430000 -6.04260000 -0.66520000
1.04670000 -6.06750000 -0.60210000
1.00730000 -6.07750000 -0.35920000
0.84820000 -6.03330000 -0.67290000
0.90900000 -5.96640000 -0.64170000
1.07800000 -5.95630000 -0.64110000
0.87740000 -5.92200000 -0.62560000
1.12840000 -5.74920000 -0.62070000
1.25840000 -5.93840000 -0.63010000
1.36680000 -5.97070000 -0.62550000
1.40990000 -6.00260000 -0.59920000
1.49030000 -5.94410000 -0.60960000
1.61720000 -6.05340000 -0.54900000
1.53480000 -5.99860000 -0.57980000
1.61050000 -5.97630000 -0.59510000
1.48560000 -6.03090000 -0.55020000
1.59420000 -6.06880000 -0.50650000
1.74490000 -6.05950000 -0.52980000
1.68370000 -6.01870000 -0.58250000
1.89760000 -6.07190000 -0.49540000
1.48280000 -6.07190000 -0.47860000
1.80170000 -6.08740000 -0.16590000
1.81300000 -6.07960000 -0.43610000
2.31070000 -6.10080000 0.36450000
1.31800000 -6.11370000 0.45670000
2.18480000 -6.10100000 0.52410000
2.40240000 -6.09990000 0.48590000
2.30450000 -6.06910000 0.55580000
2.11790000 -6.08390000 0.55190000
1.94710000 -5.94340000 0.51820000
2.06350000 -5.87750000 0.51110000
1.78650000 -5.87430000 0.51760000
2.41020000 -5.94760000 0.52640000
2.45020000 -5.89970000 0.51480000
2.13350000 -5.94210000 0.52220000
2.26660000 -5.87120000 0.52380000
2.11230000 -5.78330000 0.52500000
2.25200000 -5.78470000 0.53070000
2.18860000 -6.00270000 0.55260000
1.95150000 -6.00640000 0.55340000
2.10470000 -6.04790000 0.56130000
1.83020000 -6.08380000 0.55350000
1.88730000 -6.10720000 0.51860000
1.98670000 -6.09500000 0.54200000
1.77420000 -5.94560000 0.52780000
1.58460000 -6.10870000 0.52580000
1.68840000 -6.10150000 0.54250000
1.50590000 -5.98340000 0.54560000
1.69240000 -6.02400000 0.56110000
1.78710000 -6.05560000 0.56190000
2.90840000 -6.01420000 -0.21050000
2.87240000 -6.05860000 -0.11140000
2.91300000 -6.01000000 -0.06890000
2.89160000 -6.05210000 -0.01510000
2.90170000 -6.04390000 0.11420000
2.90960000 -5.99840000 0.11410000
2.86900000 -6.07590000 0.16840000
2.91410000 -5.01720000 0.02670000
2.90970000 -5.63280000 0.29150000
2.90810000 -6.03080000 0.31340000
2.86510000 -6.08520000 0.36500000
2.88400000 -6.07280000 0.29470000
2.81410000 -6.09610000 0.38470000
2.91440000 -5.95030000 0.37930000
2.91370000 -6.04360000 0.43240000
2.89910000 -6.07370000 0.47810000
2.75850000 -5.75730000 0.51920000
2.78940000 -5.83410000 0.53260000
2.77600000 -5.34240000 0.54380000
2.82800000 -5.43290000 0.55740000
2.57310000 -6.09530000 0.49850000
2.72550000 -6.09140000 0.48770000
2.86020000 -6.08770000 0.48700000
2.87090000 -6.07350000 0.52270000
2.76810000 -6.08070000 0.52310000
2.85580000 -6.02930000 0.54470000
2.79750000 -6.06320000 0.53970000
2.73490000 -6.03180000 0.55050000
2.74250000 -5.89020000 0.52150000
2.74960000 -5.96200000 0.54610000
2.84170000 -5.90600000 0.54640000
2.67280000 -5.87610000 0.51620000
2.59290000 -5.98350000 0.54700000
2.62630000 -6.08380000 0.52860000
2.69290000 -6.06560000 0.54220000
2.57240000 -6.05360000 0.55280000
2.37710000 -5.59470000 0.52990000
2.36140000 -5.77390000 0.52060000
2.43550000 -5.44140000 0.52130000
2.73570000 -5.40970000 0.53170000
2.42310000 -5.99540000 0.55350000
2.92130000 -6.03190000 0.49680000
2.92260000 -5.89930000 0.49800000
2.89980000 -5.96330000 0.52960000
2.90830000 -5.84410000 0.52910000
2.86480000 -5.75030000 0.54760000
2.91890000 -5.68790000 0.50900000
2.91900000 -5.20830000 0.42680000
2.89710000 -5.66790000 0.54010000
2.90220000 -6.03830000 0.52340000
2.45230000 -6.08530000 0.53850000
2.40270000 -6.04000000 0.56120000
1.78270000 -5.45070000 -0.62740000
1.83620000 -5.26580000 -0.62420000
1.94660000 -5.19220000 -0.64000000
1.68900000 -5.41510000 -0.61920000
1.72280000 -5.32110000 -0.60350000
1.82360000 -5.16860000 -0.60540000
1.53630000 -5.29320000 -0.60310000
1.71550000 -5.07220000 -0.59810000
1.86190000 -5.01800000 -0.60020000
1.49350000 -5.60880000 -0.61730000
1.64360000 -5.54120000 -0.62190000
1.51890000 -5.52990000 -0.62650000
1.46060000 -5.49970000 -0.62420000
1.41060000 -5.48040000 -0.60970000
1.41000000 -5.16770000 -0.61340000
1.60020000 -5.04120000 -0.60600000
1.16340000 -5.36710000 -0.62040000
1.25810000 -5.20330000 -0.60740000
1.14980000 -5.10600000 -0.59320000
1.09270000 -5.01170000 -0.58900000
1.27410000 -4.87650000 -0.58170000
1.83680000 -4.88190000 -0.59630000
1.54100000 -4.87920000 -0.58930000
1.51100000 -4.99120000 -0.59230000
1.71700000 -4.74570000 -0.58800000
1.44760000 -4.68450000 -0.58390000
1.60370000 -4.55470000 -0.58180000
1.76750000 -4.59670000 -0.58210000
1.27720000 -5.10060000 -0.59810000
1.42150000 -5.01890000 -0.59640000
1.31840000 -4.95460000 -0.59500000
2.41270000 -5.01250000 -0.62070000
2.30530000 -4.82520000 -0.61590000
2.51640000 -5.27210000 -0.60230000
2.39550000 -5.24310000 -0.60000000
2.53680000 -5.13040000 -0.59420000
2.22310000 -5.23790000 -0.62530000
2.35810000 -5.11060000 -0.62520000
2.27280000 -5.30600000 -0.60820000
2.22270000 -5.09880000 -0.62680000
2.43090000 -5.09720000 -0.61210000
2.11050000 -5.06790000 -0.63610000
2.11510000 -4.97440000 -0.62970000
2.14480000 -4.93200000 -0.61830000
1.93440000 -5.05560000 -0.62510000
1.99010000 -4.94990000 -0.60540000
2.00340000 -5.02070000 -0.61380000
2.03160000 -5.07250000 -0.63190000
2.69700000 -5.09230000 -0.59000000
2.53710000 -4.92070000 -0.60460000
2.19990000 -4.76700000 -0.59310000
2.16450000 -4.56240000 -0.58380000
2.16270000 -4.31450000 -0.57890000
1.99590000 -4.86960000 -0.58840000
1.99630000 -4.57500000 -0.58630000
1.83750000 -4.46040000 -0.58710000
1.52450000 -4.41880000 -0.59830000
1.98090000 -4.38440000 -0.58830000
1.59280000 -4.33230000 -0.58530000
1.50250000 -4.47280000 -0.58890000
1.59870000 -4.20630000 -0.56790000
1.86740000 -3.89520000 -0.56300000
1.33580000 -4.10050000 -0.56330000
1.63980000 -3.83400000 -0.57480000
1.00370000 -3.86310000 -0.57720000
1.00420000 -4.42960000 -0.59930000
1.11470000 -4.39400000 -0.59860000
0.90230000 -4.48320000 -0.58420000
1.96180000 -4.27800000 -0.57580000
2.04900000 -4.26710000 -0.58260000
2.05660000 -4.18200000 -0.56960000
2.19190000 -4.15890000 0.56330000
2.16770000 -4.03020000 0.58030000
2.04650000 -4.13360000 0.57610000
2.00600000 -4.01650000 0.57110000
1.86080000 -3.88320000 0.55220000
1.79840000 -4.19000000 0.55930000
2.03480000 -3.81780000 0.56450000
1.88970000 -3.73800000 0.55050000
1.06760000 -5.67330000 -0.62400000
1.03090000 -5.60450000 -0.61680000
1.10550000 -5.30190000 -0.60760000
0.93110000 -5.42880000 -0.62120000
0.97120000 -5.27630000 -0.61400000
0.77090000 -5.39910000 -0.61810000
0.99690000 -5.17290000 -0.59790000
0.94770000 -5.08040000 -0.59320000
1.04090000 -5.08800000 -0.60140000
2.15880000 -4.80970000 0.55410000
2.06270000 -4.87960000 0.54400000
2.18450000 -4.89240000 0.56080000
2.05560000 -4.79580000 0.56360000
2.18090000 -5.12590000 0.52940000
2.15100000 -5.24120000 0.52710000
2.28510000 -5.13280000 0.54360000
1.89040000 -5.02960000 0.53440000
1.96690000 -5.14490000 0.53010000
1.84290000 -5.30220000 0.52930000
2.13990000 -5.39010000 0.53590000
1.63820000 -4.88030000 0.54420000
1.82300000 -4.88130000 0.54240000
2.15940000 -4.96670000 0.53980000
1.96180000 -4.83400000 0.55690000
1.84860000 -4.84290000 0.54260000
1.50630000 -5.90890000 0.52350000
1.27650000 -5.71080000 0.53720000
1.59400000 -5.66550000 0.52840000
1.72810000 -5.52710000 0.53160000
1.52830000 -5.44540000 0.52750000
1.27720000 -5.53350000 0.54140000
2.03310000 -5.70310000 0.52240000
2.15080000 -5.59460000 0.53320000
1.87970000 -5.39760000 0.53990000
1.63700000 -5.26680000 0.54130000
1.34880000 -4.95990000 0.53980000
1.55460000 -5.06510000 0.54000000
1.72760000 -5.11900000 0.55030000
1.54250000 -5.16130000 0.55720000
1.40590000 -5.28840000 0.54530000
1.43120000 -5.17400000 0.54740000
1.35140000 -5.14710000 0.53560000
1.26360000 -5.39290000 0.53350000
1.00720000 -4.98060000 0.55240000
1.01100000 -5.14860000 0.54250000
0.97870000 -4.85430000 0.54920000
0.90470000 -4.71540000 0.54520000
0.75910000 -4.85740000 0.56220000
0.45920000 -4.73150000 0.54670000
0.84290000 -3.67440000 0.54750000
0.47990000 -4.30940000 0.53920000
1.55860000 -4.59590000 0.55650000
1.49670000 -4.48040000 0.55580000
1.41560000 -4.54900000 0.53830000
1.50580000 -4.36290000 0.55040000
2.21670000 -4.71930000 0.54710000
2.11460000 -4.71910000 0.55190000
2.07270000 -4.66190000 0.56440000
2.03950000 -4.55530000 0.56800000
1.91460000 -4.64250000 0.57440000
2.15100000 -4.57540000 0.55940000
1.78660000 -4.38650000 0.56760000
1.89580000 -4.43410000 0.58020000
1.82760000 -4.33840000 0.58320000
2.09140000 -4.47800000 0.58650000
2.19220000 -4.23550000 0.57060000
2.01350000 -4.30870000 0.59120000
2.14660000 -4.41240000 0.60110000
2.20600000 -4.34310000 0.59590000
1.90230000 -4.52360000 0.56290000
1.76030000 -4.49400000 0.56960000
1.91780000 -4.36870000 0.59480000
1.81300000 -4.70800000 0.58280000
1.75120000 -4.65420000 0.58260000
1.85490000 -4.62700000 0.56430000
1.79100000 -4.76110000 0.55620000
1.64580000 -4.74990000 0.54780000
1.67680000 -4.66680000 0.57400000
1.92740000 -4.77950000 0.57790000
1.99430000 -4.73500000 0.57890000
1.80890000 -4.57840000 0.55800000
1.71030000 -4.59940000 0.57260000
1.60750000 -4.49770000 0.57380000
1.67820000 -4.37760000 0.56980000
1.43980000 -3.84140000 0.54570000
1.66310000 -4.30890000 0.55460000
1.85710000 -4.19920000 0.58010000
1.91890000 -4.18290000 0.58530000
1.62840000 -3.83230000 0.55290000
1.43690000 -4.76470000 0.54280000
1.21340000 -4.76430000 0.54950000
2.91500000 -4.75700000 0.28850000
2.91770000 -5.41390000 0.52750000
2.92560000 -5.24390000 0.49950000
2.92260000 -5.10460000 0.53360000
2.89750000 -5.12770000 0.55870000
2.78630000 -5.00580000 0.56210000
2.70270000 -5.09720000 0.54160000
2.64410000 -5.03410000 0.54090000
2.68630000 -4.92070000 0.53570000
2.76230000 -4.92300000 0.54640000
2.76840000 -4.79660000 0.55750000
2.73340000 -4.67270000 0.54810000
2.67900000 -4.81030000 0.55080000
2.63910000 -4.69770000 0.54320000
2.72450000 -4.57590000 0.56160000
2.63480000 -4.62900000 0.55060000
2.51870000 -4.89730000 0.53710000
2.56880000 -4.66410000 0.56530000
2.54510000 -4.81280000 0.55280000
2.52150000 -4.74340000 0.55390000
2.41980000 -4.75880000 0.56900000
2.50880000 -4.65110000 0.56780000
2.92070000 -4.84300000 0.50540000
2.91820000 -4.77080000 0.54450000
2.92060000 -4.55470000 0.53780000
2.90780000 -4.60660000 0.56370000
2.92500000 -4.36010000 0.51800000
2.90040000 -4.83670000 0.56650000
2.87040000 -4.70600000 0.58290000
2.87260000 -5.29820000 0.56120000
2.82600000 -4.61360000 0.58620000
2.77980000 -4.54350000 0.57490000
2.92050000 -4.04170000 0.56980000
2.91930000 -4.19650000 0.56570000
2.94170000 -3.44860000 0.50390000
2.93850000 -3.70390000 0.53970000
2.93640000 -3.37450000 0.56490000
2.90030000 -4.02500000 0.59150000
2.92690000 -3.78710000 0.57090000
2.90420000 -3.77360000 0.59370000
2.86450000 -3.98210000 0.59920000
2.84590000 -3.69910000 0.59600000
2.79650000 -3.96000000 0.58860000
2.92680000 -3.58520000 0.57970000
2.90350000 -3.47270000 0.59540000
2.66490000 -3.72500000 0.60060000
2.69790000 -3.85900000 0.59060000
2.75750000 -3.53860000 0.59120000
2.66490000 -3.57490000 0.60600000
2.71310000 -4.49070000 0.57780000
2.71210000 -4.38650000 0.56830000
2.61460000 -4.42710000 0.58320000
2.65170000 -4.21160000 0.56010000
2.66930000 -4.30650000 0.55020000
2.72910000 -4.26720000 0.55220000
2.56230000 -4.34610000 0.57110000
2.61300000 -4.05560000 0.58960000
2.70410000 -4.04870000 0.57240000
2.42800000 -4.65010000 0.54950000
2.50750000 -4.58160000 0.56510000
2.31440000 -4.60310000 0.55420000
2.41370000 -4.54910000 0.57970000
2.24060000 -4.49840000 0.59290000
2.41060000 -4.47730000 0.60210000
2.61820000 -4.56710000 0.57600000
2.49610000 -4.41200000 0.59580000
2.32150000 -4.20600000 0.58000000
2.37080000 -4.33140000 0.60050000
2.48350000 -4.13010000 0.59740000
2.48120000 -4.29650000 0.59320000
2.91000000 -4.37580000 0.57180000
2.87400000 -4.37900000 0.59280000
2.90100000 -4.45930000 0.58040000
2.79890000 -4.30990000 0.58120000
2.77210000 -4.24960000 0.56230000
2.75430000 -4.00000000 0.57520000
2.35390000 -3.91670000 0.58410000
2.38300000 -4.01400000 0.56360000
2.42440000 -3.95810000 0.58100000
2.57650000 -3.87160000 0.60640000
2.54520000 -3.98680000 0.60220000
2.43330000 -4.05520000 0.58280000
2.42960000 -3.90400000 0.60660000
2.48230000 -3.89980000 0.61490000
2.40520000 -3.82230000 0.60560000
2.30590000 -3.74680000 0.60680000
2.20430000 -3.81340000 0.59290000
2.27140000 -3.92990000 0.58590000
2.36890000 -3.70460000 0.59830000
2.53930000 -3.80260000 0.60090000
2.58130000 -3.69600000 0.61230000
2.51670000 -3.74810000 0.59120000
2.43870000 -3.76800000 0.58800000
2.47630000 -3.68870000 0.59130000
2.54950000 -3.57570000 0.60270000
2.51940000 -3.65830000 0.60490000
2.31510000 -4.12240000 0.55830000
2.27610000 -4.04780000 0.55920000
2.41050000 -5.30740000 0.53130000
2.56870000 -5.31180000 0.54030000
2.41380000 -5.19770000 0.54990000
2.59980000 -5.17710000 0.54210000
2.43380000 -5.03950000 0.53090000
2.30450000 -5.04910000 0.53970000
2.25870000 -4.96080000 0.55300000
2.35620000 -4.90450000 0.55670000
2.57710000 -5.06530000 0.53100000
2.46830000 -4.80840000 0.56790000
2.30910000 -4.85850000 0.56950000
2.32220000 -4.74890000 0.55720000
2.32280000 -4.66200000 0.55310000
1.26360000 -6.11430000 0.52120000
1.20890000 -6.10120000 0.55020000
1.58830000 -6.08870000 0.55700000
1.38900000 -6.06590000 0.56530000
0.93300000 -5.90980000 0.52140000
0.95240000 -5.96980000 0.53630000
1.13490000 -5.93190000 0.52750000
0.94840000 -6.11380000 0.53180000
0.70110000 -6.11560000 0.51980000
0.82010000 -6.09610000 0.55720000
0.88920000 -6.07630000 0.56790000
0.97550000 -6.09950000 0.55770000
1.09340000 -6.07070000 0.56600000
0.91370000 -6.04870000 0.56900000
1.14690000 -5.99370000 0.54960000
0.75230000 -6.00680000 0.55900000
0.69770000 -5.95430000 0.53290000
0.83570000 -5.78800000 0.52410000
0.52400000 -5.92290000 0.52200000
0.25370000 -5.88400000 0.52110000
0.45950000 -5.66140000 0.53750000
0.59220000 -5.54560000 0.52550000
0.29340000 -5.16030000 0.54510000
0.24040000 -5.44240000 0.53150000
0.91690000 -5.45170000 0.53340000
0.71370000 -5.30220000 0.53840000
0.98960000 -5.60770000 0.54060000
0.56280000 -5.18680000 0.54260000
0.26430000 -6.11570000 0.49630000
0.54420000 -6.11560000 0.51220000
0.35020000 -6.11220000 0.54090000
0.33770000 -6.04790000 0.56930000
0.36990000 -5.96800000 0.53570000
0.21180000 -6.01110000 0.55970000
0.11990000 -6.11420000 0.54060000
0.01620000 -6.10890000 0.54920000
0.05850000 -6.08680000 0.56840000
-0.06280000 -6.05100000 0.57350000
0.26420000 -6.09990000 0.55690000
0.42550000 -6.08390000 0.56640000
0.66090000 -6.10840000 0.54660000
0.70560000 -6.08230000 0.56620000
0.65530000 -6.05030000 0.56810000
0.55260000 -6.07950000 0.56620000
0.52000000 -6.10410000 0.55090000
1.32210000 -5.94370000 0.53900000
1.28730000 -6.02270000 0.56420000
1.11470000 -5.78800000 0.52810000
1.18340000 -5.81200000 0.54010000
1.32000000 -5.83170000 0.53800000
0.37450000 -4.94360000 0.55260000
0.37320000 -4.78720000 0.56020000
0.20610000 -4.87060000 0.55890000
0.08550000 -5.04270000 0.54420000
0.75790000 -5.07240000 0.54410000
0.61290000 -5.04100000 0.55520000
0.53810000 -4.98870000 0.56190000
0.81190000 -5.04290000 0.55290000
0.51560000 -4.87990000 0.55400000
0.14140000 -4.75690000 0.55090000
-0.02810000 -4.83140000 0.55830000
1.13410000 -3.44080000 -0.57010000
0.92550000 -3.27440000 -0.55800000
1.18450000 -3.19640000 -0.55750000
0.87750000 -3.16020000 -0.55020000
0.74950000 -3.25960000 -0.56440000
0.91660000 -2.95950000 -0.54510000
0.97270000 -2.71850000 -0.55560000
1.12630000 -2.83190000 -0.54340000
1.05950000 -2.74200000 -0.55380000
0.81110000 -2.74590000 -0.54560000
2.04320000 -2.87260000 0.56900000
2.01720000 -2.70750000 0.56910000
1.91070000 -2.79710000 0.58590000
1.81300000 -3.62000000 0.55860000
1.64670000 -3.61410000 0.55650000
2.11020000 -3.68080000 0.59420000
1.93450000 -3.67610000 0.56130000
1.91880000 -3.59590000 0.59060000
1.55240000 -3.49620000 0.57390000
1.73720000 -3.52460000 0.57870000
1.65230000 -3.45660000 0.59600000
1.69860000 -3.39630000 0.60490000
1.55920000 -3.36460000 0.58720000
1.52510000 -3.39640000 0.58690000
1.83840000 -3.51500000 0.60650000
1.85320000 -3.43660000 0.62150000
1.95550000 -3.51870000 0.62840000
2.15560000 -3.54530000 0.62100000
2.04560000 -3.48000000 0.63390000
1.98080000 -3.43020000 0.63510000
1.81570000 -3.37440000 0.60170000
2.00450000 -3.25690000 0.60870000
1.87920000 -3.29780000 0.59840000
2.08390000 -3.05360000 0.56860000
1.92210000 -3.13740000 0.57830000
1.91930000 -3.05600000 0.57470000
1.78660000 -3.19260000 0.58610000
1.77280000 -2.99200000 0.60630000
1.68850000 -2.95950000 0.58630000
1.64300000 -3.09000000 0.58510000
1.53120000 -2.94220000 0.56550000
1.65060000 -2.79600000 0.56910000
1.55740000 -2.67560000 0.57410000
1.67960000 -2.88590000 0.57130000
1.91360000 -2.96920000 0.58660000
1.79510000 -2.77270000 0.57840000
1.81190000 -2.84740000 0.59700000
1.88490000 -2.88600000 0.60250000
1.62630000 -3.31670000 0.57670000
1.76200000 -3.29290000 0.57790000
1.63240000 -3.20790000 0.56940000
1.45970000 -3.27190000 0.55480000
1.47790000 -3.33930000 0.55790000
1.87940000 -2.37050000 0.61310000
1.88520000 -2.46610000 0.58280000
2.04960000 -2.57780000 0.58460000
1.88020000 -2.70510000 0.56920000
1.83950000 -2.49160000 0.57300000
1.77650000 -2.55850000 0.57990000
2.17090000 -2.58570000 0.62550000
2.03600000 -2.37650000 0.62740000
1.93440000 -2.23780000 0.64120000
1.67210000 -2.38940000 0.58010000
1.74380000 -2.33820000 0.59100000
1.62900000 -2.19900000 0.58200000
1.97690000 -2.14460000 0.64440000
1.97490000 -1.92560000 0.63660000
1.81270000 -2.00260000 0.63810000
1.94180000 -1.78740000 0.62180000
1.83390000 -1.75860000 0.63430000
1.92670000 -1.88830000 0.62950000
1.84340000 -1.90840000 0.62120000
1.76160000 -1.90380000 0.63160000
1.73750000 -1.75450000 0.64030000
1.86480000 -1.82040000 0.61790000
1.69970000 -2.17300000 0.60980000
1.52330000 -2.25380000 0.56970000
1.53350000 -1.95610000 0.57850000
1.62140000 -2.04300000 0.60650000
1.77720000 -2.11400000 0.63870000
1.84920000 -2.10090000 0.64550000
1.65410000 -1.87600000 0.62930000
1.57300000 -1.89580000 0.60000000
1.48060000 -1.86740000 0.57140000
1.40800000 -2.32180000 0.55870000
0.31810000 -2.58380000 0.55490000
1.66570000 -2.69090000 0.57830000
1.74170000 -2.65040000 0.58590000
1.67920000 -2.58970000 0.60050000
1.61880000 -2.53970000 0.58420000
1.68750000 -2.50310000 0.58680000
1.53500000 -2.52330000 0.57030000
0.91510000 -1.78560000 0.55730000
0.40670000 -1.99060000 0.55230000
0.38040000 -3.32370000 0.54880000
1.49140000 -3.56340000 0.55620000
1.50230000 -3.44040000 0.57020000
2.60110000 -3.44090000 0.61120000
2.69210000 -3.28030000 0.59610000
2.41450000 -3.34260000 0.56570000
2.49690000 -3.31540000 0.59440000
2.43570000 -3.53360000 0.57990000
2.31050000 -3.27810000 0.56710000
2.36400000 -3.12890000 0.56390000
2.21910000 -3.08000000 0.56310000
2.57250000 -3.10570000 0.61580000
2.52280000 -3.19020000 0.60850000
2.44040000 -3.12580000 0.59180000
2.90930000 -3.16630000 0.60070000
2.89780000 -2.96000000 0.60520000
2.84860000 -3.29110000 0.60160000
2.76160000 -3.21720000 0.58950000
2.70940000 -3.03620000 0.57610000
2.74510000 -2.95610000 0.57630000
2.77950000 -2.86570000 0.57890000
2.57380000 -2.92820000 0.60070000
2.65310000 -2.92850000 0.57790000
2.58290000 -2.76120000 0.57640000
2.45480000 -2.67170000 0.60600000
2.48240000 -2.58520000 0.58270000
2.42540000 -2.76180000 0.62490000
2.23340000 -2.45120000 0.62040000
2.36460000 -2.95360000 0.59210000
2.24520000 -2.91540000 0.56990000
2.16530000 -3.16630000 0.58860000
2.25890000 -3.25220000 0.58010000
2.44060000 -3.05790000 0.59570000
2.39930000 -2.85130000 0.62110000
2.26190000 -2.75690000 0.60600000
2.18280000 -2.75480000 0.57700000
2.26000000 -2.57400000 0.62970000
2.71220000 -2.85880000 0.56450000
2.27080000 -3.55490000 0.60570000
2.22240000 -3.38540000 0.60200000
2.20540000 -3.28760000 0.61340000
2.13450000 -3.39270000 0.63000000
2.09820000 -3.33210000 0.62940000
2.10640000 -3.19090000 0.60470000
2.33110000 -2.36480000 0.58010000
2.22000000 -2.34440000 0.59970000
2.29310000 -2.24660000 0.57140000
2.17300000 -2.17640000 0.58240000
2.18940000 -2.09840000 0.59450000
2.11040000 -2.19650000 0.59710000
2.02820000 -2.27560000 0.62810000
2.02640000 -2.05940000 0.62870000
2.11640000 -2.01520000 0.60390000
2.09010000 -1.91650000 0.61880000
2.17220000 -1.95610000 0.60610000
0.66370000 -0.79260000 0.57010000
0.58960000 -1.26480000 0.55950000
0.44250000 -1.71970000 0.55400000
0.21170000 -1.49530000 0.55920000
0.22400000 -1.15020000 0.55770000
-0.08000000 -1.10210000 0.56280000
0.44360000 -1.35250000 0.56180000
0.45100000 -1.06520000 0.55740000
0.58870000 -1.19190000 0.56410000
1.47200000 -1.30110000 0.57760000
1.27520000 -1.42250000 0.56260000
1.51710000 -1.60640000 0.57550000
1.55750000 -1.73440000 0.59650000
1.65890000 -1.56980000 0.60270000
1.64350000 -1.49800000 0.58710000
1.88550000 -1.59540000 0.64390000
1.84950000 -1.55970000 0.64940000
1.73390000 -1.51120000 0.62290000
1.69940000 -1.67760000 0.63600000
1.58220000 -1.27990000 0.60210000
1.57710000 -1.40280000 0.58120000
1.49160000 -1.14270000 0.59010000
1.41320000 -1.10740000 0.57170000
0.57520000 -0.77270000 0.56190000
0.53990000 -0.88760000 0.56700000
0.27270000 -0.60920000 0.55880000
0.35300000 -0.83920000 0.56220000
0.57400000 -0.58170000 0.56900000
0.49660000 -0.73830000 0.56580000
0.59340000 -0.33300000 0.57540000
0.63980000 -0.04460000 0.57510000
0.29010000 -0.28650000 0.57030000
0.56740000 -0.05050000 0.56790000
0.36120000 -0.04790000 0.56520000
0.51330000 0.01660000 0.56410000
0.42220000 -0.04250000 0.55780000
0.16940000 -0.46330000 0.56390000
0.39050000 -0.41810000 0.56250000
0.51300000 -0.45500000 0.56690000
0.42990000 -0.33460000 0.57280000
0.16610000 -0.12520000 0.56330000
-0.21710000 -1.01850000 0.55850000
-0.24560000 -1.31970000 0.55670000
0.10340000 -0.76470000 0.56310000
-0.15020000 -0.62780000 0.56140000
0.13840000 -0.55970000 0.56880000
-0.05490000 -0.61270000 0.56220000
-0.07540000 -0.35470000 0.57000000
-0.32320000 -0.33200000 0.56770000
-0.39120000 -0.50670000 0.55900000
-0.14820000 -0.41880000 0.56350000
-0.25280000 -1.47960000 0.56160000
2.90180000 4.34310000 -0.50700000
2.87550000 4.66750000 -0.51090000
2.91250000 4.90250000 -0.50750000
2.93460000 4.48910000 -0.47820000
2.83500000 4.45810000 -0.49570000
2.81860000 4.81440000 -0.48590000
2.92950000 5.04070000 -0.48900000
2.94650000 4.85220000 -0.41020000
2.87500000 5.03070000 -0.50940000
2.83090000 4.98730000 -0.48790000
2.80620000 4.95510000 -0.46570000
2.77240000 4.75830000 -0.46190000
2.76750000 5.00860000 -0.45670000
2.94160000 5.12380000 -0.46160000
2.82230000 5.32790000 -0.48930000
2.84310000 5.56790000 -0.50580000
2.80100000 5.17800000 -0.46920000
2.83900000 5.07340000 -0.49570000
2.88150000 5.53920000 -0.51310000
2.68770000 4.79930000 -0.45340000
2.22260000 5.02310000 -0.46030000
2.67360000 5.29250000 -0.45380000
2.73830000 5.43530000 -0.45600000
2.17160000 5.83370000 -0.46070000
2.31230000 5.62030000 -0.46260000
2.00310000 5.69240000 -0.46390000
2.13450000 5.98220000 -0.51690000
1.89270000 5.96510000 -0.50990000
2.04390000 6.02110000 -0.51820000
1.83770000 6.01280000 -0.51830000
2.50280000 5.95950000 -0.51050000
2.44740000 5.99680000 -0.51660000
2.52400000 5.88650000 -0.46790000
2.12010000 5.89580000 -0.47220000
2.15320000 5.92650000 -0.49080000
2.13280000 6.04580000 -0.50870000
2.29340000 6.02190000 -0.51570000
2.30620000 6.05400000 -0.49090000
2.30030000 6.06250000 -0.45500000
1.97820000 6.06280000 -0.48370000
1.90990000 6.04300000 -0.50870000
2.51100000 6.06440000 -0.27680000
1.83510000 6.06990000 -0.44270000
2.78730000 6.01860000 -0.51700000
2.85890000 5.91810000 -0.51360000
2.78450000 5.93230000 -0.51160000
2.70170000 5.99500000 -0.51800000
2.92710000 5.96230000 -0.43390000
2.93930000 5.57630000 -0.45010000
2.92510000 5.71100000 -0.48320000
2.87610000 6.00730000 -0.50890000
2.90670000 5.64520000 -0.50510000
2.90550000 6.01130000 -0.48210000
2.91230000 6.02480000 -0.42320000
2.71760000 6.04270000 -0.49990000
2.80810000 6.05360000 -0.46440000
2.82420000 6.04200000 -0.50020000
2.87900000 6.04480000 -0.47320000
2.86330000 6.05350000 -0.38010000
2.92880000 6.00160000 -0.20630000
2.78360000 5.51130000 -0.46700000
2.77900000 5.70190000 -0.47390000
2.21930000 5.34450000 -0.46130000
2.93910000 5.73840000 -0.33190000
2.94780000 4.40960000 0.00210000
2.93780000 5.41660000 0.26140000
2.67150000 5.92370000 -0.49440000
2.79710000 5.86270000 -0.49970000
2.72690000 5.81800000 -0.46610000
2.71430000 5.89160000 -0.47900000
2.62650000 6.03110000 -0.50910000
2.49900000 6.02630000 -0.51280000
2.54540000 6.04830000 -0.49510000
2.64980000 6.05510000 -0.46640000
2.44240000 6.05090000 -0.49210000
2.91690000 6.03210000 -0.15710000
2.89160000 6.05050000 -0.20500000
2.93160000 5.99880000 0.09120000
2.84870000 6.07020000 0.22760000
2.33020000 6.07760000 0.31770000
2.92290000 6.03120000 0.09520000
2.89570000 6.05960000 0.16070000
2.91230000 6.04520000 0.29070000
2.92650000 5.98880000 0.37620000
1.85480000 1.47870000 -0.49510000
2.34170000 1.15830000 -0.50180000
2.10710000 1.57870000 -0.49790000
2.04420000 1.41810000 -0.50700000
1.52900000 1.70630000 -0.48970000
1.83830000 1.80090000 -0.50220000
2.40320000 1.34330000 -0.49130000
2.48180000 1.69850000 -0.48130000
2.16420000 1.75760000 -0.50340000
2.31650000 1.89370000 -0.49030000
2.18290000 2.03330000 -0.49790000
2.02300000 1.93990000 -0.50010000
1.41490000 2.01040000 -0.49760000
1.28680000 1.95720000 -0.48710000
1.17880000 2.19880000 -0.49540000
1.42190000 2.18430000 -0.49650000
1.17220000 2.32210000 -0.48050000
1.04120000 2.43420000 -0.48910000
1.24810000 2.50290000 -0.47780000
1.44840000 2.35830000 -0.47360000
1.52240000 2.29400000 -0.48910000
0.98230000 2.34390000 -0.51140000
0.92410000 2.67710000 -0.50550000
1.05330000 2.69230000 -0.48000000
1.10220000 2.18490000 -0.50530000
2.43950000 2.19030000 -0.47700000
2.64880000 2.35710000 -0.47220000
2.61620000 2.17480000 -0.47630000
2.54240000 2.55730000 -0.47380000
2.64080000 1.95190000 -0.47120000
2.17370000 2.32450000 -0.48450000
1.94200000 2.16490000 -0.50060000
1.97820000 2.50250000 -0.47530000
1.63710000 2.46120000 -0.47330000
1.87890000 2.86930000 -0.47500000
2.17610000 2.67230000 -0.47360000
2.10520000 3.24190000 -0.46610000
2.53560000 3.09600000 -0.46130000
2.40630000 2.82900000 -0.48290000
2.35040000 2.69020000 -0.48700000
2.29040000 2.55590000 -0.48140000
1.86110000 2.25720000 -0.50380000
1.83140000 2.38580000 -0.48610000
1.67440000 2.02950000 -0.50970000
1.48060000 1.86130000 -0.49840000
1.41000000 1.74570000 -0.49370000
1.57030000 2.56780000 -0.47350000
1.53220000 2.62930000 -0.48260000
1.65840000 2.85880000 -0.47690000
1.39070000 2.81400000 -0.48240000
1.52860000 2.89030000 -0.47490000
1.15200000 2.95980000 -0.48020000
2.87430000 2.41130000 -0.51820000
2.90130000 2.48430000 -0.50940000
2.91650000 1.99900000 -0.49190000
2.92540000 1.97430000 -0.45250000
2.77450000 2.37840000 -0.48430000
2.83950000 2.64540000 -0.50960000
2.80910000 2.17490000 -0.50330000
2.84970000 2.23840000 -0.51720000
2.88900000 2.91490000 -0.51270000
2.91590000 2.71340000 -0.49290000
2.93120000 2.83340000 -0.44490000
2.92940000 1.91910000 -0.25990000
2.94360000 3.01900000 -0.10470000
2.80540000 2.88570000 -0.48580000
2.76270000 2.99300000 -0.47400000
2.79860000 3.13230000 -0.49310000
2.85250000 3.14850000 -0.50740000
2.69440000 3.04530000 -0.48470000
2.91800000 3.30880000 -0.49340000
2.75240000 2.66870000 -0.47390000
2.66140000 2.90250000 -0.46960000
2.69080000 3.13860000 -0.47810000
2.94120000 3.55240000 -0.35890000
2.92210000 1.28700000 -0.49570000
2.87830000 1.67020000 -0.51770000
2.92650000 1.49850000 -0.47060000
2.79330000 1.64820000 -0.49530000
2.83200000 1.72590000 -0.51250000
2.79480000 1.29400000 -0.50240000
2.70990000 1.42190000 -0.48320000
2.74460000 1.62170000 -0.48080000
2.90140000 1.84020000 -0.50940000
2.73960000 2.02180000 -0.47870000
2.75640000 1.12020000 -0.49020000
2.92930000 1.76960000 0.18250000
2.93890000 3.54210000 0.37080000
2.91560000 1.36210000 0.55650000
2.91590000 2.06420000 0.55830000
2.90750000 1.76500000 0.58250000
2.90040000 2.02060000 0.59520000
2.92150000 2.46360000 0.52610000
2.90520000 2.24020000 0.58560000
2.88150000 1.87810000 0.60810000
2.85010000 2.46240000 0.60660000
2.83280000 1.80100000 0.60910000
2.87010000 2.21070000 0.60770000
2.78330000 2.16330000 0.60090000
2.71610000 2.11600000 0.57640000
2.73880000 2.25990000 0.58810000
2.89280000 2.47720000 0.59950000
2.91810000 2.67080000 0.57180000
2.90520000 2.84890000 0.59370000
2.73500000 2.39740000 0.57680000
2.76800000 2.98830000 0.58620000
2.80740000 3.22070000 0.60150000
2.66360000 2.19280000 0.58780000
2.62230000 2.39480000 0.59810000
2.58650000 2.18280000 0.61570000
2.66100000 2.55070000 0.57250000
2.60060000 2.71950000 0.56220000
2.50030000 2.71450000 0.59200000
2.54130000 2.55760000 0.61170000
2.49100000 2.40780000 0.62460000
2.54970000 2.34440000 0.62260000
2.42280000 2.64460000 0.62460000
2.70990000 2.66180000 0.56290000
2.73760000 2.86790000 0.56930000
2.50690000 4.07240000 -0.45820000
1.96820000 3.53990000 -0.46980000
1.99170000 3.84620000 -0.46430000
1.22790000 4.56750000 -0.48340000
1.04600000 4.68550000 -0.48600000
1.24600000 4.96100000 -0.48630000
2.37550000 4.28790000 -0.47700000
2.19800000 4.46940000 -0.46870000
2.57990000 4.35450000 -0.47240000
2.47500000 4.58020000 -0.46160000
1.92540000 4.73260000 -0.46270000
1.72480000 4.88210000 -0.47560000
1.98140000 4.18610000 -0.46310000
1.40960000 3.96950000 -0.46910000
1.81410000 4.40890000 -0.47030000
2.28110000 4.20670000 -0.46840000
1.61490000 4.74520000 -0.46870000
1.50910000 4.50710000 -0.47060000
1.49670000 4.71080000 -0.47980000
1.19690000 3.09090000 -0.48860000
0.85140000 2.69990000 -0.51260000
0.93330000 2.88000000 -0.48730000
0.96320000 3.05370000 -0.48190000
0.85700000 3.04500000 -0.50620000
0.76790000 3.16630000 -0.51280000
0.75580000 3.00150000 -0.50410000
0.81030000 2.65780000 -0.50630000
0.72660000 2.81540000 -0.48660000
0.58050000 3.03200000 -0.48460000
0.67870000 3.15730000 -0.48490000
0.52950000 3.38530000 -0.48810000
0.67020000 3.28980000 -0.49450000
0.61530000 3.50840000 -0.49720000
0.89250000 3.31320000 -0.49420000
1.01960000 3.22760000 -0.48380000
0.82440000 3.38740000 -0.50900000
0.97270000 3.51130000 -0.48020000
1.28970000 3.09770000 -0.48140000
1.33110000 3.31110000 -0.47600000
0.90700000 3.56790000 -0.49250000
0.80820000 3.53740000 -0.50550000
0.74550000 3.40940000 -0.50680000
0.71290000 3.56440000 -0.48570000
1.04620000 3.73200000 -0.47840000
1.18170000 4.29260000 -0.47000000
1.07120000 4.04110000 -0.47590000
0.94990000 3.69150000 -0.49660000
0.96690000 3.80980000 -0.48980000
0.87460000 3.84900000 -0.47870000
0.86280000 4.13130000 -0.48040000
0.97090000 4.03270000 -0.48870000
0.68880000 4.10690000 -0.48090000
1.03570000 4.24530000 -0.48500000
0.43270000 4.31250000 -0.49150000
0.51300000 4.48300000 -0.49390000
0.95580000 4.31310000 -0.48250000
0.82410000 4.46990000 -0.48700000
0.96620000 4.92370000 -0.49460000
0.58280000 3.75350000 -0.48430000
0.50430000 4.01780000 -0.48670000
