-4.32870000 11.01240000 22.00930000
-5.05020000 11.97670000 22.38010000
-4.29680000 12.32420000 20.91790000
-3.66310000 10.84430000 21.05370000
-3.12080000 24.04160000 86.65580000
-2.44830000 22.89140000 86.81720000
-4.15520000 25.31230000 87.83200000
0.02510000 30.66930000 71.84930000
-3.93080000 29.70820000 91.36400000
-4.30350000 29.32670000 89.31210000
-3.68650000 28.89270000 90.25680000
-3.23960000 28.69070000 88.55480000
0.97740000 27.05770000 79.00620000
0.12520000 30.16820000 68.73270000
-3.51030000 29.62680000 88.30720000
-0.25640000 30.95660000 69.10680000
-3.96950000 25.59840000 87.31000000
-0.83900000 32.04890000 72.53110000
-3.48270000 26.18590000 88.63260000
-2.63700000 26.29420000 87.87270000
-2.63040000 25.71260000 90.65870000
-3.67890000 24.92160000 88.12650000
0.14920000 30.28110000 67.49870000
-1.29840000 25.39670000 90.12270000
-1.43090000 26.35580000 90.57630000
-5.55910000 28.00350000 23.63460000
-4.17960000 28.87940000 23.88030000
-4.18570000 29.36030000 21.89590000
-2.84610000 28.99900000 91.38610000
-2.43610000 27.27550000 88.10870000
-1.90360000 27.95230000 90.15270000
-4.42340000 27.52990000 24.78310000
-4.91900000 28.92470000 20.18300000
-1.53100000 27.11640000 88.93220000
-1.31370000 26.90390000 90.46060000
-2.45710000 23.71560000 87.58690000
-1.19910000 22.03760000 87.47430000
-2.82220000 28.89210000 19.95830000
-0.82540000 20.77850000 86.85960000
-3.89100000 11.02660000 14.90050000
-1.92910000 25.07300000 88.03100000
0.20120000 24.89370000 87.58180000
-0.82840000 25.77590000 88.76970000
-1.94220000 28.82430000 23.66960000
-3.30960000 10.12060000 13.65010000
-1.53220000 29.09230000 21.56580000
-3.03480000 28.19090000 24.76340000
1.03160000 23.36830000 87.69810000
-2.49290000 29.68480000 30.18620000
-3.88370000 30.10170000 32.32480000
-1.48020000 30.46270000 31.58630000
-1.67050000 25.26780000 91.90350000
-1.87950000 30.35870000 34.13190000
-0.61290000 25.51570000 94.25450000
-0.48970000 24.94100000 93.97580000
-3.91690000 16.65740000 12.75400000
-1.71280000 36.32970000 14.21770000
-0.74400000 33.05400000 76.01250000
-0.84850000 32.95420000 75.73820000
-0.77630000 32.77690000 76.09200000
-9.27900000 51.14640000 23.28230000
-8.69240000 51.43390000 47.62100000
-2.92890000 15.88050000 12.07290000
-1.74350000 19.03600000 12.37200000
-8.76750000 44.58250000 55.16890000
-8.37670000 45.15580000 55.74530000
-8.96020000 46.40620000 55.35680000
-8.66790000 45.47870000 54.42090000
-0.93050000 26.00850000 28.63800000
-1.93650000 27.04650000 28.50470000
-1.32770000 25.28050000 27.99630000
-0.85760000 26.24500000 27.13870000
-0.88870000 24.06790000 28.72630000
-0.87580000 24.45210000 26.30790000
0.17780000 25.89300000 88.29220000
0.68210000 25.62800000 91.11380000
-1.56390000 13.76580000 12.39980000
-3.50160000 14.08270000 11.87730000
-2.71760000 13.85960000 11.70900000
-7.71030000 45.40680000 56.42530000
1.61600000 21.02360000 87.07450000
-8.52940000 46.26430000 53.45410000
1.92320000 23.64890000 89.34030000
1.36300000 25.07440000 96.58770000
1.05270000 25.41480000 88.88820000
-1.22390000 16.06470000 11.77260000
-1.61730000 27.12830000 24.63240000
-7.46350000 43.60090000 55.50830000
-8.29290000 42.96620000 54.38770000
-7.66860000 42.96570000 54.80580000
-7.79540000 42.92640000 56.55660000
-0.14880000 28.02700000 22.51540000
-0.37350000 27.11960000 23.78850000
-7.73340000 42.70460000 57.48080000
2.20880000 23.82340000 83.91130000
-0.14780000 14.70340000 11.43160000
-3.70070000 28.61660000 81.27170000
-3.65960000 27.85910000 79.94080000
-8.49130000 45.28910000 52.92870000
-7.70690000 44.55950000 53.71690000
-0.89040000 25.84190000 24.61770000
-4.33190000 29.19590000 81.44430000
-1.17760000 24.67080000 24.53330000
-7.88290000 42.97190000 53.93360000
-2.49530000 8.23160000 12.03830000
-2.06470000 11.04350000 12.71520000
-6.47220000 42.79650000 53.87220000
-2.69230000 27.51830000 81.74670000
-6.57050000 41.67750000 54.40650000
-2.18310000 5.83260000 11.11700000
-1.26230000 7.61790000 11.20580000
-6.01950000 42.36610000 52.50790000
-0.74050000 23.13340000 23.98330000
-0.30550000 26.04780000 25.78280000
-3.04090000 27.30520000 79.38090000
-8.37020000 46.04250000 50.44720000
-9.09820000 46.40700000 51.39910000
-0.24770000 8.92300000 10.75370000
-8.29530000 45.41660000 51.50220000
-2.18000000 26.41420000 79.22510000
-7.84750000 44.20730000 50.11620000
0.76230000 26.32920000 23.89140000
1.47220000 26.07390000 25.59190000
-0.40790000 13.65330000 13.12110000
-2.43230000 27.14660000 84.05050000
-3.01570000 28.16390000 82.75510000
-2.32500000 26.55890000 80.83760000
-1.18770000 26.04110000 81.80680000
-2.34630000 28.63780000 30.20180000
-3.39440000 29.36340000 31.30590000
-1.99190000 28.35480000 29.06360000
-1.75940000 27.86630000 30.11960000
-1.98970000 27.10670000 29.56130000
-8.25860000 46.12570000 46.99080000
-6.19880000 42.83150000 48.07790000
-0.14730000 27.91830000 28.55390000
-0.72780000 12.26450000 12.39130000
-3.08830000 29.05920000 31.93310000
1.69030000 16.19220000 12.42660000
-3.13610000 29.06270000 87.09280000
-3.88190000 29.45040000 86.09290000
-3.57130000 28.53330000 86.07020000
-6.05930000 41.06520000 49.61720000
1.08490000 13.62120000 12.77440000
-0.96200000 29.20100000 31.06320000
-3.64210000 28.58490000 83.66400000
-5.99710000 41.94740000 49.17820000
-1.04730000 29.37230000 33.64450000
-6.72370000 43.21220000 50.86820000
-2.72920000 27.62130000 86.04890000
-0.84830000 29.56630000 30.57200000
-0.61520000 28.50500000 29.92620000
1.09570000 10.19620000 10.70160000
2.50070000 12.26630000 11.62510000
-0.27680000 26.68400000 29.58660000
-6.34170000 37.92890000 51.32060000
-6.08830000 38.63880000 51.60300000
-5.92850000 38.78720000 50.98520000
-5.87730000 37.76560000 51.94630000
2.28400000 15.11120000 11.88280000
-2.21140000 25.81010000 86.74040000
-4.39820000 38.33460000 52.29230000
-2.46890000 26.45630000 86.08940000
0.56790000 27.58050000 29.78940000
-1.69710000 26.35470000 84.93200000
0.69140000 30.30340000 30.46530000
1.85020000 27.82380000 27.88170000
-4.74150000 18.50680000 21.90410000
1.56290000 28.23970000 30.54180000
-4.63410000 18.53770000 22.80530000
1.30630000 27.86910000 28.99960000
-3.80620000 16.56760000 20.40950000
-5.31550000 15.57150000 22.88320000
-4.20090000 17.57500000 22.00490000
-4.65790000 17.15800000 23.80420000
-1.67670000 26.89040000 83.37860000
1.80510000 27.02680000 29.93940000
-5.69280000 13.82720000 23.70270000
-5.14300000 38.45000000 50.98110000
-4.62630000 39.37480000 51.61870000
-4.45340000 39.49760000 50.98880000
-4.06890000 38.66810000 49.56920000
-5.11910000 36.78650000 51.33020000
-4.97050000 14.45710000 21.13560000
-4.83620000 38.13370000 48.77330000
-3.92340000 37.21880000 51.91580000
-1.39940000 25.95010000 82.82440000
5.85000000 35.80460000 34.68140000
4.21720000 37.26670000 69.67950000
7.79420000 28.88060000 81.07720000
-3.65950000 36.68740000 50.81240000
-3.02230000 37.02980000 52.50940000
-0.46250000 25.76930000 83.45630000
-4.18750000 14.11780000 19.46560000
-1.47350000 23.59450000 86.48010000
-3.32730000 37.65820000 48.25660000
-0.36500000 21.36820000 86.20620000
-0.54830000 19.80330000 84.91530000
-0.46820000 19.45450000 85.08420000
-4.85860000 36.87030000 49.99160000
-4.39580000 36.72010000 49.43170000
-4.44440000 37.42010000 48.72910000
1.69700000 26.50100000 27.20230000
-7.03940000 40.70300000 55.94160000
-7.41790000 41.32600000 54.50880000
-7.06610000 41.64410000 55.12670000
-4.31270000 16.58610000 25.86670000
-6.33860000 41.27470000 55.90480000
-4.46050000 37.79220000 50.84530000
-6.38340000 40.14660000 56.27360000
-4.13300000 37.60120000 50.06360000
-5.29820000 17.27290000 19.18560000
-4.34340000 17.47310000 18.70910000
-4.71310000 18.47380000 19.93400000
-3.92480000 38.87940000 50.50330000
-5.40120000 40.63790000 54.91920000
-7.80360000 40.94560000 58.21680000
-3.04460000 36.78290000 49.63800000
-3.05860000 16.14810000 18.37390000
-6.55530000 42.68210000 56.56200000
-6.48630000 42.51740000 55.43280000
-2.94750000 18.41090000 18.81960000
-6.22750000 41.63120000 57.13170000
-4.22360000 19.19900000 20.98710000
-3.51450000 18.71000000 21.25470000
-6.82400000 40.57510000 57.86360000
0.09340000 26.25220000 86.59000000
-0.34590000 26.30690000 85.46940000
-3.89450000 19.21180000 19.67610000
0.47640000 24.89390000 86.83270000
-2.44970000 18.78270000 20.91880000
-1.16280000 25.73120000 84.42120000
-2.88890000 19.98750000 20.09800000
-2.60290000 17.41270000 19.53960000
-2.88650000 17.14330000 18.32520000
-2.08150000 19.67020000 21.25930000
0.76970000 26.22920000 84.13210000
-3.60020000 15.55300000 19.15890000
-4.35050000 39.25430000 53.40980000
1.65560000 25.13360000 86.56730000
-5.19460000 39.92900000 57.31950000
1.79850000 23.56810000 86.60950000
-3.79840000 18.63800000 23.27340000
-3.15080000 17.93800000 25.17280000
8.55410000 29.20340000 48.47910000
-2.08650000 18.62530000 23.78630000
2.53280000 22.09750000 85.00210000
1.90420000 23.24370000 87.96070000
-8.35460000 45.20250000 43.85780000
-8.68740000 46.34360000 43.68270000
-1.15910000 17.62240000 26.47410000
-6.91510000 43.56660000 43.32270000
-3.03680000 19.42800000 22.27910000
-3.30700000 20.15070000 21.54730000
-3.04860000 20.41350000 21.01170000
-3.09870000 20.27330000 22.16300000
-7.73190000 45.22550000 38.98320000
-6.79120000 43.70860000 41.31190000
-1.95570000 20.18730000 22.02400000
-2.24550000 19.23710000 21.87230000
-7.29810000 42.72080000 41.44910000
-4.72690000 29.74200000 72.72890000
-6.05020000 41.73930000 41.55410000
-0.65040000 21.13060000 22.76270000
-6.21570000 38.19870000 60.96190000
-5.82710000 38.94530000 60.23250000
0.54370000 19.71910000 23.01230000
-0.69900000 27.63010000 19.88460000
-5.73960000 37.86280000 62.42670000
-6.50150000 39.58430000 60.19960000
-5.88750000 39.06710000 60.86540000
-0.06990000 18.73690000 23.15260000
-5.36050000 38.97690000 60.70840000
-5.55600000 39.52980000 59.89080000
-4.87500000 39.57310000 59.81960000
0.42130000 27.35640000 21.30730000
0.95240000 20.51520000 23.54880000
0.94700000 17.81660000 25.02990000
-8.30100000 44.62240000 34.22780000
0.12690000 16.57740000 27.25510000
-5.45870000 41.52060000 39.85000000
-6.40020000 43.40160000 34.37290000
2.00500000 15.86490000 26.86200000
2.37650000 14.32100000 26.89430000
-6.41100000 41.31300000 40.23620000
-5.69970000 40.40420000 40.32860000
-5.79480000 40.57010000 41.33670000
-1.93100000 46.41550000 47.40910000
-6.26940000 51.17700000 43.58830000
-6.04550000 50.68260000 49.25540000
-4.84210000 40.36800000 42.16600000
-4.66690000 40.31450000 40.26330000
2.63610000 17.72350000 23.88840000
-2.71200000 47.64640000 21.73830000
-7.23760000 37.32970000 68.26560000
-7.57010000 37.59990000 69.40940000
1.05590000 18.34440000 12.37980000
1.92590000 42.11470000 32.72470000
-6.27630000 35.76900000 68.98490000
-7.75440000 37.93350000 70.63130000
1.44780000 21.05400000 13.92640000
-5.98250000 36.51770000 69.81370000
-8.20900000 38.97060000 70.69590000
-7.08930000 39.45570000 71.17110000
-5.97930000 38.32890000 69.47780000
-6.12700000 40.42560000 70.62990000
-5.51790000 40.55070000 70.90680000
-5.62030000 36.55640000 69.40060000
-7.79370000 39.02540000 71.39400000
-6.41060000 35.50260000 68.27600000
3.56040000 18.02680000 13.45180000
-5.57670000 35.27530000 69.09240000
-5.58630000 35.00980000 68.33490000
-5.84500000 35.89660000 67.80670000
-5.18800000 37.25470000 66.41940000
-5.54900000 36.24200000 66.30470000
-5.16500000 36.63630000 68.05460000
-5.08210000 35.37760000 67.14120000
-7.62600000 45.14520000 15.74200000
-7.35470000 46.01470000 15.13440000
-8.48120000 46.38730000 12.67930000
-7.99220000 44.38700000 16.26590000
-8.08000000 46.19610000 12.23640000
-6.80900000 44.81610000 13.58330000
-4.57490000 36.13540000 68.84680000
-6.46840000 43.81220000 17.25190000
-4.20530000 37.15450000 67.58580000
-4.30800000 35.19920000 68.35070000
-4.89790000 35.92980000 70.11550000
-5.32590000 35.83460000 71.38410000
-4.93410000 35.22960000 71.30620000
-7.89280000 44.25040000 19.39880000
-7.55440000 43.84570000 18.14910000
-3.59030000 35.67350000 71.69380000
-6.86900000 45.06010000 17.93900000
-8.51400000 47.71240000 12.00040000
-4.17820000 37.25560000 72.33990000
-4.71780000 36.75370000 74.24610000
4.06450000 20.08790000 8.65790000
-3.64240000 36.55120000 70.27860000
-3.29750000 36.81440000 68.50190000
-3.71270000 37.81300000 71.84970000
-6.69700000 38.81910000 76.17080000
-8.05040000 40.40350000 76.32410000
-7.61010000 39.72970000 75.37350000
3.78940000 20.35900000 14.38780000
-5.53670000 37.34270000 75.84330000
-7.05410000 38.99640000 74.24820000
-5.38020000 39.59580000 74.40770000
-5.10890000 38.28170000 75.10920000
-7.28170000 40.29980000 77.52180000
-6.77380000 39.78990000 77.83310000
-6.87150000 40.38240000 76.66090000
-6.19650000 40.61190000 78.23290000
-5.81520000 39.23450000 78.27040000
-5.59930000 40.14870000 77.98840000
-7.22310000 41.33260000 76.74470000
-6.25810000 41.67720000 77.68530000
-6.26700000 40.73420000 80.41150000
-5.28040000 40.40460000 77.38460000
-4.44200000 38.99970000 80.55210000
-4.38180000 38.48620000 79.20570000
-5.05130000 39.04510000 77.73760000
-4.67110000 39.68730000 77.45410000
-6.21060000 39.83830000 76.16780000
-5.30210000 40.06840000 76.22060000
-5.23400000 38.71650000 75.98370000
-4.25210000 38.74710000 74.86210000
-4.59940000 39.08830000 76.48280000
-5.19660000 37.59530000 76.47000000
-4.12970000 36.88720000 77.35310000
-4.46050000 38.03970000 74.58720000
-4.83450000 37.24160000 75.24310000
4.47090000 16.72090000 12.50190000
-3.63660000 36.01070000 74.70160000
-3.27470000 36.22030000 73.88300000
-3.93100000 36.19080000 76.18010000
-3.50840000 35.79540000 77.03250000
-2.61240000 35.74160000 75.73930000
-5.05860000 38.29280000 77.40230000
3.31230000 15.04180000 12.36100000
4.26610000 13.98730000 12.30930000
-0.03950000 30.76270000 31.68640000
-0.20620000 30.94660000 33.49550000
0.10200000 31.53630000 33.37680000
-3.22110000 37.01730000 78.63160000
4.84220000 14.11510000 11.68540000
-6.74330000 40.94140000 72.74410000
0.47450000 30.03060000 31.13750000
-5.96770000 41.23170000 73.16600000
4.75170000 9.53160000 6.11700000
0.05820000 30.53450000 35.18570000
-4.06700000 38.60070000 70.18500000
-5.17550000 40.45470000 73.23310000
0.64510000 29.55720000 33.47600000
-8.44430000 51.85910000 21.33880000
-9.00540000 51.34880000 11.00500000
-6.36950000 51.34030000 51.72720000
-5.84030000 50.21200000 51.74450000
-4.88040000 29.95150000 74.13690000
-4.93500000 30.50740000 76.13390000
-3.73420000 30.96290000 75.38310000
-7.75660000 44.03630000 23.86680000
-8.36420000 44.61230000 24.59170000
-7.11460000 45.12080000 21.30630000
-7.30020000 45.20830000 25.47210000
-7.18990000 45.70230000 25.09730000
-6.71700000 39.89770000 58.70030000
-4.16530000 32.42540000 76.78350000
-3.60580000 32.52460000 75.64030000
-6.75180000 40.71070000 59.65170000
-2.35830000 32.56030000 73.54460000
-2.54630000 33.87310000 74.35100000
-2.75220000 34.16730000 73.78540000
-1.89150000 32.20130000 72.26630000
-2.03240000 32.32940000 74.42130000
-2.13930000 33.38450000 76.60580000
-1.56590000 33.48870000 74.35780000
-1.31650000 32.93370000 75.16830000
-2.35010000 32.52860000 70.45910000
-1.71410000 33.29800000 70.01300000
-1.97240000 32.85530000 71.87970000
-8.19420000 40.86640000 70.36020000
-7.99130000 43.82040000 71.16720000
-2.15100000 34.74080000 73.17280000
-1.69210000 33.71140000 72.51190000
-8.52360000 40.70010000 72.20190000
-3.29250000 36.11340000 77.85260000
-2.50380000 35.75190000 76.97410000
-6.69700000 43.73570000 26.19820000
-8.49030000 41.58060000 76.35510000
-8.62380000 42.17540000 78.92420000
-8.79360000 42.27750000 75.35470000
-8.58540000 43.52470000 77.20060000
-8.87630000 44.38800000 76.50440000
-8.52560000 43.89350000 75.05220000
-8.71470000 45.76590000 76.11670000
-8.15360000 43.68250000 73.50340000
-2.03740000 35.21190000 77.99170000
-5.75810000 43.85780000 10.31260000
-7.97620000 41.20070000 74.52320000
-8.09430000 40.07820000 73.50750000
-8.40970000 41.67770000 73.10180000
-7.92450000 42.12410000 78.87260000
-7.14660000 41.96470000 77.04620000
-6.53110000 42.14840000 79.25070000
-1.11480000 33.10320000 76.02940000
-1.20200000 33.30970000 75.39930000
-8.42430000 44.37710000 70.42060000
-8.58800000 45.49270000 73.32930000
-7.91670000 44.79970000 71.98490000
-5.50970000 37.62880000 64.22160000
-7.46320000 40.63640000 72.26750000
-4.01510000 37.78850000 67.68760000
-0.10490000 21.77330000 25.74040000
0.05330000 21.73780000 24.33120000
-0.21380000 22.37370000 27.45190000
0.18460000 23.22650000 28.33380000
0.37420000 24.95100000 28.47600000
1.51280000 22.58360000 26.65190000
0.94530000 21.37980000 25.63910000
-8.31360000 43.81770000 29.30000000
2.25530000 26.35380000 25.20250000
-8.08030000 44.22260000 29.68580000
-6.94900000 44.75270000 29.65730000
-7.41850000 43.73750000 32.11620000
2.03280000 23.62170000 26.96250000
1.22660000 26.36260000 29.02310000
-7.25920000 45.27860000 32.92960000
-3.71150000 29.15960000 35.38260000
-3.99690000 29.76220000 34.66560000
-4.61500000 29.36050000 34.12340000
-3.82700000 28.90410000 34.64370000
-2.51040000 28.90210000 35.54750000
-2.36690000 29.43350000 35.74340000
-1.23760000 29.18990000 35.29170000
-0.52810000 29.68510000 35.33100000
0.60520000 29.75870000 35.57340000
-8.36710000 51.13740000 59.45490000
-8.73660000 50.30560000 73.60910000
-7.11310000 51.43290000 47.93230000
-7.64230000 51.82540000 41.27750000
-6.59590000 51.43730000 36.13510000
-7.24010000 51.75820000 25.38380000
-7.74140000 51.54760000 52.64790000
-6.90100000 50.85680000 53.78260000
-1.37450000 27.36680000 120.16700000
-1.42370000 28.46690000 121.26090000
-1.79690000 29.39500000 120.65590000
-9.25230000 42.55190000 148.45870000
-9.76560000 43.16840000 145.89680000
-9.84710000 41.50690000 148.85540000
-7.34650000 26.24720000 123.21020000
-7.50980000 27.10750000 123.88330000
-7.43020000 26.87990000 121.06160000
-2.11110000 25.77860000 121.26830000
-1.49770000 26.02540000 121.22280000
-2.05640000 25.92770000 120.43580000
-6.33150000 26.41540000 121.70710000
-1.61450000 26.86390000 120.87700000
-7.36980000 25.08440000 124.26300000
-6.89100000 24.33730000 125.19940000
-6.36390000 26.94840000 126.32170000
-5.86980000 28.95500000 126.57810000
-5.02150000 41.74280000 143.76850000
-4.00540000 42.50590000 135.95300000
-6.88420000 43.79600000 143.19310000
-2.27530000 26.76810000 121.42720000
-0.87770000 25.65940000 120.80190000
-1.33130000 25.61320000 121.72860000
-0.73280000 25.82020000 122.09300000
-6.82060000 28.08260000 123.12400000
-6.07120000 44.95520000 132.54290000
-1.93100000 27.82550000 119.67900000
-6.96740000 26.50050000 120.75870000
-6.59140000 28.07070000 119.05250000
-2.36900000 29.67560000 117.48460000
-4.32320000 31.44250000 116.65130000
-2.42530000 30.46650000 117.16240000
-7.95940000 36.06780000 148.31870000
-8.77260000 36.10240000 151.12880000
-8.96780000 38.66110000 148.97610000
-1.67780000 29.04580000 117.30570000
-1.47700000 29.82760000 113.08710000
-1.30050000 28.99350000 115.19920000
-2.07490000 28.55630000 117.26380000
-1.66260000 28.28860000 116.57240000
-8.10040000 37.99140000 146.74420000
-7.95560000 37.04790000 146.08450000
-8.37610000 35.49930000 147.12350000
-6.38330000 27.16380000 127.98950000
-5.51220000 28.79560000 128.86860000
-8.83340000 39.36820000 146.18250000
-4.64420000 31.13630000 108.88040000
-5.16450000 31.69490000 110.95600000
-5.34090000 32.62020000 110.00390000
-4.90400000 33.25650000 110.98690000
-4.85910000 32.05220000 108.88640000
-5.69330000 34.02890000 108.19840000
-5.52990000 32.93850000 107.52900000
-6.96040000 30.25450000 122.58610000
-7.19950000 31.55400000 124.15620000
-7.62630000 30.74460000 121.54830000
-7.31750000 31.24150000 121.83460000
-9.26920000 39.71590000 151.71190000
-0.84240000 37.46860000 137.08210000
-6.26770000 31.87470000 125.87870000
-6.49000000 32.03710000 124.18330000
-4.45700000 30.95200000 111.08480000
-4.15470000 30.22470000 109.27700000
-6.39700000 41.85180000 147.27650000
-2.45440000 36.89560000 144.24660000
-8.65280000 35.76000000 152.75230000
-6.54030000 26.41220000 109.45340000
-7.42130000 27.31880000 110.35030000
-6.72740000 27.73840000 107.42730000
-8.33700000 38.37270000 152.61520000
-7.72330000 45.47090000 132.50940000
-8.89030000 45.59530000 129.34310000
-10.06270000 43.85010000 138.89660000
-5.15240000 32.23250000 106.64960000
-4.93170000 31.43950000 106.81820000
-5.63040000 32.26280000 125.61520000
-5.84860000 33.18250000 123.94320000
-7.05130000 34.33780000 125.52870000
-6.45210000 33.55820000 122.58670000
-6.36470000 32.96420000 107.05490000
-6.74210000 35.33840000 151.68000000
-7.50730000 40.22660000 150.85300000
-7.20240000 27.42800000 111.37010000
-6.81940000 26.72920000 112.19880000
-6.36230000 26.99480000 112.11790000
-5.89470000 27.81870000 109.96670000
-6.11140000 31.38640000 122.48680000
-5.66130000 26.44980000 112.07450000
-4.96800000 32.31940000 111.92380000
-4.06710000 32.95170000 111.95440000
-5.59700000 26.96780000 111.27220000
-7.40100000 28.22870000 109.48120000
-5.41680000 32.31070000 123.57140000
-5.08220000 34.00010000 109.64540000
-5.23940000 31.91600000 122.63290000
-3.87050000 34.33860000 110.92090000
-5.20700000 34.82620000 109.44210000
-5.68550000 26.56030000 109.04280000
-5.69310000 26.48690000 111.09840000
-4.47530000 35.91360000 110.39890000
-4.70580000 35.73290000 109.09730000
-5.04050000 27.04850000 109.35600000
-5.08430000 33.72890000 124.41850000
-4.60800000 26.45870000 110.88560000
-4.18270000 32.97510000 123.33670000
-9.61970000 41.63420000 142.29570000
-3.91220000 34.03630000 112.74860000
-5.01010000 23.22080000 115.02380000
-5.58180000 24.73640000 115.59240000
-4.59780000 23.06080000 114.13720000
-5.00820000 24.15860000 116.00760000
-2.96580000 29.97660000 110.33580000
-3.10440000 31.37280000 111.70300000
-4.69860000 24.71670000 114.87330000
-8.86250000 41.36550000 150.85560000
-5.83660000 29.77680000 124.46410000
-8.24990000 42.28460000 148.85550000
-2.62010000 28.42060000 108.18850000
-3.42240000 29.31240000 108.87020000
-4.93690000 23.80220000 117.69180000
-4.31240000 24.82760000 116.67320000
-3.71500000 23.03340000 115.74550000
-4.59300000 23.16350000 117.35540000
-3.64400000 24.60320000 112.83950000
-4.11980000 25.34990000 114.13770000
-3.31530000 22.26150000 113.88070000
-2.50590000 23.00760000 114.53840000
-5.28190000 31.37840000 127.13230000
-3.58440000 22.45750000 117.98670000
-2.93890000 32.08500000 113.81520000
-1.43970000 30.06040000 110.48500000
-2.17720000 23.58830000 116.25310000
-4.62490000 24.59070000 109.75750000
-5.52310000 25.47350000 110.93630000
-4.81520000 25.60700000 109.75320000
-3.93920000 24.05600000 109.86480000
-4.84510000 30.56260000 121.95410000
-4.61090000 36.78360000 148.86680000
-4.50350000 32.03560000 123.79010000
-4.65600000 31.58140000 124.55840000
-5.28660000 25.87270000 112.36280000
-4.54000000 27.11650000 112.81220000
-4.19890000 31.09150000 123.88870000
-3.64120000 31.43800000 125.14770000
-4.04820000 25.33220000 112.12130000
-3.88380000 26.13150000 112.91970000
-3.85870000 32.22070000 124.12410000
-8.17790000 46.76930000 125.50580000
-8.43090000 33.75820000 144.90790000
-8.68450000 35.63710000 144.81800000
-8.86070000 35.06400000 143.95390000
-8.10990000 33.99990000 144.08120000
-6.62120000 23.53000000 124.11270000
-6.24650000 20.67690000 125.73740000
-7.34920000 21.74380000 142.93540000
-7.48090000 24.35630000 142.87340000
-6.40170000 22.85470000 142.72130000
-5.93860000 20.90320000 125.02730000
-3.06500000 27.39210000 112.26620000
-7.83730000 24.41280000 144.15640000
-7.35620000 24.43400000 144.77470000
-6.75790000 26.20670000 143.81680000
-7.55080000 21.22260000 144.00460000
-3.58000000 25.69800000 109.78330000
-6.98250000 20.69110000 144.47740000
-7.63060000 22.37210000 128.90230000
-7.49070000 23.32200000 129.90020000
-3.02150000 27.07390000 109.97200000
-2.57250000 26.90090000 111.35020000
-6.31310000 24.50030000 144.69920000
-3.25210000 24.78970000 110.92810000
-7.14220000 26.92690000 142.50820000
-1.39160000 23.07260000 108.68560000
-6.72540000 27.47630000 141.11750000
-6.21350000 25.91310000 141.84460000
-6.69460000 22.37250000 127.60410000
-7.11880000 19.93250000 128.50020000
-3.29280000 23.81140000 113.59670000
-4.52250000 21.67040000 128.22880000
-5.71740000 22.82730000 129.23030000
-6.21380000 21.20580000 129.00780000
-5.87450000 24.70660000 142.74320000
-6.14660000 22.30010000 126.73610000
-5.92420000 18.88770000 127.60840000
-2.85560000 22.75250000 113.08420000
1.38240000 31.00710000 140.04600000
-2.26590000 31.65560000 147.28220000
-2.13080000 24.40680000 112.14640000
-1.80390000 23.70820000 113.28990000
-1.23600000 28.52980000 108.94910000
-2.21430000 27.86110000 109.19960000
-0.34370000 25.03740000 112.39910000
-1.90800000 24.71130000 110.33660000
-5.74790000 25.84000000 119.78930000
-6.07690000 23.42480000 119.84310000
-5.36520000 25.29250000 120.25160000
-1.07480000 25.38390000 111.40370000
-6.14410000 24.93260000 123.27110000
-0.56740000 27.87830000 109.94280000
-0.86770000 25.30360000 110.04690000
-5.44440000 26.32270000 105.08300000
-5.90010000 26.79990000 105.34360000
-5.42130000 26.74520000 102.26500000
-4.60270000 26.75500000 105.56740000
-4.87180000 26.70910000 101.47230000
-4.66230000 28.34480000 102.31650000
-6.14640000 26.76850000 119.76400000
-4.83390000 27.46000000 121.26820000
-5.35380000 27.10320000 120.35810000
-5.35900000 45.67170000 118.46310000
-5.55730000 23.80240000 124.03110000
-5.11730000 23.76690000 120.63060000
-6.06750000 22.38810000 119.99260000
-5.02450000 23.20700000 121.14660000
-3.66590000 27.33910000 101.69070000
-0.75680000 27.05540000 111.55110000
-4.32700000 24.53060000 120.33720000
-4.53330000 27.72570000 99.56300000
-4.63050000 24.25880000 121.78810000
-4.48650000 22.14680000 119.98040000
-5.34160000 21.45700000 119.39810000
-0.43660000 27.73500000 111.98690000
-3.88620000 27.77680000 99.50800000
0.12470000 25.62180000 110.91730000
-7.94710000 28.38910000 152.35420000
-7.51980000 21.81990000 151.49620000
-7.38030000 28.21910000 152.01160000
-4.09380000 22.94140000 122.50040000
-4.97500000 24.60520000 123.41540000
-0.12520000 26.28700000 109.01520000
-1.62070000 26.32560000 108.76360000
-0.33370000 26.89550000 108.43310000
0.48350000 26.16810000 108.06680000
-0.11190000 27.12720000 104.74550000
-2.40460000 28.26830000 99.71110000
-4.09230000 22.94770000 125.52130000
-4.77740000 21.89200000 124.95480000
-1.68980000 27.67870000 101.43400000
-4.29060000 24.61050000 124.60410000
-4.82330000 25.58580000 122.03640000
-4.33640000 24.40980000 123.58350000
-7.31160000 29.14200000 106.89470000
-6.45880000 29.54040000 106.75270000
-3.48700000 23.50160000 124.50830000
-3.16070000 23.06250000 125.85330000
-7.01850000 30.21610000 105.13290000
-5.75100000 29.52130000 102.89460000
0.29140000 37.95960000 127.41510000
-7.40410000 31.98190000 106.13450000
-6.97820000 31.90010000 106.51900000
-3.83840000 24.79250000 121.06450000
-5.73720000 30.42250000 105.25730000
-7.68190000 27.43500000 149.09450000
-7.89690000 33.18020000 148.96560000
-6.76280000 31.47290000 146.11960000
-1.97560000 42.83760000 108.95670000
-6.12890000 24.49750000 145.42270000
-6.67070000 24.78310000 130.72430000
-5.43310000 31.29700000 105.50690000
-4.16130000 30.51630000 105.62040000
-4.71480000 30.00140000 105.36610000
-4.46630000 28.69610000 107.25010000
-5.50780000 31.67850000 143.41270000
-7.96750000 34.01930000 135.44700000
-8.15670000 34.41350000 135.20330000
-7.68730000 32.39800000 133.75540000
-7.77840000 34.73540000 132.71920000
-6.39050000 32.59590000 129.86440000
-6.50640000 31.76410000 134.79600000
-7.12710000 31.21240000 135.22050000
-6.54690000 24.64690000 132.47780000
-6.73130000 28.43350000 130.58320000
-6.44280000 32.58820000 134.50680000
-5.60360000 26.65570000 143.69320000
-6.52830000 27.58010000 142.85910000
-6.55310000 29.60350000 134.38430000
-7.11460000 29.01850000 132.07600000
-7.78170000 27.47140000 135.08220000
-5.05330000 28.05950000 143.34130000
-6.90710000 22.85950000 130.01230000
-5.58760000 23.29620000 130.38970000
-6.34240000 29.16110000 138.15780000
-6.79560000 30.30690000 135.54750000
-6.90030000 28.52790000 138.46190000
-4.89780000 24.20560000 129.41340000
-5.72250000 30.51300000 135.76330000
-4.88070000 22.82440000 132.65170000
-5.57140000 29.84050000 136.98360000
-6.92410000 31.32730000 132.39560000
-4.20100000 23.33290000 128.45500000
-8.00050000 23.32770000 150.98940000
-3.40520000 23.04290000 129.35570000
-3.65650000 28.38120000 107.44840000
-2.40580000 30.98850000 124.06120000
-2.88260000 29.85030000 123.47010000
-2.66030000 30.51720000 123.07340000
-1.94620000 30.47530000 123.44690000
-2.64750000 28.36950000 123.90220000
-2.48970000 28.57810000 125.00450000
-2.33740000 29.70930000 124.78400000
-3.81790000 29.61530000 106.50930000
-1.89500000 28.87420000 125.16510000
-1.78000000 30.48840000 124.38460000
-1.75360000 29.57070000 123.95730000
-1.82720000 28.18930000 123.58790000
-1.89650000 29.43660000 122.55680000
-4.57800000 30.72790000 134.89080000
-1.67090000 28.30010000 124.40480000
-3.00730000 28.18410000 105.34730000
-2.79540000 28.06940000 106.46930000
-7.58960000 32.38410000 139.48320000
-8.10970000 32.68020000 141.58430000
-7.84020000 33.38170000 139.58280000
-8.05700000 35.45690000 142.37590000
-8.98350000 35.90850000 142.51180000
-8.63210000 35.98590000 140.76610000
-8.16880000 37.50170000 139.67510000
-8.69730000 36.53550000 139.53840000
-8.80170000 37.19000000 141.32880000
-7.80600000 34.40990000 142.09170000
-7.99250000 34.54700000 152.99950000
-4.72190000 30.24430000 101.24320000
-7.17460000 32.75180000 142.69020000
-7.87770000 31.89510000 142.45730000
-7.65330000 36.08860000 141.72260000
-7.07170000 33.85160000 142.86030000
-8.13620000 36.55440000 139.08730000
-7.69630000 33.98210000 108.27830000
-8.00510000 33.96050000 107.85510000
-5.40510000 31.64930000 100.75920000
-6.24520000 32.66060000 103.87420000
-6.82800000 34.47350000 138.75580000
-6.87220000 34.99790000 140.30310000
-4.32110000 26.83910000 149.85220000
-7.54950000 30.83130000 141.33010000
-5.21380000 32.30730000 99.87090000
-8.77450000 36.60890000 138.04300000
-8.74550000 36.71040000 135.84210000
-8.13180000 36.37230000 137.83350000
-7.00400000 29.07760000 142.63470000
-7.57770000 35.85650000 137.09500000
-8.41860000 33.69120000 147.64860000
-6.88560000 30.61260000 142.98650000
-6.23160000 30.63340000 141.06550000
-6.24970000 29.65830000 140.63240000
-6.76740000 31.55240000 140.65300000
-7.62220000 36.73070000 133.77190000
-8.48620000 36.05810000 134.25580000
-8.65910000 34.22550000 145.61450000
-7.14750000 33.84200000 103.71500000
-7.96720000 35.72770000 103.95470000
-7.34810000 34.68150000 102.25700000
-7.85280000 36.81300000 106.93550000
-8.28690000 36.25700000 106.45230000
-7.63010000 37.03820000 135.82110000
-5.56220000 32.47320000 139.86130000
-6.95940000 32.83660000 137.77100000
-7.64780000 37.72160000 134.97120000
-7.99320000 37.07140000 103.51290000
-5.83550000 33.55890000 136.56860000
-2.41110000 28.38120000 103.77110000
-6.92030000 37.83870000 133.36640000
-6.91060000 36.23410000 103.57340000
-7.35910000 37.75320000 103.45170000
-2.76030000 27.85390000 102.79200000
-6.83910000 35.96680000 104.28700000
-7.56700000 34.03380000 145.82160000
-7.67760000 33.52920000 147.00900000
-2.63050000 27.30510000 102.54030000
-6.95290000 33.81000000 144.72990000
-9.20260000 40.59950000 118.45430000
-8.94550000 41.44200000 120.44610000
-9.35380000 41.82870000 118.57190000
-1.60910000 26.95610000 101.70940000
-0.93790000 26.69070000 99.46530000
-0.99030000 25.88280000 98.60090000
-5.55110000 32.86260000 142.34060000
-5.63230000 31.02510000 142.85610000
-8.57750000 37.12950000 137.94120000
-9.00180000 42.40930000 118.63440000
-7.10300000 36.31460000 101.38470000
-3.11220000 26.65910000 108.60460000
-7.46580000 37.00770000 137.32600000
-7.64610000 37.14890000 139.22430000
-1.93520000 25.61420000 109.13100000
-2.73920000 26.64300000 107.84080000
-5.10390000 31.79960000 140.88480000
-8.77710000 41.51120000 122.61330000
-9.59770000 43.01230000 123.29980000
-8.85280000 42.53380000 121.85080000
-1.86780000 26.58570000 107.21400000
-4.94780000 33.47250000 138.00290000
-4.39510000 32.75390000 138.48610000
-3.81460000 30.40260000 137.59270000
-4.80790000 31.24120000 140.74300000
-7.23810000 37.22090000 140.11590000
-6.71000000 35.10070000 136.79130000
-7.16220000 34.38110000 136.19610000
-2.04460000 27.25760000 106.19820000
-1.72830000 27.99200000 104.76670000
-9.31650000 43.57310000 116.53680000
-1.96290000 26.83140000 104.05590000
-6.82040000 33.81720000 135.58350000
-2.18040000 27.35930000 104.14050000
-7.00230000 37.73970000 138.61070000
-8.82010000 40.97640000 134.91730000
-7.51210000 38.76060000 135.21690000
-1.12800000 22.76100000 106.95210000
-9.20900000 40.47050000 123.59410000
-8.62700000 39.66540000 120.87770000
-1.54270000 24.35160000 108.06320000
-6.72210000 37.20870000 136.22790000
-0.49690000 21.68530000 106.79250000
-5.84310000 33.52000000 134.48800000
-8.50470000 38.83110000 121.31070000
-5.97940000 35.89080000 136.99850000
-8.62760000 38.93530000 122.40510000
-9.07520000 39.42790000 123.59620000
-4.78950000 34.35590000 135.27510000
-6.47630000 37.07780000 137.25620000
-8.43510000 39.97700000 119.23390000
-8.85530000 39.94530000 117.46910000
-8.49290000 38.97220000 120.08380000
-9.27630000 40.33330000 120.04830000
-7.65310000 39.98640000 117.53010000
-9.65400000 42.88380000 126.99860000
-9.65320000 41.87630000 125.79520000
-5.95660000 35.11240000 139.89400000
-6.12820000 36.51430000 139.24790000
-5.60280000 35.20300000 138.21050000
0.29760000 24.00960000 108.86860000
-7.34230000 38.69730000 123.64080000
-8.58390000 39.81410000 124.32450000
-8.27850000 41.20900000 115.96520000
-7.37660000 40.77870000 112.66150000
-9.38150000 40.22660000 125.65260000
-7.72950000 38.73670000 119.61080000
0.64840000 24.06840000 107.57180000
-8.76550000 40.18720000 116.12760000
-7.45170000 39.87390000 119.20020000
-8.64430000 41.30400000 126.49760000
-8.96210000 41.59540000 128.09320000
-8.71430000 40.80000000 125.84000000
-7.50530000 40.03090000 115.52620000
-8.86150000 39.74700000 125.83760000
-7.67900000 39.86120000 125.25850000
0.89110000 25.04860000 105.72410000
-7.77300000 39.88830000 126.45800000
-3.23790000 30.54590000 135.89820000
-4.03490000 33.02970000 135.67690000
-10.04960000 44.92840000 119.50230000
-9.97330000 45.93030000 118.73100000
-1.18340000 27.16910000 103.18810000
-6.59610000 34.24620000 115.47440000
-8.04490000 36.01540000 114.41180000
-7.43400000 35.21710000 113.99480000
-7.83260000 36.62430000 112.61370000
-1.78870000 27.87870000 97.89200000
-0.51330000 28.09970000 100.15700000
-7.71810000 26.92360000 135.51760000
-7.47550000 27.04470000 138.35290000
-6.50620000 35.87140000 113.26080000
-7.05890000 36.62300000 111.61270000
-0.74620000 26.21410000 100.57440000
-0.71280000 27.63250000 101.23190000
-5.96510000 34.12470000 114.38420000
-5.61810000 32.84130000 113.85710000
-6.89600000 26.58380000 138.01770000
-5.16700000 35.67370000 113.58140000
-7.22860000 36.05210000 110.97760000
-6.00810000 35.85310000 111.31340000
-7.46900000 38.05020000 120.44260000
-6.96850000 27.06270000 139.71620000
0.47510000 26.07640000 99.67060000
-7.01440000 32.76900000 119.82660000
-8.43570000 34.40640000 120.55600000
-8.11200000 34.44920000 120.05070000
-5.90130000 28.26490000 140.06050000
-6.26000000 31.99140000 120.68450000
-6.75850000 34.25880000 120.78860000
-5.96130000 27.13590000 140.39680000
-6.47460000 34.04080000 119.96660000
-8.07380000 35.18870000 121.57040000
-7.12430000 35.65870000 121.19540000
-7.45290000 34.67540000 121.45840000
-6.59580000 35.21160000 120.72670000
-6.54630000 35.60380000 122.86750000
-5.76930000 28.09940000 139.60040000
-5.03550000 28.51010000 138.12470000
-5.37310000 27.51890000 139.36130000
2.20430000 22.43030000 97.93300000
-5.60560000 23.52120000 136.89190000
-6.09390000 22.95970000 138.34340000
-5.29150000 24.65040000 137.68150000
-6.88610000 34.71350000 122.36570000
-4.69730000 24.47330000 136.83330000
-4.65050000 25.93020000 137.75910000
-5.14300000 26.59780000 137.02210000
-5.59820000 35.76330000 122.45320000
-6.16120000 33.40060000 120.87770000
-5.38320000 35.29340000 120.75440000
-5.27690000 36.12930000 121.70740000
-4.87720000 35.96880000 119.35170000
-4.39870000 27.94110000 140.77390000
-5.86110000 27.19160000 136.11550000
-4.97120000 27.23920000 137.66490000
-6.40930000 36.42340000 115.10180000
-6.77720000 35.20290000 116.25870000
-7.46280000 37.10590000 113.49590000
-7.09280000 47.50800000 109.84930000
-4.44390000 27.97780000 137.53090000
-7.16250000 30.10790000 119.18940000
-6.99310000 37.66650000 111.76110000
-6.93130000 29.16150000 118.50290000
-6.43010000 30.72940000 119.85910000
-6.32820000 29.48120000 117.92170000
-5.98970000 30.81240000 119.19360000
-7.28850000 27.27370000 133.71230000
-7.13890000 26.89080000 118.17290000
-6.76060000 26.41720000 117.91130000
-5.99920000 38.21350000 111.90570000
-8.84200000 46.21130000 123.50080000
-5.59570000 37.40790000 114.29680000
-6.18760000 38.35060000 117.30500000
-7.62610000 47.26710000 116.44210000
-6.22280000 28.01280000 116.30610000
-6.49260000 26.70270000 115.67880000
-4.32550000 27.83220000 134.17330000
-4.62940000 26.32680000 135.95430000
-7.01550000 26.51740000 133.14930000
-5.85900000 27.43940000 133.41150000
-5.52830000 27.14040000 115.80830000
-5.13960000 25.49300000 133.39460000
-4.55090000 26.80520000 132.68150000
-4.94390000 28.19540000 117.09950000
-4.37280000 26.93930000 116.31820000
-3.73640000 28.24930000 132.49050000
-6.48000000 33.75430000 116.79700000
-5.30340000 29.17310000 117.92620000
-3.73440000 29.33620000 136.42940000
-5.11140000 29.58850000 118.19450000
-4.98570000 31.27930000 118.49030000
-5.53190000 32.15590000 116.46290000
-4.81380000 29.40130000 118.55170000
-4.83540000 29.30100000 118.58500000
-4.83090000 29.34160000 118.34830000
-0.15630000 25.06860000 145.92180000
-5.56200000 35.07040000 114.31820000
-4.12570000 30.05100000 117.27800000
-4.14030000 29.00410000 117.68590000
-3.42070000 30.99680000 134.96630000
-3.92520000 28.15110000 117.65260000
-4.62600000 29.15250000 118.55410000
-4.73620000 29.18870000 118.33660000
-5.04750000 35.50950000 116.89740000
-5.25390000 32.07140000 117.57080000
-5.65140000 34.05110000 117.60760000
-3.13200000 27.08860000 134.75670000
-5.38620000 31.65980000 112.34630000
-4.26880000 24.39500000 136.60740000
-3.58430000 25.66600000 135.92380000
-4.24490000 24.48760000 135.46830000
-4.81440000 31.38630000 112.79760000
-5.32920000 32.91370000 115.00850000
-5.42250000 36.18590000 115.57820000
-4.97080000 33.30440000 113.19090000
-4.51100000 34.40950000 113.99680000
-4.81140000 35.88640000 111.85350000
-3.29980000 25.91230000 132.56010000
-4.46010000 35.18510000 113.92330000
-3.63870000 27.73850000 136.72510000
-3.43280000 25.09460000 137.79100000
-8.05760000 36.92690000 130.45030000
-8.64570000 38.01040000 131.17020000
-8.35110000 37.72920000 130.66940000
-4.12740000 31.95580000 113.33600000
-8.37680000 36.00540000 132.78200000
-2.88000000 28.77840000 136.61970000
-7.43930000 34.38490000 130.25520000
-7.62410000 35.87780000 131.84630000
-2.58660000 26.95250000 137.07940000
-3.95120000 33.13530000 115.26560000
-7.54650000 37.19510000 129.86160000
-6.97030000 37.95060000 130.09130000
-7.24900000 35.98390000 129.44060000
-7.28680000 35.69130000 130.56090000
-7.55140000 36.93670000 131.15100000
-7.59000000 37.83050000 108.91420000
-8.30560000 37.01770000 109.61180000
-8.22370000 38.96930000 109.93930000
-7.62460000 37.94050000 110.61880000
-7.61030000 39.29510000 109.53290000
-7.58810000 37.66130000 127.55220000
-7.76050000 35.75690000 127.58550000
-3.00410000 28.47250000 132.98780000
-7.54320000 39.16830000 106.98790000
-7.32020000 38.91830000 105.60180000
-6.49620000 38.10620000 105.83250000
-6.63250000 34.99470000 127.32110000
-7.00070000 39.12200000 108.70590000
-2.99310000 25.61310000 134.93540000
-5.50880000 35.57860000 128.67840000
-2.54260000 27.73470000 132.93240000
-6.85080000 39.37320000 107.23000000
-6.48090000 40.03120000 107.55990000
-6.37990000 34.71560000 129.19730000
-8.44640000 42.93470000 102.11300000
-8.74860000 42.48630000 101.76430000
-8.54260000 40.57110000 102.40610000
-5.82560000 35.49990000 129.47160000
-6.08900000 31.03040000 120.98370000
-7.71570000 36.68390000 126.61210000
-7.56070000 38.20090000 125.16710000
-8.83890000 43.48350000 109.34680000
-5.61440000 28.80780000 142.73690000
-7.30370000 39.30600000 129.87280000
-6.65100000 38.13260000 128.06400000
-7.22720000 38.90070000 125.82780000
-8.74870000 42.68700000 106.84790000
-7.68280000 42.48340000 104.91460000
-8.32390000 41.97480000 106.25700000
-7.81130000 39.05170000 124.56530000
-5.47560000 33.45800000 119.27330000
-5.66160000 33.27760000 118.54390000
-4.81300000 33.70450000 118.15760000
-7.66580000 38.07130000 122.31500000
-7.04800000 38.43270000 121.75000000
-4.47300000 30.16420000 139.52600000
-9.26730000 45.65230000 100.61600000
-7.96620000 43.23870000 102.79050000
-7.64170000 38.06820000 123.19830000
-5.10670000 28.16770000 140.08860000
-4.28130000 28.83740000 139.43970000
-7.56340000 40.61810000 104.33740000
-7.17970000 41.29400000 103.86770000
-7.83010000 40.80950000 103.16270000
-7.02080000 37.13470000 125.46250000
-6.33470000 37.75240000 123.10240000
-6.69160000 38.46940000 124.68570000
-4.85440000 31.86390000 121.70660000
-7.24460000 41.45440000 106.80230000
-6.31890000 37.89660000 120.21100000
-7.53080000 35.03470000 124.49360000
-7.84990000 39.28210000 103.54960000
-4.72420000 34.83970000 119.41330000
-8.40610000 40.16430000 100.78560000
-4.12830000 34.00450000 118.82990000
-7.66480000 37.56930000 99.73140000
-8.59220000 47.76960000 103.25810000
-9.25440000 47.33020000 106.61380000
-8.41920000 47.19040000 108.69660000
-6.83930000 39.32090000 103.45160000
-4.52280000 25.75820000 142.09840000
-6.71200000 35.52470000 124.05890000
-6.32770000 37.77670000 103.12570000
-3.10990000 27.06020000 139.05530000
-4.29960000 23.45690000 141.53610000
-4.84170000 30.86040000 121.12400000
-5.80030000 38.68220000 103.27070000
-6.02250000 36.44800000 124.58840000
-8.69570000 43.23670000 108.06040000
-4.26410000 30.73850000 121.59700000
-6.91650000 40.47140000 105.60960000
-3.48810000 28.53440000 139.07600000
-5.38760000 35.93390000 123.99360000
-6.01030000 37.33400000 124.69650000
-3.80080000 29.31940000 137.74300000
-6.10100000 39.04480000 104.43420000
-4.51980000 33.17840000 116.16290000
-3.93830000 34.45310000 117.67920000
-6.62010000 48.68970000 90.47220000
-3.95000000 32.49980000 134.22170000
-3.37040000 32.20800000 116.56390000
-7.49390000 40.71650000 110.61520000
-9.15230000 42.48380000 108.99600000
-8.48270000 38.68490000 132.14700000
-8.79430000 39.23020000 132.03160000
-8.34050000 42.12770000 108.70990000
-8.75990000 38.99290000 133.36850000
-8.46160000 40.62080000 110.32810000
-8.29700000 39.77770000 132.76070000
-7.84310000 38.41040000 133.91470000
-8.50200000 40.86690000 109.73140000
-7.14980000 38.89520000 133.23560000
-8.23260000 38.34800000 130.86450000
-7.53000000 41.56480000 109.25000000
-7.52940000 38.93630000 130.99060000
-7.88480000 37.83810000 130.98950000
-7.38560000 38.61070000 131.50670000
-7.94470000 37.62300000 130.97580000
-7.84430000 37.64680000 130.65660000
-7.75090000 37.65710000 130.80250000
-5.03880000 32.12270000 126.88770000
-6.95460000 39.03450000 132.50700000
-4.96670000 26.21290000 118.96970000
-5.07080000 26.32290000 118.54300000
-5.32290000 26.51870000 117.56270000
-4.97270000 23.01980000 119.04510000
-8.63790000 46.55650000 118.38650000
-4.71420000 24.88880000 118.23440000
-4.77480000 33.47720000 127.91940000
-4.06740000 26.20560000 117.36640000
-6.91010000 40.37840000 109.31730000
-5.26420000 26.76820000 116.49330000
-4.37670000 26.36720000 116.89970000
-4.51330000 26.87450000 116.74430000
-4.21020000 27.27930000 117.18350000
-4.76070000 26.51720000 115.95160000
-5.61110000 30.79250000 129.20980000
-4.30310000 27.14290000 116.76010000
-6.53510000 37.92440000 132.01040000
-7.24090000 37.04270000 132.11520000
-3.87160000 25.76970000 115.36250000
-2.26090000 26.30800000 116.13140000
-6.88990000 37.90950000 131.29380000
-3.99660000 26.86390000 120.19450000
-4.87120000 30.51750000 127.66430000
-5.19890000 33.21440000 133.50910000
-4.72020000 32.35010000 133.42520000
-5.71620000 35.35130000 127.24460000
-3.09210000 29.29620000 116.98170000
-3.71930000 28.54970000 116.85210000
-4.81700000 34.45930000 125.72690000
-2.85740000 28.09400000 117.24700000
-3.32630000 28.42160000 116.64460000
-3.65170000 27.15260000 117.01030000
-2.55140000 27.53660000 117.33440000
-8.18570000 35.67180000 108.55690000
0.95250000 38.83090000 111.78110000
-7.32590000 35.81080000 108.92450000
-6.23750000 35.14060000 107.92960000
-4.21830000 33.58240000 127.43320000
-4.13340000 33.39330000 125.90320000
-2.91870000 24.84970000 119.81280000
-3.15580000 26.20990000 119.37960000
-6.40090000 36.39730000 108.01390000
-3.04200000 27.84300000 119.56480000
-1.97230000 26.11670000 119.49350000
-7.78490000 36.32790000 109.85850000
-3.99960000 31.76630000 126.62810000
-1.99470000 24.75360000 120.02580000
-1.54000000 24.86930000 119.16960000
-2.97730000 25.71590000 121.01350000
-6.50330000 37.02720000 109.04590000
-1.15990000 25.56380000 119.76790000
-1.63250000 27.16290000 116.45200000
-9.31290000 44.16210000 140.44600000
-2.44330000 26.94700000 113.64050000
-2.43740000 27.45300000 113.34820000
-2.29100000 25.66890000 114.62970000
-7.09360000 37.05940000 107.32690000
-2.27150000 26.19640000 113.55990000
-6.04670000 36.85640000 106.61080000
-9.18370000 40.77400000 139.99070000
-4.59480000 34.13340000 134.00050000
-5.61230000 37.10160000 107.86930000
-5.67840000 37.34610000 109.37230000
-0.90530000 27.82800000 113.52140000
-5.08620000 37.12710000 108.21110000
-7.77060000 27.34350000 132.65240000
-5.08160000 36.35470000 107.78950000
-1.50090000 27.91580000 115.50910000
-7.38250000 22.26610000 129.66440000
-7.29910000 20.50300000 129.00170000
-6.05900000 19.90710000 128.82130000
-4.23390000 46.73590000 88.79730000
-6.07910000 23.61580000 135.20030000
-7.57670000 23.50830000 135.19070000
-7.39110000 22.77600000 136.90860000
-6.91020000 22.19260000 136.92060000
-6.84700000 22.17440000 133.86900000
-7.15590000 22.61720000 135.07040000
-6.06260000 23.15760000 136.30170000
-7.41070000 25.41470000 133.16370000
-7.67690000 44.15330000 141.30340000
-0.53760000 26.54930000 113.97000000
-2.74760000 27.14690000 132.32180000
-2.56690000 25.04960000 133.06540000
-6.94280000 25.04960000 133.99100000
-6.26860000 36.20840000 105.47170000
-0.91010000 26.03670000 115.85800000
-5.98860000 36.49170000 103.95500000
-0.53960000 25.12450000 115.66860000
-0.25160000 25.54680000 114.76450000
-6.97200000 22.43670000 131.21590000
-5.42450000 37.37040000 105.42400000
-0.57850000 27.29180000 114.44050000
-0.03170000 26.23430000 114.71050000
-5.58840000 37.92120000 104.44610000
-5.54130000 22.66510000 132.05310000
-3.27150000 28.50710000 120.55250000
-3.18350000 29.24970000 121.37750000
-3.80200000 27.99540000 121.27300000
-2.53470000 29.31620000 120.28790000
-2.29530000 29.80460000 121.83420000
-5.15040000 23.99130000 134.31030000
-6.58040000 38.61470000 110.73670000
-2.49970000 28.39780000 121.96440000
-2.08390000 28.95530000 122.81570000
3.25080000 32.27150000 128.06750000
-2.29710000 29.34740000 122.63860000
-4.07380000 24.41170000 134.20300000
-9.25160000 39.88540000 139.73560000
-8.82300000 37.76720000 143.36270000
-9.35800000 39.99510000 142.86720000
-8.77940000 38.67400000 141.32200000
-8.52250000 39.93030000 139.00600000
-8.65610000 38.65550000 144.13880000
-7.92580000 38.79750000 140.73380000
-7.69900000 34.75370000 143.56370000
-6.20370000 34.09760000 143.46910000
-6.89370000 36.03100000 141.89020000
-6.76600000 36.85580000 140.91380000
4.88400000 33.07270000 102.15990000
-7.64760000 37.97210000 140.01680000
-7.50990000 38.43730000 139.68330000
-8.54410000 42.72720000 95.93030000
-8.75960000 43.17060000 97.97430000
-8.51880000 43.90290000 97.31490000
-3.67830000 28.96400000 93.44970000
-5.04880000 36.17420000 85.18570000
-6.05070000 38.39090000 97.68610000
-7.46720000 39.59990000 96.97200000
-7.67320000 37.90990000 97.79610000
-6.51930000 37.63350000 98.81550000
-3.94280000 36.56310000 85.12140000
