0.20732500 4.04482000 2.70838000
0.21615800 4.45105000 2.71620000
0.24720900 -1.38926000 -2.53757000
0.24494800 -1.62282000 -2.28025000
0.23488800 -1.60801000 -2.54117000
0.27911100 -0.92925700 -2.18424000
0.29221400 -0.52533300 -2.25823000
0.29650400 -0.43406700 -2.06997000
0.02106380 -9.23250000 2.33018000
0.01503360 -9.12559000 2.34735000
0.02296220 -9.32116000 2.15006000
0.00853111 -9.49743000 -2.12238000
0.00549398 -9.49412000 -2.03806000
0.00389125 -9.34439000 -2.23908000
0.31617400 9.73974000 -1.38465000
0.30505800 9.80913000 -1.22098000
0.32319800 9.77797000 -1.21251000
0.20325100 -6.67821000 2.77015000
0.22048900 -6.83013000 2.73309000
0.22725000 -6.56820000 2.73106000
0.52301700 7.74056000 0.73538800
0.48462600 7.72726000 0.81717300
0.52057200 7.68931000 0.77657500
0.48146100 7.67014000 0.85714700
0.05199770 -5.70328000 2.76327000
-0.01089350 -1.51233000 2.65715000
-0.00857761 -1.81119000 2.64876000
0.22106100 -2.15869000 0.70580300
0.21833800 -1.73582000 0.88949900
0.22669700 -2.15404000 1.10821000
0.24018500 -2.94586000 -2.38662000
0.24799300 -2.83167000 -1.97451000
0.25322400 -3.23180000 -2.15165000
0.27589000 7.45629000 1.07954000
0.29566200 7.29118000 1.12001000
0.30057900 7.37339000 1.09904000
0.45716900 7.19076000 1.03636000
0.49729100 7.25178000 0.96825500
0.45917500 7.26629000 1.02335000
0.25748500 7.14557000 -0.52177500
0.26384800 7.51627000 -0.26618500
0.32988000 7.50800000 -0.30303700
0.33008600 7.53123000 -0.26988600
0.26503400 6.24538000 0.84182200
0.30140800 6.20202000 0.77648800
0.29576800 6.00223000 0.45123900
0.29621700 6.03459000 0.51921300
0.26297100 6.02451000 0.52289000
0.34255900 8.05854000 -0.44732200
0.37496900 8.05349000 -0.44439600
0.37186000 8.01746000 -0.50673300
0.52810600 7.93735000 -0.39428200
0.52648800 7.90464000 -0.44935600
0.49200300 7.95438000 -0.47344400
-0.01261950 -6.54553000 1.44410000
-0.01135440 -6.17030000 1.40562000
0.00543046 -7.42161000 -0.88210300
0.00699953 -6.95083000 -1.14418000
0.02615800 -7.40337000 -1.56482000
-0.02408220 6.86413000 -0.54813400
0.04351940 6.83521000 -0.51618000
0.04473690 6.87180000 -0.52944100
0.17808900 6.81347000 -0.47996700
0.18007300 6.84850000 -0.49543200
0.11190000 6.84283000 -0.50239700
-0.08526560 6.32589000 -0.92349800
-0.08285800 6.26202000 -0.86760200
-0.11952600 6.26430000 -0.86561700
-0.17100100 6.55448000 -1.04174000
0.31944800 8.15471000 0.37648300
0.31656600 8.13188000 0.44100600
0.37915400 8.14426000 0.36957100
0.24975700 -2.92181000 -0.74899000
0.26047300 -3.03128000 -1.11410000
0.24910800 -2.65458000 -1.12818000
0.23362700 -4.63056000 -1.50421000
0.24750900 -4.38211000 -1.16588000
0.22875700 -4.80179000 -1.17462000
-0.12172700 6.32845000 -0.91999700
-0.30981000 6.27243000 -0.74459100
0.04044750 8.44283000 2.23324000
0.04870620 8.57757000 2.17741000
0.06318900 8.61402000 2.00383000
0.01835330 7.91601000 1.70999000
0.06012520 8.29334000 1.58104000
0.04286310 8.10329000 1.39529000
-0.21522200 5.95062000 0.45352900
-0.17688300 5.91750000 0.38508800
-0.17555000 5.94625000 0.45661600
-0.20617300 6.11217000 0.71438200
-0.20752600 6.06635000 0.65383600
-0.16769200 6.06317000 0.65663800
-0.30282700 7.65228000 0.91621200
-0.30763700 7.58797000 0.95672800
-0.25289100 7.60896000 0.98085200
0.15341100 4.31755000 -2.72297000
0.17309500 4.22947000 -2.75541000
0.15341900 4.22860000 -2.71854000
0.10187300 3.61518000 -1.71972000
0.08159580 3.80263000 -1.49328000
0.09458760 4.03551000 -1.73468000
0.37847000 7.64365000 0.19456800
0.43828400 7.67045000 0.24134500
0.37691400 7.63312000 0.23387200
0.43215000 7.57381000 0.43118800
0.37178800 7.56284000 0.38183100
0.43328800 7.59828000 0.39568400
-0.34051200 6.00454000 -0.29955800
-0.29139100 5.98007000 -0.38472100
-0.29480100 5.95544000 -0.31143600
-0.27624000 6.08342000 -0.59490900
-0.22944900 6.01856000 -0.53742500
-0.28262900 6.04374000 -0.52664300
0.04328540 8.26519000 2.63252000
0.04047110 8.08662000 2.64854000
0.05895350 8.09382000 2.68318000
0.03974720 8.59837000 2.52205000
0.03768840 8.42820000 2.56190000
0.04534320 8.44387000 2.60861000
0.15488500 9.68279000 -1.17712000
0.15159500 9.58791000 -1.33784000
0.15566300 9.41662000 -1.31117000
0.15995700 7.45501000 0.41725100
-0.14103300 7.38143000 0.45712000
-0.21159600 7.42308000 0.44048100
-0.13935800 7.41014000 0.42994300
-0.02498210 7.38799000 1.24100000
-0.03685720 7.22385000 1.24305000
-0.03171030 7.30682000 1.44962000
0.04795720 7.23814000 -0.50253500
0.04823420 7.27239000 -0.48542100
-0.02208110 7.27542000 -0.50150400
0.26003500 7.28527000 -0.47105900
0.19037900 7.30962000 -0.45052000
0.18988200 7.27686000 -0.46914500
0.00934878 -7.89316000 -1.02886000
0.02177500 -7.76550000 -1.40792000
0.01778620 -8.09487000 -1.40066000
0.53360200 8.01251000 0.32292000
0.54804200 7.93046000 0.34304900
0.54701700 7.95831000 0.24915100
0.52940300 7.87217000 0.59474500
0.49542600 7.91974000 0.62653200
0.49258500 7.87760000 0.67835200
0.30163800 6.62755000 -0.35199300
0.22554800 6.50974000 -0.14571700
0.15765200 6.52715000 -0.17825000
0.15562300 6.51305000 -0.14267900
-0.37737200 7.81560000 0.60435200
-0.38094700 7.77550000 0.65553100
-0.33951400 7.83173000 0.69114800
-0.40320900 7.52047000 0.87017000
-0.36619100 7.49337000 0.95455700
-0.36128800 7.55840000 0.91964100
0.24136100 -7.43808000 2.05491000
0.23436400 -7.15336000 1.83207000
0.23722300 -7.02819000 2.16453000
0.23620600 -5.44760000 1.28644000
0.24108500 -4.94499000 1.55658000
0.24457000 -5.17699000 1.75049000
0.46358300 7.37627000 -0.93424300
0.46428100 7.44210000 -0.90966700
0.50293000 7.41795000 -0.86085700
0.51625600 6.78554000 -0.75690600
-0.14684900 5.93343000 -0.39014600
-0.23909300 5.95257000 -0.39131100
0.27901800 5.95382000 -0.20556100
0.30732000 5.94721000 -0.13277700
0.27664600 5.94075000 -0.13325900
0.31327300 6.00034000 -0.34650700
0.28556900 6.02186000 -0.41717100
0.31512000 6.02840000 -0.41571200
-0.12821400 6.46787000 -0.16227100
-0.23626700 6.50448000 -0.38167200
-0.23195100 6.53296000 -0.41749400
-0.28965400 6.49745000 -0.44689400
0.26992700 8.24119000 -2.71759000
0.26328900 8.06092000 -2.73343000
0.31181700 8.60996000 -2.67651000
-0.35117900 7.24945000 0.64473900
0.30627500 8.00574000 -1.50639000
0.30077700 8.16623000 -1.37165000
0.26673600 7.79805000 -1.27593000
0.25178600 7.73601000 -1.15779000
0.27180700 8.01679000 -1.16142000
0.25447500 7.86860000 -1.06472000
-0.26793900 6.88363000 -1.10260000
-0.31567700 6.88718000 -1.05513000
-0.31471200 6.96299000 -1.06563000
-0.08732780 6.97343000 -1.17156000
-0.12398600 6.97087000 -1.16604000
-0.12155000 7.05835000 -1.16940000
-0.26775400 6.38982000 -0.05225630
-0.20147900 6.42822000 -0.08845510
-0.26484900 6.39365000 -0.09668390
-0.19223000 6.45665000 -0.21137300
-0.18751500 6.47136000 -0.25078700
-0.25236900 6.43879000 -0.26571900
0.48741000 6.31728000 0.69164900
0.48721300 6.27247000 0.63810300
0.51442600 6.33001000 0.59879400
0.52061200 6.34101000 0.48782400
0.51699000 6.27713000 0.36697800
0.50475400 6.36241000 0.37723300
0.21501300 -4.41051000 2.74571000
0.20667500 -1.96978000 2.70287000
0.19767400 -1.65040000 2.70315000
0.17903100 -1.67640000 2.74290000
0.30533000 7.02883000 -1.07340000
0.33718600 7.02764000 -1.06173000
0.33370100 6.94958000 -1.05827000
0.45987500 7.09526000 -0.98337300
0.50026700 7.15820000 -0.92659600
0.49889300 7.08991000 -0.93145300
-0.28008000 7.44692000 0.46136000
-0.33948400 7.48484000 0.49518300
-0.33691100 7.51668000 0.46222500
-0.39134900 7.41909000 0.63974400
0.07772530 8.24382000 -0.99561300
0.06557960 8.07718000 -1.05863000
0.07075430 8.20438000 -0.85541500
0.09227730 8.46924000 -0.58127900
0.08915860 8.42333000 -0.86674300
0.50735500 6.18865000 0.34851400
0.51051200 6.22680000 0.43614000
0.48325300 6.16235000 0.46396700
0.50337000 6.14631000 0.19633800
-0.29403700 6.46596000 -0.40871000
-0.33597800 6.44914000 -0.48856100
-0.35825900 6.55020000 -0.67842100
-0.36263700 6.43981000 -0.69829100
-0.35932000 6.47973000 -0.62295200
-0.13147300 6.21176000 0.83006100
-0.16568600 6.15943000 0.77439300
-0.12968900 6.15786000 0.77586400
-0.13745200 6.32880000 0.92877200
-0.17303200 6.33067000 0.92576400
-0.17053500 6.27077000 0.87832000
-0.38404900 7.53930000 0.54380000
-0.36482100 7.73642000 0.19946300
-0.31624100 7.67073000 0.18393700
-0.31963700 7.65683000 0.22865800
0.38290000 6.26701000 -0.71663200
0.42693800 6.24648000 -0.63867700
0.38444700 6.21621000 -0.65993600
0.46996700 6.55644000 -0.81749100
0.42969000 6.53182000 -0.86300100
0.43335800 6.59864000 -0.89406300
0.49923000 6.28156000 0.07696080
0.50159500 6.29463000 0.17197400
0.51231500 6.21645000 0.15677200
0.28705600 6.45358000 0.16148500
0.32874200 7.36419000 -0.43966200
0.32885000 7.39614000 -0.41672800
0.26102900 7.38156000 -0.40887100
0.44965100 7.44862000 -0.45713900
0.44973200 7.41415000 -0.48331500
0.49579300 7.45202000 -0.52108000
0.22625300 7.34973000 0.53473900
0.29724700 7.36643000 0.54718700
0.29579100 7.33100000 0.56958600
0.48178700 7.52496000 0.55352700
-0.15888900 6.56972000 0.38177800
-0.29496400 6.55187000 0.44198900
-0.29425300 6.52486000 0.41279600
-0.35076400 6.48388000 0.44797100
0.07000530 -1.48106000 -2.24654000
0.07511610 -1.32009000 -2.03376000
0.08320130 -1.16471000 -2.16509000
0.27225200 9.81760000 1.17581000
0.27738800 9.85332000 1.00193000
0.23533400 9.59529000 1.85444000
0.24430200 9.66888000 1.69140000
0.21355300 9.69312000 1.70227000
0.30276300 3.37927000 -1.52529000
0.31438300 3.07016000 -1.76539000
0.31120500 3.30196000 -1.73283000
-0.36408400 6.37086000 0.85354900
0.04555380 -6.49895000 2.76446000
0.22487500 9.75164000 1.53163000
0.30343000 1.82044000 -2.09241000
0.30324300 1.94101000 -1.90023000
0.30231900 1.50802000 -1.84784000
0.22680300 -2.58167000 -2.43564000
0.23767400 -2.52295000 -2.07220000
0.23948700 -9.16330000 2.32360000
0.23343100 -9.23798000 2.32483000
0.23332400 -9.31566000 2.24108000
0.18741200 -9.22973000 2.50094000
0.21014500 -9.20881000 2.47359000
0.20997200 -9.11007000 2.54511000
0.17207400 -1.36007000 2.74441000
-0.16435900 7.61902000 -0.07927360
-0.16704400 7.62220000 -0.03801050
-0.23638600 7.65182000 -0.04395670
-0.29619700 7.69239000 -0.09774040
0.03520900 -9.79549000 1.07530000
0.05038910 -9.85060000 0.98444000
0.05220910 -9.83479000 1.08347000
0.00336753 -0.15740400 -0.23709900
0.00347026 0.03535720 -0.16734700
0.01589330 0.06261290 -0.34049800
0.04117150 -3.40524000 -1.08927000
0.03053820 -3.44915000 -0.81627300
0.03035670 -3.21357000 -0.86384500
0.47244300 7.17201000 0.71508900
0.50836200 7.19148000 0.76842400
0.50700300 7.13604000 0.77677000
0.52324900 7.13843000 0.84495100
0.51710900 7.05712000 0.92188800
0.52031900 6.99596000 0.85031800
-0.17501600 5.87155000 0.15891500
-0.14166500 5.91578000 0.38661800
-0.29225800 7.18660000 0.61123600
-0.22505000 7.13699000 0.59241600
-0.29278900 7.14466000 0.62178300
-0.39500400 7.02192000 0.76048100
-0.35155800 7.06633000 0.68494700
-0.35186000 7.01916000 0.68635100
-0.03616310 5.71261000 0.93440000
0.29069800 8.42335000 -0.00039322
0.27917800 8.32684000 -0.03825790
0.27507500 8.28630000 -0.24093300
0.27997100 8.37552000 0.45690600
0.17007000 0.46091000 2.71253000
0.17787300 0.73573800 2.70533000
0.20591600 9.31492000 -2.15030000
0.19040800 9.41987000 -2.01112000
0.19810500 9.46155000 -2.03985000
0.20620500 9.68294000 -1.75145000
0.35590500 6.44235000 -0.04878980
0.35575900 6.43527000 -0.00764194
0.41526600 6.39874000 -0.01839560
0.41895200 6.39886000 0.11524400
0.41791500 6.39561000 0.07037250
0.35587000 6.42958000 0.07585890
0.02683860 6.87899000 -1.35009000
0.04462270 6.85189000 -1.45703000
0.04594460 6.64485000 -1.46983000
0.03669860 7.32860000 -1.32574000
0.07138140 7.38365000 -1.53036000
0.05965040 7.07812000 -1.51896000
0.11998500 9.87842000 0.82975500
0.10418000 9.86680000 0.65499900
0.10572700 9.83924000 0.82541600
0.22765100 9.12649000 2.38926000
0.24499900 9.23911000 2.24925000
0.22610400 9.27039000 2.27943000
0.22813800 9.03438000 -2.33181000
0.22645000 8.95100000 -2.26286000
0.21832300 8.03492000 -2.62667000
0.22686300 8.32937000 -2.45679000
0.23305900 8.34310000 -2.58880000
-0.22130800 6.45832000 0.23064000
-0.21913500 6.44634000 0.19379100
-0.28232400 6.41315000 0.20318300
-0.22875000 6.55300000 0.39139100
0.07353560 9.44713000 1.59071000
0.07490650 9.17966000 1.71595000
0.05950430 9.29556000 1.86791000
-0.08488210 7.06195000 -1.17401000
0.46962700 6.35120000 0.11490700
0.47155600 6.46844000 0.43914400
0.47171700 6.44255000 0.39642800
0.41874100 6.47982000 0.37715500
0.23298800 7.87665000 -2.71895000
0.22512600 8.04538000 -2.66902000
0.24009900 8.05415000 -2.70601000
0.21951600 6.84267000 -2.74052000
0.20038800 6.83770000 -2.70463000
0.20625100 7.11593000 -2.70938000
0.18608500 -9.89976000 -0.61724200
0.16870100 -9.92648000 -0.86441600
0.17589300 -9.86209000 -1.02626000
0.50108200 8.02179000 0.45950800
0.53382000 7.96898000 0.43610600
0.53387600 7.99273000 0.38012800
0.37661900 8.09341000 0.49693300
0.37947600 8.12039000 0.43418200
0.20090300 -2.77599000 2.73110000
0.20185200 -2.97172000 2.72915000
-0.01862780 5.39357000 1.24879000
-0.00977879 5.42618000 1.66628000
-0.02686770 5.67140000 1.61814000
-0.02082050 6.28299000 2.17864000
-0.00622905 6.14735000 2.33123000
-0.01115840 6.71539000 2.30991000
-0.22871000 6.97653000 0.60179700
-0.29449300 7.01764000 0.63462000
-0.22790300 7.01727000 0.60385700
0.14025800 6.99200000 0.61902600
0.21328200 6.95521000 0.63248500
0.13871200 6.95233000 0.61443700
0.27788200 8.46678000 2.05261000
0.28634700 8.54337000 1.93315000
0.27803000 8.61410000 2.07621000
0.26825000 8.16466000 1.61730000
0.24285700 7.88097000 1.85578000
0.22386400 7.75077000 1.63631000
0.53256200 8.03998000 0.20528900
0.50090400 8.10485000 0.15336200
0.50152800 8.09665000 0.21632900
0.50156100 8.04680000 0.40053000
0.37064100 7.53898000 0.41592400
0.43115800 7.54690000 0.46512100
0.36949600 7.51314000 0.44852600
0.36717500 7.45457000 0.50895700
0.42945100 7.48523000 0.52721400
0.42847800 7.45065000 0.55515200
0.18835500 -7.00697000 -2.76426000
0.20598300 -6.74654000 -2.71744000
0.21056700 -7.16677000 -2.71533000
0.17538700 -4.63980000 -2.73832000
0.19922700 -4.42358000 -2.69009000
0.19461400 -4.62671000 -2.69062000
0.02018580 -9.38713000 -0.14035800
0.00801225 -9.04621000 -0.36162900
0.01598880 -9.44907000 -0.45069300
0.28157200 0.95231700 -2.69717000
0.29285400 0.86595800 -2.64873000
0.28090000 0.79750400 -2.70294000
0.24270800 -1.25833000 -2.66784000
0.21609800 -1.49116000 -2.71623000
0.23849100 -1.11682000 -2.71399000
0.35971500 7.23038000 0.63769400
0.42199500 7.24856000 0.65892200
0.42090700 7.20286000 0.67094800
0.42585600 7.37538000 0.60460900
0.36328500 7.35041000 0.58437900
0.36462300 7.38704000 0.56154400
0.19491200 -2.86980000 -2.73920000
0.19926600 -3.08735000 -2.74055000
0.17916700 -4.44164000 -2.73755000
0.18378000 -1.72537000 -2.75664000
0.18628300 -2.56346000 -2.74017000
0.22402400 -7.54553000 -2.66579000
0.21079500 -7.98223000 -2.72146000
0.22128000 -7.99203000 -2.67327000
0.21673100 -8.17629000 -2.67344000
0.30181800 6.94988000 -1.06941000
0.32981400 6.87186000 -1.04901000
0.29783600 6.87121000 -1.05933000
-0.42259300 6.42397000 0.61407500
-0.39730000 6.49744000 0.56624500
-0.39514800 6.44680000 0.51854600
0.03456170 -9.35564000 2.28102000
0.02918850 -9.43019000 2.09214000
0.03871120 -9.42935000 2.18565000
0.02717210 -2.89167000 -0.95874000
-0.00164229 -2.78234000 -0.49935800
0.01105290 -2.72090000 -0.77204500
-0.03395920 -1.13000000 0.28038400
-0.03574620 -1.47588000 0.21114700
-0.03529710 -1.30471000 0.45847800
0.23107600 -8.48159000 2.69133000
0.21450800 -8.34128000 2.74999000
0.21379000 -8.48873000 2.73495000
0.18271300 -8.80369000 2.71270000
0.18319900 -8.91249000 2.67942000
0.20947300 -8.90115000 2.64914000
0.25646800 -0.45245700 -0.90666900
0.23037200 -0.66604300 -0.53170100
0.25733600 -0.58808300 -1.02612000
0.22180400 -2.41712000 -0.27308300
0.21907400 -2.21858000 -0.62066700
0.21476100 -2.19089000 -0.21337100
0.03088600 -4.36943000 -2.75689000
-0.33036400 6.75963000 -0.70969000
-0.35844400 6.68044000 -0.75475400
-0.32936800 6.70974000 -0.68599100
-0.33019700 6.57072000 -0.59960600
0.16718600 9.62195000 -1.72586000
0.18146700 9.54991000 -1.88668000
0.17414000 9.50734000 -1.86246000
0.15735300 9.73066000 -1.20575000
0.15971700 9.76323000 -1.03521000
0.16884900 9.80543000 -1.04432000
0.18700700 -9.70061000 1.68288000
0.19857600 -9.72444000 1.48229000
0.20699800 -9.64570000 1.76337000
0.19169700 -9.48432000 2.22055000
0.21176400 -9.45682000 2.20161000
0.21210700 -9.38507000 2.30135000
0.28143400 5.55665000 -1.00084000
0.29897300 5.18227000 -1.05944000
0.28877300 5.47562000 -1.15912000
0.27071300 5.21486000 -0.48432300
0.17972600 -9.06758000 -2.51246000
0.19140700 -8.97027000 -2.50663000
0.18397100 -9.13704000 -2.41681000
-0.02235420 7.16794000 -0.54764300
-0.09173030 7.20763000 -0.55514600
-0.09165880 7.17016000 -0.56884300
-0.32924500 7.12346000 -0.76326700
-0.28381700 7.11015000 -0.69662200
-0.28341800 7.15539000 -0.68779700
-0.28283800 6.64805000 -0.57803500
-0.22616300 6.88278000 -0.63966700
-0.16016300 6.93097000 -0.61575200
-0.22629500 6.92686000 -0.64911700
0.06261360 -2.77383000 -2.74720000
0.05512230 -2.54734000 -2.74866000
0.09417570 -1.38054000 -2.75598000
0.23417900 -4.38627000 -2.13285000
0.21219900 -5.95409000 -2.37572000
0.21463400 -5.90646000 -2.19161000
0.22229700 -6.32554000 -2.33540000
0.20508600 8.98852000 2.50780000
0.20051400 9.14800000 2.41451000
0.23543900 8.62842000 2.60303000
0.20987400 8.64233000 2.63331000
0.20968000 8.46141000 2.66753000
-0.16003300 6.84790000 -0.59480900
-0.22561800 6.83878000 -0.62611500
-0.22500900 6.79526000 -0.60897300
-0.02499910 6.82639000 -0.53448300
0.02581470 -4.17809000 -2.25436000
0.01464700 -4.45515000 -2.09787000
0.02259300 -4.34215000 -1.83202000
0.04367480 -2.79116000 -2.58648000
0.04938610 -2.85885000 -2.35618000
-0.16421000 8.17442000 -0.22872200
-0.21840400 8.16596000 -0.15232800
-0.16374800 8.18782000 -0.15373800
-0.16468900 8.13291000 -0.37742500
-0.21857000 8.11086000 -0.37373200
-0.21896100 8.13453000 -0.30057700
-0.14414600 7.00660000 1.15107000
-0.14319700 6.92328000 1.14528000
-0.41022500 7.04478000 1.00444000
-0.37406500 6.97780000 1.06204000
-0.37449800 7.05455000 1.06325000
0.41715300 6.52897000 0.45548300
0.41606700 6.55782000 0.49153600
0.46987100 6.52846000 0.51834500
-0.25843300 7.53959000 1.01710000
-0.32211300 7.37703000 1.05198000
-0.32535400 7.30160000 1.07393000
-0.27279300 7.31506000 1.09654000
0.50028400 8.10865000 0.08994050
0.49416800 7.98846000 -0.41537000
0.25899000 7.60724000 -0.04695250
0.32756700 7.61410000 -0.08521010
0.32565300 7.62292000 -0.04614250
0.24582100 7.60808000 0.14766200
0.31468200 7.62654000 0.15149200
0.31266400 7.61831000 0.19010300
-0.21429700 6.42875000 0.11664700
-0.27501000 6.38955000 0.07926040
-0.27736500 6.39500000 0.12147000
-0.20401800 6.42358000 -0.04642880
-0.21921000 8.02821000 0.55627700
-0.22132700 7.99224000 0.61987300
-0.16956100 8.01348000 0.63028800
-0.08244230 7.75253000 -0.93849300
-0.31151500 7.65181000 -0.87562400
-0.34940900 7.65381000 -0.78579600
-0.31304000 7.70700000 -0.83135100
-0.09127500 7.38258000 -0.45114000
-0.09059680 7.41373000 -0.42360100
-0.15963900 7.42752000 -0.44556000
-0.15764900 7.55804000 -0.27772800
-0.22706900 7.60252000 -0.25727000
-0.22626400 7.58374000 -0.29720200
0.38340000 8.15738000 -0.17776100
0.38235000 8.13728000 -0.24626800
0.32067600 8.15128000 -0.24667300
0.53197000 8.04003000 -0.09726730
0.49910400 8.08274000 -0.16673900
0.49939500 8.09604000 -0.10220700
0.19191200 -9.90934000 0.44666800
0.17065100 -9.91807000 0.65735900
0.15975100 -9.98420000 -0.52729800
0.17225700 -9.98067000 -0.27839200
0.41164000 7.19766000 1.07941000
0.32199300 7.03154000 1.13063000
0.31900000 6.94431000 1.12549000
0.36066300 6.94710000 1.10875000
0.18963700 0.38682200 2.67444000
-0.23380300 7.64827000 -0.08775680
-0.22829700 7.61874000 -0.21626300
-0.15813600 7.57610000 -0.23972800
-0.15903200 7.59178000 -0.20083200
0.04268230 -9.54562000 1.98122000
0.06453460 -9.58040000 1.99733000
0.06255250 -9.52837000 2.10422000
0.07089410 -9.68323000 1.67967000
0.06956040 -9.65441000 1.78376000
0.04420760 -9.62334000 1.77251000
-0.07433460 7.24647000 0.54107700
-0.15652600 7.05725000 0.58991700
-0.08323290 7.05874000 0.58899900
-0.08461030 7.02014000 0.58989700
-0.35991100 6.76989000 -0.79530700
-0.36680300 6.80786000 -0.89368800
-0.36512700 6.67784000 -0.84387000
-0.34957700 6.61673000 -0.90098400
0.26603900 1.31699000 -2.72981000
0.26539200 1.14447000 -2.73281000
0.16814500 -5.79355000 -2.74861000
0.18691100 -5.81179000 -2.70243000
0.17264000 -6.08940000 -2.75641000
-0.27267000 7.53026000 0.36451900
-0.20471900 7.50287000 0.34822200
-0.20739100 7.47823000 0.38040600
-0.13552200 7.46321000 0.37124200
0.20934500 7.21644000 2.72998000
0.21437300 6.93450000 2.73267000
0.02502760 -8.54406000 2.14886000
0.01871910 -8.17915000 2.21589000
0.03124170 -8.57989000 1.99014000
0.01266490 -8.18472000 2.66761000
0.01955720 -8.12426000 2.72676000
0.01081230 -8.01433000 2.67680000
0.39415300 6.34768000 0.86121300
0.03623350 -4.18124000 -2.74984000
0.06504200 -3.29090000 -2.74588000
0.32676100 9.69956000 -1.37166000
0.35996300 9.38173000 -1.96971000
0.37319900 9.31432000 -2.13385000
0.21136600 -0.78364500 0.31102800
0.22254000 -0.17454300 0.45495300
0.21736300 -0.47425800 0.66033600
0.20987900 -0.10326800 1.51146000
0.06495660 8.80710000 2.55385000
0.04733390 8.94503000 2.43692000
0.04849140 8.78622000 2.51310000
0.32601700 7.15475000 -0.53215500
0.38970400 7.12741000 -0.55979000
0.39072400 7.16681000 -0.55356000
0.39241000 7.38485000 -0.45621000
0.33699300 5.28730000 -2.63462000
0.32895300 5.26652000 -2.51372000
0.32863600 5.13857000 -2.57519000
0.35286000 6.96283000 0.66479000
0.28649300 7.00167000 0.65250200
0.35362400 7.00785000 0.66811700
0.40752500 7.03345000 1.08758000
0.40624400 6.95084000 1.08277000
0.45353300 6.95597000 1.04143000
0.13894100 0.48862200 -2.74891000
0.12656400 0.35066400 -2.71299000
0.12640600 0.48834300 -2.70746000
0.09219260 -1.22611000 -2.72020000
0.10580400 -1.22128000 -2.75717000
0.17675300 6.23037000 1.21328000
0.18577500 6.10092000 1.47951000
0.19198800 5.90416000 1.32412000
0.17672600 6.58953000 1.56044000
0.16949200 6.62429000 1.32202000
0.25362000 -4.18809000 -0.81732000
0.26274100 -3.81745000 -0.83208300
0.25754500 -3.85299000 -0.57738200
0.23311600 -5.10556000 1.07334000
0.05941860 5.68530000 -1.04002000
0.06270040 5.40926000 -0.85375400
0.05101830 5.72832000 -0.91595700
0.05614540 5.88712000 -1.21145000
0.33381800 9.73878000 -1.20235000
0.30259800 9.88849000 -0.02374560
0.31833000 9.87602000 -0.19167300
0.29928600 9.91243000 -0.19374900
-0.15763300 7.01816000 0.59084600
-0.08579280 6.98135000 0.58812500
-0.15858200 6.97880000 0.58898500
-0.22506400 7.22502000 -0.61509500
-0.15946900 7.17540000 -0.59554200
-0.15958200 7.21411000 -0.58130900
-0.16014100 7.32574000 -0.52352000
-0.16028800 7.36090000 -0.49937900
-0.22655800 7.37734000 -0.52943200
-0.38039700 7.91105000 -0.19249800
-0.37356900 7.82581000 -0.17699200
-0.39010600 7.92873000 0.03463460
0.52384400 7.32840000 0.87973300
0.53210100 7.41483000 0.77242600
0.52957300 7.44868000 0.83646100
0.51064100 7.51735000 0.87988800
0.46995300 7.47991000 0.95624100
0.50686400 7.45429000 0.90737800
0.23671900 -6.64716000 2.68015000
0.24055000 -6.39701000 2.68030000
0.23088900 -6.37169000 2.73137000
0.24387100 -6.04256000 1.70915000
0.23444000 -6.50305000 1.59246000
0.23443000 -6.36208000 1.25396000
0.17018500 6.51941000 1.30328000
0.18311200 6.28575000 1.63623000
0.17323500 6.35955000 1.27055000
0.22636100 9.39676000 2.15218000
0.19713500 9.42071000 2.17130000
0.19751200 9.29323000 2.30166000
0.25002500 9.47089000 1.98724000
0.25659600 9.56058000 1.83566000
0.28187500 2.21399000 -2.72888000
0.35224500 7.96191000 -1.92815000
0.37801900 8.35281000 -1.95866000
0.34400500 8.36479000 -1.67059000
0.42049100 6.58264000 -0.40620600
0.36627600 6.64112000 -0.40095500
0.36459800 6.61186000 -0.37255200
0.43702800 6.83783000 -0.56667600
0.34882700 6.46196000 0.97144700
0.27147000 6.51959000 1.03305000
0.26969500 6.44337000 0.99364200
0.26502100 3.98515000 -1.02435000
0.28323900 4.17948000 -1.42847000
0.26228300 4.06175000 -0.90366800
0.22845700 3.98972000 2.24675000
0.22754200 4.26308000 1.94970000
0.49855000 7.63930000 -0.31838700
0.49541700 7.74618000 -0.01542440
0.49617400 7.73952000 -0.06085820
0.52974200 7.80618000 -0.09343050
0.04419160 8.20344000 0.49669300
0.04076370 8.21592000 0.37454800
0.03636780 8.16798000 0.49661800
0.16385300 9.90924000 -0.35756000
0.18359400 9.88855000 -0.70721200
0.16895000 9.83401000 -0.87344500
0.16671000 9.85442000 -0.70266100
0.03178000 -8.83288000 0.99508500
0.02098020 -8.58370000 0.74810100
0.01698900 -8.82819000 0.53387000
0.04015910 -9.02969000 1.36294000
0.02610900 -9.46476000 0.82590700
0.03889480 -9.20659000 1.49199000
0.01993900 -9.82457000 -1.37849000
0.01513080 -9.79533000 -1.26664000
0.01081340 -9.73221000 -1.57167000
0.06022410 -9.91920000 0.35953300
0.06545260 -9.92749000 0.21715300
0.04946070 -9.88165000 0.74492300
-0.09638960 6.03868000 -0.61115000
0.48811500 6.32706000 -0.24506400
0.45739100 6.38979000 -0.21581800
0.46080200 6.48082000 -0.38052900
0.02971400 -3.44902000 2.72047000
0.00774328 -3.66063000 2.67826000
0.03009090 -3.72924000 2.72740000
0.38063900 8.11348000 -0.31396300
0.31965000 8.12581000 -0.31610600
-0.06652850 7.37799000 0.45473000
-0.07012020 7.31614000 0.50294800
-0.07223240 7.28203000 0.52311600
0.24479000 9.93565000 0.65942400
0.27327100 9.91276000 0.65715600
0.27033800 9.92885000 0.48580800
0.30932700 9.69083000 0.55793900
0.31292600 9.66768000 0.79883800
0.19326000 -3.77392000 -2.74487000
0.41503500 8.91567000 -2.47850000
0.40742200 9.04371000 -2.35456000
0.41971400 8.88994000 -2.43733000
0.42520900 8.72964000 -2.50364000
0.42459600 8.56535000 -2.55521000
0.27298800 6.29034000 -0.79362500
-0.20716600 7.21446000 -1.13238000
-0.25987300 7.20215000 -1.10499000
-0.25802700 7.27905000 -1.09030000
-0.26485000 7.04394000 -1.11756000
-0.21328500 7.04925000 -1.14594000
-0.21539100 6.96562000 -1.14210000
-0.13936000 6.39165000 0.97290100
-0.29863600 7.69649000 -0.05011980
-0.31242300 7.68204000 0.13820200
-0.22581800 7.01476000 -0.65637700
-0.15988900 6.97268000 -0.62068200
-0.15967300 7.01408000 -0.62211300
-0.15945500 7.09587000 -0.61514400
-0.22503400 7.14338000 -0.64086900
-0.22529700 7.10115000 -0.64923300
0.06827140 8.31685000 -0.20643500
0.06302000 8.32139000 0.04108200
0.06630080 8.34337000 0.15382200
0.05903750 8.30798000 0.15082800
-0.09103620 7.59389000 -0.11099300
-0.01753630 7.57336000 -0.14099200
-0.01921430 7.58206000 -0.10314500
0.12590000 7.55424000 -0.16488200
0.12632700 7.53832000 -0.20021000
0.19619100 7.54499000 -0.19755700
0.05321490 4.81926000 2.75591000
0.05649910 5.06295000 2.75583000
0.02066400 3.03215000 2.71208000
0.41146700 6.95005000 -1.01797000
0.45816500 7.02310000 -0.98379700
0.45641400 6.95110000 -0.98045300
0.39896900 6.72817000 -0.97768700
0.43846400 6.66718000 -0.92060800
0.39340000 6.65543000 -0.95441400
0.47133000 6.41919000 0.35236000
0.41899300 6.44058000 0.29330900
0.41898700 6.45888000 0.33580200
0.28656600 6.48434000 0.27904600
0.28666900 6.47066000 0.24071400
0.14216000 6.50704000 0.26840000
0.02088610 -9.00071000 -2.60620000
0.03818020 -9.01328000 -2.63997000
0.03458530 -9.11928000 -2.58819000
0.01810440 -9.10324000 -2.55485000
0.03266640 -9.22151000 -2.52312000
0.01646940 -9.20201000 -2.49086000
0.02206860 1.23143000 -0.32227600
0.02807100 1.49862000 -0.42005900
0.04025730 1.30855000 -0.58265100
0.11671200 1.04481000 -2.32273000
0.11735900 0.96491300 -2.14018000
0.11229800 1.16662000 -2.17709000
0.00844608 1.36951000 2.66611000
-0.00193001 1.09530000 2.62013000
0.00922384 1.09577000 2.66977000
-0.00288338 0.27550600 2.67413000
-0.01307450 0.30569700 2.62820000
-0.02085560 0.00373958 2.63258000
0.23469000 -4.54053000 0.38020100
0.24072500 -4.20625000 0.34888000
0.23378900 -4.54873000 0.75737900
0.23564100 -2.86794000 0.37551500
0.24400400 -3.16210000 0.65234700
0.24510000 -3.39886000 0.28350000
0.17110100 -8.68889000 -2.71402000
0.18844800 -8.68033000 -2.67876000
0.18283300 -8.78035000 -2.66036000
0.19118700 -8.04971000 -2.76313000
0.20324900 -8.26689000 -2.71759000
0.18538800 -8.28366000 -2.75580000
0.30748200 6.32609000 -2.79294000
0.27064300 6.30723000 -2.79613000
0.27557500 6.54803000 -2.78531000
0.16010600 -9.58806000 -2.05737000
0.14588300 -9.55746000 -2.17768000
0.16028300 -9.52606000 -2.15735000
0.15720600 -9.81550000 -1.48666000
0.16582400 -9.73701000 -1.60113000
0.17105500 -9.81751000 -1.26579000
0.19115900 -7.82652000 2.79848000
0.18664100 -8.49342000 2.76737000
0.18694100 -8.39597000 2.77832000
-0.32686300 7.22394000 1.09058000
-0.27379500 7.15502000 1.12403000
-0.27423600 7.23587000 1.11307000
-0.27236000 6.99129000 1.12909000
-0.32621100 7.06432000 1.10550000
-0.32537800 6.98441000 1.10468000
0.16108100 0.65102600 -2.77370000
0.13762000 0.56970300 -2.74652000
0.13636300 0.69670400 -2.74535000
0.14454300 1.61192000 -2.76804000
0.54512700 7.85624000 -0.39563800
0.23975600 5.92325000 0.15797000
0.29541500 5.93443000 0.16099600
0.29369300 5.94312000 0.23489500
0.43130100 6.02134000 0.22037100
0.38129700 5.97164000 0.15679900
0.39042900 7.82527000 -2.42763000
0.39259000 8.27792000 -2.14301000
0.37415100 7.78494000 -2.23993000
0.34329500 6.46464000 -2.27511000
0.27001600 1.94231000 -2.74344000
0.26459200 1.73669000 -2.74111000
0.26291800 6.06026000 0.59024000
0.25315000 7.18204000 -2.76888000
0.28005000 6.84989000 -2.77840000
0.24640000 6.84676000 -2.76657000
0.22578500 7.14503000 -2.74423000
0.38110800 6.88620000 -0.54105400
0.38301500 6.92584000 -0.55077100
0.31878300 6.92600000 -0.52864500
0.32509800 7.11734000 -0.53839600
0.23099800 4.36405000 2.47329000
0.22752800 4.33453000 2.13300000
0.23614700 4.83593000 2.16842000
0.25064600 5.75550000 2.51187000
0.18577100 5.52734000 -2.74801000
0.17346700 5.62466000 -2.70686000
0.19233400 5.62674000 -2.74954000
0.12760400 5.64130000 -2.31553000
0.12696200 5.05715000 -2.48319000
0.11504700 5.60908000 -2.19573000
-0.21542600 7.97438000 -0.64950700
0.19137600 -9.63531000 1.89570000
0.21043700 -9.56586000 1.99090000
0.19165100 -9.59476000 2.00367000
0.22086100 9.19210000 -2.27548000
0.19505300 9.32429000 -2.05490000
0.19390000 7.45667000 -0.32671400
0.12474200 7.47637000 -0.29886200
0.12368100 7.45139000 -0.32865600
0.19135100 7.37218000 -0.40672300
0.19083700 7.34145000 -0.42966900
0.26069900 7.35026000 -0.43148200
-0.41182800 7.18892000 0.99094700
-0.41061400 7.11722000 1.00041000
-0.37487800 7.13166000 1.05928000
-0.42317300 7.12129000 0.83812400
-0.42108600 7.02754000 0.84471100
-0.42548100 7.00251000 0.93037500
0.04364400 -8.01034000 -2.75029000
0.06122360 -8.28502000 -2.77141000
0.03850500 -8.28032000 -2.73583000
0.01977170 -8.50099000 -2.20689000
0.02604970 -8.27792000 -2.34001000
0.01263540 -8.72915000 -2.49667000
-0.09818700 7.93511000 0.75938800
-0.10116200 7.88198000 0.81490400
0.20335600 -3.76448000 2.73167000
-0.39360900 6.17637000 0.56274700
-0.41697700 6.34910000 0.53246900
-0.41264100 6.22898000 0.50373300
-0.41968900 6.30211000 0.60765000
0.23044000 -7.30079000 1.39013000
0.23407400 -7.42895000 1.44309000
0.22799800 -7.43100000 1.13885000
0.22334100 -6.29672000 -0.71486800
0.22450600 -6.56570000 -0.69739300
0.22261500 -6.30426000 -0.94884800
0.26304700 8.11355000 -0.63794500
0.35339900 9.38117000 -2.19391000
0.37324000 9.24817000 -2.31954000
0.22864900 5.33431000 -2.79569000
0.19524300 5.33385000 -2.77747000
0.20335500 5.43068000 -2.77923000
0.24071600 6.54509000 -2.77223000
0.20900300 -5.40185000 -2.37041000
0.20863700 -5.17789000 -2.41801000
0.21312800 -5.19488000 -2.24211000
0.19220300 -6.11096000 -2.71080000
0.01513570 -8.83117000 -2.62047000
0.02415860 -8.89669000 -2.64554000
0.03424070 -8.47351000 -2.72069000
0.05646230 -8.50348000 -2.75235000
0.05413420 -8.59854000 -2.74102000
0.27931300 8.94431000 -2.53585000
0.25683800 8.92419000 -2.50602000
0.24642200 9.08212000 -2.41893000
0.23412800 9.05198000 -2.38183000
-0.42948200 7.23250000 0.90418800
-0.42774000 7.14286000 0.92132900
-0.42901900 7.35723000 0.86408200
0.18429600 6.95650000 -0.52554900
0.25133300 6.92399000 -0.51897400
0.25275000 6.96090000 -0.52643000
0.32037900 6.96406000 -0.53613100
0.13842800 5.12791000 -2.63194000
0.13902700 5.39386000 -2.51822000
0.12739800 4.53704000 -2.46102000
0.13313100 4.56876000 -2.59101000
0.13939100 4.04255000 -2.61816000
0.31172800 7.40947000 -1.01254000
0.31199700 7.48027000 -0.98435700
0.34400700 7.47646000 -0.97727500
0.43787400 6.10940000 0.48735500
0.48070100 6.13453000 0.40210700
0.30292900 6.42576000 -0.88300400
0.42651100 6.34889000 -0.74228600
0.38114100 6.38245000 -0.81596800
0.42663900 6.40632000 -0.78716400
-0.33703900 8.06711000 0.20260300
-0.37641700 7.88572000 0.49680900
-0.33226100 7.91179000 0.58125000
0.41907900 7.39130000 -0.97102900
0.41972800 7.45984000 -0.94521700
0.34549200 7.60999000 -0.90989900
0.09800030 9.82108000 0.65166100
0.11550100 9.88699000 -0.02474160
0.12723300 9.83846000 -0.19030800
0.10894000 9.84491000 -0.02272730
0.21567200 3.70351000 -2.79931000
0.19299700 3.05142000 -2.78527000
0.20052400 3.26612000 -2.79819000
-0.27109000 6.91023000 1.12429000
0.08468770 8.58032000 0.55288300
0.09424860 8.58137000 0.28378400
0.10847300 9.16735000 -0.02175730
0.10649100 9.01781000 0.14377900
0.10197000 9.22161000 0.13769000
-0.17057600 6.02005000 0.59270000
-0.32638900 8.06335000 -0.21601500
-0.36720900 8.00887000 -0.09952910
-0.32742600 8.07495000 -0.14576800
-0.28027500 8.13979000 0.06803920
-0.27854500 8.14171000 -0.00417584
-0.33189500 8.08515000 -0.00484046
0.32392200 4.12178000 -2.32489000
0.32956400 3.90793000 -2.40534000
0.32997800 3.98637000 -2.53547000
0.32143900 4.73424000 -2.56185000
0.32197400 4.44304000 -2.50256000
0.32280200 4.47169000 -2.58686000
0.51472600 7.69599000 -0.69180800
0.47460600 7.68224000 -0.77297100
0.47132900 7.62656000 -0.81270500
0.46847600 7.56795000 -0.84890200
0.42362700 7.59018000 -0.88146700
0.12652700 0.56944500 -2.70526000
0.14870100 2.37337000 -2.74678000
-0.26420700 7.69230000 -0.90985400
-0.21333600 7.83120000 -0.82720000
-0.26631100 7.85324000 -0.75710600
-0.21410300 7.88269000 -0.77140000
-0.16417900 8.19726000 -0.07884500
-0.21904600 8.17496000 -0.07802970
-0.22049600 8.17894000 -0.00406374
-0.37487200 7.66012000 0.38688800
-0.38646000 7.50190000 0.57827700
-0.41143300 7.56218000 0.63798500
-0.16625200 8.19940000 0.07000250
-0.16533500 8.20160000 -0.00428481
-0.16659200 8.16099000 0.28827000
0.22085800 4.67991000 -2.79364000
0.13073200 -0.49623900 -2.75183000
0.12653500 -0.68671100 -2.75671000
0.11495600 -0.60789000 -2.71492000
-0.34297900 7.48962000 -0.89637700
-0.30660800 7.46687000 -0.98131000
-0.34181900 7.42975000 -0.92457400
0.23171700 9.38519000 -2.20778000
0.25037700 9.25463000 -2.33732000
0.02046650 -8.66037000 2.66554000
0.03577090 -8.68174000 2.70550000
0.03772520 -8.51413000 2.73252000
0.03662740 -8.99977000 2.60315000
0.03966940 -9.10618000 2.54707000
-0.02311080 6.94058000 -0.56607700
-0.02347730 6.90229000 -0.55867700
0.04553610 6.90877000 -0.53965300
0.11524600 6.95131000 -0.53262300
0.11444800 6.91486000 -0.52559300
0.18319200 6.92015000 -0.51834800
-0.23420900 7.85224000 0.79396700
-0.34812500 7.73334000 0.79194100
-0.34408200 7.78445000 0.74270900
-0.38553800 7.73203000 0.70451000
0.22226900 3.02370000 1.74305000
0.22398800 2.86666000 1.31583000
0.22655400 3.11768000 1.31868000
0.26471200 2.69237000 -0.51176300
0.27008100 2.58768000 -0.68058400
0.27343700 2.81094000 -0.79938500
0.28957300 6.45744000 0.00005761
0.22073300 6.47715000 -0.03392420
0.21922300 6.47030000 0.00471101
-0.06647780 6.46135000 -0.03842590
0.28001400 8.60104000 -2.65852000
0.26056400 8.75810000 -2.57437000
0.28271200 8.77482000 -2.60536000
-0.08425530 7.81141000 -0.89062300
0.02333120 -6.04736000 -2.77968000
0.31105100 9.84174000 -1.04768000
0.01268330 5.01939000 -0.08552970
-0.00683780 5.24032000 0.12830800
0.01260390 5.17884000 -0.12032600
-0.02787980 5.36182000 0.45465000
-0.02970080 5.35873000 0.56023600
-0.03872060 5.56713000 0.49675100
-0.21040100 7.65610000 -0.97042600
-0.26308600 7.63112000 -0.95183500
-0.25757500 7.35413000 -1.07156000
0.37003300 6.70450000 -0.45162900
0.42461000 6.64741000 -0.46275000
0.42681000 6.68253000 -0.48776900
0.37443800 6.77353000 -0.49457400
0.21460800 -4.70497000 2.75478000
0.21564600 -4.55339000 2.74986000
0.21037800 -6.35324000 2.77188000
0.21381000 -6.17732000 2.77394000
0.32446000 8.19920000 0.17327100
0.46912200 6.61309000 -0.51027500
0.47150400 6.65174000 -0.53671100
0.49521800 6.57128000 -0.56816300
0.10532500 8.80814000 -0.47910600
0.11104000 8.84252000 -0.03754190
0.11153300 8.98339000 -0.27184600
0.11048800 8.94109000 0.03672600
0.49689500 7.72953000 -0.10582000
0.10269100 8.76229000 -0.79577400
0.10987900 8.94421000 -0.60738000
0.10708000 8.87618000 -0.85270400
0.19519400 8.65066000 -1.93463000
0.15922400 8.66839000 -1.65255000
0.16585800 8.80346000 -1.68864000
-0.35045400 6.35559000 -0.35862900
-0.30959300 6.39363000 -0.28572600
-0.30487300 6.41446000 -0.32807700
-0.25652000 6.42286000 -0.22476300
0.03162450 -9.76645000 -1.75153000
0.03181580 -9.72709000 -1.85836000
0.03154370 -9.68092000 -1.96513000
0.03125420 -9.62688000 -2.07060000
0.48632100 7.66869000 0.37598100
0.49373100 7.75028000 0.07521680
0.12900300 9.17460000 -0.70784300
0.11911800 9.03625000 -0.93536100
0.11628800 9.04059000 -0.67392900
0.11306500 8.85088000 -1.12759000
0.11878900 8.79609000 -1.23467000
0.10994400 8.59028000 -1.20136000
0.16233600 -9.28639000 -2.42060000
0.14595900 -9.21190000 -2.51996000
0.16406500 -9.19047000 -2.49038000
0.41268200 6.44103000 -0.18932700
0.41297100 6.45845000 -0.22969500
0.35793000 6.49533000 -0.20551600
0.22707400 6.52480000 -0.18144300
0.22852200 6.54204000 -0.21606700
0.15965200 6.54339000 -0.21280100
0.49372200 6.28464000 -0.06793680
0.46785800 6.34649000 0.06620290
0.23869400 -3.19107000 2.25245000
0.23835400 -2.99247000 2.47010000
0.23695000 -3.29694000 2.50143000
0.21994200 -2.50689000 2.69393000
0.19913400 -2.56716000 2.73599000
0.22167300 -2.77330000 2.68751000
0.06675300 -9.93644000 -0.15387300
0.05428620 -9.89364000 -0.15345800
0.04672790 -9.89724000 -0.24587100
0.05591740 -9.88736000 0.14751900
0.21426200 3.79014000 -2.79329000
0.21062600 3.87745000 -2.78712000
0.04831920 8.08669000 -0.69262800
0.03876950 8.10021000 -0.61063500
0.05263140 8.15140000 -0.58226400
0.52493700 7.79055000 0.26710400
0.48957100 7.72235000 0.25207200
0.49043200 7.73433000 0.20868900
0.43944300 7.68142000 0.20025600
0.02890670 -9.78238000 -0.41091400
0.02738660 -9.60589000 -0.23434000
0.01630800 -9.60847000 -0.57343600
0.50637300 6.41712000 0.47150900
0.38942500 6.14548000 0.63243400
0.38795100 6.10596000 0.56939100
0.44027600 6.14329000 0.55029300
0.34096100 6.12425000 0.64422000
0.34246500 6.16762000 0.70706200
0.29961500 6.15413000 0.71473600
-0.04592170 5.66939000 0.28807500
0.02608340 6.01366000 -0.93275900
0.01005570 6.15566000 -0.93700100
0.03237320 6.04818000 -1.05767000
0.24175900 9.95164000 0.48712300
0.38255200 8.63740000 -1.90733000
0.35633700 8.74041000 -1.67941000
0.36170600 8.64587000 -1.73588000
0.30203100 8.80222000 -0.76024300
0.30749000 8.91709000 -0.86916500
0.31538100 9.04198000 -0.55440700
-0.28661900 7.57213000 -0.40363100
-0.15854900 7.48640000 -0.38307900
-0.15797500 7.51293000 -0.34959500
-0.22594700 7.53637000 -0.37244200
-0.21133100 5.87662000 0.07790130
-0.24376200 5.92705000 -0.31604000
-0.10270500 6.57958000 -0.37935600
-0.10629000 6.55439000 -0.34641100
-0.03942510 6.57159000 -0.33348000
-0.17205000 6.53266000 -0.36208900
-0.04666440 7.55300000 0.20358400
0.02319550 7.53792000 0.24222800
0.01320080 7.45857000 0.37153900
0.08775260 7.46614000 0.37790100
0.08596390 7.44158000 0.40758700
-0.27407400 8.07636000 -0.36688100
-0.32551400 8.04677000 -0.28574000
-0.27488800 8.09968000 -0.29525400
-0.27520800 8.11740000 -0.22279000
0.17845600 -9.97131000 0.03273900
0.17753400 -9.96683000 0.12748600
-0.28371700 6.78009000 -0.65049500
-0.28522800 6.87479000 -0.68453600
-0.34886800 7.33454000 0.60546800
-0.39479300 7.34952000 0.68055100
0.47090200 6.49703000 0.47994200
0.46796200 6.59981000 0.58555500
0.41414400 6.66019000 0.58209200
0.46754700 6.63952000 0.61417600
-0.16465400 8.10461000 -0.45045500
-0.21727400 8.05013000 -0.51606100
-0.16428300 8.07239000 -0.52157000
-0.16402500 8.03600000 -0.59018500
0.30204300 9.85524000 0.48129800
0.30042600 9.86059000 0.31291200
0.29035100 9.90181000 0.31419800
0.31199700 9.84591000 -0.02257110
0.26110300 7.59888000 -0.08574660
0.26281200 7.58772000 -0.12391200
0.32897000 7.60260000 -0.12373500
0.26421400 7.53753000 -0.23239700
0.41440500 6.62356000 0.55497800
0.13454900 6.76198000 0.54989500
0.28271700 6.75360000 0.58506000
0.28186000 6.71657000 0.56463700
-0.35175700 7.15872000 0.67102600
-0.25829700 7.42711000 -1.04898000
-0.20469600 7.44732000 -1.07192000
-0.20379900 7.37217000 -1.09632000
-0.26154600 7.56615000 -0.98907300
-0.20642600 7.52005000 -1.04269000
-0.25973400 7.49792000 -1.02154000
-0.08824650 7.49564000 -0.33108500
-0.08909710 7.47027000 -0.36333500
0.23096100 8.96887000 2.48000000
0.20842700 8.81901000 2.58048000
0.23397900 8.80210000 2.55100000
0.26213700 8.79864000 2.25516000
0.26769700 8.75314000 2.19810000
0.27269600 9.03631000 2.05867000
0.03400610 8.36623000 2.40160000
0.03120810 8.21335000 2.44720000
0.03350600 8.31982000 2.52846000
-0.02629510 7.21926000 1.81193000
0.29785100 9.77203000 -1.39543000
0.31248500 9.69386000 -1.55567000
0.29424600 9.72706000 -1.56919000
0.23844300 3.06994000 0.38825500
0.24338900 3.33727000 0.32365600
0.23863600 3.32718000 0.64514100
0.23491300 3.36338000 0.85270200
0.24578200 3.44812000 0.16394200
0.23679200 3.54126000 0.66672500
0.13839200 9.22685000 -0.91515500
0.13747500 9.13577000 -1.14245000
0.12711100 9.06316000 -1.10571000
0.16017600 9.48656000 -1.11156000
0.02633150 -2.12783000 2.73616000
0.03520410 -2.48071000 2.73507000
0.39231800 7.41780000 -0.43209300
0.39258000 7.55435000 -0.27813500
0.39260300 7.53108000 -0.31255600
0.45041700 7.56607000 -0.33021500
0.50421500 6.60683000 0.66052000
-0.09925460 7.60216000 0.00782032
-0.35564000 6.16948000 0.65808600
-0.35705100 6.21518000 0.71136400
-0.39883800 6.25553000 0.66791300
-0.30556600 6.09318000 0.63005600
0.41761600 7.06140000 0.69085500
0.46958300 7.01951000 0.72733200
0.41673900 7.01394000 0.69103200
-0.20960500 6.27740000 -0.85196500
-0.21106200 6.21600000 -0.79701300
-0.26192600 6.23642000 -0.77832900
-0.21828400 6.10603000 -0.67507100
-0.16869100 6.09509000 -0.68089400
-0.17336100 6.04772000 -0.61245000
0.31911400 7.63390000 0.07304840
0.25112300 7.61634000 0.07041280
0.25387000 7.61582000 0.03134550
0.11171000 7.58821000 0.06131870
0.01574370 6.99967000 -1.27857000
0.18585700 -9.12771000 2.57388000
0.21000900 -9.00694000 2.60434000
0.18458600 -9.02128000 2.63398000
-0.33291100 6.48783000 -0.52809900
-0.21875300 6.55958000 -1.02943000
-0.26801900 6.57025000 -1.00509000
-0.26006400 6.29659000 -0.83148500
0.53171800 8.02770000 -0.15844600
0.53212400 8.04785000 -0.03619710
0.54815800 7.98092000 0.04767440
0.54804800 7.97299000 -0.06453840
-0.03631960 6.59619000 -0.36541300
0.16547300 6.60559000 -0.30993400
0.23160900 6.58340000 -0.28155600
0.23319200 6.60731000 -0.31237400
0.39617200 6.41133000 0.90868700
0.44460100 6.37905000 0.83065800
0.44613100 6.44020000 0.87588300
0.51438800 6.44286000 0.71785500
0.48816300 6.41973000 0.78869500
0.48759400 6.36623000 0.74210400
0.38364500 7.65832000 0.07408810
0.31686400 7.63191000 0.11247100
0.19131000 -9.41119000 2.32361000
0.18957000 -9.32527000 2.41729000
0.41416100 7.27699000 1.06556000
0.41752000 7.35388000 1.04602000
0.37423500 7.36335000 1.07268000
0.43395700 7.63375000 0.92723600
0.39193200 7.64975000 0.94933700
0.38753900 7.58278000 0.98535600
-0.36116900 6.43496000 -0.58216400
-0.26686400 6.96365000 -1.11374000
-0.21646500 6.88260000 -1.13053000
-0.12547300 6.88425000 -1.15506000
-0.08968330 6.79923000 -1.14421000
-0.16145500 6.80028000 -1.12893000
-0.22931800 6.57847000 0.41952900
0.44978900 7.26400000 -0.56449700
0.44940100 7.22376000 -0.57776700
0.49494000 7.24661000 -0.62465500
0.32845000 7.29778000 -0.48040800
0.39235800 7.27977000 -0.51667200
0.39251900 7.31595000 -0.49920700
0.16256700 -9.86731000 -1.25863000
0.14419300 -9.88924000 -1.34125000
0.14102000 -9.84831000 -1.50950000
0.14900700 -9.94324000 -1.03473000
0.16592500 -9.89775000 -1.08490000
0.32892000 7.78970000 0.88555200
0.33245600 7.84601000 0.83838800
0.30194000 7.85126000 0.84370200
0.43772300 7.69610000 0.88898500
0.18837600 -8.11507000 2.79618000
-0.32906500 7.17294000 -0.75335200
0.32809300 7.26295000 -0.49695300
0.25953900 7.25132000 -0.48722200
0.54274200 7.73167000 0.53391300
0.05897260 8.27307000 -0.24451600
0.04401220 8.25278000 -0.16234300
0.05850160 8.28729000 -0.12433400
0.05703910 8.23207000 -0.40075400
0.04329100 8.20278000 -0.39276100
0.04378170 8.22598000 -0.31666200
0.10386500 9.80407000 0.99540100
0.11190500 9.80386000 1.17321000
0.11867300 9.84400000 1.00171000
0.07206790 9.60009000 1.65749000
0.07046730 9.55237000 1.63461000
0.06011410 9.46720000 1.82336000
0.19885600 3.37909000 2.68809000
0.21118200 3.30217000 2.63365000
0.21458900 3.65479000 2.64717000
0.20139700 2.16095000 2.66570000
0.21215800 2.23623000 2.61772000
0.20709400 2.56423000 2.62257000
-0.35633000 7.13927000 -0.84100200
-0.33141400 6.96860000 -0.76702400
0.15013100 8.36138000 -1.69744000
0.17200800 8.26831000 -1.90543000
0.15451300 8.05206000 -1.89216000
0.20182800 7.96766000 -2.41067000
0.18734300 7.89944000 -2.28432000
0.21462300 8.32937000 -2.27394000
-0.16223000 5.87584000 -0.15674100
-0.15801900 5.88748000 -0.23570000
-0.25078400 5.89726000 -0.16111400
-0.19930500 5.89385000 -0.23824000
-0.20331100 5.88258000 -0.15937100
0.05673020 9.26151000 2.26778000
0.05863350 9.38236000 2.13803000
0.07157090 9.57108000 1.83922000
0.06421500 9.48545000 1.99422000
0.12681100 8.06163000 -1.67006000
0.07090000 7.83987000 -1.36567000
0.08334880 7.98941000 -1.37521000
0.28629000 7.18706000 -2.77939000
0.32077600 7.19196000 -2.77692000
0.31485200 6.85200000 -2.77664000
0.18696300 9.83830000 -1.05096000
0.18306300 9.80606000 -1.22507000
0.18076800 2.13077000 2.70511000
0.17517000 2.38556000 2.71032000
0.19603200 2.48747000 2.67239000
0.29489000 6.51574000 -0.18994300
0.35722600 6.47853000 -0.16781000
0.05912290 9.12310000 2.38118000
0.05050990 -5.59514000 2.76058000
0.32202600 2.65285000 -2.31957000
0.31197200 2.33068000 -2.13249000
0.31077900 2.24725000 -2.36275000
0.28841000 2.79614000 -1.16171000
0.28429200 2.46713000 -1.05331000
0.29005000 2.63036000 -1.18935000
0.50821100 6.20549000 -0.01538630
0.49963100 6.13361000 -0.05527810
0.49760900 6.14734000 -0.15270800
0.42775400 6.09639000 -0.39617100
0.46645300 6.14720000 -0.37917800
0.46809500 6.12277000 -0.31755900
0.34240300 9.62280000 -0.34031700
0.31851500 9.48492000 -0.00575462
0.32960600 9.50480000 -0.17070500
0.34272300 9.36119000 -0.77134700
0.32450800 9.16431000 -0.70655200
0.32000600 9.09834000 -0.97049800
0.35886600 6.51430000 -0.24205700
0.29720400 6.55425000 -0.25906600
0.29598700 6.53388000 -0.22515300
0.46156600 8.14675000 0.16036100
0.42199700 8.17560000 0.09766640
0.42212600 8.17192000 0.16520600
0.42034200 8.14493000 -0.17556800
0.45937400 8.13620000 -0.10514100
0.45899100 8.12200000 -0.17225900
0.30677300 7.95269000 0.74118000
0.16108500 -9.37504000 -2.34090000
0.14530700 -9.40201000 -2.36608000
0.14524400 -9.31058000 -2.44799000
0.14563300 -9.48478000 -2.27554000
0.45718500 6.40808000 -0.25974400
0.52728400 7.46920000 -0.76417200
0.50454400 7.47862000 -0.83420600
0.52307300 7.14640000 -0.86090500
0.04119130 -7.37877000 2.77396000
0.01605500 -9.53385000 -2.15015000
0.01622370 -9.59480000 -2.04961000
0.24441100 -8.02529000 0.69176500
0.25437300 -8.11592000 1.00426000
0.24996600 -8.49971000 0.79992100
0.22851600 -9.38589000 0.78861500
0.22586500 -9.27388000 0.62268600
0.23370400 -9.16566000 0.79077200
0.21317100 -5.30328000 2.77790000
0.05367300 -9.39061000 2.30901000
0.12412800 4.32405000 -2.32005000
0.11866600 4.04318000 -2.09538000
0.11291700 4.29480000 -2.10684000
